-3719.04110 -3718.94110 -3724.33485 -3732.61287 -3857.12146 -4166.15126 -4821.18011 -5303.90205 -5494.87329 -5611.98124 -5643.30828 -5649.15843 -5653.30920 -5658.58258 -5664.13476 -5664.69290 -5670.94574 -5671.99008 -5677.97557 -5676.35616 -5680.30365 -5680.84797 -5684.21003 -5684.23306 -5684.31696 -5686.47259 -5684.16329 -5683.98300 -5683.77875 -5684.78535 -5684.25048 -5683.64328 -5684.87353 -5682.48399 -5683.45891 -5685.18588 -5682.07491 -5679.07497 -5678.35014 -5676.34715 -5673.82080 -5669.55872 -5665.78559 -5662.40940 -5658.82551 -5651.59824 -5645.25610 -5639.75703 -5630.98110 -5624.01186 -5616.68761 -5607.75553 -5601.54640 -5592.67724 -5588.09964 -5573.03613 -5558.64213 -5544.25202 -5536.22975 -5522.31456 -5511.49778 -5502.14992 -5494.90337 -5485.13966 -5477.76231 -5467.97598 -5462.91270 -5455.47691 -5447.81956 -5439.88744 -5424.95180 -5414.09105 -5401.86754 -5360.63837 -5339.99363 -5299.93542 -5275.37056 -5211.89097 -5169.22760 -4916.81369 -4586.56743 -4386.12383 -3924.72402 -3657.26474 -4111.22180 -4981.38627 -7427.35557 -7528.06102 -5562.17875 -2282.32147 -917.48755 -671.44211 -1027.98576 -2659.12721 -4874.61663 -5705.63552 -5941.70435 -5800.87686 -5836.01304 -5643.46360 -4744.35614 -2030.24733 -1827.25321 -1650.27129 -1687.92709 -2008.83698 -2752.82159 -3530.53066 -5687.67179 -8450.13914 -9854.91891 -11116.97926 -11478.41272 -11611.23842 -11616.13983 -11609.73614 -11577.55369 -10991.02975 -9918.81679 -6915.31527 -4039.51417 -3542.78982 -3453.67735 -3425.17006 -3444.61850 -3451.65074 -3475.45316 -3496.90864 -3517.99265 -3545.16955 -3561.27001 -3586.34313 -3600.98508 -3610.47279 -3616.82053 -3624.37251 -3624.96473 -3633.98965 -3630.24725 -3620.96547 -3611.73581 -3599.86682 -3599.96682
-3729.83428 -3729.73428 -3733.60424 -3751.35010 -3801.51805 -4011.87740 -4545.12438 -5047.55747 -5285.93396 -5565.62373 -5634.94779 -5657.29025 -5664.78546 -5666.35238 -5671.08263 -5673.72463 -5674.56407 -5676.84303 -5683.50434 -5685.74861 -5688.49350 -5690.62827 -5692.65999 -5691.40901 -5694.17271 -5694.17118 -5693.66143 -5692.42997 -5693.15397 -5692.25297 -5691.44320 -5691.12359 -5689.59888 -5690.44236 -5688.84065 -5687.68541 -5687.00934 -5688.00629 -5682.75422 -5681.22689 -5678.67795 -5674.01347 -5670.89302 -5667.58215 -5662.74460 -5657.25640 -5651.10370 -5644.26190 -5634.86073 -5628.02090 -5620.03491 -5613.57638 -5605.23025 -5596.13914 -5589.60773 -5575.93807 -5564.43250 -5546.08061 -5535.88002 -5520.92467 -5509.47674 -5499.57059 -5491.70338 -5484.74262 -5476.37018 -5466.98999 -5461.19610 -5453.43333 -5443.35836 -5436.57267 -5420.36576 -5400.42839 -5387.25960 -5348.00930 -5320.78271 -5296.24088 -5242.23623 -5209.90585 -5139.29897 -4984.02619 -4592.42695 -4323.42094 -3974.20935 -3625.86769 -4087.36193 -5292.40474 -7116.16769 -7145.42903 -5283.83423 -1989.76579 -1107.31702 -689.98055 -1164.03277 -3158.07994 -4435.40670 -5576.97353 -5274.90717 -5408.20069 -5431.76900 -5465.06230 -3173.16086 -2203.99518 -1865.27202 -1635.99199 -1681.82598 -1989.05022 -2394.37563 -3704.93860 -6368.27730 -7988.19171 -9067.24261 -10541.93873 -11388.66655 -11595.21459 -11605.46559 -11602.04885 -11584.10877 -11391.37580 -10029.91035 -6845.12903 -4433.99904 -3678.71561 -3465.44304 -3439.80984 -3452.60749 -3465.61514 -3487.96185 -3510.74155 -3534.75407 -3559.27365 -3582.30338 -3601.30069 -3619.51808 -3630.60932 -3641.14083 -3650.61662 -3654.58092 -3649.09878 -3644.47749 -3645.56068 -3628.61919 -3615.48817 -3615.58817
-3740.34325 -3740.24325 -3742.82515 -3754.91463 -3783.50886 -3931.69949 -4250.58807 -4864.19661 -5228.21595 -5455.41501 -5603.70958 -5665.96689 -5671.06792 -5677.46268 -5681.34622 -5680.61067 -5683.32826 -5689.71958 -5691.80907 -5694.99501 -5698.91691 -5698.93961 -5700.59683 -5700.93150 -5702.16037 -5700.25230 -5701.13744 -5701.77527 -5701.16006 -5699.76435 -5698.19241 -5698.58873 -5697.42645 -5695.46211 -5696.77648 -5695.69436 -5693.01295 -5691.94980 -5691.36894 -5686.92525 -5684.64050 -5680.73672 -5676.90485 -5673.14274 -5665.98377 -5661.29610 -5655.53767 -5649.67365 -5640.89315 -5633.42269 -5626.72650 -5616.53139 -5608.44015 -5600.14650 -5594.80181 -5578.53534 -5564.75974 -5547.44263 -5535.49281 -5517.71808 -5509.84871 -5497.41875 -5489.19331 -5480.87892 -5474.23929 -5464.76483 -5459.53922 -5447.55862 -5436.13837 -5427.06221 -5414.76600 -5395.96541 -5373.95829 -5354.02077 -5312.21677 -5271.63514 -5233.76863 -5177.36945 -5113.48833 -5075.99698 -4674.51010 -4338.25040 -3863.98495 -3436.66923 -3662.69159 -5118.90923 -6583.40480 -6990.75331 -5373.57062 -1920.52941 -975.30064 -729.64824 -1447.93045 -3498.16389 -4967.65651 -5206.70220 -4859.65232 -4694.61932 -5163.46710 -5408.65800 -3269.93016 -2245.47922 -1840.58534 -1670.38482 -1745.28444 -2023.58072 -2305.31728 -3020.78220 -5697.67052 -7798.61869 -9334.01909 -10559.43000 -11372.06751 -11588.72788 -11602.81248 -11598.81283 -11560.86531 -11271.78970 -9722.41486 -6196.06972 -4254.45495 -3788.50770 -3504.01883 -3456.78664 -3458.18972 -3472.56945 -3493.52121 -3518.32029 -3556.63281 -3571.45543 -3592.45402 -3618.30131 -3634.21175 -3658.15145 -3665.43228 -3675.12703 -3675.15418 -3678.22363 -3664.87841 -3658.99651 -3650.07626 -3634.56695 -3634.66695
-3750.26934 -3750.16934 -3753.48472 -3764.14537 -3769.91921 -3832.51653 -3938.97964 -4185.50268 -4774.46595 -5313.60308 -5597.06367 -5653.78127 -5676.81760 -5683.93916 -5689.22360 -5693.23889 -5692.13254 -5698.51872 -5699.69774 -5701.73234 -5703.32947 -5707.36450 -5708.03992 -5710.07887 -5710.69767 -5709.34654 -5707.89150 -5707.83462 -5706.51434 -5706.45955 -5707.40607 -5704.37821 -5706.65685 -5704.40461 -5702.11729 -5701.98361 -5700.21615 -5699.17726 -5696.25199 -5692.62921 -5689.46533 -5685.27918 -5680.47421 -5677.97756 -5673.00417 -5666.33495 -5659.32240 -5653.18286 -5643.98996 -5638.99862 -5629.01799 -5622.31042 -5612.06122 -5607.33853 -5591.84974 -5574.18612 -5563.52329 -5546.13549 -5532.61951 -5520.02313 -5507.15433 -5497.33377 -5493.58812 -5476.51367 -5472.45566 -5459.64275 -5452.73287 -5441.44383 -5429.91486 -5420.78927 -5407.89588 -5392.39305 -5372.07078 -5343.49307 -5303.07355 -5268.22888 -5236.65258 -5204.70242 -5119.97135 -4911.91298 -4444.09834 -4024.98083 -3592.42575 -3416.57706 -3619.85655 -5295.26495 -6830.08070 -7343.77915 -5700.64143 -2540.68562 -980.76877 -808.05349 -1821.87975 -3503.33424 -4680.77505 -4571.48275 -4428.97485 -4286.83620 -4433.27580 -4998.81908 -3739.75686 -2186.05270 -1805.63226 -1716.35160 -1801.54142 -2067.38525 -2299.49601 -3340.34605 -5831.11900 -8258.18423 -9531.01064 -10556.64413 -11580.37260 -11585.20020 -11596.52319 -11598.27663 -11512.02659 -10452.63671 -9156.51811 -6399.26634 -5384.54919 -4146.12737 -3562.36456 -3468.88202 -3461.77415 -3479.41206 -3502.14009 -3525.10668 -3556.35167 -3583.95846 -3613.53125 -3634.75280 -3662.55406 -3669.10297 -3687.85949 -3690.60867 -3694.57387 -3696.06784 -3694.26964 -3685.47305 -3668.19494 -3653.91809 -3654.01809
-3760.20007 -3760.10007 -3763.81980 -3765.56475 -3774.27545 -3790.83570 -3860.08921 -4036.72679 -4530.95733 -5121.56947 -5499.45714 -5587.84727 -5660.13916 -5678.72894 -5689.90392 -5697.33658 -5705.74941 -5706.60928 -5709.94687 -5710.36804 -5712.57216 -5713.34825 -5716.69774 -5715.97513 -5717.94011 -5718.00133 -5716.82680 -5717.26615 -5716.37139 -5715.70360 -5715.28312 -5713.77100 -5711.59687 -5709.93641 -5710.00042 -5706.29552 -5705.19316 -5703.53795 -5701.01889 -5698.77917 -5694.21915 -5692.44693 -5685.39884 -5681.91438 -5677.23872 -5669.75703 -5663.10153 -5656.52244 -5648.77779 -5642.46777 -5632.89987 -5624.27179 -5617.59092 -5603.10925 -5589.62144 -5574.52664 -5557.42671 -5545.03656 -5530.11894 -5518.92191 -5507.93460 -5496.53292 -5484.57650 -5476.65006 -5467.72851 -5459.28496 -5448.42466 -5438.19651 -5423.09702 -5412.26402 -5397.45800 -5385.69067 -5369.42940 -5340.47033 -5298.76341 -5264.81612 -5234.68665 -5187.07019 -5078.51843 -4919.44988 -4481.01340 -3914.29230 -3685.60163 -3443.97402 -3689.69396 -4807.88801 -6599.36867 -6608.57897 -5180.10754 -2332.68524 -1043.28725 -787.67730 -2350.03176 -3430.16833 -3579.08767 -3582.17027 -3718.88067 -3763.30948 -3711.21992 -3508.84967 -2610.72591 -2093.11687 -1769.64954 -1658.23570 -1928.48103 -2100.54082 -2374.48429 -4691.58577 -6848.11476 -8726.18347 -9913.80503 -11216.28976 -11585.20562 -11587.26621 -11595.37326 -11596.83471 -11555.74290 -10836.89732 -9621.68532 -6972.31608 -5251.30970 -3900.16356 -3657.35322 -3499.14329 -3468.98205 -3477.10412 -3505.33394 -3525.29663 -3549.51866 -3589.56179 -3621.19819 -3644.77007 -3672.27866 -3689.49158 -3703.35887 -3709.95109 -3717.64347 -3717.06683 -3713.53782 -3701.91560 -3691.33991 -3673.53863 -3673.63863
-3769.97154 -3769.87154 -3773.70619 -3777.91365 -3781.38657 -3794.67378 -3838.34168 -3989.42113 -4469.24742 -4934.94462 -5276.97940 -5404.10788 -5538.59202 -5584.59614 -5659.84713 -5696.27847 -5710.36200 -5716.26915 -5717.69884 -5719.69073 -5721.92132 -5721.47948 -5721.20384 -5723.84904 -5725.24830 -5724.02220 -5722.99277 -5723.91367 -5721.80648 -5719.88276 -5720.15744 -5719.13263 -5717.51932 -5717.08134 -5716.20207 -5714.44213 -5711.63366 -5708.91320 -5706.08216 -5704.46463 -5698.22366 -5694.90744 -5692.57725 -5686.68035 -5680.85067 -5676.05622 -5669.83325 -5661.57697 -5654.73352 -5646.13747 -5637.04307 -5630.42441 -5621.91738 -5604.40135 -5591.82946 -5577.56985 -5558.33148 -5547.08464 -5531.73856 -5516.35470 -5507.30419 -5493.96184 -5484.36902 -5476.81757 -5462.63212 -5458.19017 -5440.95481 -5435.19349 -5417.02352 -5407.73223 -5394.34611 -5377.02848 -5361.99763 -5327.82656 -5305.11042 -5254.58824 -5234.51296 -5198.47849 -5107.19331 -4851.53164 -4519.58436 -4018.74630 -3630.91705 -3464.28006 -3751.45968 -4644.96930 -6430.21650 -6749.77084 -4571.76233 -1631.95329 -809.38363 -731.92009 -1479.30267 -2539.09211 -2653.57809 -2700.24259 -2933.32299 -3163.54687 -3256.86297 -3243.81476 -2534.66048 -1967.96553 -1792.87663 -1680.18726 -1895.40335 -2197.26559 -2903.79003 -5296.15825 -7871.65198 -9979.54516 -11315.29041 -11541.33109 -11566.32851 -11581.32354 -11582.56954 -11574.57994 -11566.36849 -10832.69181 -9521.25481 -6618.88395 -4778.56931 -3886.86727 -3674.74486 -3482.31723 -3469.44379 -3472.29099 -3497.96315 -3520.15926 -3569.32543 -3600.98090 -3634.18481 -3659.14976 -3687.43193 -3704.24979 -3713.33966 -3726.64126 -3731.58027 -3733.94922 -3726.67854 -3719.70028 -3706.52017 -3690.98818 -3691.08818
-3779.49762 -3779.39762 -3782.00590 -3786.81637 -3789.73750 -3796.34231 -3812.93603 -3849.79425 -4078.64977 -4410.83028 -4708.44608 -5068.38467 -5029.47645 -5339.01903 -5535.31382 -5658.71001 -5711.29754 -5719.45175 -5725.84319 -5729.77364 -5729.34257 -5729.47034 -5731.24525 -5732.26636 -5730.11857 -5731.43608 -5733.18900 -5732.20463 -5731.21603 -5729.19565 -5728.75577 -5726.66411 -5725.25810 -5722.31791 -5720.50174 -5719.18712 -5717.31923 -5716.66470 -5714.12190 -5709.42935 -5706.15243 -5701.40482 -5697.80929 -5692.30783 -5684.25537 -5679.35357 -5673.77454 -5663.92950 -5657.37748 -5648.91176 -5640.75818 -5631.28211 -5626.95105 -5611.56732 -5594.49362 -5578.97812 -5558.58349 -5546.61338 -5530.64039 -5515.43478 -5504.91333 -5491.30493 -5481.20754 -5468.58980 -5459.77833 -5450.00140 -5441.49317 -5428.24400 -5413.94359 -5404.22243 -5392.79065 -5370.78584 -5348.13046 -5323.46954 -5284.40987 -5266.96547 -5229.63954 -5188.89107 -5140.21081 -4920.37840 -4600.41343 -4228.45326 -4027.09690 -3645.76837 -3624.13665 -5283.63268 -6583.56368 -5996.22756 -2809.35445 -1212.56192 -577.99369 -510.50093 -1086.68067 -1247.91035 -1673.50310 -1836.09238 -2000.94013 -2724.75936 -2757.43491 -2922.37072 -2506.76705 -2034.25938 -1734.43110 -1756.56830 -1932.23623 -2308.97326 -3324.75366 -5383.02549 -6817.22524 -9372.00448 -10783.02760 -11557.58989 -11548.99297 -11575.26400 -11579.21127 -11581.72432 -11568.32188 -11020.95811 -10379.90137 -7623.26379 -4855.05969 -3984.86967 -3623.08908 -3508.86921 -3473.76184 -3473.96572 -3497.56286 -3525.66240 -3558.79682 -3596.65301 -3632.76853 -3664.67950 -3690.15889 -3705.02623 -3721.15576 -3736.85651 -3739.85157 -3741.95530 -3738.50768 -3732.20136 -3722.60746 -3705.50218 -3705.60218
-3789.15099 -3789.05099 -3793.27002 -3794.57480 -3799.16747 -3805.62122 -3811.86409 -3842.09440 -3930.00515 -4111.97652 -4203.81660 -4384.73409 -4656.51348 -5045.65575 -5281.62569 -5585.22798 -5691.93804 -5714.23862 -5730.52406 -5736.91573 -5739.35912 -5740.58442 -5741.81188 -5740.22010 -5739.48330 -5740.06993 -5738.57509 -5737.96919 -5736.08787 -5734.71109 -5734.16609 -5731.76679 -5731.84116 -5730.05355 -5727.67429 -5725.14990 -5724.24221 -5721.35535 -5719.25954 -5714.85679 -5710.98171 -5706.01388 -5701.52716 -5696.84157 -5691.53216 -5682.92190 -5676.69077 -5672.53923 -5661.71824 -5652.40052 -5643.28571 -5636.50918 -5628.67637 -5612.29712 -5595.62126 -5580.34185 -5559.47504 -5548.16986 -5530.29877 -5515.26655 -5503.97854 -5490.06619 -5478.36941 -5467.00412 -5456.98624 -5446.68433 -5436.86133 -5422.99347 -5408.18380 -5398.80938 -5384.64126 -5371.48695 -5351.31997 -5322.07646 -5293.14541 -5270.41370 -5221.39637 -5148.30392 -5101.24355 -4837.91962 -4723.00525 -4534.95997 -4297.43817 -4025.17409 -3870.19346 -5128.78749 -5705.11373 -4828.46024 -1426.55723 -481.46040 -252.67304 -183.73585 -328.84695 -672.34541 -1027.53113 -1286.66400 -1610.81134 -2040.67377 -2581.53409 -2615.79662 -2352.59639 -1893.96663 -1719.78325 -1766.50953 -1944.87302 -2182.93699 -3645.13488 -5470.35222 -8215.11366 -9508.66600 -10907.39148 -11412.05164 -11543.05272 -11566.27804 -11577.62990 -11579.97224 -11565.18440 -11145.72358 -10386.43061 -7597.74694 -5928.70547 -4311.99484 -3718.42278 -3518.78449 -3465.07531 -3465.25456 -3486.18119 -3511.95140 -3564.43834 -3579.48824 -3625.35696 -3657.24166 -3685.09764 -3706.88043 -3722.97498 -3731.55071 -3741.05109 -3743.23346 -3741.11450 -3735.50091 -3728.52748 -3715.06545 -3715.16545
-3799.13183 -3799.03183 -3802.82351 -3809.74569 -3809.26199 -3814.50528 -3818.15883 -3826.33119 -3844.58048 -3888.68093 -3907.79408 -3951.12693 -3995.47406 -4313.50983 -5008.16078 -5250.48928 -5540.81955 -5689.19601 -5715.09061 -5743.36044 -5745.81468 -5747.14432 -5747.33237 -5746.27751 -5747.92236 -5747.95931 -5745.47352 -5743.97687 -5744.92336 -5743.96159 -5741.20918 -5739.44937 -5736.89466 -5736.77462 -5733.88718 -5731.50983 -5730.00194 -5726.37803 -5721.54205 -5719.68225 -5715.79661 -5711.90461 -5705.26604 -5699.10752 -5694.06298 -5688.87551 -5682.01369 -5672.99864 -5665.92563 -5656.84896 -5648.77944 -5640.62822 -5630.72892 -5617.17577 -5600.29270 -5580.71014 -5562.03373 -5544.70916 -5530.03925 -5517.04166 -5504.01326 -5488.78857 -5479.41690 -5465.38567 -5456.21552 -5440.40487 -5429.26638 -5415.80720 -5405.49606 -5391.92873 -5380.46074 -5367.69805 -5339.39300 -5318.77941 -5279.00180 -5264.82271 -5225.57321 -5107.71414 -4958.82617 -4795.66151 -4645.36550 -4517.63165 -4367.73078 -4200.82684 -4088.40296 -4343.63282 -5107.92216 -3105.24104 -982.13641 -245.73821 -150.99347 -88.74692 -139.94425 -133.13987 -677.36551 -1035.24932 -1655.35307 -1791.43479 -2334.81743 -2352.68383 -2194.25345 -1769.20968 -1664.22762 -1801.32223 -2117.91331 -2563.33635 -4752.99451 -6403.48048 -8470.70774 -9747.24584 -10572.16650 -11373.20655 -11532.77473 -11545.97949 -11572.45459 -11576.47440 -11565.50011 -11310.70367 -10923.56375 -9728.09295 -7603.82363 -4520.40974 -3986.30457 -3582.26721 -3483.19770 -3464.42707 -3478.22465 -3515.39762 -3548.57898 -3578.90885 -3622.47431 -3649.32051 -3678.09212 -3697.01873 -3717.33760 -3720.46718 -3730.66104 -3738.47292 -3737.28484 -3733.57254 -3729.26307 -3719.50265 -3719.60265
-3809.21163 -3809.11163 -3813.50623 -3816.51533 -3820.84618 -3823.75884 -3826.98298 -3830.76995 -3835.56622 -3843.25521 -3848.95672 -3862.57842 -3903.84464 -4027.34451 -4279.46095 -4785.36307 -5079.49861 -5529.44096 -5686.03335 -5741.58089 -5751.81947 -5755.27519 -5757.30918 -5754.33605 -5753.61881 -5754.27942 -5753.27940 -5752.29877 -5749.54626 -5748.65258 -5746.63297 -5743.85648 -5743.39366 -5742.90130 -5741.60512 -5737.61629 -5734.93392 -5731.59058 -5728.90342 -5725.41244 -5720.07156 -5715.19026 -5709.19536 -5705.27020 -5697.90570 -5692.49944 -5684.28893 -5678.00494 -5669.38123 -5658.33383 -5651.75590 -5643.17085 -5634.93730 -5615.43756 -5597.83542 -5582.91818 -5563.78069 -5545.65575 -5532.65312 -5515.78452 -5504.23621 -5487.92214 -5475.27140 -5464.40397 -5453.51267 -5439.44655 -5422.11486 -5415.05393 -5398.52134 -5389.02282 -5370.95331 -5353.14330 -5329.28720 -5309.64253 -5275.85557 -5238.96754 -5193.61990 -5129.51687 -4924.48405 -4769.49058 -4631.14143 -4392.75075 -4364.60395 -4348.92294 -4317.28900 -4070.38146 -3923.96434 -2244.95574 -191.41524 -81.99608 -28.10388 -34.49297 -64.55808 -109.35901 -525.37968 -1233.32705 -1820.22907 -2000.44607 -2263.86973 -2251.59728 -1929.16567 -1704.14205 -1591.15961 -1764.43619 -2105.62594 -3069.64828 -4240.71093 -7281.62950 -8839.35598 -9468.25336 -10477.50263 -11040.13498 -11547.09648 -11524.73798 -11552.45208 -11572.58836 -11551.84229 -11540.23007 -11304.83566 -10688.94407 -9802.55843 -5233.04238 -4185.31087 -3562.22367 -3448.24487 -3451.70098 -3470.05018 -3504.67329 -3536.38892 -3566.52122 -3595.07271 -3626.08050 -3649.58818 -3680.44570 -3701.86495 -3712.36370 -3716.27997 -3725.85902 -3728.78757 -3728.31538 -3723.64827 -3718.75639 -3718.85639
-3819.41852 -3819.31852 -3822.10642 -3825.65111 -3829.27099 -3837.03487 -3838.61603 -3838.61760 -3840.68068 -3844.70992 -3848.45880 -3849.81564 -3864.40303 -3903.17180 -4133.06622 -4400.37244 -4808.58239 -5327.77860 -5605.64822 -5707.50790 -5753.45402 -5761.12426 -5763.77218 -5764.38389 -5762.09116 -5759.90676 -5758.57995 -5757.76138 -5756.49528 -5755.30253 -5754.72775 -5755.48076 -5748.85799 -5747.99048 -5744.54841 -5742.84329 -5739.38043 -5737.77982 -5733.00984 -5728.55630 -5725.68449 -5720.27722 -5714.41821 -5709.42209 -5701.28748 -5696.36330 -5693.92761 -5677.58810 -5668.11059 -5664.50101 -5654.49745 -5647.47507 -5631.72151 -5616.45066 -5599.42337 -5585.38976 -5560.87759 -5548.75108 -5529.47712 -5517.25122 -5499.31418 -5489.99909 -5473.02546 -5464.45901 -5448.53980 -5439.55984 -5422.60046 -5410.74064 -5393.10058 -5386.52271 -5362.83850 -5342.98040 -5321.81792 -5299.29031 -5280.47396 -5233.80299 -5176.48874 -5061.21580 -4929.56854 -4744.72814 -4425.98789 -4205.15559 -4131.58284 -4122.64679 -3971.16862 -3367.43261 -2159.73902 -388.79461 -10.03954 9.36781 32.55121 39.26267 -24.69593 -202.31213 -631.82843 -1595.45350 -2107.26966 -2128.07024 -2191.37670 -2079.23744 -1808.75457 -1707.18433 -1653.75485 -1818.58362 -2204.43856 -2772.98812 -5007.43246 -7263.70851 -8706.69892 -9049.19947 -9783.09942 -10606.59602 -11412.03097 -11456.15304 -11513.73200 -11550.67845 -11547.55184 -11541.16236 -11525.27659 -11125.71587 -9575.27728 -5875.49404 -4108.47675 -3530.90947 -3432.92837 -3440.36453 -3467.20520 -3487.75424 -3523.44268 -3535.07974 -3590.15137 -3612.22402 -3637.83734 -3651.99026 -3675.12752 -3690.73078 -3702.62962 -3698.96862 -3711.46576 -3712.11081 -3713.44476 -3712.57143 -3712.67143
-3829.63701 -3829.53701 -3833.42019 -3838.78071 -3841.07696 -3844.31529 -3846.35119 -3850.62012 -3853.00452 -3852.57364 -3853.48631 -3854.07491 -3866.34275 -3877.57215 -3961.52055 -4015.80257 -4371.23591 -4722.87361 -5307.14871 -5609.33162 -5736.84582 -5759.66468 -5770.01619 -5770.18699 -5769.39025 -5768.71782 -5765.83430 -5765.47671 -5763.53722 -5763.63829 -5761.21148 -5757.52730 -5757.29389 -5754.05660 -5751.38551 -5749.16247 -5746.10323 -5742.47658 -5738.58596 -5734.54087 -5730.89315 -5725.01857 -5720.49904 -5712.65357 -5705.96128 -5698.35100 -5693.71725 -5685.43193 -5675.78167 -5666.90158 -5659.14341 -5652.83648 -5634.90532 -5619.43309 -5598.05061 -5585.79138 -5561.99748 -5547.22587 -5526.34914 -5514.94894 -5496.95387 -5486.08125 -5476.97550 -5461.45375 -5443.37401 -5432.35008 -5420.80095 -5403.39151 -5392.73079 -5374.91376 -5359.56179 -5337.32426 -5309.22545 -5298.09988 -5271.51352 -5237.76323 -5137.05026 -4981.04145 -4819.03487 -4632.93392 -4143.49412 -3722.03824 -3828.87609 -3829.96579 -3064.65270 -2443.00395 -1419.26258 -77.13771 -2.06401 51.80625 90.39542 40.91840 -22.37270 -160.24033 -766.99795 -1664.04925 -2137.38981 -2204.84558 -2197.00564 -2099.90627 -1918.56589 -1599.73003 -1714.24415 -1936.10359 -2247.29083 -2897.45647 -4116.85902 -6320.78311 -8150.54262 -8375.34239 -9086.49216 -10336.07612 -11384.45621 -11462.66137 -11524.88430 -11536.26687 -11533.90381 -11538.01023 -11521.43386 -11242.10433 -9885.22835 -6371.59102 -3939.20379 -3533.73653 -3439.07309 -3428.36527 -3455.43260 -3476.60960 -3505.51635 -3538.80310 -3563.11977 -3586.17810 -3619.28364 -3641.22358 -3660.80693 -3669.83205 -3680.85173 -3688.87296 -3694.85410 -3698.89803 -3702.30992 -3702.64259 -3702.74259
-3840.02375 -3839.92375 -3842.47405 -3848.53704 -3850.74626 -3854.62564 -3856.09352 -3859.93662 -3862.91618 -3866.32639 -3864.51620 -3868.73899 -3868.74483 -3876.95381 -3901.99454 -3940.97679 -4155.23810 -4332.08509 -4993.87055 -5492.39044 -5699.14344 -5748.03748 -5773.36173 -5777.58639 -5775.43426 -5776.33264 -5772.90422 -5772.59914 -5770.76419 -5770.11253 -5766.76638 -5765.89497 -5762.25179 -5760.71814 -5758.32388 -5757.39469 -5751.38064 -5747.20310 -5745.35778 -5739.04681 -5735.75979 -5730.07335 -5722.51955 -5717.33576 -5710.04141 -5704.12199 -5696.02996 -5687.88678 -5680.04751 -5670.14415 -5664.25988 -5653.20388 -5640.21131 -5623.75927 -5605.94513 -5583.02683 -5560.78807 -5552.99222 -5527.18975 -5515.22624 -5497.25527 -5485.84967 -5473.76974 -5458.12747 -5442.28927 -5434.65022 -5416.19899 -5402.18841 -5385.42927 -5373.87580 -5358.21996 -5341.59923 -5315.73319 -5297.81700 -5270.29042 -5232.10565 -5044.44607 -4845.57830 -4561.55510 -4416.53609 -3999.34511 -3611.89840 -3105.80196 -3079.42725 -2679.96526 -2068.16377 -739.80599 -104.50506 -48.35973 65.46991 93.79834 27.58597 -28.39239 -102.93023 -882.23096 -2022.90850 -2195.87801 -2209.04685 -2182.71606 -2015.27784 -1681.27653 -1602.96293 -1716.61161 -1919.12747 -2383.67604 -2885.10652 -4057.07709 -6890.69126 -7928.76017 -8784.34235 -9752.47247 -10999.96595 -11362.28923 -11463.69704 -11521.42230 -11515.69987 -11519.14467 -11527.25424 -11515.02184 -11103.44069 -10060.06776 -7202.98177 -4247.36290 -3649.83960 -3451.07282 -3433.26924 -3451.49724 -3472.85730 -3494.49648 -3515.18081 -3546.33842 -3577.02978 -3601.90985 -3620.67834 -3635.31179 -3655.03435 -3660.65246 -3673.49391 -3675.25423 -3679.98453 -3685.55371 -3689.49142 -3689.59142
-3850.46814 -3850.36814 -3852.88977 -3857.40376 -3860.19352 -3862.47128 -3868.37921 -3866.99042 -3871.67416 -3871.28996 -3877.02532 -3877.95179 -3877.81253 -3881.13037 -3887.68468 -3909.84337 -3953.63799 -4060.87622 -4489.47009 -5010.95175 -5564.77381 -5732.79661 -5765.63714 -5782.16779 -5785.72065 -5783.54867 -5782.19351 -5777.43607 -5776.57394 -5775.09047 -5773.45145 -5771.14102 -5769.04141 -5766.19406 -5763.48775 -5760.25178 -5756.98699 -5752.40092 -5748.36970 -5744.23867 -5739.26478 -5732.22327 -5728.74434 -5721.31932 -5715.89335 -5706.09170 -5702.41542 -5693.60861 -5682.79751 -5673.95742 -5667.30760 -5657.79040 -5637.98616 -5623.74446 -5603.63219 -5584.67166 -5560.51271 -5549.93027 -5525.54919 -5514.34972 -5499.25771 -5485.81323 -5472.95569 -5457.28221 -5441.20753 -5426.50337 -5415.21998 -5394.34881 -5383.62023 -5373.96232 -5350.26903 -5332.62960 -5313.20819 -5288.88000 -5272.31751 -5210.27545 -4981.22992 -4684.89502 -4380.87392 -4108.82402 -3769.75970 -3238.04941 -2753.20471 -2168.02729 -1584.89524 -1350.00125 -468.65559 -153.50740 -1.78699 61.51930 74.60978 24.51224 -41.31564 -344.61209 -1087.13383 -2029.91254 -2200.23775 -2204.71591 -2105.37911 -1851.79288 -1580.91829 -1496.67699 -1561.78383 -1920.44866 -2224.18095 -2752.81815 -3358.30935 -6139.56515 -8027.32102 -9095.44842 -10384.12273 -11191.58207 -11420.52941 -11478.40283 -11495.05768 -11502.10504 -11508.11312 -11516.84341 -11425.60778 -11168.70401 -9070.88404 -6992.87538 -4491.55488 -3661.06280 -3488.37962 -3434.13835 -3435.29376 -3457.79801 -3483.07478 -3503.36011 -3533.70285 -3557.21234 -3577.76346 -3596.48294 -3615.92687 -3637.17145 -3644.43386 -3650.95516 -3655.04534 -3664.36073 -3670.20825 -3674.79142 -3674.89142
-3860.92051 -3860.82051 -3863.92226 -3866.76257 -3870.68452 -3873.16575 -3875.60628 -3879.99178 -3882.99121 -3885.11355 -3888.20563 -3889.82714 -3888.65879 -3888.71418 -3891.92692 -3898.07572 -3909.18939 -3994.21597 -4266.17364 -4647.50614 -5227.24237 -5641.22948 -5739.42072 -5780.59114 -5788.65943 -5792.99580 -5789.69491 -5785.04474 -5782.44338 -5780.34516 -5779.89325 -5776.62892 -5773.67662 -5770.81007 -5770.16186 -5765.92269 -5762.76711 -5759.97007 -5755.01173 -5749.86106 -5746.11345 -5737.30552 -5732.32646 -5724.92934 -5719.81331 -5712.60108 -5705.02174 -5695.59793 -5685.59022 -5678.52218 -5671.98698 -5656.40735 -5636.64070 -5623.73171 -5606.76801 -5584.90036 -5565.55389 -5551.63750 -5529.14194 -5514.38276 -5501.03583 -5484.91716 -5469.76764 -5460.87564 -5438.07008 -5424.18957 -5412.98589 -5396.49574 -5378.26592 -5356.93088 -5344.32106 -5326.25823 -5309.67278 -5289.62138 -5263.99587 -5214.54220 -5075.34583 -4850.17174 -4427.28082 -3865.66731 -3411.82797 -2796.60984 -2049.95872 -1712.39822 -1214.02813 -978.62043 -266.69912 -97.12226 -18.95012 23.73153 48.17381 -23.33357 -50.22901 -161.60306 -388.05078 -1413.83825 -2019.13323 -2209.17880 -2022.31762 -1801.44543 -1377.67226 -1348.21307 -1465.36420 -1960.74403 -2617.89819 -3315.10374 -3768.13323 -5495.31884 -8151.04979 -9205.39305 -9910.80709 -10850.72956 -11366.38343 -11479.67036 -11487.52854 -11493.86239 -11495.15182 -11504.46823 -11473.94853 -11258.35933 -9712.92793 -5990.70629 -4151.65892 -3589.25932 -3486.66822 -3420.88218 -3427.24060 -3450.48852 -3468.21883 -3489.61997 -3522.67188 -3534.85196 -3565.78171 -3580.92760 -3601.89106 -3612.39398 -3629.93522 -3638.05009 -3641.11458 -3647.51185 -3655.32095 -3659.30788 -3659.40788
-3871.28093 -3871.18093 -3874.00638 -3876.12251 -3880.46212 -3882.58854 -3886.52388 -3888.03677 -3890.50542 -3893.69785 -3895.35218 -3897.04946 -3899.80705 -3901.72604 -3903.18447 -3900.99530 -3906.50988 -3931.74725 -4043.99678 -4248.91131 -4846.08129 -5415.70674 -5659.51242 -5754.96149 -5792.45359 -5796.43135 -5796.11940 -5794.71053 -5790.62631 -5786.69963 -5784.25149 -5782.09961 -5781.07544 -5777.98509 -5774.76011 -5773.62493 -5768.56026 -5763.21660 -5761.14347 -5757.90267 -5753.27905 -5747.63268 -5741.03567 -5731.85035 -5724.83487 -5716.03232 -5707.09991 -5699.42752 -5693.93180 -5683.06802 -5669.94195 -5656.86929 -5642.56337 -5628.71071 -5607.71235 -5581.81231 -5568.15438 -5552.66213 -5535.00321 -5517.38672 -5501.08648 -5483.52492 -5472.21655 -5454.71631 -5441.10017 -5421.91814 -5404.37520 -5390.31133 -5374.30917 -5355.86620 -5341.49612 -5314.85674 -5298.58009 -5281.40248 -5243.12097 -5211.61221 -5063.48358 -4779.34337 -4499.23585 -3990.21274 -3464.30152 -2411.82825 -1561.56718 -1212.30931 -1029.84157 -524.10112 -330.31017 -106.07612 -43.99529 -3.95408 7.63100 -42.32465 -80.38694 -100.26550 -293.13364 -698.45617 -1739.14825 -1962.25790 -1924.79906 -1647.69867 -1428.91099 -1354.08532 -1559.88758 -1761.64116 -2338.15086 -3397.58324 -4135.22661 -5474.12289 -7900.70880 -8832.11681 -9715.42363 -10705.86992 -11076.70533 -11452.14207 -11434.38747 -11425.74452 -11419.56473 -11374.31147 -11327.43169 -11108.26973 -8985.42591 -7273.08006 -4027.18967 -3611.91467 -3469.01021 -3414.33527 -3416.16383 -3430.96407 -3454.45997 -3485.68627 -3504.70450 -3527.79482 -3544.22847 -3563.41939 -3588.49835 -3605.26612 -3609.86037 -3623.15877 -3625.75447 -3631.61048 -3639.62108 -3643.95665 -3644.05665
-3881.44013 -3881.34013 -3883.58442 -3885.40646 -3888.54726 -3892.16065 -3897.01000 -3898.27817 -3898.05563 -3903.07549 -3905.80376 -3908.17684 -3907.65879 -3908.68558 -3908.83603 -3909.19795 -3913.83655 -3928.19792 -3966.65485 -4159.53940 -4450.22619 -5049.47423 -5469.48058 -5674.44439 -5786.46938 -5801.83584 -5802.39394 -5799.96928 -5796.37320 -5794.33699 -5792.36673 -5790.04242 -5786.60612 -5786.37361 -5784.43134 -5780.71036 -5781.22986 -5775.05251 -5767.99543 -5765.95220 -5761.46111 -5753.12924 -5747.82951 -5741.25992 -5728.95700 -5722.97660 -5714.06828 -5703.89485 -5696.42604 -5688.36583 -5680.53867 -5662.92693 -5650.70914 -5626.53600 -5599.58214 -5580.92952 -5569.71120 -5550.49128 -5531.99816 -5517.33266 -5498.41464 -5487.71592 -5463.64683 -5455.35537 -5436.29517 -5418.36124 -5402.46757 -5390.24852 -5368.95921 -5355.64897 -5342.07085 -5314.25079 -5284.11634 -5249.40529 -5204.74699 -5173.66417 -4957.73794 -4618.16634 -4423.87846 -3856.62455 -3180.35296 -2210.87283 -1283.62611 -840.88664 -620.95172 -311.30418 -215.25449 -76.26696 -57.57115 -13.57243 12.92877 -22.62239 -41.48589 -90.55110 -156.76458 -338.35066 -1010.02893 -1649.95026 -1805.62340 -1607.48773 -1529.70913 -1449.76901 -1578.75974 -1842.36065 -2235.30462 -3043.83510 -4236.30619 -5096.53396 -6400.99825 -8079.92772 -8911.23687 -9844.90839 -10733.73326 -11074.60049 -11272.31687 -11216.88121 -11265.67254 -11260.26511 -11263.92561 -10938.11497 -10080.11427 -7394.34874 -4617.82249 -3606.96418 -3431.83488 -3398.42946 -3409.90259 -3428.61971 -3435.74592 -3468.30941 -3494.06620 -3513.66917 -3541.13285 -3549.63706 -3574.41180 -3585.59688 -3598.39815 -3605.32954 -3612.64777 -3617.66679 -3625.95863 -3629.28088 -3629.38088
-3891.41498 -3891.31498 -3894.43716 -3898.35562 -3900.03455 -3899.96138 -3903.56685 -3907.71671 -3909.95362 -3911.51061 -3913.75949 -3914.62705 -3918.18772 -3920.37396 -3915.86883 -3918.28089 -3918.24771 -3924.88188 -3934.73175 -3981.80295 -4146.52624 -4640.88617 -5230.23688 -5548.24852 -5782.16228 -5803.83756 -5809.49879 -5808.62290 -5811.20566 -5803.44708 -5799.31141 -5798.54025 -5800.16080 -5794.57624 -5793.71310 -5789.63017 -5782.36529 -5777.54509 -5772.46017 -5768.18107 -5764.80680 -5755.23295 -5747.96823 -5746.32359 -5740.49285 -5731.18745 -5718.80797 -5710.45595 -5700.55734 -5689.88440 -5685.28147 -5674.49576 -5652.39293 -5637.05554 -5605.73895 -5585.52074 -5566.46516 -5551.76451 -5530.74795 -5518.19643 -5496.91200 -5480.74299 -5465.33554 -5447.81537 -5434.86802 -5418.22747 -5397.88363 -5384.24880 -5361.87266 -5345.30890 -5324.79303 -5270.33297 -5239.95508 -5203.17267 -5086.34169 -4930.32497 -4812.49854 -4545.31174 -4043.26273 -3330.31683 -2511.51435 -2042.35334 -1120.59172 -699.74838 -360.75593 -255.64525 -113.26128 -70.51368 -38.16260 7.77747 19.46889 -5.87309 -41.79991 -82.29579 -103.93295 -214.65870 -639.87380 -949.61543 -1396.22005 -1583.21380 -1466.38723 -1352.87471 -1529.89620 -1836.18719 -2142.85271 -2807.17202 -4102.24603 -4368.78474 -5760.34225 -8234.80094 -8731.12666 -9201.18481 -10059.21918 -10461.67689 -10782.21213 -11036.58981 -11056.04645 -11090.01140 -11086.04624 -10675.10649 -9507.99167 -6812.21569 -4927.61795 -3573.78145 -3382.70432 -3376.17514 -3403.13526 -3417.57226 -3436.88803 -3457.22990 -3478.11129 -3505.69038 -3524.63130 -3543.64945 -3560.48564 -3572.74136 -3582.73179 -3592.27904 -3600.94222 -3607.74935 -3610.69350 -3615.62242 -3615.72242
-3900.92908 -3900.82908 -3902.38042 -3906.33587 -3908.39973 -3910.94428 -3913.66980 -3915.40688 -3918.80661 -3920.06644 -3921.00099 -3923.25713 -3925.75058 -3927.24002 -3926.78275 -3926.34646 -3927.42884 -3927.21548 -3933.79948 -3945.89165 -3998.24620 -4275.20863 -4744.10661 -5242.95368 -5698.37999 -5792.13145 -5815.67235 -5818.23702 -5816.05387 -5812.16154 -5810.50133 -5805.23524 -5802.53335 -5805.81344 -5803.05232 -5793.57862 -5772.35906 -5773.14889 -5770.66193 -5761.82852 -5762.97286 -5753.45295 -5748.19337 -5745.47153 -5740.23641 -5736.13849 -5728.62553 -5720.09199 -5712.03818 -5698.86691 -5688.99046 -5680.22417 -5657.27720 -5635.25173 -5606.46771 -5587.34915 -5570.38868 -5548.94184 -5531.83840 -5517.78304 -5503.42996 -5483.80577 -5467.61486 -5442.73934 -5429.35713 -5411.29319 -5393.07265 -5374.23348 -5361.27372 -5339.02216 -5319.67435 -5255.82448 -5134.79071 -5071.23834 -5012.98535 -4573.97241 -4423.28577 -4112.56671 -3414.91206 -2759.66234 -1701.67854 -1021.83157 -580.67061 -435.42816 -177.80408 -133.85124 -65.99832 -48.97982 -15.10615 40.64581 54.29265 38.35089 -36.02901 -41.38677 -66.12402 -75.37574 -147.02073 -330.83128 -258.41881 -510.79934 -937.32521 -1276.99607 -1447.48231 -1725.09221 -1975.98577 -2283.63390 -3426.54745 -4697.87813 -5926.83894 -7595.90867 -8198.57955 -8856.19954 -9535.64074 -9887.46160 -10447.76165 -10876.58299 -10967.34147 -10921.38389 -10865.00167 -10756.16498 -9514.20316 -5944.49120 -4307.66947 -3465.16704 -3361.97071 -3373.82233 -3391.58536 -3406.30022 -3425.90520 -3445.03170 -3468.65930 -3490.36489 -3513.35074 -3533.98938 -3551.60334 -3562.15457 -3571.80440 -3584.69683 -3592.28832 -3596.81481 -3599.38236 -3602.95098 -3603.05098
-3909.60831 -3909.50831 -3912.14704 -3912.92356 -3917.13271 -3917.95638 -3922.47426 -3923.30708 -3925.01440 -3926.37341 -3930.51832 -3931.80608 -3933.19981 -3934.00558 -3934.63212 -3934.23387 -3934.15074 -3934.13447 -3933.81296 -3941.87478 -3962.84515 -4104.27438 -4550.34538 -5086.62523 -5525.36466 -5766.55481 -5817.27438 -5820.57707 -5817.95342 -5816.60071 -5816.53578 -5810.30347 -5811.28106 -5811.82719 -5799.60596 -5769.51330 -5719.79629 -5650.44142 -5740.39695 -5739.69927 -5757.76287 -5697.34953 -5748.88638 -5745.11789 -5741.70976 -5738.67990 -5729.54204 -5720.47629 -5712.39670 -5707.67530 -5689.56551 -5679.73656 -5659.61482 -5633.56717 -5612.77017 -5589.39642 -5568.53901 -5558.13555 -5530.77980 -5521.98604 -5501.93023 -5484.81234 -5467.52416 -5446.69716 -5426.39978 -5408.70110 -5393.29333 -5368.90252 -5347.29547 -5330.33896 -5305.73812 -5248.03455 -5067.69493 -4827.57121 -4823.96655 -4516.63633 -3961.47514 -3239.94226 -2668.55858 -1564.86152 -822.00325 -565.51876 -344.94714 -141.83820 -126.09840 -112.64330 -42.67214 -6.31007 20.05688 62.52319 77.72151 47.86695 -2.97166 22.77549 -13.34996 -19.99285 -79.15736 -105.12812 -113.32931 -204.34367 -948.66453 -1214.01089 -1141.60682 -1458.29824 -1870.63833 -2569.46122 -3766.30580 -4173.59099 -4973.72702 -6577.93271 -7379.67212 -8366.33154 -9113.79961 -9954.69727 -10640.80294 -10783.18448 -10824.02159 -10687.89017 -10683.31900 -10578.01624 -9205.69013 -5716.37162 -3881.31606 -3391.65169 -3340.47091 -3367.77434 -3385.88657 -3401.88442 -3423.25327 -3437.17587 -3450.49489 -3478.75417 -3499.08931 -3516.04243 -3541.25610 -3552.19447 -3564.42491 -3572.99277 -3578.37176 -3583.99079 -3587.62111 -3591.27665 -3591.37665
-3918.08884 -3917.98884 -3919.82176 -3923.79490 -3923.88446 -3924.99252 -3928.55824 -3930.34766 -3935.65970 -3936.15164 -3938.43926 -3938.27259 -3940.21133 -3941.34354 -3941.87086 -3944.23559 -3941.50182 -3940.57379 -3939.77161 -3944.11666 -3962.69002 -4003.18831 -4212.79384 -4722.15782 -5392.47129 -5746.65517 -5807.08443 -5821.71377 -5820.40249 -5817.48537 -5812.79873 -5812.07398 -5803.08595 -5801.31318 -5714.03981 -5685.82803 -5496.34716 -5370.17931 -5456.63340 -5245.31729 -5523.47548 -5540.37745 -5600.13555 -5710.72292 -5731.61757 -5732.18108 -5726.90678 -5723.14782 -5712.08167 -5703.79794 -5682.65671 -5676.49316 -5653.40605 -5635.00019 -5610.27870 -5595.51254 -5572.28695 -5558.45191 -5539.53348 -5521.10434 -5501.75833 -5476.73898 -5458.19801 -5442.41312 -5428.52554 -5403.54012 -5385.99000 -5370.28091 -5339.34841 -5316.27640 -5271.11163 -5177.05108 -4975.75478 -4757.06356 -4500.01896 -4272.12434 -3737.65130 -2163.88343 -1132.04920 -449.71976 -211.09092 -178.57992 -121.19496 -116.87600 -92.21138 -51.59694 -23.65335 25.82697 60.44202 95.86433 96.15454 52.15071 75.78084 56.77386 30.07222 19.10536 -24.70630 -51.36551 -79.02200 -132.15772 -585.54977 -1257.40835 -1344.25080 -1515.51547 -1681.03142 -1941.44156 -2718.16253 -2899.34413 -3519.01053 -4675.79834 -6740.67574 -7693.38040 -8631.31850 -9607.00577 -10486.30553 -10627.15764 -10614.50308 -10410.07252 -10256.15822 -10245.61861 -8533.43621 -6185.56903 -3715.84695 -3393.22192 -3326.62302 -3341.03388 -3376.96181 -3393.17425 -3406.63960 -3430.08880 -3445.99962 -3463.87526 -3484.59270 -3506.46890 -3527.89145 -3537.50790 -3552.00892 -3560.08897 -3570.20102 -3574.41891 -3578.36072 -3580.52764 -3580.62764
-3930.48207 -3930.38207 -3933.79711 -3932.20325 -3934.51343 -3939.54883 -3941.49058 -3940.00248 -3940.08506 -3942.58334 -3942.19729 -3944.71866 -3946.54569 -3946.23681 -3948.52219 -3946.43938 -3948.69715 -3945.18503 -3945.94925 -3949.00446 -3956.82951 -3983.22530 -4093.28472 -4429.61751 -5116.12377 -5608.17928 -5742.09212 -5791.53408 -5808.60607 -5817.34186 -5799.82796 -5731.24649 -5645.67984 -5577.66785 -5506.57689 -5131.56668 -4781.37036 -4394.52965 -3896.70440 -4452.48385 -5102.28430 -4725.59140 -5480.13153 -5469.90020 -5509.39697 -5607.47214 -5662.89918 -5677.22195 -5679.36344 -5675.82676 -5680.24246 -5667.68981 -5657.67789 -5638.22761 -5616.73711 -5592.51427 -5577.65523 -5560.91051 -5535.99729 -5518.11800 -5502.58133 -5468.08988 -5443.92742 -5433.87830 -5414.52408 -5403.19267 -5373.17687 -5301.43395 -5316.64988 -5299.06795 -5243.21184 -5223.16711 -5088.05345 -4870.18597 -4443.08630 -4155.23397 -2738.78229 -1733.41773 -684.65087 -207.11035 -152.90245 -153.99264 -94.84318 -28.25091 24.40730 7.40257 -3.92759 65.17499 114.66521 141.15876 122.88849 97.32590 125.73574 121.74070 119.00227 70.13039 5.90337 -24.64386 -72.14321 -81.78956 -514.55032 -1199.69900 -1466.25663 -1769.75176 -1876.35535 -1854.68273 -1856.02420 -1992.40779 -2712.66260 -3874.74600 -4840.57901 -5864.55642 -7960.34736 -9540.58001 -10278.39764 -10417.66757 -10218.11797 -10024.48377 -9619.11975 -9666.24542 -8727.09206 -5542.83773 -3919.28550 -3313.34227 -3295.44821 -3324.96546 -3367.09363 -3385.14893 -3404.11271 -3416.31526 -3434.74346 -3451.51844 -3470.69226 -3495.31241 -3510.69408 -3530.28184 -3541.65668 -3550.05641 -3560.95802 -3563.43465 -3567.44719 -3570.61056 -3570.71056
-3970.55595 -3970.45595 -3969.29618 -3979.08250 -3974.80096 -3976.32180 -3954.74999 -3950.85812 -3957.28918 -3956.50593 -3951.23510 -3949.93817 -3951.95279 -3956.53835 -3956.09475 -3958.87400 -3960.85398 -3959.55015 -3954.83644 -3961.94068 -3964.90629 -3979.64446 -4026.16650 -4200.84936 -4826.51757 -5007.96820 -5390.45674 -5734.00572 -5663.46838 -5751.27642 -5755.12991 -5504.54347 -5178.40446 -4714.59863 -4419.22324 -3907.42395 -3380.08850 -3285.26280 -3217.71342 -3477.32951 -3069.36406 -3879.33595 -4311.47357 -4363.57018 -5138.98549 -5041.44714 -5389.55163 -5589.94682 -5617.67263 -5619.38342 -5652.72737 -5633.52169 -5639.44643 -5628.29856 -5619.75525 -5600.05099 -5582.55453 -5558.77758 -5535.48556 -5516.50601 -5498.66536 -5460.71391 -5425.47453 -5421.45644 -5401.96657 -5319.24952 -5305.09510 -5224.58099 -5239.22454 -5206.99568 -5170.16349 -5143.93491 -5064.82077 -4955.02030 -4117.12092 -3179.82405 -1547.29064 -923.74669 -203.72111 -134.74264 -61.06468 -45.49871 -20.55851 7.10871 56.68371 86.38573 41.36416 93.83849 124.52824 199.30716 213.57431 193.80894 181.03444 202.59462 181.97845 90.68781 61.61451 31.47631 -56.21573 -71.01648 -197.65797 -347.63623 -786.37974 -1401.56606 -1660.24933 -2034.44384 -2026.65887 -1909.68295 -2109.41921 -2235.34601 -3754.16224 -4614.89640 -6779.80033 -8539.05572 -9739.27114 -10006.28684 -9556.92125 -9516.34123 -9037.70479 -8843.99901 -8314.67983 -4834.96833 -3748.36884 -3311.64412 -3260.68463 -3315.61679 -3352.27911 -3378.68040 -3388.49458 -3405.71274 -3426.12093 -3439.41412 -3458.57217 -3482.40813 -3498.62161 -3516.24923 -3529.42283 -3538.99491 -3549.25058 -3557.38416 -3558.96446 -3561.28898 -3561.38898
-4067.88468 -4067.78468 -4082.33605 -4055.03586 -4079.54433 -4028.82338 -4008.71967 -3998.00203 -3988.19796 -3975.77693 -3978.12596 -3963.59296 -3976.45009 -3974.70281 -3980.66815 -3995.18825 -3990.00321 -4000.90039 -3987.59720 -3986.68290 -3986.29594 -3984.42013 -3973.18394 -4120.29227 -4330.03586 -4025.31288 -4335.31501 -5014.92573 -5322.82615 -5523.55244 -5372.44279 -4900.88645 -4602.28617 -3976.22957 -3373.89531 -2939.87014 -2465.97073 -2364.54311 -2419.43174 -2410.78896 -2555.09352 -2589.56271 -2876.61904 -3288.42402 -3712.84682 -4280.56228 -4714.71470 -5102.62010 -5456.10927 -5456.80080 -5347.24332 -5480.71295 -5495.85344 -5570.04242 -5621.97482 -5586.42343 -5581.02312 -5557.91116 -5534.01432 -5503.57493 -5487.31925 -5465.17983 -5435.01275 -5392.27052 -5375.34126 -5218.39349 -5016.88962 -5087.30411 -4798.07313 -4837.03405 -4918.83577 -5006.04652 -4374.27604 -4020.38360 -3687.73875 -1883.47682 -981.82219 -540.83309 -121.86951 -57.99744 -29.01126 13.21677 26.02539 21.81494 92.05993 137.79036 109.90140 160.25134 142.64593 232.81188 283.08700 244.43987 247.08157 281.07647 213.13246 220.47215 91.37223 72.79786 13.79385 -60.16330 -90.85857 -136.36623 -387.83574 -765.50076 -1165.60255 -2071.75893 -2461.18593 -2756.18994 -2214.42931 -2277.60038 -2803.24542 -4768.43936 -6728.62499 -7716.23407 -8764.05183 -9127.90110 -8993.03812 -8816.93216 -8247.30852 -7981.24846 -7625.82869 -5311.41340 -3706.06882 -3288.29758 -3257.65272 -3298.31948 -3344.67434 -3369.24089 -3382.96814 -3395.30994 -3406.37889 -3429.04642 -3449.69050 -3470.15935 -3485.51518 -3504.96004 -3520.38423 -3529.86460 -3539.81616 -3545.83234 -3549.46774 -3552.37415 -3552.47415
-4243.41706 -4243.31706 -4226.65310 -4195.44991 -4190.78442 -4166.08500 -4089.84158 -4081.29234 -4083.12004 -4071.21559 -4043.06586 -4014.28405 -4014.78202 -4051.59855 -4044.73839 -4075.32882 -4086.99314 -4109.29370 -4066.61059 -4087.82782 -4037.15750 -4010.30389 -3980.03849 -3525.84846 -3245.93974 -3115.45379 -3638.35458 -3722.26464 -4112.61623 -4518.04953 -4497.05035 -3869.72523 -3140.23507 -2514.93465 -2273.09217 -2145.51770 -1858.81968 -1891.74585 -1979.46527 -1992.70777 -2089.10473 -2131.91905 -2304.68183 -2612.06692 -2948.18705 -3381.64339 -3933.18676 -4423.63063 -4932.44249 -4918.73880 -5013.84726 -5162.10304 -5156.03976 -5410.91109 -5503.62216 -5539.79923 -5555.62020 -5544.39235 -5540.40243 -5494.12045 -5476.29558 -5451.76445 -5401.51749 -5286.66596 -5090.28085 -4992.85349 -4655.44583 -4822.80437 -4487.97086 -4403.45019 -4497.11451 -4552.94969 -2867.42459 -2216.65932 -1610.05391 -981.48629 -516.73446 -141.63784 -52.24706 -6.27619 20.23009 47.66344 67.25742 32.64061 73.62122 145.76487 156.12830 199.08775 179.91748 246.44983 323.60145 284.79644 331.85685 317.17723 285.10010 228.49253 165.96640 74.86955 56.86188 -36.91781 -55.68491 -96.30805 -332.09330 -493.06609 -777.38442 -1514.67777 -2800.13980 -2992.84518 -2725.98800 -2576.96963 -3132.53223 -5019.48240 -6264.10890 -6496.72698 -7444.95648 -8453.22056 -8615.28391 -8353.12807 -7791.43395 -7498.39527 -6808.64598 -5896.43038 -3840.61629 -3310.21165 -3239.47841 -3287.57275 -3334.32631 -3355.66177 -3373.16186 -3384.35996 -3402.29841 -3412.95440 -3432.17973 -3454.76176 -3474.47046 -3489.97018 -3507.36670 -3523.03201 -3530.98409 -3539.29983 -3540.75073 -3543.77911 -3543.87911
-4471.36536 -4471.26536 -4404.78101 -4408.98656 -4337.76503 -4319.97559 -4279.26963 -4292.85860 -4212.82263 -4223.92700 -4175.33493 -4124.85158 -4211.06047 -4183.03155 -4221.12499 -4193.11699 -4187.26122 -4231.74943 -4236.57230 -4212.60002 -4123.05085 -4042.53762 -3809.04432 -3219.67704 -2592.38994 -2337.52963 -2564.50918 -2814.41798 -3019.63392 -3364.66554 -3591.52826 -3584.19612 -2746.93187 -2237.73135 -1942.42966 -1618.47169 -1315.71000 -1137.06429 -1264.92347 -1137.38938 -1176.30495 -1483.03497 -2246.26304 -2340.59517 -2388.92715 -2650.47937 -2995.74321 -3423.53066 -3879.75429 -3959.30775 -4496.39291 -4315.71470 -4598.43962 -4784.94943 -5184.47937 -5526.77171 -5497.00428 -5521.24545 -5514.17770 -5445.28224 -5439.72186 -5398.90714 -5031.04241 -4893.99145 -4686.62499 -4460.16482 -4416.12799 -4216.71452 -3840.55659 -3528.29638 -3583.92969 -3196.52770 -2198.61834 -799.76868 -473.92833 -380.87054 -130.02167 -102.49877 -26.32101 41.10596 73.31432 105.59328 98.08391 132.07052 151.23252 171.55303 221.00230 248.00661 221.37524 232.64927 332.35426 346.07336 357.87256 303.30524 237.22277 189.24815 145.81147 124.99048 72.76737 -5.40307 -36.50897 -90.28358 -153.96159 -319.89253 -676.35287 -1164.59597 -1838.82109 -2933.08669 -3385.96294 -3395.82500 -3402.45490 -4552.03563 -4494.84067 -5102.74021 -6216.35433 -7228.04929 -7476.56659 -7253.27313 -6947.68503 -6501.99549 -6047.14749 -5269.93179 -4068.01584 -3338.39411 -3225.40037 -3251.00387 -3319.52541 -3344.75292 -3362.24246 -3371.77568 -3389.88160 -3403.99581 -3427.72954 -3444.29489 -3458.31400 -3482.17027 -3497.71369 -3509.93685 -3520.70351 -3526.36838 -3532.43231 -3535.39550 -3535.49550
-4652.04816 -4651.94816 -4600.12202 -4560.80045 -4563.77214 -4483.05558 -4504.46670 -4411.20480 -4397.37670 -4389.02707 -4363.37321 -4314.31187 -4319.04547 -4375.33465 -4349.17413 -4360.94951 -4490.70609 -4398.92207 -4429.33255 -4393.84193 -4313.71093 -4060.11110 -3735.30184 -2950.04948 -2280.01342 -2180.63950 -2214.42709 -2333.68790 -2341.08838 -2512.35572 -2744.27825 -2628.67362 -2399.88209 -1876.11393 -1490.99554 -952.00324 -551.95140 -513.87878 -597.04233 -644.06319 -637.43509 -1090.91481 -1523.23518 -1631.79620 -1665.65034 -2021.67965 -2067.34541 -2475.73646 -3007.12508 -3027.47599 -3497.90242 -3439.18893 -3643.17116 -4075.76325 -4164.78795 -4895.30738 -5295.70497 -5322.16155 -5103.11185 -5120.07720 -5034.37571 -5064.75695 -4657.00356 -4134.88980 -4219.77546 -3998.23908 -3667.52192 -3787.78909 -3177.88418 -2516.25290 -2246.03518 -2167.86074 -1178.79680 -462.07655 -162.22000 -111.27108 -68.93313 -18.39488 8.45783 34.56964 107.08009 151.06755 159.66875 181.10626 166.76817 182.22522 233.75451 284.29141 286.27071 277.67884 306.89198 397.97511 358.97948 290.43888 246.40007 213.08672 196.54653 176.89518 105.27688 24.17263 -35.88676 -87.76835 -120.31431 -197.27988 -323.26406 -654.29000 -1551.08697 -3222.56200 -3471.72283 -3701.63650 -3672.63669 -3716.09135 -3908.00071 -4622.17624 -5402.01259 -5730.00227 -6305.47713 -6890.64079 -6027.37366 -5323.65520 -5255.77997 -4951.85344 -4227.24578 -3413.70053 -3217.68399 -3235.22920 -3306.78928 -3334.79715 -3351.63991 -3363.48437 -3378.66463 -3388.72107 -3414.55041 -3432.51580 -3452.02203 -3465.23848 -3484.61931 -3497.60313 -3508.98754 -3518.28617 -3525.12393 -3527.20239 -3527.30239
-4732.37271 -4732.27271 -4717.02971 -4694.64983 -4713.24505 -4672.52688 -4652.57404 -4619.93729 -4632.56306 -4514.34941 -4574.25932 -4549.56172 -4560.87916 -4565.04437 -4577.59901 -4620.56185 -4586.20192 -4642.09984 -4662.61806 -4604.29160 -4460.22166 -4315.99852 -3762.25820 -2928.50669 -2395.61471 -2265.12927 -2272.40761 -2298.98383 -2266.35536 -2211.95028 -2362.65282 -2280.53308 -1972.16894 -1567.48160 -814.70235 -479.55814 -267.49012 -250.21953 -260.18982 -288.41250 -363.49555 -324.94190 -590.13798 -753.19943 -842.60205 -1066.29215 -1112.07663 -1977.19242 -2059.74510 -2255.70777 -2690.04648 -2662.93348 -2614.74496 -2549.91426 -3324.72990 -3688.10394 -4397.20763 -4518.60924 -4518.54416 -4656.43852 -4493.81886 -4059.86178 -3797.45273 -3536.22770 -3535.59324 -3273.13918 -2902.73432 -3190.25804 -2656.42975 -1527.35146 -904.21006 -813.73199 -297.72970 -211.17798 -116.09870 -69.50330 -33.13707 24.11761 47.54513 72.97120 100.65415 163.18609 200.14775 235.94543 229.71353 211.86439 254.37595 315.60313 344.31628 348.69051 315.87436 388.21140 390.70311 318.48645 306.56522 293.73664 212.57965 159.72509 122.55603 87.48765 -12.76242 -60.89451 -102.01798 -130.83065 -149.31356 -327.61867 -765.94810 -2042.13154 -3500.99355 -3860.02925 -3814.87110 -3911.91545 -4066.59007 -4474.09560 -4660.08852 -4720.32571 -5026.33796 -5024.40176 -4230.98820 -4435.15950 -4595.65648 -4308.87257 -4084.00334 -3608.33350 -3277.81764 -3238.29467 -3277.29131 -3314.58563 -3335.56600 -3352.36388 -3367.61833 -3379.41240 -3398.47587 -3416.39310 -3433.36948 -3449.33152 -3468.63269 -3488.82613 -3498.74427 -3508.69545 -3514.50398 -3519.02699 -3519.12699
-4756.25171 -4756.15171 -4754.41275 -4751.96460 -4752.62791 -4737.48223 -4723.25934 -4714.55201 -4722.66654 -4711.96582 -4673.35496 -4715.70368 -4698.66875 -4714.80334 -4730.81867 -4706.53207 -4737.29747 -4745.87835 -4740.04512 -4692.53189 -4623.87398 -4483.61884 -4070.94990 -3384.27695 -2898.25654 -2717.48249 -2803.83433 -2873.44948 -2326.98999 -2288.77164 -2317.20284 -2248.22371 -2019.57282 -971.53038 -531.10017 -376.76665 -227.90953 -203.68194 -194.01570 -194.91756 -208.66316 -217.80767 -230.40387 -238.81239 -202.08556 -230.19565 -363.85420 -838.70517 -668.51566 -971.09712 -1862.35434 -1724.82229 -1804.83008 -2023.47512 -3020.70859 -2995.81611 -3322.06980 -3315.97129 -3124.80624 -3165.47422 -3364.13607 -3350.59968 -3171.41999 -2804.65166 -2683.43973 -2362.82913 -2223.31833 -2036.35234 -1634.83231 -1025.90021 -321.90408 -236.32441 -121.63070 -110.73576 -64.01352 34.71782 99.70999 65.93205 142.93267 160.17941 143.80672 127.59369 187.87506 241.11005 274.01339 267.14428 281.19917 313.39290 374.28290 392.90683 375.89631 386.90277 405.05488 371.15164 320.49773 296.53283 240.06735 204.24628 118.97409 89.99208 76.11044 12.74974 -46.17447 -99.65254 -122.95267 -228.44171 -440.29639 -1688.33328 -3090.91482 -3934.73010 -3915.17103 -4007.69722 -4218.51259 -4395.88096 -4273.51653 -4641.50479 -4586.96702 -3735.28176 -3372.84290 -3796.66978 -4007.53260 -3929.90126 -3837.35717 -3650.08082 -3389.80257 -3238.20058 -3259.14689 -3310.84271 -3331.57127 -3340.71106 -3356.60456 -3370.72180 -3389.47675 -3405.39222 -3419.60517 -3437.02100 -3456.65715 -3477.50980 -3488.22825 -3494.42688 -3505.79833 -3510.52579 -3510.62579
-4762.15561 -4762.05561 -4763.38267 -4767.46475 -4768.51824 -4767.90029 -4768.10288 -4771.93127 -4770.97823 -4760.07869 -4765.21334 -4762.42130 -4766.74798 -4767.66136 -4774.90992 -4775.33699 -4774.24550 -4772.86756 -4774.48198 -4775.21891 -4716.67859 -4641.34882 -4483.70808 -3965.68101 -3648.34480 -3402.15019 -3649.11383 -3635.74612 -3258.47010 -2796.75620 -2680.57430 -2415.22349 -1883.64310 -936.23967 -495.72494 -315.50535 -223.02842 -176.17211 -130.63563 -122.22702 -120.46572 -147.91132 -162.05614 -167.94860 -161.40827 -181.88004 -249.47729 -206.46611 -198.87419 -330.49689 -716.79549 -700.35431 -1111.03304 -1268.00766 -1383.23912 -2485.20384 -2628.88039 -2618.91613 -2217.91837 -2231.71969 -2351.15370 -2600.81321 -2627.25255 -2621.92989 -2317.40573 -1971.23457 -1105.06472 -684.71093 -604.57619 -425.71910 -178.75547 -174.08089 -79.82077 -69.31210 -3.81699 145.52662 315.89725 169.98880 108.30053 187.75653 219.91592 193.19756 250.11137 249.49975 312.69456 326.19852 353.58231 364.03979 393.50545 414.58881 412.32361 422.61714 424.70089 380.63149 324.14500 284.97032 216.43321 172.13301 136.13882 168.09903 102.44171 28.79685 9.93975 -47.00494 -97.56127 -166.77846 -310.25454 -1152.77809 -2482.46556 -3621.87099 -4047.24404 -4146.54024 -4325.59647 -4483.04576 -4522.83453 -4527.84008 -4138.97120 -3554.16915 -3294.97890 -3282.47400 -3499.69400 -3727.98743 -3699.28283 -3564.38769 -3361.33647 -3239.07724 -3256.61400 -3284.11962 -3313.00953 -3333.57502 -3346.47262 -3354.23182 -3378.34251 -3396.76927 -3411.12869 -3429.84360 -3443.51060 -3464.07567 -3478.01539 -3488.92469 -3496.73325 -3501.77143 -3501.87143
-4768.72944 -4768.62944 -4769.91924 -4773.03280 -4775.07034 -4776.70305 -4776.29180 -4777.30941 -4778.88749 -4779.85896 -4779.52441 -4780.31284 -4779.68017 -4780.50308 -4778.66650 -4779.68445 -4779.54955 -4775.41324 -4777.14890 -4775.86128 -4775.08183 -4764.25408 -4653.88536 -4367.38873 -4243.68596 -4290.11384 -4361.66960 -4310.47413 -3865.95243 -3332.59027 -2722.91304 -2421.02547 -1223.04066 -529.30644 -423.77129 -292.36051 -244.30257 -169.76875 -100.12757 -83.61488 -80.76192 -78.37865 -111.92720 -99.24640 -117.85954 -113.60621 -133.32071 -136.34847 -136.67720 -124.77638 -187.14618 -148.39435 -166.90978 -559.79670 -694.85822 -1202.97221 -1490.45782 -1585.33064 -1628.32881 -1714.29498 -1892.77330 -1904.31845 -2216.27489 -1909.41971 -1855.23804 -970.29240 -446.22155 -333.34985 -146.25238 -118.41212 -111.01698 -100.58867 -55.63941 18.18779 40.68157 232.66846 384.56049 381.42131 107.58217 170.52239 250.69821 271.04731 264.48276 279.46615 323.17418 357.29069 384.21806 402.45981 404.10201 465.78584 465.96175 477.75425 397.64842 361.67300 325.68315 288.23601 252.53008 219.22454 238.70006 203.98029 52.15074 49.82021 56.90845 -9.73157 -92.97764 -135.72080 -356.19110 -586.69217 -1702.46636 -3203.32028 -3751.75351 -4066.53487 -4138.42348 -4212.16735 -4549.11291 -4612.27386 -4390.03624 -4239.54722 -3657.05950 -3369.21759 -3348.99119 -3439.51035 -3485.43644 -3467.35910 -3381.46423 -3291.79349 -3256.27910 -3289.93301 -3305.49422 -3324.38414 -3334.97272 -3352.05554 -3362.64878 -3379.40656 -3400.87729 -3420.85995 -3433.92968 -3448.94086 -3459.60848 -3475.89404 -3489.44939 -3492.88799 -3492.98799
-4776.73680 -4776.63680 -4777.53174 -4780.80960 -4783.74034 -4785.25772 -4785.93618 -4786.25521 -4786.06914 -4786.72469 -4787.15219 -4787.54367 -4786.73451 -4787.41026 -4787.38855 -4786.70852 -4784.74864 -4784.70783 -4784.31281 -4786.13815 -4785.09034 -4779.66347 -4766.16338 -4738.69518 -4673.52704 -4681.70301 -4704.50406 -4645.25353 -4680.75473 -4523.24637 -2092.43278 -1511.82568 -490.60200 -413.80906 -299.59875 -257.36855 -216.48156 -156.14845 -104.94734 -76.33988 -54.15415 -60.69250 -78.54520 -69.91565 -68.94397 -73.14143 -106.14796 -103.38817 -83.98457 -68.85029 -86.05101 -107.89287 -115.74997 -163.79140 -265.29536 -426.82551 -597.57742 -626.09440 -802.16937 -842.40070 -1165.94510 -1390.55407 -1329.57811 -1258.75401 -828.43174 -377.30077 -147.68319 -138.13440 -97.40182 -63.03457 -36.39259 -26.30196 19.91698 62.49271 151.86900 199.16466 433.18530 533.02077 334.97840 189.92803 262.62628 299.99212 334.37509 337.18575 341.71348 365.21245 389.44634 433.16864 452.38857 496.68363 531.86259 498.54185 410.49275 350.35966 320.27996 310.29501 286.28360 230.40727 201.65369 145.50286 103.09460 107.07403 71.72708 8.66144 -29.01122 -80.48666 -112.29370 -338.56495 -482.64100 -1978.08202 -3107.86587 -3882.30828 -3894.81101 -3953.88362 -4373.82774 -4599.12099 -4758.39750 -4515.91709 -4427.69760 -3989.25096 -3621.90128 -3332.33709 -3373.02301 -3391.26585 -3375.62053 -3306.13610 -3273.99906 -3275.79922 -3298.77122 -3311.74629 -3330.27435 -3337.82589 -3352.93399 -3372.20310 -3384.88013 -3404.70151 -3421.23671 -3442.64366 -3454.93246 -3472.16310 -3479.83263 -3483.69714 -3483.79714
-4784.96361 -4784.86361 -4786.75643 -4787.40470 -4788.18812 -4792.37784 -4791.19644 -4792.13601 -4794.10470 -4793.63715 -4795.13962 -4794.07046 -4792.36454 -4793.30173 -4792.86920 -4793.78676 -4793.11253 -4792.48741 -4792.20516 -4791.97420 -4791.06369 -4790.61738 -4783.51299 -4769.69505 -4753.55737 -4737.46249 -4774.80961 -4952.20461 -5111.16905 -4466.40649 -1823.18402 -569.78332 -403.95221 -315.80922 -262.79090 -228.11774 -187.34584 -127.58294 -100.40927 -70.76488 -20.93688 -39.68736 -39.40650 -38.13844 -52.92664 -39.48650 -51.85137 -49.77198 -58.96752 -52.37339 -43.63680 -53.30423 -89.18936 -130.20004 -139.17623 -148.51578 -145.15741 -193.01952 -218.39974 -255.23517 -302.72271 -483.44707 -579.03365 -592.63494 -291.38965 -179.60446 -98.59806 -98.10066 -76.95215 -12.40739 12.05416 21.85544 186.15233 261.00571 282.21846 269.81241 393.70694 510.14082 557.45573 305.04907 258.99389 310.44630 373.18756 394.79895 384.12560 416.57531 457.38818 477.04316 491.72770 502.82661 529.70833 488.19987 431.33999 372.58788 348.51288 352.34787 277.86040 269.13399 208.45214 209.73802 211.00878 140.41633 109.20225 44.20379 14.58789 -60.88266 -81.14322 -125.49130 -292.39170 -429.63412 -3381.05260 -3984.73698 -3892.72335 -3845.83600 -4461.08140 -4764.02394 -4771.76746 -4779.72119 -4753.12556 -4522.54598 -4195.84364 -3579.66496 -3222.58066 -3348.38030 -3344.07456 -3320.26033 -3287.66481 -3282.64268 -3294.86937 -3306.39561 -3315.43765 -3325.93761 -3343.54961 -3356.29999 -3380.05666 -3395.84175 -3411.06448 -3429.95554 -3445.67942 -3455.95183 -3464.38941 -3474.09282 -3474.19282
-4793.16390 -4793.06390 -4793.77681 -4796.13586 -4797.61007 -4798.37316 -4800.09346 -4802.28069 -4800.01170 -4800.90420 -4799.89277 -4801.48813 -4801.55549 -4799.38613 -4800.62226 -4800.38518 -4799.71656 -4799.60588 -4798.37779 -4797.23168 -4797.73514 -4795.69142 -4787.50549 -4778.37032 -4758.73838 -4762.40274 -4845.13551 -5037.47492 -5226.86229 -4426.70887 -1637.67327 -520.68510 -355.15397 -291.35424 -236.33388 -194.29720 -142.26311 -121.24014 -83.21707 -46.78784 -3.92285 32.48331 31.73007 -7.13781 27.57738 44.48406 81.82628 29.57736 -14.29615 -20.29157 -12.03719 -33.77313 -61.19991 -57.07615 -80.10544 -100.45484 -108.34447 -116.25234 -129.18004 -146.81671 -150.95781 -185.08146 -184.26345 -183.66791 -124.71472 -98.71031 -49.55760 -36.40416 -22.72267 25.33216 69.14074 42.57541 160.40599 277.37614 311.21956 384.89632 494.49173 619.44647 573.87610 410.42322 298.68380 348.41861 390.99964 428.05076 441.22421 438.86907 485.21802 499.67309 530.60980 544.74581 552.27142 491.69106 458.12667 420.88301 382.31993 379.70466 351.38213 313.73466 252.51204 265.91882 236.00498 168.91301 160.67019 114.26326 23.67830 -14.34328 -35.19005 -69.72419 -165.83276 -371.39269 -2508.80774 -3425.06349 -3615.30892 -3728.33465 -4218.74104 -4541.64114 -4779.86589 -4779.40869 -4782.09865 -4782.09479 -4365.57098 -3511.88703 -3048.73205 -3066.51467 -3311.47350 -3296.31072 -3288.35739 -3282.52191 -3288.42302 -3301.01470 -3310.42573 -3321.97137 -3333.95294 -3347.06535 -3368.74256 -3384.73946 -3398.03889 -3420.23980 -3435.01589 -3447.09117 -3458.68502 -3464.30382 -3464.40382
-4801.27937 -4801.17937 -4803.00437 -4804.79811 -4806.71070 -4808.54106 -4805.04613 -4809.67817 -4807.31039 -4811.38209 -4807.90019 -4808.55103 -4809.47716 -4807.50553 -4807.44299 -4807.27073 -4806.70751 -4805.48486 -4803.94318 -4804.97427 -4802.60471 -4798.83824 -4790.83559 -4773.64200 -4760.79843 -4759.53986 -4895.11736 -5136.75506 -4599.14980 -2397.97644 -1499.68463 -508.22028 -329.78855 -257.93857 -208.17707 -169.19033 -146.67175 -105.11265 -60.65534 -34.87733 -8.57675 56.35607 86.22829 79.71670 77.42518 129.98792 121.01956 137.11980 17.41673 28.06252 31.74480 0.07305 -26.08943 -27.75235 -46.48450 -55.85051 -72.09092 -67.80344 -67.22761 -88.05491 -90.41515 -82.15669 -85.36271 -98.83355 -102.31411 -63.98853 -34.02089 -22.50024 20.56516 23.46173 147.98626 142.04613 118.69522 229.44053 272.00062 413.78974 492.01024 656.53966 680.18908 443.71701 362.19262 361.64946 400.56694 428.39186 454.56111 461.87097 504.42590 536.15052 560.52395 576.66048 566.53330 492.10009 470.18087 465.62596 429.72822 394.18968 375.82855 336.18516 322.53859 282.98430 258.18883 225.71884 186.47823 117.49873 34.71092 10.02025 -24.30515 -43.57304 -164.18930 -295.87112 -2019.51455 -3101.24032 -3442.42256 -3646.54978 -4135.22278 -4479.59383 -4787.04060 -4785.09336 -4786.79735 -4785.90826 -4436.42455 -3294.09728 -2743.14387 -2805.14857 -3013.92275 -3266.88388 -3284.43314 -3274.51932 -3276.61357 -3294.38531 -3305.56111 -3319.02188 -3325.82025 -3344.38629 -3358.06868 -3381.97052 -3392.53956 -3410.60307 -3425.67698 -3436.60468 -3445.76037 -3454.18518 -3454.28518
-4809.44429 -4809.34429 -4810.73574 -4814.45564 -4813.07385 -4813.86223 -4815.40764 -4816.48160 -4816.98266 -4816.47767 -4816.71642 -4816.83954 -4816.46083 -4815.07499 -4815.04705 -4815.98435 -4815.10157 -4812.86643 -4813.05712 -4809.81589 -4807.36359 -4802.49209 -4789.16025 -4775.86104 -4768.57806 -4805.20860 -4930.58184 -5167.91569 -5029.59647 -2231.85499 -1293.97025 -551.42463 -316.10020 -259.82679 -206.67766 -167.77206 -131.30535 -78.96658 -47.29797 -9.38253 20.64607 66.77616 113.57551 156.31619 166.71632 289.76548 318.22788 219.61705 96.65198 86.24589 59.17019 40.02563 21.87257 21.20858 -14.67617 -23.23165 -35.94171 -42.56724 -56.92408 -62.42085 -66.28149 -65.74126 -52.47182 -52.94580 -58.06353 -20.59572 -7.61660 -9.73444 118.32528 135.47955 162.92835 204.06206 182.50423 176.54433 207.16743 316.81896 408.63588 612.35173 660.43570 604.66263 452.05254 383.36214 445.92310 491.70788 488.55190 526.47573 517.32343 572.95936 586.98723 588.07244 565.21774 559.56008 510.74827 501.14089 450.65432 420.11374 404.16187 384.33510 339.53375 279.67851 214.36482 180.43465 140.80562 77.86565 67.15274 56.04198 9.15178 -36.28328 -79.59165 -190.65184 -1055.20189 -3293.45649 -3681.88294 -3914.71295 -4031.06018 -4448.45265 -4788.86252 -4787.92903 -4788.10615 -4786.81910 -4402.04191 -3329.57009 -2554.25383 -2206.80177 -2721.82584 -3086.90642 -3274.81340 -3274.53059 -3281.33466 -3291.14330 -3300.46191 -3306.99068 -3323.41309 -3333.70374 -3352.26155 -3366.88275 -3383.30064 -3399.58888 -3416.64565 -3423.15798 -3436.65130 -3443.85784 -3443.95784
-4817.66829 -4817.56829 -4819.51263 -4819.95974 -4821.69074 -4822.09064 -4823.20110 -4823.59550 -4824.40559 -4823.16072 -4824.08912 -4824.43695 -4823.31232 -4822.61817 -4822.16498 -4821.40174 -4820.63237 -4821.46948 -4819.45841 -4817.20981 -4813.06460 -4805.17706 -4795.52050 -4780.07154 -4785.70015 -4863.36486 -4967.88867 -5081.00762 -2876.28743 -1261.03935 -606.43085 -414.95842 -293.97974 -250.39124 -177.06416 -136.56136 -128.33447 -78.72418 -48.70798 -1.97707 33.72398 66.41337 100.16784 152.93003 237.64142 342.05979 418.42430 304.76687 204.17839 124.31766 77.85827 66.75952 57.07591 35.56184 31.91908 7.15040 1.95698 -18.54408 -23.38860 -12.72095 -23.87418 -49.80253 -20.88616 -3.32820 17.47013 33.21183 17.21026 41.14505 96.98994 157.67171 231.47804 237.00999 222.66174 216.91757 239.74549 292.02449 358.41957 538.74673 588.52952 513.05567 425.25425 443.92262 474.97760 520.79820 565.01538 580.88452 566.86332 593.89059 611.49209 613.18609 595.22880 569.34452 532.34532 535.15880 478.85457 439.35300 394.02456 353.35662 278.60701 243.47507 222.42185 199.30404 144.98405 122.01750 131.43892 70.51524 26.84656 4.56047 -66.96748 -139.07169 -282.96815 -2902.21559 -3842.47921 -3964.93454 -4136.48724 -4358.27904 -4697.16007 -4788.04112 -4787.38395 -4787.72059 -4395.78034 -3745.97080 -2103.82923 -1897.28500 -2363.44277 -2944.16626 -3227.03262 -3270.21742 -3283.06635 -3292.82158 -3296.55510 -3303.07710 -3316.25259 -3326.80152 -3342.33300 -3363.59341 -3375.38573 -3389.51480 -3408.69924 -3418.78166 -3426.63109 -3433.19660 -3433.29660
-4825.89337 -4825.79337 -4826.41823 -4827.37170 -4828.51423 -4830.04237 -4829.77993 -4832.04085 -4832.21320 -4830.18478 -4830.27096 -4830.11960 -4829.88521 -4828.79861 -4830.45975 -4830.11935 -4829.57178 -4825.92579 -4824.32791 -4821.40910 -4818.84991 -4813.42665 -4807.28749 -4812.67612 -4829.31342 -4977.30708 -4977.29361 -3865.21761 -1830.99454 -752.63550 -468.16877 -334.15756 -289.92759 -244.02973 -180.91566 -132.67786 -92.97347 -75.31176 -16.71248 19.74046 28.48869 56.31851 99.76460 157.13270 284.93083 408.56260 546.81662 420.45050 269.42747 167.51210 130.05632 96.18969 80.23413 54.58628 48.13715 34.56158 32.25260 20.98993 12.82889 6.28132 5.47493 -6.45043 24.90400 15.04823 51.59344 109.61134 76.15339 90.46065 97.69462 143.91550 220.06845 230.34555 232.78449 254.18459 276.19800 323.36587 356.57057 419.16955 455.59293 494.65789 479.38878 477.64450 502.67975 516.67963 565.24013 575.81615 616.86749 632.53933 645.97478 643.36455 638.04529 595.39786 576.05377 556.92053 514.89246 426.39369 382.71236 393.84898 329.30854 309.80894 307.68896 233.21108 192.68691 192.77546 193.75518 113.92912 90.21935 40.21948 -9.31130 -83.89193 -628.21256 -2398.28605 -4009.19587 -4151.10061 -4256.38123 -4474.50476 -4696.33071 -4774.81753 -4778.46174 -4784.88649 -4441.87521 -3697.91591 -1995.79450 -1933.02102 -2091.43727 -2690.82598 -3007.89236 -3257.14357 -3281.30331 -3291.33439 -3293.29026 -3299.30654 -3306.83397 -3316.98283 -3339.21529 -3351.93073 -3362.66331 -3380.69634 -3395.07912 -3405.84925 -3417.60747 -3422.21185 -3422.31185
-4834.22261 -4834.12261 -4834.96158 -4836.54748 -4838.36626 -4839.82635 -4839.69664 -4838.60459 -4839.24366 -4839.38492 -4838.47104 -4839.58541 -4839.48041 -4838.77041 -4838.30463 -4835.37602 -4838.92412 -4834.95107 -4831.33860 -4829.31708 -4830.99470 -4837.31375 -4851.81029 -4848.35077 -4928.31459 -4974.93503 -4815.79361 -2493.27452 -1277.78815 -657.12182 -411.60945 -338.49330 -263.52153 -227.21966 -162.38475 -131.17572 -93.46294 -45.65045 2.44125 10.32788 34.99410 91.24337 115.74738 174.83635 236.67346 316.71785 493.97796 451.89387 311.86936 198.18704 160.55113 125.56363 111.97704 85.01516 73.44103 55.75090 50.80058 48.65105 38.57994 44.43029 28.71135 47.81932 63.03838 54.31652 129.26912 137.32867 106.16505 105.42165 152.43566 165.58430 194.59233 235.72185 261.07413 276.54000 310.03443 336.35261 365.10286 405.95953 460.64271 518.42244 533.36292 508.60784 541.72349 542.88712 568.11147 607.26645 652.71347 664.51763 671.26459 671.68299 654.07193 599.00817 578.35463 566.89967 504.77516 471.83010 443.48388 435.87435 379.81869 327.87325 303.20097 267.55547 268.93834 247.39614 208.58562 154.46109 98.31637 46.61680 3.53548 -57.01603 -234.38326 -2045.45780 -3643.52796 -4326.21853 -4290.55418 -4433.51243 -4681.12633 -4757.04620 -4767.77819 -4763.31689 -4609.22195 -3841.35576 -2087.54078 -1753.90145 -2027.46122 -2344.34929 -2687.90564 -3195.55948 -3266.79951 -3283.60257 -3287.23088 -3294.63771 -3303.63637 -3313.08885 -3324.41652 -3343.43259 -3357.33031 -3373.88639 -3384.44167 -3396.26542 -3404.58099 -3411.15087 -3411.25087
-4842.71322 -4842.61322 -4844.60420 -4843.92769 -4845.53785 -4844.52826 -4847.40981 -4847.63120 -4848.17999 -4848.80783 -4847.89002 -4846.35236 -4846.55270 -4844.28975 -4845.71422 -4845.62787 -4844.15725 -4840.25585 -4839.65352 -4840.20519 -4850.82468 -4888.64148 -4679.12720 -4828.02480 -4903.21908 -4755.29929 -4158.58647 -1886.74933 -1097.28858 -439.98953 -364.53289 -328.12097 -256.21502 -200.79168 -166.01811 -106.29003 -81.32138 -30.49132 2.62615 14.21704 29.15357 105.01350 155.34873 220.83641 252.42406 326.31158 431.40843 411.80294 295.94183 226.67068 179.82246 137.30842 125.66856 94.50380 85.43878 71.96120 70.97818 66.21199 66.20282 89.76481 83.72813 85.96108 132.74037 114.45883 156.50314 158.07168 141.03805 125.90329 165.32166 187.62065 224.35109 250.63318 299.65502 317.95476 352.97943 358.55264 368.09271 434.70815 465.86158 512.12822 573.14534 577.71960 581.36548 592.12816 613.72468 643.18863 679.03390 696.74686 696.97821 695.36202 670.77456 626.89915 613.61155 574.00659 533.21936 511.94377 489.20190 444.48005 416.23467 359.36526 335.85613 314.27575 280.63731 241.87632 182.78132 142.75655 98.43482 35.11175 -37.17543 -79.79037 -196.78783 -872.81081 -2508.99544 -3861.22210 -4444.72965 -4521.81175 -4704.22516 -4743.36223 -4752.94234 -4720.14644 -4422.71756 -3573.65285 -2031.86066 -1551.48405 -1661.02052 -2039.68045 -2637.48243 -3130.15658 -3226.71627 -3258.93176 -3273.98668 -3290.91330 -3300.32591 -3312.94694 -3320.63674 -3335.47161 -3350.57999 -3356.44177 -3376.23214 -3385.46996 -3393.95403 -3399.95646 -3400.05646
-4851.18263 -4851.08263 -4851.98201 -4854.29557 -4854.05965 -4854.36835 -4854.85628 -4854.25068 -4854.89515 -4857.58100 -4854.39639 -4857.17982 -4854.77554 -4856.33893 -4853.21359 -4854.83654 -4852.48746 -4850.64794 -4847.10287 -4849.26465 -4864.68269 -4916.82548 -4330.25622 -4037.11876 -3238.60911 -3728.60671 -2872.28661 -1205.12594 -538.55358 -423.18518 -324.72568 -285.66123 -225.00709 -175.28917 -137.82644 -95.40472 -49.30107 -21.01925 6.59148 29.01211 95.15839 138.68699 137.06839 201.06076 325.58704 387.28614 455.74003 426.11476 334.65271 280.33837 205.83464 156.70723 138.77399 118.87513 96.90091 93.64021 91.43350 93.27640 104.34267 112.96910 123.22953 136.98074 160.82697 146.23202 153.35271 164.14760 175.90846 173.86937 188.10085 212.96654 240.01202 278.11494 296.06648 335.74838 372.83812 396.33998 411.25359 452.75528 491.94707 540.22972 572.16364 605.02156 614.97929 624.64807 664.34438 669.81412 708.41814 731.47513 725.85644 729.99214 723.84441 651.10925 630.20143 578.64413 556.74388 512.61120 502.94068 448.15944 419.83948 409.28529 342.22983 283.57683 237.00223 189.71373 154.93341 106.55951 55.71827 11.86973 -48.24821 -81.07827 -150.87652 -364.66488 -1599.92199 -3630.30607 -4311.19925 -4557.09899 -4704.01966 -4699.56962 -4697.35225 -4689.68236 -4328.76320 -3690.93538 -1948.67581 -1521.33622 -1702.64038 -1987.86610 -2639.69743 -3112.19371 -3187.77278 -3256.94736 -3270.10059 -3285.69377 -3297.26447 -3304.01642 -3313.30782 -3330.00525 -3339.71107 -3351.87071 -3363.55721 -3373.27953 -3380.04264 -3388.52896 -3388.62896
-4859.65322 -4859.55322 -4860.14514 -4861.82820 -4862.61472 -4861.48531 -4863.83692 -4866.43140 -4860.65635 -4861.68779 -4864.94370 -4865.36621 -4865.30647 -4863.77368 -4865.13105 -4861.78503 -4857.27888 -4853.16877 -4847.10475 -4801.12760 -4739.16692 -4623.34132 -3620.34858 -2360.07662 -2423.56815 -2862.51217 -2214.28250 -1262.21977 -462.85872 -358.21236 -296.68988 -247.80181 -206.29698 -167.21762 -134.57783 -93.96059 -22.95770 -4.58832 9.67511 56.47572 147.70126 264.88131 297.88300 264.45565 332.15560 437.67545 442.25514 387.72725 369.08438 282.07339 220.50301 172.03715 150.66565 135.49706 128.26022 114.40078 118.93801 110.76616 128.24295 148.17949 153.37305 161.74912 179.40368 167.86572 171.72629 191.09935 200.95890 204.00935 221.60193 244.99789 251.28586 281.01221 303.55776 323.16424 358.18538 414.42460 436.37435 460.80754 500.25585 538.96558 562.49300 588.61160 614.53370 631.12808 664.35456 686.66460 717.50895 760.07784 758.70513 754.41371 730.49020 681.77888 648.35043 622.22320 571.49407 552.11856 518.83744 469.51733 427.70012 400.93038 345.19513 293.42237 274.43773 207.78001 169.70771 121.10907 44.41908 29.42093 -26.77918 -96.24025 -179.37390 -411.81879 -1436.25540 -2748.09158 -4270.18480 -4489.61272 -4574.40672 -4650.89305 -4668.07645 -4646.21336 -4295.78866 -3082.94761 -2128.78667 -1454.41328 -1550.07807 -1674.91871 -2317.79705 -2838.42243 -3164.71176 -3250.30623 -3268.40201 -3277.05684 -3288.52959 -3299.05639 -3311.47660 -3319.49888 -3335.16847 -3344.81128 -3354.27374 -3366.54305 -3371.12273 -3377.37135 -3377.47135
-4868.13698 -4868.03698 -4868.69411 -4871.48369 -4871.36944 -4871.77785 -4869.89564 -4871.11019 -4874.08519 -4873.36675 -4873.30983 -4872.12298 -4873.46426 -4875.71253 -4870.85035 -4863.21625 -4841.57557 -4799.46692 -4768.98074 -4575.45416 -4322.65265 -3914.64981 -3538.63401 -2136.98304 -1990.02032 -1994.54699 -1766.69776 -1112.48513 -427.89528 -318.30887 -266.75136 -197.16616 -178.15547 -151.12251 -119.09298 -77.92507 -25.04148 2.19339 10.94856 46.91270 202.58170 278.31824 339.76490 370.18095 391.18866 382.77119 367.99519 317.36248 293.77170 264.89700 221.30021 196.19968 180.88499 152.39638 144.18051 138.00988 137.85457 143.43067 154.17658 175.66932 185.96464 223.82967 221.16168 203.34550 202.61273 214.62447 219.49892 221.26225 235.34949 253.23852 265.24511 291.24263 313.11582 336.83910 359.66319 408.26264 425.50390 466.17703 503.01700 516.99481 564.15865 577.01863 611.51167 651.05966 677.17370 697.21332 746.25062 769.82948 783.06260 774.64432 749.04035 705.01302 679.50366 638.98805 601.22368 551.40170 515.28671 468.80972 436.11676 388.00294 355.94937 314.41731 285.84538 240.27394 157.42416 100.70877 73.48867 64.58342 -9.25692 -110.86052 -179.60168 -357.99463 -1484.54707 -2717.86787 -4119.83210 -4290.20542 -4486.92790 -4563.80149 -4554.53161 -4511.80925 -4189.73933 -3485.89217 -1998.20556 -1311.53542 -1331.14527 -1534.79302 -1760.09221 -2676.38860 -3061.10220 -3176.05410 -3268.95172 -3278.13676 -3279.04053 -3296.82397 -3306.35897 -3312.00205 -3325.91355 -3337.96529 -3345.99939 -3354.45095 -3360.08781 -3366.76575 -3366.86575
-4876.47951 -4876.37951 -4877.83316 -4877.15627 -4876.88414 -4879.22815 -4881.20278 -4878.84181 -4879.88175 -4881.47775 -4883.45772 -4883.45110 -4882.49052 -4877.27217 -4861.71971 -4843.41030 -4757.60841 -4636.24867 -4400.08737 -3950.09171 -3572.87108 -3363.06368 -2678.90148 -2208.45831 -1904.86355 -1293.28512 -1003.53425 -483.03741 -447.14666 -294.63155 -231.88428 -194.58247 -160.23822 -123.44424 -93.34129 -45.87943 -13.64494 1.65388 51.13085 60.95334 128.23282 199.60275 305.82368 365.21229 388.15755 370.86080 324.83545 297.84646 271.88577 254.15237 229.05620 205.19182 188.06623 166.67841 154.77007 155.55472 156.42686 163.77732 183.20586 189.71418 201.79934 230.03079 230.76516 223.27998 211.87949 227.40805 225.52017 240.26103 258.70196 267.53510 279.39611 289.46780 308.35595 341.06287 361.86618 401.77897 425.06167 468.78505 490.39069 520.94294 554.26723 569.14731 612.92579 641.16276 679.80776 707.41846 751.48157 771.19558 795.12095 786.34622 744.11016 700.40197 674.26316 625.28546 583.77410 545.36455 512.25430 484.62161 424.04836 398.15653 343.09409 307.46325 279.98657 246.24288 188.24905 128.55952 106.52783 25.29462 0.20562 -56.27401 -206.03722 -684.42966 -1589.56033 -3318.16474 -4105.36365 -4237.64935 -4487.37421 -4548.41984 -4475.07938 -4416.47375 -4176.74773 -3157.81783 -1740.04530 -1274.53733 -1280.88423 -1610.36631 -2049.17477 -2453.92580 -2955.34428 -3157.98086 -3254.55771 -3247.75225 -3265.85276 -3289.32343 -3301.13477 -3310.69996 -3317.58350 -3330.06326 -3337.01149 -3347.86571 -3350.83850 -3356.81976 -3356.91976
-4884.90830 -4884.80830 -4885.12764 -4887.23755 -4888.34100 -4889.48655 -4888.93051 -4890.88875 -4890.17851 -4891.28695 -4892.65193 -4887.15752 -4876.81780 -4847.72228 -4814.02385 -4527.30097 -4508.58009 -4158.87692 -3639.43230 -3231.37740 -2933.69057 -2122.61320 -2013.08391 -1900.72037 -1502.62209 -835.58240 -619.61924 -446.54162 -394.18518 -319.12657 -211.02502 -177.29176 -137.31883 -102.35461 -56.20689 -44.59957 -29.72658 33.51337 58.51639 82.85296 144.56814 166.66031 249.33366 394.66171 379.28971 335.84029 304.45087 282.67402 266.31998 245.06175 222.83280 212.28226 193.50437 178.11129 169.78861 167.99266 164.55362 189.85576 215.74581 217.40706 221.27154 235.37607 243.81994 247.16301 243.94649 250.01768 248.80078 257.71760 266.93582 278.20482 285.62218 297.39342 316.44853 344.52787 363.86724 392.89687 428.87178 444.71853 489.25325 539.53364 549.39216 593.51978 626.66426 629.76886 677.35941 713.82725 743.08631 773.90785 795.17744 773.13718 734.33140 699.21445 676.65615 616.92998 584.40173 538.52915 506.02889 475.32041 416.80437 390.00035 366.85754 318.97172 278.33610 257.88565 185.67292 154.47367 94.55259 -5.02553 -32.53735 -62.36031 -162.71015 -427.77063 -1193.86546 -3190.79216 -3964.76419 -4070.84312 -4239.07789 -4445.17119 -4427.34085 -4326.47858 -4184.77519 -2920.91439 -1714.28400 -1261.43674 -1555.50745 -1765.38645 -2368.64560 -2763.30371 -3084.72074 -3234.49945 -3238.06599 -3239.15839 -3253.75035 -3288.96159 -3297.71716 -3305.06097 -3309.79809 -3317.81100 -3328.71391 -3334.99466 -3342.17710 -3347.72032 -3347.82032
-4894.43125 -4894.33125 -4896.04073 -4894.75431 -4895.85061 -4898.23174 -4901.58307 -4903.48192 -4907.28323 -4904.87552 -4896.22456 -4870.13313 -4827.62828 -4679.92073 -4520.37757 -4251.46777 -3782.58970 -3459.58877 -3038.18880 -2548.22136 -2156.02105 -2050.57928 -1946.26177 -1543.82685 -991.50261 -626.10852 -491.46277 -392.75663 -359.81110 -290.45663 -214.20346 -152.40624 -126.77358 -104.64619 -59.46861 -47.05018 -23.37870 50.76780 94.26263 113.43964 171.95664 248.99278 270.72028 379.57075 357.81854 301.25801 282.79570 266.06712 247.75078 232.50077 219.71088 214.56824 197.99523 189.56633 183.08289 185.22245 188.59095 211.15673 221.86568 239.40046 251.93371 257.91863 260.13931 263.99420 269.23032 265.47419 268.24495 269.59947 277.27980 286.48213 300.70081 311.47189 333.78864 347.19776 373.88455 402.00169 427.53556 449.44626 489.05388 536.15099 541.16719 588.66367 621.40376 641.57853 692.20253 719.73136 740.66777 777.75370 796.13656 778.95997 756.85137 704.93897 679.01072 629.90445 606.73985 541.34147 497.15893 474.19190 436.03175 384.18030 325.44003 303.29748 276.26088 199.74903 188.03418 168.68430 112.96081 53.82606 6.00407 -26.34913 -89.99466 -274.86325 -1037.07136 -3329.74065 -3831.89930 -3968.92579 -4133.84987 -4257.87196 -4277.42103 -4204.27376 -3724.81965 -2505.65400 -1598.24830 -1305.11019 -1472.95079 -2167.58656 -2526.70853 -2828.64991 -3121.04707 -3211.57075 -3242.36391 -3270.73136 -3272.39838 -3284.89058 -3290.42103 -3299.51698 -3307.00167 -3313.58778 -3321.19887 -3328.46395 -3335.30058 -3339.69408 -3339.79408
-4906.75412 -4906.65412 -4908.53842 -4908.73163 -4907.77499 -4909.96592 -4914.30020 -4917.47973 -4920.39138 -4909.89105 -4893.64555 -4824.15959 -4615.87197 -4561.44977 -4213.57151 -3733.47934 -3451.93033 -3106.40708 -2580.05955 -2326.38960 -2015.12945 -1922.39831 -1815.78179 -1808.22558 -1115.97849 -581.21390 -495.15011 -373.16708 -320.01656 -247.74996 -182.96743 -142.48765 -121.25610 -95.34952 -60.26235 -20.20882 29.51454 78.54020 165.82326 178.57273 198.24212 267.69704 327.30896 369.79093 314.24562 285.64465 277.38783 252.11276 241.11572 229.85509 215.98430 210.09851 201.50505 196.78991 195.50562 196.30915 207.73301 214.58253 237.47774 264.91212 268.33745 289.71668 280.58199 279.09833 282.93140 279.67667 276.86713 286.04378 291.17409 294.68492 307.79380 319.10144 335.76806 364.27953 383.97000 402.03769 424.60819 461.96265 487.46520 523.29403 542.16430 592.06596 612.85610 651.52830 693.91003 716.70006 750.80857 780.90593 791.86376 788.28781 758.07339 714.98020 675.09525 630.40275 599.44901 529.03303 504.95991 469.78593 441.99678 386.72613 338.90786 303.80680 274.20356 237.05066 192.64474 139.68349 93.95378 48.71043 38.15936 -6.24427 -117.89035 -327.11185 -1153.25116 -3359.38581 -3859.32963 -3942.37113 -4043.91158 -4102.27166 -4206.96024 -4123.48276 -3532.62604 -1917.31120 -1280.13305 -1373.20847 -1729.62387 -2332.30341 -2674.91571 -3055.68156 -3200.60827 -3230.65061 -3250.80974 -3266.74082 -3271.46374 -3278.99429 -3286.91576 -3294.47620 -3301.10618 -3306.48350 -3315.25219 -3322.16095 -3326.93463 -3332.64402 -3332.74402
-4923.99587 -4923.89587 -4923.23182 -4922.53596 -4929.51340 -4928.11584 -4931.40082 -4934.98473 -4951.90688 -4959.42306 -4916.41596 -4797.15411 -4485.70758 -4134.49700 -3662.02265 -3507.61080 -3298.39198 -3119.69356 -2595.75843 -2291.42528 -2033.96103 -1854.14423 -1830.48227 -1830.50558 -1311.57002 -538.19869 -450.97881 -363.25987 -300.37472 -251.06885 -172.59313 -128.84989 -119.17695 -99.20562 -14.75332 -10.77229 37.91289 133.26444 238.54153 231.68840 237.29283 324.81198 359.93205 354.62086 298.39328 274.43796 267.03928 241.71149 231.86684 219.81835 211.62071 205.91693 203.71820 201.89099 205.21942 210.33995 213.98140 235.89387 268.48242 270.36444 295.97021 306.67270 307.09936 308.06331 297.92611 292.87337 294.67270 299.88201 297.12661 303.34026 311.44778 318.79884 336.45241 362.52582 378.80849 399.07956 428.53173 455.33824 493.92503 523.70206 539.54534 591.76081 618.95137 660.98752 691.68765 725.07313 760.58581 784.21373 796.94617 790.09342 754.07985 727.57582 686.33928 629.09267 568.89621 530.67688 498.69759 475.70741 459.19654 417.46761 366.55899 331.32427 297.30161 230.68766 194.97293 138.81716 118.38513 28.21813 24.60450 -34.95705 -78.69302 -134.18046 -1385.64593 -2629.61581 -3995.67084 -3959.54620 -3997.28071 -4089.53064 -4082.07655 -4047.74745 -2754.84843 -1262.67244 -1193.76589 -1451.59782 -1973.18172 -2438.16994 -2947.59489 -3161.30630 -3210.20833 -3248.30043 -3256.66854 -3261.71324 -3266.20576 -3273.66033 -3283.36866 -3290.23910 -3295.94194 -3302.45879 -3310.60386 -3313.64771 -3321.07552 -3326.56025 -3326.66025
-4944.98685 -4944.88685 -4945.84126 -4945.22586 -4949.52752 -4955.48997 -5000.66977 -5008.36751 -5029.85294 -5079.98646 -5014.20652 -4859.22329 -4532.98928 -4250.09682 -3817.47315 -3693.98288 -3551.18190 -3243.42814 -2686.99813 -2356.56497 -2062.12652 -1945.67810 -1812.35539 -1708.08323 -1367.33637 -520.92836 -441.91279 -365.89359 -282.78646 -252.12681 -193.30539 -134.65651 -107.06278 -48.42914 5.32243 33.40012 56.37778 125.21589 205.29528 274.96698 339.93091 374.02658 340.05568 298.10593 268.83585 242.19027 236.24323 225.25492 222.86950 207.68807 205.12205 202.75865 200.82616 200.13188 205.89147 214.45781 236.96237 271.58875 282.33874 295.67866 319.11709 323.44212 326.31211 321.25021 316.79008 312.67510 306.20197 311.07175 311.75874 310.51328 318.33579 329.03122 344.11891 364.97602 380.56543 408.01661 429.07082 440.63157 483.04846 516.45010 534.62970 586.73744 610.60987 654.93023 689.37981 707.77515 763.44929 784.61954 790.55357 782.94624 754.95138 716.47824 651.50707 584.50145 534.54976 510.40795 479.46710 437.28798 439.22915 409.09436 375.53103 301.63902 267.63135 215.23494 188.11078 117.64453 86.87924 27.88166 15.02362 -46.62660 -93.24286 -136.72381 -1469.63086 -2540.60391 -3905.31147 -3965.53658 -3968.85294 -4042.09475 -4051.34295 -3640.19687 -2073.50818 -814.19023 -883.59379 -1333.80456 -1971.96741 -2508.55429 -2944.69365 -3173.37624 -3227.75162 -3240.76731 -3251.47212 -3254.65972 -3262.25908 -3270.33861 -3278.04130 -3285.02852 -3291.32632 -3296.23635 -3305.63663 -3311.14882 -3316.04697 -3321.52252 -3321.62252
-5003.08943 -5002.98943 -5017.75847 -5018.83641 -5025.16857 -5048.78974 -5084.98955 -5111.11831 -5138.63270 -5152.29180 -5072.46029 -4881.79696 -4675.42323 -4380.39405 -4190.39410 -4170.12518 -4033.08623 -3697.83234 -2892.98110 -2248.53083 -2075.58581 -1966.52724 -1875.65045 -1763.16219 -1064.67410 -555.83317 -449.21673 -372.76400 -280.57761 -235.14852 -190.55851 -136.63888 -91.31360 -35.17415 31.80892 86.43020 121.83695 153.70693 231.38294 288.49036 355.77013 317.16575 276.70557 271.55218 255.72186 225.34782 212.60710 204.25969 201.37237 198.94920 201.38833 198.10509 195.23210 201.90830 219.16473 234.27845 269.75104 289.35312 334.82411 351.21023 349.03460 344.74154 344.96978 345.12342 337.13193 326.63255 319.42535 317.65684 318.83295 316.03300 331.81036 340.45889 355.39472 368.91550 385.18478 404.50860 429.08460 456.20221 489.42778 513.32794 555.00577 578.05734 614.32600 641.79020 691.41351 720.02587 767.34880 776.86575 778.15759 758.59792 732.37523 698.53121 665.27401 594.74415 535.25532 498.91057 478.50458 432.65559 400.91855 384.91586 347.61804 266.03436 248.08895 215.38185 190.89905 123.56727 53.81728 -1.23031 -55.49373 -77.48765 -111.85969 -241.63266 -1161.09188 -2835.10347 -3918.64436 -3965.91765 -3960.01147 -3925.13455 -3741.53928 -2682.87012 -892.37350 -660.37841 -883.50523 -1190.28659 -2436.67704 -2760.40381 -3031.33218 -3196.29496 -3202.69214 -3225.19772 -3245.88758 -3250.59652 -3258.18902 -3269.24301 -3275.11088 -3283.61756 -3288.29285 -3291.54644 -3299.98250 -3304.36868 -3313.14517 -3317.61811 -3317.71811
-5179.68407 -5179.58407 -5159.56400 -5147.17005 -5147.87150 -5152.36982 -5154.39747 -5089.24892 -5070.94955 -5057.46282 -4937.98152 -4774.45763 -4750.93360 -4633.72682 -4662.31080 -4622.74133 -4356.80573 -4086.06320 -3232.02818 -2347.85637 -1853.98937 -1853.63529 -1744.08577 -1494.36141 -901.82390 -645.20503 -456.90824 -391.13726 -311.25806 -231.66230 -171.66381 -143.12616 -75.82585 -36.13020 -4.88792 52.89409 155.00158 228.61617 248.77054 269.88786 262.06558 279.14920 266.20832 233.79839 223.04844 223.14917 200.63868 190.19648 180.46497 181.09774 178.50682 183.60827 188.95893 203.87275 214.43601 241.29020 277.19901 308.67344 356.35285 407.06361 401.71079 374.84833 388.53994 376.90794 347.53249 340.27795 330.93818 332.14209 330.78903 337.49346 350.17043 351.69029 358.62084 372.25152 392.48191 412.11323 430.81083 449.49784 476.67445 518.69696 556.79688 586.08387 621.97130 639.75619 672.66866 715.44940 741.45693 754.09457 757.73335 746.88491 722.42917 702.68343 670.91893 633.75561 572.41784 549.46709 510.85443 471.54559 431.08150 374.22104 316.62209 287.56387 266.26474 222.64770 176.31728 119.22563 58.72343 13.91085 -54.65875 -132.47674 -259.37087 -331.96080 -1116.22419 -3171.65494 -3901.69700 -3912.43946 -3928.42108 -3871.73782 -3229.96305 -1754.35781 -788.22641 -578.22447 -1059.56388 -1645.68626 -2365.42232 -2832.64290 -3017.94111 -3189.67255 -3225.75732 -3235.29109 -3242.09579 -3250.32091 -3258.80584 -3265.82725 -3271.86426 -3271.95244 -3281.35574 -3290.10015 -3297.35073 -3302.88197 -3309.24260 -3314.60581 -3314.70581
-5323.24541 -5323.14541 -5187.63467 -5130.86445 -5100.36521 -5039.18495 -4980.12054 -4926.04329 -4878.54072 -4885.67735 -4880.10108 -4873.03067 -4848.34158 -4869.76716 -4904.21821 -4898.99177 -4726.66774 -4430.76130 -3831.40812 -2648.41537 -1439.97526 -1458.65637 -1458.74813 -1380.42125 -857.44495 -568.82290 -460.11420 -385.74286 -320.69007 -241.40696 -181.86971 -169.93613 -51.30894 -19.29296 46.01112 104.96912 190.14386 279.61629 254.09354 212.96027 193.88233 249.42142 220.08475 202.70171 188.82266 180.47826 168.85886 174.69320 163.03393 168.28502 167.26331 174.60247 178.87551 195.98280 213.79870 230.11397 271.39745 321.25268 349.12108 417.72027 437.05385 443.51598 434.31539 395.47513 375.38925 366.43514 352.08893 342.95984 348.38558 353.30289 357.64630 359.30520 367.76201 382.55868 396.00393 412.82281 435.89344 455.47757 484.35590 513.67815 543.63814 589.12549 617.09476 648.71174 670.55426 701.32538 737.46599 738.64625 740.65984 731.26731 712.50389 690.63522 663.50244 628.56799 594.08712 579.45550 538.98509 466.21546 418.26642 371.69037 345.36060 297.35197 225.56129 163.96225 144.73952 73.59653 28.48466 7.56621 -27.65287 -183.31474 -250.32840 -629.76662 -1733.83730 -3018.86645 -3990.36616 -3902.32914 -3869.67548 -3793.59568 -2908.79169 -1208.81176 -515.23100 -642.14727 -1102.40483 -1808.47149 -2414.51246 -2867.09075 -3025.23078 -3178.14263 -3227.99610 -3233.28209 -3240.96955 -3247.87501 -3255.21355 -3264.59937 -3266.25068 -3264.68197 -3278.03486 -3286.53964 -3293.02992 -3298.78767 -3306.07751 -3312.49950 -3312.59950
-5029.51013 -5029.41013 -5013.92337 -4939.73343 -4937.87443 -4866.28254 -4846.13913 -4852.09967 -4852.35555 -4894.63941 -4931.76239 -4942.92325 -4940.03045 -4953.54011 -4948.88222 -4935.44431 -4856.61212 -4592.17915 -4175.08526 -2848.14439 -1797.19531 -1299.01802 -1230.15226 -978.24326 -660.15478 -518.16521 -440.20140 -372.91179 -331.47723 -235.53142 -187.20750 -157.82991 -78.65097 -34.09674 37.29209 139.74222 242.08028 245.95315 149.09740 154.78921 139.56760 188.79514 182.59666 158.33064 145.92225 147.03120 146.34349 143.74479 144.07244 137.78524 157.49823 171.16405 173.88833 189.28516 209.63965 226.45636 252.55746 289.88022 336.84922 379.57849 439.56656 483.18287 442.37227 397.74025 391.12988 386.87969 375.30219 364.13572 360.80168 359.87482 361.06327 362.06843 368.02647 384.64888 395.93171 417.18969 434.44593 458.55901 488.81216 508.49261 540.27395 579.58672 624.95850 647.80705 677.85933 704.92060 717.39962 731.15274 729.35863 703.17703 677.46776 677.95054 640.75728 612.16909 552.60047 545.68446 527.98727 461.67393 416.01586 358.37775 321.34844 264.74943 211.44150 147.65951 123.11488 62.52376 40.06808 19.61642 -24.78762 -188.01350 -279.46393 -925.72180 -1346.58926 -2915.15505 -4082.56778 -4163.17649 -3934.40524 -3508.91251 -2325.31359 -478.20185 -331.04197 -611.05131 -1223.33065 -2037.49939 -2480.81981 -2859.30730 -3019.09401 -3146.27469 -3218.21232 -3233.60729 -3237.90271 -3245.46142 -3255.68999 -3257.29984 -3256.35748 -3263.57012 -3272.60443 -3282.31000 -3291.13616 -3298.86400 -3305.47462 -3311.22837 -3311.32837
-4837.97268 -4837.87268 -4877.36744 -4880.30027 -4873.00207 -4890.92397 -4878.60826 -4906.51612 -4939.11515 -4965.70634 -4964.74336 -4973.64544 -4970.53079 -4967.53038 -4963.69796 -4962.72359 -4942.84759 -4799.32083 -4498.47244 -3389.07477 -2053.39998 -1122.94389 -1034.70322 -845.77996 -618.85017 -507.44527 -429.99978 -382.10364 -338.35539 -286.47832 -213.55742 -179.63755 -84.27824 -32.86648 65.29979 132.62647 109.58734 148.32885 121.46614 99.81049 92.77223 137.88137 132.71570 124.87435 121.29348 120.89745 116.63937 125.55931 126.64915 131.22899 143.08670 161.33409 167.44893 173.74094 190.15213 216.98090 246.14377 259.14386 296.29270 356.23799 410.47948 469.94727 462.32310 427.34328 417.84083 405.91264 396.31438 386.44513 376.31289 368.72913 368.47826 362.70937 367.57934 381.40174 395.42426 413.53566 440.74545 451.51797 482.02426 500.72545 548.86375 581.89703 610.15068 643.96936 664.83273 695.14757 708.02170 703.14671 688.64372 671.05427 657.98638 636.63276 617.83203 582.53556 563.98336 528.42969 489.86169 430.27699 405.67725 350.79866 312.12876 263.17822 226.11670 170.28617 141.83136 97.39805 59.56442 -5.84121 -49.26718 -155.70186 -274.35698 -504.07640 -1580.19409 -2627.59904 -3909.05437 -4418.11604 -4230.97378 -3258.17823 -1642.75490 -183.42678 -150.29834 -462.04042 -899.60534 -1835.50153 -2226.18293 -2641.11311 -3039.11043 -3158.77812 -3217.12283 -3227.45639 -3229.30595 -3232.24655 -3242.82487 -3250.58887 -3254.69075 -3262.12905 -3270.13846 -3279.62259 -3291.57821 -3296.78570 -3304.05646 -3310.76705 -3310.86705
-4932.98212 -4932.88212 -4932.19247 -4928.98040 -4948.73524 -4963.67614 -4964.69181 -4982.91756 -4982.79112 -4983.26361 -4982.91147 -4984.75951 -4984.99289 -4979.56895 -4982.50997 -4980.04235 -4969.76390 -4911.75353 -4635.12572 -3796.63864 -2802.18686 -1486.94078 -1063.08974 -900.25236 -620.19827 -512.08706 -442.84701 -393.83210 -372.17302 -291.09720 -243.88235 -199.14746 -145.84658 -94.59858 30.77608 72.64876 27.99535 45.67666 62.89414 52.20885 75.73233 70.29136 82.18903 95.18106 85.15718 81.05903 88.92882 104.98087 109.44262 118.88611 129.51424 143.34702 149.47332 158.99196 180.76402 195.96692 234.49960 266.56035 308.22957 329.69753 439.88440 484.78361 495.59564 471.20286 464.92473 434.22224 416.00787 403.25637 384.04425 375.83856 372.50061 365.85982 363.00452 374.44413 385.35270 404.53169 443.12808 462.10874 493.64812 501.75815 549.02084 574.25271 602.56437 635.57099 656.36570 680.39790 693.99995 690.79075 675.75115 641.82291 629.42940 615.67620 602.79145 574.60403 543.84208 501.85680 451.85147 425.01019 386.94916 351.47051 289.12236 246.74075 218.07705 172.74426 111.59903 57.78575 9.17118 -44.27741 -99.75730 -148.74701 -276.93183 -1074.16401 -1940.07672 -3545.08096 -4319.68758 -4459.85933 -4243.03404 -2749.66172 -856.45506 -285.14043 -149.55401 -500.89051 -1016.98904 -1816.76624 -2275.65469 -2719.75102 -3051.18415 -3192.03588 -3202.12476 -3211.85622 -3222.02838 -3227.58271 -3237.57630 -3246.49149 -3252.81687 -3261.18006 -3271.43153 -3275.53948 -3290.57360 -3297.32441 -3303.16251 -3310.94165 -3311.04165
-4990.62010 -4990.52010 -4989.03237 -4987.95763 -4992.33675 -4997.55280 -4992.25826 -4989.43573 -4997.42452 -4997.11557 -4994.36058 -4994.28443 -4997.12409 -4995.46936 -4991.71317 -4989.59960 -4967.78914 -4917.49849 -4593.55554 -4227.70000 -2753.74091 -1509.29487 -1048.69429 -881.06025 -593.27488 -564.55203 -473.61721 -419.88696 -386.66737 -333.75485 -269.16308 -219.90670 -164.82039 -140.65497 -90.39913 -61.92102 -46.86687 -8.12726 10.05758 12.67685 30.32904 17.51798 21.58406 46.28415 43.67638 53.09866 68.96492 79.51007 92.24890 108.99504 111.28567 125.65063 128.97675 153.83260 167.47712 194.33640 228.79834 243.82356 288.61117 327.17176 390.49404 429.02412 484.86997 513.32316 484.04349 448.48832 430.67896 419.30878 392.39222 391.75461 381.80453 374.18377 367.91077 367.76688 375.03070 395.97524 442.43356 458.73583 491.11969 511.35909 542.06526 564.62731 598.49316 626.67743 655.59096 671.07340 678.32079 672.79658 647.30713 626.80493 589.67371 582.24435 559.41099 546.20753 521.30487 476.99895 438.30170 394.27548 354.09340 332.57654 274.70627 239.27172 201.20168 154.02677 129.26444 81.70530 23.91771 -30.47556 -84.50637 -183.72730 -307.33148 -1185.74298 -2307.91390 -3566.58056 -4322.23415 -4457.76112 -3830.09957 -2084.54019 -958.23036 -132.96599 -183.54076 -523.66071 -1079.33790 -1706.37297 -2332.69497 -2813.91940 -3064.22615 -3190.99174 -3200.36689 -3206.76924 -3218.38979 -3229.81385 -3236.33765 -3246.45726 -3254.08310 -3261.81090 -3271.00693 -3276.81170 -3286.87597 -3296.12919 -3302.86265 -3311.52686 -3311.62686
-5000.56654 -5000.46654 -5001.94199 -5005.59696 -5005.27353 -5005.91565 -5003.51383 -5003.15387 -5008.26445 -5008.05270 -5008.15197 -5006.34543 -5006.51806 -5005.67769 -5000.40535 -4998.16161 -4975.87092 -4798.20692 -4529.09594 -3852.72798 -2561.85644 -1334.55335 -1086.63157 -903.15889 -746.96251 -670.72733 -485.28774 -450.92375 -400.86897 -372.72861 -338.15980 -259.48311 -197.58045 -160.28469 -118.16155 -101.62278 -81.83886 -58.62562 -36.04729 -18.25613 -3.71816 -20.51042 2.40254 24.39797 28.45267 30.54713 51.13085 66.02843 72.46314 83.37968 101.86928 112.84971 124.57964 141.18107 162.68876 192.54180 217.98728 244.71819 283.11215 321.53781 376.75537 406.13346 461.56399 542.65251 505.11938 482.51478 451.03557 451.52385 421.21820 411.39989 390.96599 376.68550 371.22496 365.00119 373.13708 389.98319 425.98949 447.60536 473.51990 506.04485 537.01009 556.84089 595.39196 617.30514 632.19683 643.54943 649.40698 642.86399 639.12014 603.12094 566.83423 551.71364 528.22036 527.12221 488.54140 458.13571 412.74126 356.86234 337.81569 323.09035 267.22810 226.54683 175.46766 129.80082 93.96743 51.37840 5.84276 -44.25179 -69.74634 -173.02091 -295.15867 -790.94540 -2794.33272 -4297.22421 -4461.55916 -4457.00895 -3700.73688 -2518.30577 -578.01135 -124.68357 -143.46863 -376.72027 -1234.14225 -1798.38773 -2438.73160 -2779.52337 -3121.25547 -3194.93827 -3200.58217 -3210.19501 -3220.58842 -3229.78055 -3235.15618 -3250.29193 -3254.24868 -3259.54602 -3271.92219 -3277.98826 -3287.31452 -3297.46941 -3303.52408 -3312.32043 -3312.42043
-5014.99250 -5014.89250 -5016.47336 -5016.47795 -5019.69167 -5017.76438 -5016.77866 -5018.82363 -5014.55153 -5013.84843 -5015.86271 -5019.09838 -5015.88567 -5013.31381 -5008.89432 -4998.84421 -4971.15949 -4676.69213 -4279.51065 -3465.75235 -1953.51298 -1353.16006 -1074.07438 -994.72757 -895.95045 -688.30680 -545.65463 -510.43516 -426.38521 -409.51818 -335.98631 -293.07344 -264.49902 -189.27769 -143.64209 -114.12699 -107.68985 -82.85415 -68.30869 -42.10031 -37.76044 -34.75407 -35.57308 -10.89669 -1.61036 19.61068 32.16997 46.82060 49.10879 72.61801 82.31551 94.18684 119.46098 141.20502 166.94924 184.53624 201.81952 250.45705 258.92548 319.36643 348.42190 411.19212 463.35641 534.80788 536.73131 541.53009 529.27351 493.63461 460.39068 435.28170 403.32197 379.72688 373.02883 369.82367 384.96115 401.73934 416.44405 438.18925 462.16459 496.89568 524.50922 544.09010 575.15046 599.30513 620.26635 631.11629 632.91286 635.23085 615.93195 577.81970 545.91948 511.13598 473.79161 477.71172 451.11782 423.12058 392.20171 353.29133 332.74891 294.53512 273.40719 226.89862 153.03880 113.27637 66.12260 41.25372 -5.48207 -52.51534 -83.78498 -155.94905 -212.71064 -682.26195 -2084.44969 -4045.93425 -4343.09832 -4425.91249 -4040.63614 -2884.01672 -539.11166 -127.75634 -138.53176 -535.36643 -1211.89436 -1692.84971 -2575.71830 -2892.49740 -3155.59068 -3193.64398 -3205.19129 -3212.54650 -3223.35226 -3228.91509 -3238.59177 -3247.91020 -3253.65834 -3263.75137 -3269.57558 -3278.09231 -3289.09774 -3298.31270 -3304.22259 -3313.12064 -3313.22064
