-5141.26 -5142.03 -5152.59 -5175.81 -5278.68 -5292.97 -5328.77 -5335.08 -5337.33 -5340.79 -5336.76 -5336.23 -5334.79 -5336.15 -5341.03 -5349.38 -5351.88 -5354.51 -5356.61 -5359.38 -5359.20 -5358.16 -5354.14 -5356.76 -5361.54 -5368.36 -5377.76 -5383.83 -5383.99 -5389.76 -5396.50 -5407.38 -5411.56 -5423.23 -5428.66 -5435.97 -5443.95 -5446.78 -5454.60 -5458.49 -5466.11 -5474.88 -5496.36 -5512.92 -5523.07 -5529.81 -5533.51 -5533.37 -5530.21 -5523.56 -5512.36 -5509.68 -5508.57 -5507.80 -5503.11 -5500.91 -5497.85 -5496.20 -5491.00 -5486.10 -5476.31 -5466.21 -5459.63 -5451.82 -5446.14 -5441.93 -5440.04 -5440.12 -5442.92 -5443.25 -5441.37 -5439.49 -5435.78 -5422.69 -5360.93 -5206.41 -5089.32 -4853.01 -4465.13 -4155.04 -3712.91 -3361.98 -2769.02 -2380.06 -2515.17 -4108.48 -5037.96 -6158.66 -6117.86 -5895.25 -4490.79 -2983.26 -3184.17 -4472.20 -4508.89 -4408.39 -4422.86 -4072.82 -3150.75 -1860.76 -1190.54 -769.47 -762.28 -1281.35 -1827.59 -2446.79 -3553.22 -5574.78 -7566.03 -8554.23 -8653.44 -8654.07 -8672.01 -8681.57 -8667.33 -8199.11 -5794.00 -3473.26 -2413.47 -2152.23 -2082.30 -2090.18 -2094.35 -2089.44 -2058.82 -2042.30 -2016.81 -2007.44 -2018.68 -2023.35 -2012.64 -2016.16 -2044.06 -2109.20 -2145.32 -2226.68 -2412.21 -2498.67 -2812.17 -3121.40 -3121.75
-5148.21 -5148.14 -5158.39 -5177.78 -5218.83 -5291.01 -5332.63 -5347.56 -5348.67 -5350.85 -5354.45 -5352.52 -5349.18 -5352.73 -5352.39 -5355.46 -5356.82 -5359.56 -5362.14 -5363.20 -5364.19 -5364.64 -5364.35 -5367.61 -5372.71 -5380.53 -5390.30 -5396.01 -5391.54 -5401.89 -5410.66 -5416.17 -5423.57 -5435.85 -5443.67 -5448.33 -5452.20 -5457.09 -5464.85 -5470.42 -5473.55 -5489.72 -5499.64 -5512.34 -5522.91 -5524.06 -5526.67 -5526.61 -5526.72 -5522.71 -5510.18 -5508.29 -5507.05 -5505.14 -5502.65 -5499.08 -5495.69 -5491.76 -5490.02 -5485.41 -5479.29 -5469.40 -5462.68 -5453.12 -5448.86 -5445.03 -5443.10 -5443.03 -5445.18 -5444.31 -5440.61 -5440.36 -5435.69 -5427.48 -5356.36 -5043.62 -4900.68 -4540.61 -3906.71 -3799.94 -3468.61 -3112.55 -2623.46 -2528.01 -2906.11 -4336.37 -5823.46 -5812.62 -4980.36 -4221.05 -2303.65 -1975.28 -3120.78 -3697.03 -4264.87 -4280.80 -4231.42 -4057.90 -3827.06 -2134.19 -1250.41 -911.35 -800.29 -1054.93 -1537.59 -2334.80 -3398.21 -4519.70 -6794.28 -7959.94 -8470.33 -8631.87 -8649.41 -8668.07 -8654.31 -8164.70 -6404.29 -3740.61 -2671.57 -2149.70 -2081.76 -2088.46 -2094.90 -2088.99 -2067.21 -2053.08 -2023.56 -2010.20 -2000.68 -1990.90 -1987.51 -1983.03 -1989.78 -1997.67 -2059.37 -2146.94 -2258.10 -2422.66 -2691.77 -3084.03 -3084.49
-5157.69 -5157.61 -5166.94 -5179.99 -5214.39 -5273.67 -5333.41 -5357.03 -5365.50 -5368.16 -5367.90 -5368.31 -5373.98 -5367.39 -5363.48 -5359.21 -5357.61 -5359.74 -5358.37 -5359.88 -5363.73 -5370.90 -5374.77 -5387.07 -5391.04 -5399.02 -5403.55 -5407.79 -5412.48 -5419.43 -5425.82 -5430.65 -5441.68 -5448.19 -5454.88 -5467.16 -5467.61 -5469.93 -5477.71 -5480.51 -5487.42 -5491.11 -5503.87 -5509.40 -5516.97 -5520.21 -5520.39 -5521.64 -5519.98 -5514.77 -5507.56 -5505.81 -5505.59 -5504.41 -5502.18 -5498.57 -5491.50 -5488.42 -5485.61 -5485.15 -5483.01 -5478.48 -5469.21 -5461.07 -5455.34 -5451.04 -5449.00 -5451.45 -5450.06 -5445.87 -5441.12 -5443.24 -5444.75 -5437.06 -5378.23 -5171.13 -4515.46 -4242.83 -3819.66 -3549.75 -3043.37 -2776.73 -2458.39 -2904.88 -3243.83 -5832.58 -6034.67 -4931.42 -3453.44 -2031.28 -1625.14 -1720.89 -2814.98 -3568.95 -3975.84 -4079.88 -4080.20 -3995.11 -3312.38 -2030.15 -1460.48 -1028.29 -849.22 -1059.14 -1533.20 -2163.84 -2812.63 -3336.00 -6259.82 -7676.71 -8476.39 -8621.52 -8630.84 -8648.37 -8623.93 -8425.90 -7188.04 -5391.49 -2770.13 -2211.67 -2083.71 -2087.75 -2093.06 -2089.67 -2072.30 -2054.85 -2028.94 -2014.74 -1998.90 -1981.83 -1972.97 -1967.82 -1971.70 -1983.65 -2022.73 -2082.05 -2217.04 -2356.70 -2582.17 -2694.10 -2694.27
-5163.52 -5164.40 -5171.09 -5183.99 -5213.11 -5259.21 -5323.28 -5360.03 -5375.36 -5380.36 -5382.02 -5381.97 -5380.53 -5381.50 -5378.46 -5371.30 -5365.09 -5362.94 -5360.07 -5361.36 -5364.29 -5370.31 -5387.85 -5397.08 -5400.35 -5404.91 -5411.55 -5421.24 -5422.41 -5426.90 -5433.25 -5438.31 -5453.67 -5459.88 -5462.65 -5472.93 -5475.38 -5481.94 -5486.43 -5489.42 -5493.62 -5498.13 -5503.76 -5509.40 -5514.96 -5515.98 -5515.47 -5517.92 -5515.32 -5509.26 -5506.65 -5505.41 -5505.20 -5504.52 -5503.20 -5499.10 -5493.00 -5489.02 -5485.16 -5484.94 -5485.74 -5478.60 -5473.48 -5466.45 -5461.22 -5459.62 -5459.01 -5456.57 -5454.21 -5447.09 -5445.77 -5447.30 -5447.61 -5442.45 -5381.81 -5187.52 -4741.94 -4028.62 -3704.64 -3420.98 -2985.92 -2587.81 -2398.54 -3384.15 -4859.48 -6628.62 -6102.01 -4181.87 -2634.23 -1112.40 -946.03 -2092.85 -2652.47 -3398.56 -3924.46 -3912.35 -3910.66 -3807.49 -2773.91 -2046.77 -1457.99 -1049.71 -864.69 -1013.03 -1717.62 -2283.76 -3365.94 -4237.72 -6802.20 -8216.55 -8530.63 -8602.93 -8619.17 -8629.18 -8622.52 -8470.40 -7490.96 -5319.99 -2979.84 -2244.04 -2095.27 -2081.85 -2085.79 -2087.22 -2071.71 -2053.99 -2035.26 -2008.86 -2000.78 -1981.36 -1971.64 -1962.45 -1961.95 -1975.11 -2005.80 -2054.55 -2173.11 -2340.91 -2514.15 -2593.98 -2594.08
-5166.63 -5166.55 -5174.07 -5184.49 -5205.16 -5238.44 -5307.40 -5355.67 -5382.40 -5390.97 -5393.97 -5395.95 -5401.30 -5396.02 -5389.42 -5381.85 -5376.63 -5372.76 -5369.12 -5368.46 -5370.94 -5383.92 -5393.40 -5400.36 -5405.45 -5411.75 -5418.45 -5424.63 -5427.75 -5435.20 -5440.62 -5448.29 -5458.45 -5466.70 -5471.35 -5480.39 -5482.70 -5488.85 -5493.10 -5496.20 -5499.40 -5502.87 -5507.30 -5510.23 -5513.08 -5514.31 -5515.02 -5516.01 -5512.30 -5510.34 -5506.70 -5505.61 -5506.10 -5506.35 -5505.51 -5503.23 -5496.84 -5494.16 -5489.56 -5488.81 -5488.70 -5490.78 -5492.59 -5481.73 -5479.64 -5472.75 -5471.53 -5462.12 -5459.99 -5455.14 -5456.32 -5455.99 -5433.41 -5366.43 -5311.28 -5144.06 -4800.08 -4264.35 -3547.79 -3185.55 -2889.01 -2610.87 -2571.57 -3185.37 -4358.74 -7126.32 -7220.76 -3800.92 -1924.42 -756.12 -976.27 -1781.44 -2898.22 -3393.95 -3784.68 -3630.82 -3589.80 -3570.66 -3097.53 -2034.56 -1382.83 -960.65 -744.32 -952.50 -1578.34 -2413.71 -3651.04 -5670.89 -7459.56 -8092.61 -8523.96 -8575.43 -8602.25 -8610.08 -8613.27 -8590.90 -7623.54 -5962.96 -3394.42 -2237.14 -2108.89 -2078.62 -2082.92 -2083.52 -2067.27 -2056.64 -2031.50 -2010.93 -1995.93 -1981.50 -1967.95 -1956.99 -1955.65 -1957.06 -1969.49 -2018.79 -2161.02 -2315.57 -2421.68 -2561.55 -2561.63
-5167.62 -5168.55 -5176.52 -5188.69 -5198.92 -5228.40 -5288.38 -5340.71 -5376.81 -5404.20 -5405.22 -5411.03 -5409.44 -5407.46 -5398.98 -5391.95 -5384.46 -5380.31 -5379.13 -5374.95 -5382.29 -5392.45 -5398.54 -5404.39 -5409.30 -5413.62 -5419.66 -5426.74 -5431.53 -5436.27 -5444.22 -5449.96 -5460.06 -5468.01 -5474.93 -5481.47 -5484.85 -5490.84 -5494.48 -5497.12 -5500.51 -5504.44 -5507.52 -5510.59 -5512.56 -5513.69 -5514.38 -5514.47 -5513.85 -5511.47 -5506.68 -5506.14 -5507.52 -5508.24 -5507.97 -5506.29 -5501.46 -5498.08 -5496.82 -5497.39 -5499.55 -5502.54 -5496.87 -5492.84 -5489.43 -5485.24 -5479.48 -5474.18 -5467.25 -5465.66 -5463.82 -5463.19 -5392.28 -5289.68 -5233.43 -4910.66 -4732.45 -4254.41 -3758.49 -3055.75 -2937.12 -2472.77 -2279.85 -3970.15 -5278.73 -7317.25 -6868.57 -3889.71 -1765.52 -859.41 -1095.89 -1758.86 -2306.99 -3661.12 -3640.30 -3358.75 -3146.41 -3081.02 -2729.62 -2048.32 -1343.32 -890.26 -716.63 -1134.64 -1490.89 -2223.75 -3397.65 -5335.15 -7008.45 -8104.25 -8448.03 -8562.01 -8579.38 -8593.82 -8601.77 -8532.25 -8142.00 -6024.32 -3600.55 -2346.94 -2088.13 -2040.79 -2075.29 -2075.06 -2066.87 -2049.73 -2036.95 -2007.99 -1995.44 -1977.56 -1964.84 -1954.87 -1948.68 -1958.44 -1981.03 -2028.35 -2090.48 -2238.42 -2422.70 -2546.02 -2546.16
-5166.20 -5166.12 -5176.03 -5187.14 -5196.24 -5211.23 -5234.74 -5322.21 -5378.90 -5400.78 -5416.20 -5418.34 -5418.89 -5413.58 -5409.96 -5401.04 -5393.15 -5390.10 -5385.48 -5385.63 -5388.36 -5392.32 -5401.71 -5408.44 -5412.01 -5416.58 -5422.00 -5426.36 -5432.73 -5436.31 -5442.13 -5452.37 -5459.84 -5467.40 -5472.20 -5479.89 -5484.57 -5488.56 -5492.79 -5495.59 -5498.99 -5503.86 -5506.33 -5508.71 -5511.48 -5513.10 -5513.67 -5513.78 -5513.03 -5507.95 -5506.53 -5507.05 -5508.74 -5511.20 -5511.94 -5512.32 -5509.91 -5511.21 -5511.33 -5508.03 -5514.81 -5511.14 -5507.67 -5502.38 -5495.17 -5492.60 -5489.97 -5486.01 -5485.77 -5480.17 -5477.20 -5467.40 -5402.95 -5183.13 -4952.72 -4729.14 -4435.43 -4374.61 -3934.33 -3167.87 -2896.15 -2366.32 -2239.60 -2793.48 -4226.51 -7037.66 -6978.59 -4648.76 -1575.65 -1038.82 -1168.06 -1783.69 -2697.44 -3419.65 -3350.24 -2783.33 -2707.95 -2752.66 -2658.15 -2008.84 -1349.60 -1014.84 -845.25 -1088.78 -1501.91 -2165.87 -3397.95 -4192.40 -6873.40 -7915.09 -8315.02 -8513.52 -8570.20 -8576.64 -8584.00 -8564.77 -8455.29 -6703.50 -4644.74 -2440.04 -2113.82 -2055.35 -2066.62 -2067.53 -2062.09 -2044.93 -2029.48 -2007.80 -1994.34 -1974.25 -1961.08 -1949.39 -1944.12 -1951.79 -1980.78 -2011.38 -2083.37 -2218.00 -2393.32 -2445.39 -2455.08
-5160.59 -5160.51 -5172.24 -5183.86 -5192.64 -5206.33 -5222.48 -5257.86 -5327.30 -5378.23 -5407.50 -5416.48 -5420.16 -5419.96 -5415.50 -5409.14 -5401.99 -5398.42 -5392.47 -5389.94 -5390.77 -5397.42 -5402.78 -5409.29 -5411.60 -5414.85 -5421.09 -5426.01 -5432.70 -5439.05 -5445.06 -5451.80 -5460.41 -5468.19 -5472.80 -5476.48 -5474.87 -5479.02 -5482.01 -5490.57 -5492.81 -5498.09 -5502.66 -5505.39 -5509.40 -5510.18 -5511.97 -5511.36 -5510.10 -5507.08 -5505.31 -5506.43 -5508.75 -5512.46 -5513.64 -5517.52 -5518.70 -5519.50 -5523.80 -5529.53 -5530.21 -5523.93 -5518.05 -5516.82 -5514.50 -5502.73 -5499.90 -5495.19 -5492.63 -5486.03 -5483.12 -5466.60 -5362.37 -5038.42 -4736.85 -4317.08 -4146.79 -3982.26 -3523.82 -3011.98 -2638.48 -2256.35 -2239.60 -2657.32 -5060.46 -6505.01 -6721.99 -4777.82 -1382.38 -1066.75 -1218.51 -1769.99 -2544.60 -3086.60 -2848.26 -2423.75 -2387.59 -2260.88 -2234.63 -1795.08 -1504.91 -915.38 -940.79 -1156.81 -1554.43 -2125.50 -2632.89 -4038.17 -6140.06 -7262.04 -8029.66 -8536.98 -8561.47 -8572.52 -8577.38 -8560.82 -8322.86 -7466.84 -4259.65 -2737.31 -2103.67 -2063.58 -2055.83 -2056.48 -2050.26 -2040.68 -2022.41 -2005.37 -1991.65 -1971.42 -1959.60 -1948.54 -1944.58 -1948.19 -1975.86 -2021.91 -2096.56 -2219.26 -2364.65 -2436.64 -2436.75
-5148.14 -5148.07 -5163.39 -5174.24 -5190.40 -5201.78 -5217.78 -5251.25 -5290.32 -5367.56 -5390.80 -5402.29 -5409.82 -5412.20 -5411.97 -5411.19 -5408.66 -5402.86 -5401.00 -5396.42 -5394.27 -5400.06 -5405.90 -5409.54 -5411.02 -5413.01 -5417.10 -5420.64 -5429.28 -5433.34 -5442.18 -5449.89 -5460.11 -5464.82 -5469.56 -5465.89 -5465.17 -5466.85 -5470.66 -5478.96 -5483.00 -5486.28 -5495.13 -5501.33 -5505.04 -5506.77 -5508.62 -5508.84 -5507.65 -5505.80 -5502.26 -5504.24 -5508.37 -5512.27 -5516.58 -5521.99 -5526.60 -5539.48 -5543.17 -5543.61 -5538.61 -5533.93 -5529.51 -5521.84 -5519.65 -5512.86 -5508.44 -5503.68 -5499.48 -5491.45 -5461.91 -5387.23 -5231.01 -4889.78 -4504.70 -4075.33 -3918.12 -3818.61 -3498.94 -3068.86 -2635.85 -2364.58 -2333.56 -2711.84 -4885.47 -6702.01 -6451.30 -4127.97 -1341.81 -993.37 -1227.09 -1677.09 -2219.05 -2030.69 -2084.50 -2060.46 -2054.64 -1831.69 -1795.39 -1867.60 -1490.61 -865.35 -869.00 -1409.26 -1737.07 -2409.17 -3057.82 -4284.48 -5363.62 -7043.58 -8321.99 -8521.58 -8555.48 -8561.82 -8565.69 -8550.30 -8357.24 -7124.87 -5476.57 -2777.19 -2196.47 -2075.05 -2043.25 -2045.96 -2044.82 -2036.32 -2023.91 -2003.80 -1985.50 -1972.45 -1955.96 -1946.60 -1941.78 -1945.09 -1965.72 -2003.33 -2126.01 -2217.97 -2324.88 -2370.51 -2370.62
-5142.38 -5143.68 -5153.55 -5169.61 -5183.76 -5195.53 -5220.26 -5238.28 -5284.96 -5335.18 -5366.04 -5377.42 -5384.10 -5403.90 -5410.39 -5414.20 -5413.47 -5409.66 -5405.37 -5401.31 -5399.41 -5401.70 -5406.90 -5409.29 -5409.42 -5410.15 -5413.28 -5416.50 -5424.07 -5434.88 -5440.35 -5447.22 -5454.47 -5457.02 -5459.54 -5460.18 -5453.29 -5458.82 -5460.62 -5469.23 -5474.16 -5481.57 -5488.54 -5493.15 -5499.43 -5500.64 -5504.45 -5506.03 -5505.79 -5502.89 -5501.99 -5503.66 -5507.50 -5512.11 -5518.49 -5526.25 -5533.60 -5545.17 -5551.46 -5553.21 -5543.25 -5538.30 -5535.06 -5530.38 -5527.28 -5522.81 -5519.92 -5511.78 -5505.95 -5494.38 -5475.31 -5371.14 -5134.25 -4810.60 -4262.02 -4024.30 -3781.26 -3713.77 -3269.76 -3036.75 -2632.90 -2406.71 -2354.84 -2767.48 -4746.67 -6551.15 -6059.72 -3454.31 -1481.65 -836.89 -943.32 -1305.45 -1494.00 -1863.42 -1715.16 -1676.76 -1796.43 -1679.61 -1589.20 -1561.41 -1413.95 -853.66 -1040.05 -1420.16 -1839.40 -2320.05 -3348.94 -4396.25 -5736.84 -7048.20 -8190.80 -8488.64 -8544.24 -8540.32 -8544.56 -8537.08 -8488.18 -8001.99 -5343.92 -3053.34 -2260.18 -2065.34 -2038.26 -2039.64 -2039.96 -2032.67 -2021.37 -1999.96 -1986.40 -1968.05 -1953.73 -1945.35 -1941.92 -1945.37 -1959.24 -1978.85 -2069.23 -2154.10 -2270.05 -2318.77 -2318.85
-5137.60 -5137.53 -5151.03 -5165.11 -5181.37 -5193.72 -5211.48 -5222.30 -5246.88 -5277.50 -5309.53 -5326.05 -5344.23 -5372.71 -5406.58 -5415.63 -5416.23 -5412.86 -5407.71 -5404.67 -5401.95 -5402.66 -5409.82 -5409.17 -5408.05 -5407.53 -5408.37 -5410.57 -5417.55 -5422.29 -5428.36 -5434.63 -5441.93 -5446.10 -5445.73 -5440.64 -5442.92 -5439.67 -5447.83 -5453.21 -5460.35 -5470.21 -5478.71 -5487.82 -5493.58 -5496.82 -5500.13 -5501.98 -5503.77 -5502.09 -5500.45 -5502.66 -5506.95 -5512.59 -5518.98 -5526.45 -5542.01 -5550.25 -5550.58 -5553.49 -5547.27 -5542.07 -5539.14 -5534.25 -5529.52 -5525.86 -5520.12 -5516.28 -5509.90 -5474.01 -5399.60 -5209.83 -5056.62 -4889.17 -4505.77 -3815.14 -3752.41 -3456.71 -3189.62 -2873.49 -2735.54 -2624.42 -2465.76 -2687.15 -4958.92 -6431.68 -5572.50 -2294.30 -793.13 -554.68 -695.89 -1043.18 -1075.00 -1205.43 -1448.11 -1510.47 -1529.65 -1460.08 -1538.85 -1543.14 -1116.66 -888.00 -1110.70 -1405.52 -1853.36 -2274.06 -3248.28 -4400.79 -5563.69 -7290.56 -8235.91 -8470.80 -8527.50 -8535.32 -8536.51 -8534.98 -8507.10 -7871.06 -5133.42 -3148.05 -2459.41 -2052.25 -2022.63 -2023.34 -2031.29 -2025.06 -2012.12 -1998.70 -1979.57 -1967.83 -1954.66 -1947.16 -1944.04 -1947.05 -1956.18 -1987.21 -2036.48 -2130.80 -2213.86 -2318.36 -2318.43
-5133.24 -5133.17 -5147.47 -5162.94 -5177.82 -5190.37 -5203.73 -5214.30 -5226.61 -5248.90 -5256.96 -5270.56 -5285.95 -5352.75 -5378.72 -5417.51 -5416.47 -5414.69 -5409.75 -5405.84 -5403.72 -5405.01 -5408.75 -5408.73 -5407.46 -5404.48 -5404.41 -5407.23 -5410.90 -5415.62 -5419.63 -5425.11 -5429.03 -5432.38 -5436.66 -5434.67 -5429.11 -5431.49 -5435.75 -5440.97 -5446.34 -5460.90 -5471.57 -5475.73 -5483.46 -5490.20 -5493.23 -5497.59 -5499.26 -5498.80 -5498.71 -5503.60 -5507.12 -5512.24 -5518.00 -5529.67 -5542.38 -5547.24 -5550.56 -5551.80 -5546.94 -5542.77 -5538.92 -5534.76 -5530.08 -5526.10 -5521.31 -5517.53 -5506.39 -5468.15 -5368.20 -5217.24 -4937.95 -4807.12 -4389.84 -3954.15 -3586.77 -3227.60 -3018.38 -2888.64 -2720.42 -2525.43 -2539.41 -2844.77 -4442.17 -5337.51 -4447.07 -1429.73 -566.52 -338.27 -477.22 -666.08 -837.12 -1016.83 -1270.53 -1366.65 -1419.82 -1441.55 -1510.83 -1418.31 -941.13 -749.77 -1065.62 -1367.79 -2153.81 -3567.62 -4181.33 -5714.75 -6754.88 -7875.13 -8292.88 -8473.05 -8518.48 -8532.90 -8537.48 -8538.14 -8498.76 -7920.37 -6135.57 -3717.52 -2504.38 -2061.24 -2007.11 -2007.51 -2019.56 -2021.09 -2004.62 -1998.88 -1973.87 -1967.04 -1955.27 -1949.68 -1948.85 -1954.89 -1980.62 -1991.89 -2050.80 -2147.87 -2215.69 -2319.00 -2319.06
-5129.70 -5129.63 -5143.88 -5158.91 -5171.29 -5186.41 -5200.45 -5209.24 -5214.06 -5222.76 -5231.80 -5232.68 -5247.51 -5276.87 -5341.40 -5380.77 -5408.34 -5415.22 -5409.97 -5406.42 -5403.72 -5406.15 -5407.93 -5407.23 -5405.90 -5402.81 -5402.12 -5401.13 -5404.07 -5406.12 -5409.87 -5412.73 -5418.01 -5421.96 -5422.13 -5420.08 -5414.92 -5417.47 -5421.98 -5430.24 -5440.39 -5449.59 -5458.10 -5469.82 -5474.61 -5482.08 -5485.36 -5489.31 -5492.79 -5496.25 -5496.94 -5502.56 -5509.64 -5512.90 -5518.12 -5530.65 -5543.47 -5546.89 -5548.71 -5547.82 -5543.29 -5540.59 -5533.86 -5529.45 -5526.24 -5521.65 -5518.29 -5512.46 -5503.99 -5468.58 -5351.18 -5056.17 -4700.96 -4436.51 -4255.64 -3888.06 -3497.33 -3166.06 -2972.83 -2799.98 -2701.40 -2543.02 -2414.32 -2609.16 -3137.49 -4039.73 -2259.46 -762.40 -233.03 -128.99 -253.41 -545.72 -803.02 -1017.27 -1226.28 -1365.54 -1370.75 -1397.80 -1448.82 -1140.46 -817.69 -659.43 -922.33 -1531.89 -2503.31 -5113.46 -4987.46 -6449.38 -7438.59 -7885.50 -8414.78 -8508.26 -8514.74 -8535.01 -8536.78 -8531.91 -8508.30 -8353.01 -7394.60 -4216.32 -2550.66 -2103.94 -1993.70 -1994.86 -2002.75 -2014.17 -2008.08 -1989.75 -1979.08 -1967.05 -1961.07 -1953.03 -1959.60 -1983.48 -2026.99 -2060.31 -2114.21 -2228.37 -2284.37 -2349.62 -2349.60
-5127.75 -5129.57 -5142.41 -5153.68 -5168.20 -5184.46 -5194.00 -5201.13 -5205.35 -5209.01 -5215.81 -5223.99 -5229.83 -5236.02 -5283.54 -5321.49 -5346.60 -5407.64 -5410.56 -5407.99 -5405.37 -5408.76 -5408.92 -5407.48 -5405.56 -5403.45 -5400.45 -5398.96 -5398.03 -5398.61 -5398.81 -5406.85 -5404.66 -5404.51 -5406.24 -5403.19 -5400.29 -5406.35 -5410.80 -5419.19 -5428.09 -5436.09 -5445.50 -5454.94 -5461.61 -5467.07 -5479.09 -5482.37 -5485.26 -5492.72 -5501.24 -5507.23 -5518.02 -5523.37 -5526.36 -5530.44 -5543.35 -5546.08 -5545.30 -5544.89 -5539.45 -5533.77 -5529.32 -5526.20 -5518.43 -5513.20 -5512.51 -5509.29 -5501.55 -5463.95 -5325.45 -4927.76 -4662.05 -4350.23 -3968.58 -3668.60 -3464.03 -3146.10 -2923.79 -2739.03 -2622.28 -2536.68 -2307.18 -2329.06 -2779.96 -2915.23 -1427.20 -398.67 -3.83 122.14 -40.12 -534.46 -888.13 -1154.91 -1268.09 -1338.56 -1356.12 -1371.39 -1338.19 -1112.67 -653.25 -614.71 -1069.89 -1860.02 -2716.45 -4248.51 -5338.18 -6317.81 -7044.68 -7642.38 -8094.26 -8481.13 -8505.60 -8534.54 -8528.62 -8521.87 -8498.48 -8147.09 -7065.99 -4775.44 -2783.52 -2065.58 -1963.87 -1964.87 -1992.63 -2004.87 -2001.66 -1992.26 -1975.18 -1969.03 -1963.38 -1967.75 -1975.17 -2002.24 -2047.18 -2119.70 -2203.69 -2282.12 -2354.63 -2454.28 -2454.34
-5127.39 -5127.32 -5138.22 -5150.36 -5161.64 -5174.94 -5185.93 -5191.61 -5191.27 -5191.65 -5201.87 -5207.73 -5214.41 -5219.56 -5233.06 -5275.15 -5337.77 -5384.83 -5400.31 -5407.07 -5406.95 -5407.38 -5408.33 -5407.00 -5404.85 -5402.19 -5399.36 -5396.80 -5391.59 -5385.27 -5381.95 -5385.51 -5391.00 -5389.22 -5395.78 -5392.84 -5390.23 -5396.43 -5399.75 -5408.98 -5414.04 -5421.39 -5431.37 -5435.82 -5449.10 -5450.58 -5460.21 -5465.27 -5473.31 -5489.86 -5503.94 -5510.57 -5519.41 -5526.86 -5529.39 -5529.70 -5534.98 -5541.61 -5540.36 -5534.05 -5531.23 -5528.73 -5522.63 -5518.25 -5512.11 -5506.54 -5503.36 -5499.23 -5490.55 -5417.69 -5244.71 -4927.13 -4452.78 -4341.84 -3846.28 -3464.65 -3292.40 -2965.05 -2786.39 -2607.98 -2275.24 -2256.92 -2167.59 -1940.45 -1796.22 -1412.15 -963.80 -160.71 41.10 134.33 54.13 -476.60 -980.48 -1163.36 -1252.29 -1283.58 -1317.31 -1327.18 -1278.27 -1077.41 -781.47 -906.64 -1213.74 -1853.43 -3166.40 -3715.80 -4929.43 -5378.05 -5690.04 -6983.26 -8107.35 -8468.90 -8493.12 -8526.20 -8516.93 -8526.11 -8490.97 -8185.77 -7328.01 -5163.01 -2943.64 -2105.03 -1930.31 -1939.02 -1988.80 -1999.02 -1998.54 -1989.83 -1977.48 -1970.17 -1974.53 -1978.59 -1995.96 -2041.95 -2090.28 -2252.59 -2343.73 -2519.18 -2549.84 -2558.81 -2536.64
-5125.67 -5126.90 -5135.93 -5144.85 -5156.30 -5168.76 -5175.82 -5178.47 -5176.51 -5179.43 -5185.76 -5194.88 -5192.86 -5203.86 -5223.82 -5237.29 -5270.74 -5318.26 -5370.54 -5396.87 -5399.81 -5400.84 -5403.11 -5404.35 -5404.57 -5403.08 -5399.42 -5396.19 -5388.47 -5380.00 -5377.97 -5379.63 -5380.25 -5383.34 -5385.79 -5385.95 -5386.27 -5390.42 -5396.26 -5401.15 -5408.35 -5417.04 -5421.29 -5428.98 -5432.67 -5439.39 -5447.85 -5460.42 -5467.06 -5481.45 -5502.98 -5509.57 -5517.24 -5524.72 -5527.64 -5527.93 -5530.62 -5532.30 -5530.53 -5528.37 -5523.13 -5519.67 -5510.38 -5505.07 -5500.49 -5494.36 -5488.67 -5484.46 -5478.09 -5434.69 -5347.49 -4993.20 -4487.52 -4108.77 -3857.83 -3478.82 -3247.13 -3026.86 -2670.61 -2216.65 -2079.02 -2128.68 -2032.71 -1602.20 -1396.28 -1081.38 -521.55 -207.95 158.97 167.57 -32.36 -495.28 -829.16 -1065.88 -1129.32 -1199.00 -1253.64 -1287.48 -1307.64 -948.13 -797.99 -1023.11 -1341.73 -1832.27 -2519.41 -3406.01 -4200.62 -4794.79 -5713.84 -7697.59 -8296.76 -8456.17 -8479.25 -8492.92 -8503.36 -8502.57 -8491.51 -8335.33 -7936.05 -5120.00 -2995.50 -2098.03 -1926.20 -1939.79 -1978.28 -1990.42 -1997.48 -1986.08 -1979.20 -1974.65 -1986.88 -1997.51 -2013.18 -2067.15 -2178.23 -2352.97 -2520.95 -2659.73 -2705.59 -2787.35 -2787.31
-5123.33 -5124.27 -5130.94 -5140.85 -5149.80 -5159.58 -5172.93 -5172.82 -5164.17 -5167.27 -5171.62 -5173.34 -5177.84 -5186.43 -5197.84 -5222.61 -5235.51 -5271.27 -5322.58 -5361.49 -5386.69 -5392.37 -5398.24 -5402.35 -5404.45 -5402.92 -5399.35 -5395.47 -5386.93 -5381.36 -5377.85 -5378.40 -5380.80 -5384.70 -5386.58 -5385.21 -5385.82 -5389.33 -5395.89 -5401.96 -5406.72 -5415.53 -5419.38 -5425.24 -5431.49 -5435.50 -5439.87 -5447.79 -5462.80 -5479.87 -5495.72 -5508.90 -5513.01 -5519.49 -5521.62 -5524.42 -5524.82 -5528.42 -5526.94 -5524.84 -5518.03 -5511.28 -5502.65 -5496.92 -5487.86 -5485.28 -5475.19 -5469.48 -5462.63 -5426.38 -5353.29 -4973.87 -4654.43 -4132.82 -3741.08 -3359.06 -3175.96 -2783.15 -2463.86 -2178.56 -1825.35 -1432.77 -1529.09 -1227.73 -959.51 -747.82 -426.24 -70.75 131.93 167.24 74.98 -494.86 -748.43 -901.08 -1025.01 -1045.91 -1127.64 -1252.39 -1072.84 -828.24 -713.97 -772.01 -1086.33 -1760.16 -2448.31 -3475.28 -3999.32 -5316.20 -6996.64 -7929.61 -8425.28 -8454.12 -8458.04 -8472.48 -8503.42 -8496.78 -8470.65 -8425.71 -7852.18 -6240.24 -3046.14 -2125.05 -1939.71 -1945.28 -1964.92 -1980.92 -1990.54 -1989.05 -1979.45 -1984.63 -1997.59 -2031.54 -2055.90 -2105.19 -2228.07 -2373.58 -2636.05 -2807.28 -2878.81 -2944.98 -2944.94
-5120.66 -5120.59 -5126.86 -5134.60 -5141.91 -5148.77 -5157.39 -5155.85 -5148.90 -5154.26 -5157.22 -5162.63 -5165.73 -5176.47 -5181.95 -5199.41 -5208.82 -5229.04 -5255.08 -5317.45 -5366.75 -5398.13 -5416.13 -5410.24 -5400.41 -5399.22 -5398.29 -5396.55 -5389.20 -5382.48 -5380.35 -5381.42 -5384.45 -5386.27 -5390.09 -5391.80 -5390.98 -5392.42 -5400.60 -5403.38 -5407.92 -5416.12 -5419.14 -5425.67 -5429.09 -5433.40 -5436.44 -5445.38 -5457.22 -5476.35 -5488.81 -5502.84 -5506.17 -5510.19 -5516.44 -5516.40 -5517.93 -5517.82 -5519.00 -5519.62 -5509.03 -5501.18 -5493.04 -5485.47 -5477.60 -5469.72 -5463.30 -5455.83 -5443.68 -5397.49 -5290.99 -5025.42 -4653.60 -4230.21 -3746.65 -3494.10 -2901.65 -2661.23 -2195.14 -1847.65 -1602.84 -1310.81 -1161.78 -915.23 -830.88 -661.24 -371.88 -10.46 106.26 115.45 -219.04 -541.83 -652.36 -748.26 -857.17 -827.13 -1007.25 -1199.18 -1070.33 -398.38 -228.58 -448.70 -1262.97 -1671.26 -2354.85 -3378.19 -4351.52 -5594.38 -7449.40 -7956.12 -8424.32 -8442.84 -8427.65 -8460.49 -8486.45 -8466.97 -8435.15 -8407.65 -7837.28 -5945.59 -3810.46 -2144.36 -1972.19 -1940.94 -1948.90 -1969.00 -1988.69 -1988.80 -1984.92 -1984.58 -2011.11 -2049.65 -2081.52 -2129.01 -2283.43 -2377.63 -2643.55 -2750.50 -3039.90 -3107.29 -3106.57
-5116.67 -5116.60 -5122.51 -5126.72 -5133.75 -5139.54 -5147.27 -5145.07 -5142.15 -5140.44 -5146.39 -5149.96 -5155.58 -5161.00 -5176.43 -5178.87 -5190.47 -5195.95 -5209.25 -5270.57 -5341.34 -5404.14 -5412.35 -5403.34 -5388.66 -5390.69 -5392.37 -5395.43 -5390.10 -5384.12 -5382.83 -5387.21 -5391.78 -5395.25 -5394.62 -5395.70 -5396.30 -5402.05 -5405.04 -5413.59 -5418.34 -5422.45 -5424.71 -5432.31 -5434.84 -5436.76 -5443.10 -5449.02 -5453.36 -5471.76 -5486.94 -5493.41 -5498.79 -5503.30 -5507.27 -5510.23 -5511.30 -5510.45 -5509.03 -5506.48 -5497.01 -5491.89 -5485.66 -5477.43 -5466.82 -5459.35 -5452.23 -5445.23 -5424.74 -5388.63 -5298.61 -5028.14 -4738.51 -4256.50 -3954.46 -3713.62 -3196.59 -2899.93 -2220.02 -1776.13 -1351.57 -1013.54 -855.35 -764.70 -718.39 -490.86 -311.63 -126.46 -160.77 -153.65 -329.32 -511.84 -564.29 -574.96 -542.68 -688.50 -714.46 -996.93 -871.69 -315.75 -240.41 -578.56 -1040.76 -2067.81 -2658.76 -3101.97 -4493.89 -5685.04 -7045.81 -7943.29 -8410.55 -8423.19 -8427.00 -8396.87 -8425.13 -8389.39 -8351.22 -8334.51 -7940.88 -6213.61 -3327.78 -2106.35 -1915.34 -1864.65 -1911.27 -1974.15 -1990.91 -1988.98 -1986.89 -1998.95 -2023.17 -2067.40 -2110.80 -2168.77 -2310.63 -2382.75 -2599.46 -2832.61 -3031.36 -3230.82 -3230.88
-5108.86 -5107.30 -5111.50 -5115.98 -5121.68 -5122.00 -5130.73 -5134.73 -5139.50 -5147.60 -5149.09 -5151.54 -5154.92 -5158.77 -5162.50 -5164.36 -5164.92 -5166.26 -5171.96 -5212.89 -5286.84 -5338.97 -5350.38 -5369.11 -5375.23 -5380.05 -5380.20 -5389.30 -5390.63 -5388.40 -5392.42 -5396.74 -5399.14 -5403.59 -5409.84 -5407.02 -5410.42 -5412.08 -5417.96 -5427.04 -5436.52 -5435.91 -5441.59 -5449.70 -5453.10 -5450.45 -5458.26 -5461.98 -5465.82 -5471.58 -5481.10 -5484.85 -5489.21 -5490.43 -5495.47 -5499.07 -5505.39 -5504.72 -5501.83 -5497.88 -5491.42 -5487.96 -5479.11 -5468.91 -5452.43 -5445.63 -5441.35 -5436.12 -5408.55 -5367.49 -5249.92 -5122.66 -4727.67 -4334.44 -3940.63 -3646.29 -3196.72 -2738.73 -2380.38 -1758.97 -1150.10 -897.60 -759.60 -660.16 -598.04 -516.94 -374.40 -236.36 -338.52 -440.46 -463.29 -477.82 -413.91 -366.68 -336.69 -381.71 -373.25 -365.73 -528.14 -284.06 -410.80 -682.97 -1260.72 -1948.47 -2609.59 -3549.69 -4579.35 -5757.21 -7055.91 -8011.95 -8317.85 -8366.59 -8367.59 -8335.16 -8328.73 -8286.17 -8234.46 -8150.68 -7938.12 -6348.14 -3543.08 -1996.62 -1799.08 -1798.19 -1903.49 -1965.05 -1983.28 -1988.09 -1991.80 -2013.10 -2042.11 -2084.34 -2116.17 -2185.28 -2314.69 -2438.79 -2687.65 -2831.02 -3047.97 -3204.00 -3235.05
-5098.34 -5099.07 -5101.50 -5105.20 -5105.96 -5110.20 -5113.90 -5123.06 -5143.25 -5148.89 -5150.33 -5155.47 -5153.74 -5155.51 -5154.60 -5146.07 -5150.93 -5156.50 -5159.09 -5172.98 -5207.51 -5281.98 -5321.24 -5340.84 -5357.13 -5360.97 -5366.12 -5371.42 -5392.00 -5394.26 -5397.31 -5402.02 -5409.38 -5414.46 -5415.67 -5425.25 -5428.29 -5435.44 -5438.27 -5441.12 -5449.78 -5452.78 -5462.55 -5466.15 -5467.24 -5470.64 -5470.25 -5470.83 -5472.33 -5472.79 -5471.14 -5475.95 -5478.77 -5480.20 -5486.04 -5489.17 -5497.68 -5497.60 -5493.74 -5489.31 -5483.60 -5473.83 -5466.50 -5455.21 -5448.47 -5441.71 -5438.42 -5429.63 -5408.30 -5390.86 -5256.19 -5124.84 -4923.60 -4526.82 -4232.95 -3633.34 -3030.78 -2632.78 -2213.72 -1622.70 -1093.20 -817.89 -675.89 -603.78 -547.25 -476.86 -423.32 -432.85 -468.65 -454.41 -443.45 -345.74 -232.69 -215.46 -151.94 -186.03 -59.62 -18.30 -254.73 -295.52 -487.29 -871.81 -1251.73 -2068.15 -2966.51 -3749.26 -4467.97 -6134.66 -7097.57 -7860.44 -8146.57 -8240.87 -8286.68 -8220.78 -8232.46 -8210.52 -8140.01 -8019.33 -7856.17 -4535.12 -3234.42 -1865.48 -1727.83 -1793.16 -1909.85 -1966.01 -1982.19 -1987.53 -1992.88 -2005.80 -2063.32 -2118.20 -2171.86 -2255.70 -2359.76 -2570.22 -2709.26 -2921.79 -3114.30 -3241.95 -3242.02
-5093.17 -5092.94 -5094.13 -5095.84 -5098.51 -5101.16 -5108.72 -5120.93 -5136.20 -5139.05 -5141.29 -5142.44 -5145.43 -5148.61 -5147.95 -5136.03 -5133.34 -5139.40 -5147.62 -5158.65 -5175.05 -5236.33 -5287.18 -5332.83 -5349.87 -5355.88 -5359.67 -5365.17 -5380.24 -5393.36 -5400.43 -5405.97 -5413.70 -5418.66 -5422.33 -5428.85 -5434.22 -5440.56 -5446.93 -5455.21 -5460.12 -5469.75 -5472.83 -5476.70 -5476.62 -5476.79 -5476.70 -5475.50 -5473.30 -5470.31 -5468.72 -5468.52 -5468.75 -5471.46 -5473.57 -5479.10 -5485.95 -5487.89 -5486.39 -5484.80 -5479.84 -5474.00 -5459.24 -5454.58 -5444.03 -5436.21 -5424.88 -5418.13 -5396.66 -5386.59 -5268.95 -5115.89 -4820.85 -4423.07 -3735.64 -3099.57 -2738.20 -2204.18 -1820.77 -1265.60 -910.11 -686.52 -628.08 -574.30 -527.62 -495.36 -483.94 -487.85 -481.28 -415.77 -235.06 -180.43 -124.70 -31.73 6.19 19.17 50.41 114.76 112.98 94.16 -375.67 -932.74 -1494.67 -1985.80 -2703.43 -3676.33 -4640.98 -5937.57 -7317.27 -7963.27 -8010.17 -7870.48 -8119.30 -8139.45 -8142.73 -8069.24 -7951.24 -7921.26 -7522.04 -5210.26 -2856.62 -1831.03 -1698.76 -1784.17 -1872.55 -1967.44 -1976.75 -1985.87 -1989.48 -2009.28 -2035.09 -2114.54 -2192.97 -2330.00 -2440.10 -2548.91 -2767.49 -2915.32 -3108.86 -3254.54 -3254.58
-5090.15 -5090.08 -5091.49 -5092.50 -5094.86 -5095.63 -5100.88 -5110.88 -5130.13 -5131.44 -5134.98 -5136.03 -5139.36 -5142.37 -5137.94 -5124.84 -5126.95 -5128.99 -5140.58 -5147.48 -5157.22 -5196.75 -5235.73 -5311.65 -5338.39 -5350.54 -5357.91 -5362.10 -5382.39 -5392.80 -5401.16 -5408.10 -5413.18 -5417.18 -5417.65 -5405.08 -5400.45 -5423.28 -5430.70 -5443.77 -5453.54 -5465.40 -5475.84 -5480.11 -5480.92 -5479.45 -5478.55 -5476.84 -5475.86 -5467.14 -5464.07 -5462.65 -5462.24 -5463.33 -5463.68 -5465.67 -5474.15 -5478.19 -5478.21 -5472.25 -5472.51 -5464.40 -5454.74 -5444.26 -5435.52 -5433.12 -5410.78 -5403.54 -5389.27 -5381.71 -5226.83 -4988.94 -4559.89 -4343.33 -3662.68 -3069.70 -2580.43 -2013.33 -1498.46 -1079.43 -811.71 -692.12 -576.56 -558.95 -518.61 -504.45 -502.56 -487.28 -306.12 -131.64 42.13 47.58 52.42 64.22 69.99 101.27 134.07 150.77 171.48 142.96 112.11 -396.91 -1504.15 -1799.56 -2309.90 -3476.71 -3996.81 -5585.76 -5809.03 -6575.11 -7290.80 -7397.92 -7787.98 -7923.44 -7950.95 -7890.20 -7803.67 -7750.74 -7202.95 -4914.61 -2745.50 -1882.40 -1662.11 -1754.16 -1836.94 -1942.73 -1978.49 -1988.81 -1987.91 -1995.80 -2040.64 -2097.63 -2226.86 -2310.84 -2426.95 -2693.60 -2810.48 -3019.39 -3143.73 -3278.79 -3278.85
-5088.69 -5088.62 -5089.05 -5089.48 -5090.19 -5091.58 -5096.34 -5105.05 -5119.86 -5126.69 -5129.38 -5130.33 -5132.22 -5135.78 -5133.73 -5121.66 -5119.71 -5125.59 -5131.50 -5143.25 -5152.13 -5168.36 -5225.16 -5254.58 -5321.90 -5345.67 -5353.36 -5363.63 -5374.41 -5390.40 -5399.46 -5400.94 -5402.20 -5398.16 -5360.40 -5338.53 -5296.70 -5250.68 -5309.37 -5334.74 -5403.16 -5423.57 -5447.21 -5462.96 -5480.12 -5472.95 -5480.92 -5479.48 -5474.37 -5465.92 -5462.65 -5459.74 -5455.92 -5457.76 -5457.25 -5459.24 -5457.41 -5464.74 -5469.41 -5463.88 -5460.27 -5453.57 -5450.60 -5440.98 -5434.01 -5423.66 -5407.87 -5397.12 -5390.95 -5336.13 -5132.59 -4722.44 -4407.40 -3975.91 -3743.59 -2938.28 -2357.67 -1813.72 -1367.68 -1091.73 -805.81 -644.92 -581.93 -545.32 -536.33 -519.05 -513.10 -402.06 34.63 143.76 176.98 191.96 176.50 181.72 169.06 139.35 140.31 105.18 96.62 2.51 145.88 176.56 -200.20 -1312.84 -1987.34 -1986.98 -2177.79 -3397.61 -2621.81 -4839.23 -6583.97 -7017.24 -7456.05 -7669.77 -7728.00 -7577.76 -7557.89 -7491.69 -6854.39 -4663.76 -2744.20 -1702.33 -1642.49 -1724.27 -1824.76 -1909.93 -1978.48 -1992.44 -1986.39 -1990.58 -2020.88 -2041.51 -2164.11 -2216.84 -2559.78 -2815.77 -2928.21 -3124.92 -3271.33 -3295.70 -3291.87
-5091.70 -5091.64 -5096.75 -5095.27 -5092.36 -5093.80 -5096.53 -5101.64 -5118.20 -5121.66 -5124.03 -5125.77 -5129.21 -5131.45 -5127.36 -5117.89 -5117.98 -5125.48 -5133.52 -5143.22 -5152.27 -5164.97 -5175.65 -5239.03 -5301.89 -5325.96 -5328.24 -5354.57 -5365.83 -5372.44 -5371.12 -5376.35 -5333.48 -5305.28 -5224.01 -4980.03 -4625.79 -4812.34 -4907.08 -4923.94 -5155.19 -5236.89 -5315.60 -5382.46 -5400.51 -5423.50 -5467.74 -5475.88 -5473.89 -5464.68 -5461.42 -5455.63 -5453.64 -5450.87 -5451.47 -5448.24 -5450.88 -5454.35 -5452.71 -5445.81 -5446.24 -5442.36 -5440.56 -5433.58 -5430.58 -5424.94 -5417.19 -5401.33 -5393.39 -5329.58 -5092.50 -4712.66 -4402.27 -3940.82 -3602.31 -2998.19 -2338.97 -1907.91 -1374.48 -1145.71 -845.10 -652.31 -568.73 -410.44 -290.32 -347.77 -192.73 -81.33 117.13 210.98 235.51 242.57 242.22 223.57 224.28 212.85 110.33 -172.77 -321.68 -260.61 -321.73 -95.56 29.92 54.33 -130.34 -584.74 -967.99 -1044.21 -1190.87 -2778.87 -4994.25 -6799.08 -7052.71 -7349.23 -7425.48 -7422.78 -7174.00 -7190.96 -6443.52 -4558.82 -2143.86 -1647.90 -1636.92 -1752.65 -1856.22 -1933.17 -1981.50 -1993.43 -1984.97 -1985.20 -2002.05 -2031.37 -2133.04 -2251.96 -2582.44 -2828.50 -3049.27 -3168.32 -3244.12 -3312.44 -3312.51
-5111.35 -5114.14 -5111.40 -5111.22 -5101.01 -5114.48 -5108.41 -5110.13 -5114.12 -5110.79 -5108.37 -5112.31 -5114.47 -5114.97 -5121.32 -5119.50 -5121.64 -5135.91 -5139.85 -5150.22 -5157.80 -5156.64 -5123.31 -5082.75 -5137.92 -5194.66 -5271.40 -5297.30 -5339.96 -5353.75 -5330.76 -5291.75 -5018.31 -4775.29 -4524.13 -4165.45 -3526.97 -3372.12 -3709.92 -3936.68 -4218.87 -4205.00 -4756.73 -5180.94 -5097.89 -5375.85 -5425.22 -5444.93 -5444.59 -5456.58 -5454.21 -5451.18 -5451.92 -5446.87 -5442.80 -5439.00 -5434.41 -5425.63 -5424.18 -5417.17 -5411.01 -5410.40 -5408.97 -5413.75 -5420.75 -5422.23 -5412.39 -5400.74 -5392.64 -5337.86 -5181.72 -4874.50 -4478.45 -3858.14 -3636.94 -2955.58 -2431.44 -1955.54 -1449.24 -1151.20 -894.36 -725.66 -456.81 -144.20 149.48 46.32 77.08 178.23 209.98 237.20 258.10 252.10 255.10 256.39 265.89 254.11 49.74 -419.72 -1332.97 -1320.69 -1365.17 -1439.91 -1198.35 -256.73 -590.67 -486.50 -310.40 -276.63 -310.71 -664.32 -1586.29 -5430.30 -6789.51 -7094.91 -7200.32 -7167.11 -6932.77 -6805.28 -6433.05 -3634.67 -2444.47 -1506.53 -1575.36 -1735.86 -1829.83 -1945.51 -1980.46 -1998.72 -1990.10 -1984.00 -1996.94 -2029.74 -2128.08 -2240.47 -2522.15 -2819.51 -3138.75 -3297.03 -3312.49 -3367.86 -3367.81
-5152.46 -5152.43 -5154.52 -5135.38 -5142.70 -5176.18 -5147.36 -5121.88 -5108.10 -5102.08 -5101.20 -5101.53 -5104.64 -5108.03 -5118.72 -5127.76 -5138.16 -5148.72 -5156.81 -5164.66 -5162.02 -5134.95 -5086.60 -4819.48 -4509.74 -4422.25 -4824.63 -5027.75 -5031.25 -5248.86 -5127.66 -4767.58 -4489.68 -4043.01 -3479.77 -2929.11 -2590.16 -2567.58 -2748.26 -2719.24 -3060.64 -3523.56 -3441.33 -4083.65 -4416.43 -4800.87 -5366.76 -5354.54 -5396.96 -5401.10 -5432.96 -5435.36 -5430.23 -5433.84 -5433.60 -5426.83 -5415.07 -5405.96 -5394.59 -5384.77 -5383.55 -5381.56 -5384.91 -5391.93 -5393.49 -5408.40 -5410.49 -5404.57 -5370.87 -5212.00 -4978.88 -4556.94 -4274.08 -3910.80 -3152.74 -2785.49 -2327.10 -1787.69 -1451.43 -1211.36 -759.80 -605.74 -227.18 241.12 246.22 192.92 257.38 252.24 244.26 264.50 269.05 275.46 277.09 273.68 278.27 266.87 -216.58 -826.67 -2340.20 -3173.28 -2909.75 -2646.81 -2626.76 -1687.80 -1814.46 -1476.61 -1617.31 -537.76 -437.82 -349.87 -1341.10 -3660.38 -6646.90 -6756.89 -6908.92 -6642.63 -6527.57 -6347.85 -5757.19 -4532.71 -2014.45 -1520.30 -1526.22 -1669.12 -1767.90 -1892.79 -1986.29 -2003.70 -1995.26 -1984.20 -1989.69 -2010.16 -2075.77 -2247.96 -2493.89 -2695.25 -3117.00 -3324.76 -3430.22 -3475.31 -3475.33
-5217.01 -5223.95 -5226.02 -5215.51 -5199.51 -5188.05 -5168.83 -5138.19 -5135.02 -5132.96 -5113.42 -5119.90 -5124.84 -5122.27 -5133.68 -5146.25 -5173.59 -5177.22 -5189.61 -5186.49 -5174.82 -5083.33 -4713.72 -4145.01 -3428.60 -3564.97 -3577.32 -4295.38 -4412.40 -4751.86 -4531.76 -3814.65 -3177.78 -2864.66 -2540.30 -2168.98 -1992.30 -1984.95 -2076.59 -2112.05 -2301.45 -2306.20 -2529.65 -2854.63 -3653.97 -4086.78 -4728.73 -5130.41 -5202.16 -5110.78 -5223.30 -5317.98 -5403.43 -5384.83 -5417.20 -5421.49 -5409.30 -5390.93 -5382.00 -5376.63 -5374.72 -5370.92 -5373.02 -5379.14 -5380.16 -5373.87 -5377.55 -5376.90 -5338.60 -5111.33 -4709.31 -4463.61 -4236.94 -4040.49 -3062.55 -2576.43 -1987.23 -1589.65 -1243.03 -1046.61 -414.12 13.08 74.91 253.03 263.83 271.50 273.31 273.43 272.58 281.44 285.28 279.70 284.02 287.86 298.84 285.90 -26.56 -897.63 -1958.93 -2918.24 -3366.26 -3600.27 -3699.60 -3528.07 -3368.06 -3055.83 -2291.23 -1625.57 -842.43 -864.35 -1740.51 -5185.46 -6435.00 -6279.47 -6270.97 -6237.73 -6239.90 -6225.41 -5512.78 -4314.47 -2083.37 -1529.43 -1524.36 -1719.91 -1839.98 -1907.30 -1991.74 -2008.16 -1998.52 -1986.92 -1983.30 -2023.06 -2061.44 -2165.84 -2347.39 -2739.87 -3074.99 -3378.37 -3549.42 -3580.68 -3614.24
-5334.82 -5321.39 -5300.92 -5297.33 -5266.44 -5258.65 -5240.83 -5215.09 -5168.33 -5170.32 -5159.13 -5153.45 -5163.24 -5170.28 -5223.74 -5213.01 -5244.80 -5236.15 -5232.63 -5221.78 -5195.89 -5034.71 -4327.74 -3288.35 -2581.31 -2468.64 -2906.31 -3245.08 -3210.51 -3670.07 -3879.76 -3217.22 -2338.19 -2062.95 -1965.87 -1788.53 -1522.16 -1620.27 -1584.52 -1846.07 -1727.18 -1991.76 -2079.24 -2303.60 -2694.59 -3052.23 -4035.30 -4524.64 -4555.04 -4654.96 -4842.95 -5107.86 -5101.60 -5264.89 -5356.56 -5406.66 -5381.92 -5376.64 -5365.60 -5359.78 -5359.68 -5360.82 -5357.74 -5357.06 -5342.53 -5336.22 -5175.94 -5173.91 -5099.30 -4684.38 -4471.98 -4046.88 -3758.64 -3430.85 -3215.84 -2580.35 -1666.04 -1341.87 -1069.44 -155.07 243.44 254.89 259.50 270.53 276.14 290.67 300.44 293.49 295.91 307.48 306.23 301.78 305.13 317.23 317.73 285.35 236.95 -149.86 -392.75 -1769.57 -2775.88 -3788.00 -3972.41 -4048.20 -4149.67 -4128.31 -3427.06 -2776.66 -2156.08 -1689.22 -1581.32 -2669.65 -2808.27 -2742.37 -3001.12 -2666.25 -4639.35 -4784.15 -4190.82 -4457.45 -2166.02 -1765.47 -1596.06 -1713.71 -1917.74 -1992.87 -2009.33 -2012.82 -2001.27 -1987.78 -1989.70 -2022.04 -2041.21 -2177.06 -2366.90 -2704.42 -3045.11 -3467.26 -3562.01 -3689.21 -3689.28
-5427.11 -5426.98 -5389.82 -5372.40 -5355.34 -5363.31 -5362.37 -5322.93 -5295.12 -5260.14 -5240.78 -5220.62 -5266.62 -5272.67 -5292.63 -5298.78 -5297.69 -5337.06 -5335.45 -5316.74 -5237.09 -4989.98 -4128.63 -3299.24 -2147.36 -2052.78 -2056.59 -2245.95 -2439.58 -2774.05 -2795.28 -2495.63 -2100.64 -1771.89 -1440.20 -875.03 -888.49 -794.48 -1018.26 -1205.00 -1263.31 -1806.93 -1919.63 -1975.62 -2076.54 -2270.51 -2828.07 -3273.38 -3709.16 -3477.59 -3636.29 -3984.71 -4324.53 -4602.19 -5017.22 -5135.29 -5340.28 -5310.71 -5229.24 -5302.90 -5305.88 -5330.39 -5278.10 -5247.93 -5168.91 -4953.23 -4935.03 -4328.18 -3995.51 -3630.81 -3061.44 -3182.89 -3245.04 -2590.13 -2162.83 -1798.73 -847.35 -344.16 -84.80 134.84 256.71 265.56 278.82 290.86 314.61 317.68 322.22 315.23 319.10 321.79 326.47 332.72 350.55 354.51 349.63 310.89 286.56 95.57 12.85 -1311.87 -2797.13 -3762.24 -3910.48 -4162.81 -4267.49 -4308.83 -4261.52 -4217.13 -3788.89 -2695.22 -1974.09 -1318.89 -1172.67 -1215.90 -1288.46 -1471.76 -2029.07 -2067.34 -2544.57 -3709.14 -2788.40 -2029.22 -1580.18 -1702.28 -1883.96 -1985.18 -2027.88 -2022.17 -2006.12 -1994.90 -1993.10 -2004.63 -2113.70 -2149.20 -2331.36 -2768.69 -3053.46 -3573.73 -3686.76 -3707.72 -3712.18
-5475.49 -5475.41 -5473.55 -5446.14 -5429.87 -5420.46 -5412.64 -5386.40 -5391.16 -5368.63 -5356.78 -5336.38 -5343.73 -5363.11 -5379.25 -5430.16 -5435.17 -5476.52 -5429.82 -5418.51 -5354.86 -4975.29 -3933.52 -2986.46 -2152.33 -2074.31 -2087.69 -2104.98 -2063.31 -2175.91 -2265.59 -2173.48 -1805.21 -1278.75 -764.49 -386.91 -28.76 17.47 -167.96 -378.41 -313.53 -1125.14 -1866.01 -1955.34 -1750.45 -2037.47 -2172.91 -2237.22 -2463.46 -2523.77 -2759.12 -2901.05 -3292.43 -3603.33 -4160.45 -4783.80 -4940.98 -5053.04 -5071.50 -5139.09 -5093.17 -4824.76 -4997.98 -4968.28 -4696.22 -4371.56 -4299.26 -3484.79 -3328.56 -2557.75 -2462.72 -2204.61 -1867.56 -1543.74 -876.09 -278.83 201.84 252.32 258.48 263.06 267.43 276.14 297.94 319.52 323.42 325.14 335.63 354.32 347.45 353.61 361.49 387.33 391.01 379.04 362.63 331.69 315.00 276.57 108.48 -741.90 -2994.04 -3452.13 -3803.90 -4045.59 -4094.90 -4222.59 -4372.59 -4505.62 -4591.23 -3977.21 -3147.25 -2491.12 -1462.55 -1055.85 -898.89 -827.21 -1104.28 -966.00 -1505.59 -2563.56 -2322.15 -1978.15 -1696.26 -1721.60 -1827.02 -1964.16 -2028.26 -2029.57 -2013.90 -2008.41 -2013.44 -2041.35 -2111.31 -2180.22 -2348.56 -2601.62 -2958.23 -3439.98 -3609.66 -3731.45 -3731.52
-5479.29 -5479.23 -5479.88 -5477.74 -5476.39 -5473.61 -5467.96 -5462.61 -5470.88 -5462.92 -5444.65 -5458.43 -5440.39 -5473.56 -5492.48 -5481.89 -5482.41 -5506.49 -5509.41 -5497.00 -5401.92 -5118.14 -4014.45 -3263.60 -2400.04 -2405.89 -2511.17 -2475.19 -2169.30 -2074.18 -2052.56 -1905.03 -1749.56 -674.98 -181.08 236.70 247.09 262.12 254.81 123.58 -72.34 -573.93 -1440.29 -1189.22 -1193.90 -1814.43 -1860.88 -1949.39 -1972.82 -2166.29 -2229.94 -2152.55 -2120.41 -3013.42 -3020.55 -3492.23 -3896.99 -4208.98 -4235.17 -4357.28 -4088.78 -4295.82 -4074.66 -4182.16 -3720.79 -3162.51 -2657.33 -2514.33 -2212.11 -2138.90 -1981.38 -1832.69 -1383.80 -1005.48 -6.60 211.87 251.22 267.05 270.86 285.18 289.52 294.47 312.26 328.78 353.57 369.27 382.10 372.09 371.62 392.63 395.87 414.60 413.35 405.30 394.60 346.15 325.38 374.47 197.50 -200.46 -1841.34 -2923.38 -3586.84 -3833.96 -4001.25 -4104.89 -4277.48 -4540.85 -4745.83 -4852.02 -4278.51 -3388.79 -2658.49 -1687.66 -1126.18 -893.71 -730.34 -734.69 -995.71 -1508.26 -1813.70 -1946.28 -1756.53 -1827.96 -1911.09 -1973.59 -2032.82 -2032.28 -2022.53 -2018.88 -2051.91 -2071.76 -2127.79 -2247.49 -2345.00 -2606.85 -2928.19 -3398.15 -3600.91 -3733.03 -3733.10
-5472.26 -5473.01 -5473.53 -5475.30 -5476.72 -5477.28 -5477.17 -5487.47 -5490.88 -5496.50 -5495.28 -5504.20 -5511.92 -5519.95 -5523.00 -5529.17 -5533.55 -5540.28 -5547.07 -5530.42 -5452.86 -5303.95 -4588.71 -3672.79 -3611.06 -3233.20 -3483.75 -3527.33 -2765.61 -2438.18 -2119.44 -1848.75 -1411.43 -502.71 64.20 243.83 276.77 314.32 319.24 280.24 261.37 17.89 -293.03 -358.61 -478.85 -1261.59 -1549.61 -1589.21 -1702.57 -1843.26 -1823.82 -1858.35 -1953.13 -1917.70 -2294.21 -2649.22 -2752.37 -2836.97 -2942.93 -2868.47 -2879.10 -3071.69 -2792.11 -2994.77 -2728.15 -2413.20 -2393.74 -2127.77 -2084.79 -2022.46 -1856.62 -1160.07 -591.61 -53.62 215.19 287.94 296.18 292.99 290.57 308.04 312.19 323.76 337.50 359.39 372.95 388.67 396.86 395.30 402.83 409.86 423.56 440.69 445.24 435.06 415.66 383.39 376.62 376.36 312.41 -106.04 -454.65 -1704.97 -2927.34 -3341.83 -3697.18 -4158.97 -4222.37 -4353.26 -4567.77 -4930.18 -4903.45 -4780.87 -3615.57 -3169.41 -2297.16 -1297.36 -1005.91 -771.15 -802.35 -1019.98 -1295.81 -1597.15 -1661.21 -1800.80 -1930.80 -1948.38 -2009.81 -2024.62 -2030.81 -2039.05 -2050.13 -2073.25 -2148.98 -2231.25 -2385.87 -2695.38 -2935.33 -3302.58 -3570.11 -3698.30 -3698.32
-5467.83 -5468.34 -5469.01 -5470.75 -5472.64 -5475.93 -5477.79 -5485.79 -5500.22 -5504.44 -5512.99 -5519.74 -5523.62 -5532.40 -5533.14 -5532.93 -5539.26 -5546.72 -5552.71 -5552.33 -5525.77 -5421.77 -5070.78 -4765.00 -4661.91 -4887.71 -4780.81 -4308.38 -3313.14 -2635.44 -2282.73 -2065.70 -1694.67 -936.47 135.45 214.48 251.83 346.13 372.84 309.59 270.99 248.71 197.27 207.49 142.15 -86.19 -541.56 -366.71 -710.90 -1021.56 -1207.06 -1346.41 -1776.74 -1925.22 -2043.40 -2086.17 -2141.61 -2217.13 -2152.65 -2291.86 -2253.66 -2187.32 -2252.62 -2290.92 -2320.70 -2179.77 -2104.05 -2036.48 -1940.27 -1776.30 -1458.77 -414.38 24.82 267.89 320.32 370.30 333.40 314.48 315.03 319.23 319.03 344.58 350.03 377.68 388.99 408.80 420.37 425.32 430.42 424.35 442.46 476.97 467.98 466.66 443.92 435.18 431.06 404.50 392.96 176.47 -210.11 -742.55 -1509.34 -1830.52 -3131.36 -3931.30 -4253.61 -4285.96 -4489.15 -4741.01 -4827.06 -4940.60 -4847.20 -4474.86 -3441.66 -2771.31 -2270.34 -1267.21 -1090.75 -1021.67 -1057.79 -1160.51 -1426.44 -1677.94 -1774.43 -1869.94 -1908.57 -1996.23 -2040.10 -2050.18 -2058.68 -2097.97 -2182.32 -2323.58 -2459.67 -2674.84 -2943.09 -3155.92 -3495.83 -3650.89 -3679.72
-5462.87 -5463.50 -5464.33 -5466.08 -5467.27 -5469.99 -5473.74 -5486.44 -5503.23 -5507.38 -5514.63 -5520.11 -5526.02 -5533.56 -5535.47 -5534.54 -5538.07 -5549.15 -5552.01 -5555.24 -5551.04 -5535.34 -5484.75 -5395.28 -5402.84 -5426.20 -5265.12 -5081.99 -4453.89 -3633.33 -2812.03 -2278.68 -1624.31 -747.83 195.87 224.96 241.56 278.03 354.86 338.77 359.44 292.89 268.19 255.65 260.00 239.17 229.79 229.54 -28.74 -344.92 -324.89 -469.62 -1114.96 -1585.04 -1620.87 -1576.34 -1663.92 -1717.48 -1838.46 -1920.53 -1887.07 -1944.66 -2011.09 -1987.68 -2086.76 -2094.84 -2091.95 -2002.16 -1736.13 -1354.20 -826.06 91.89 267.73 286.10 328.62 386.00 327.95 327.15 329.25 332.64 345.88 375.74 377.64 395.28 409.84 421.48 437.34 448.27 445.55 459.37 486.37 494.42 493.54 489.51 477.66 471.82 482.92 456.08 463.48 535.20 77.60 -9.19 -57.77 -1092.06 -1888.08 -3017.45 -4070.61 -4157.94 -4273.12 -4569.86 -4568.70 -4762.48 -4912.88 -4963.15 -4699.14 -4077.96 -3561.49 -2874.87 -1951.82 -1165.70 -974.30 -890.49 -1198.66 -1444.04 -1619.31 -1673.43 -1874.45 -1957.94 -2039.43 -2051.01 -2072.70 -2127.75 -2232.72 -2337.54 -2523.83 -2678.11 -2831.34 -3051.91 -3453.74 -3631.83 -3672.48
-5456.12 -5456.07 -5455.65 -5458.22 -5462.70 -5463.38 -5466.89 -5476.78 -5498.80 -5504.40 -5511.14 -5517.83 -5525.52 -5531.11 -5534.45 -5532.24 -5536.82 -5544.12 -5548.48 -5554.08 -5555.73 -5548.31 -5532.61 -5536.08 -5530.34 -5526.68 -5523.69 -5396.85 -5196.04 -4799.58 -3592.57 -2671.96 -2026.32 -841.08 9.47 217.93 244.17 257.35 309.01 385.76 393.69 317.30 290.80 286.15 271.16 259.50 273.12 266.69 246.93 240.12 225.10 81.80 -609.48 -902.32 -1085.75 -1186.05 -1188.51 -1236.06 -1402.50 -1609.34 -1576.80 -1549.03 -1631.83 -1767.35 -1843.33 -1908.78 -2012.90 -1858.57 -919.75 -380.10 -7.61 266.42 328.42 339.23 350.49 341.26 336.56 339.63 343.65 361.87 369.61 378.07 386.34 404.90 419.71 433.49 452.93 464.11 470.13 478.44 494.31 499.00 508.09 512.74 512.76 529.59 512.00 477.28 422.19 575.72 378.99 209.68 108.77 -172.27 -743.72 -2441.48 -4052.19 -4043.37 -4199.45 -4388.64 -4582.19 -4800.85 -4958.91 -5147.94 -5254.01 -5074.88 -4925.30 -4426.95 -3284.41 -1986.98 -1230.16 -830.66 -961.46 -1253.94 -1357.03 -1586.45 -1655.16 -1857.64 -1944.68 -2038.43 -2073.28 -2120.05 -2197.20 -2264.31 -2437.97 -2681.73 -2937.11 -3107.09 -3421.94 -3663.69 -3663.75
-5447.78 -5448.71 -5449.97 -5450.81 -5450.90 -5457.25 -5457.94 -5472.69 -5490.69 -5501.50 -5506.08 -5514.91 -5523.93 -5529.06 -5532.82 -5530.35 -5532.49 -5539.68 -5545.75 -5548.36 -5552.24 -5555.43 -5557.65 -5559.27 -5562.42 -5563.20 -5555.10 -5541.47 -5505.33 -5261.76 -3654.96 -2361.42 -1746.26 -297.72 114.32 197.96 232.03 267.67 291.61 338.09 396.10 363.83 317.33 322.88 333.32 342.46 373.74 316.06 288.70 249.93 239.76 224.53 162.70 -262.24 -440.11 -647.49 -578.95 -820.70 -905.73 -1023.70 -1211.59 -1147.54 -1095.14 -1319.51 -1171.76 -1553.99 -1469.76 -1073.14 -560.95 -37.22 255.59 307.53 326.51 344.30 336.73 339.72 343.13 346.60 351.70 371.60 384.86 386.98 407.15 419.75 430.91 446.03 459.42 472.26 483.06 491.50 500.42 511.93 522.82 529.29 541.07 558.11 534.15 484.49 426.29 430.55 296.13 277.05 214.35 -173.50 -434.29 -3032.20 -3802.70 -3895.53 -4031.01 -4314.25 -4638.28 -4712.31 -4846.56 -5086.39 -5260.29 -5295.44 -5228.52 -4945.50 -4191.17 -2992.68 -1346.01 -770.01 -787.75 -956.21 -1054.85 -1234.54 -1509.96 -1778.73 -1897.22 -1946.85 -2058.73 -2085.75 -2147.83 -2207.31 -2326.10 -2512.47 -2769.66 -3184.23 -3408.91 -3525.77 -3527.71
-5440.39 -5440.33 -5439.62 -5443.29 -5445.93 -5450.35 -5452.72 -5468.32 -5483.25 -5500.96 -5506.78 -5515.98 -5521.39 -5530.96 -5533.30 -5522.63 -5527.08 -5531.56 -5538.81 -5541.22 -5546.85 -5554.98 -5563.11 -5566.77 -5570.60 -5572.02 -5581.45 -5582.18 -5514.85 -5301.62 -3543.53 -2269.74 -1140.30 -122.69 159.30 215.62 224.24 246.78 279.71 308.64 367.05 387.98 375.61 373.41 405.26 406.51 437.48 342.24 310.70 284.66 247.85 238.02 166.44 27.20 -119.72 -264.49 -344.74 -338.67 -491.57 -660.20 -634.27 -582.16 -627.56 -641.74 -450.50 -534.96 -589.43 -136.33 191.48 272.83 274.43 303.81 325.65 330.63 336.84 341.71 347.26 359.25 367.96 383.17 391.43 399.16 416.86 430.92 447.53 457.95 470.10 480.50 494.65 501.13 513.31 530.29 533.59 562.42 564.21 571.11 557.54 520.87 482.35 332.06 307.33 425.96 267.33 -50.61 -804.44 -2791.51 -3358.64 -3750.35 -3841.75 -4019.33 -4368.00 -4509.18 -4777.89 -4995.77 -5225.63 -5310.44 -5319.78 -5163.49 -4625.25 -2783.42 -1473.06 -687.88 -671.74 -742.43 -955.58 -1167.59 -1379.63 -1714.13 -1866.46 -1949.50 -2054.33 -2118.47 -2153.29 -2228.14 -2425.88 -2630.88 -2873.63 -3011.30 -3283.65 -3471.30 -3471.37
-5428.22 -5428.16 -5428.24 -5431.04 -5432.44 -5438.11 -5440.51 -5459.97 -5486.70 -5495.53 -5502.24 -5513.44 -5519.85 -5527.71 -5527.78 -5518.26 -5520.29 -5525.38 -5528.49 -5532.62 -5539.33 -5551.52 -5561.15 -5568.32 -5570.87 -5574.69 -5595.20 -5616.15 -5601.02 -5325.46 -4004.69 -1931.43 -208.83 31.71 191.12 210.17 227.04 251.72 266.71 309.80 353.24 383.17 387.70 397.62 475.77 545.29 509.87 392.83 331.70 293.87 257.31 246.99 236.95 169.82 14.93 -113.14 -176.73 -190.80 -245.15 -268.98 -289.23 -258.89 -83.68 -57.23 -21.25 253.54 259.66 167.08 288.96 320.94 303.40 306.26 320.58 324.15 340.14 343.34 357.49 366.57 373.61 390.05 398.80 412.69 426.10 437.73 453.90 461.21 483.64 492.58 500.55 509.76 523.24 532.25 534.36 575.00 582.82 576.35 517.42 490.05 434.62 397.00 405.79 482.17 404.21 162.13 -682.88 -1917.70 -3167.15 -3652.02 -3824.52 -4042.02 -4232.86 -4438.67 -4692.79 -4882.33 -5166.92 -5283.52 -5325.75 -5278.75 -4741.54 -3116.75 -1614.00 -523.18 -501.21 -566.99 -817.74 -1072.94 -1392.08 -1573.13 -1676.59 -1881.39 -2039.13 -2065.49 -2115.24 -2264.28 -2459.60 -2685.07 -2828.11 -3102.97 -3272.29 -3463.27 -3463.33
-5411.42 -5411.37 -5409.18 -5414.12 -5422.81 -5427.11 -5432.04 -5449.04 -5477.54 -5482.56 -5495.24 -5501.78 -5511.66 -5521.23 -5518.71 -5509.37 -5509.96 -5513.98 -5523.12 -5530.08 -5535.33 -5553.49 -5561.95 -5568.02 -5570.39 -5572.83 -5585.34 -5536.44 -5460.23 -3668.31 -2628.84 -940.52 -157.67 160.78 213.97 221.07 230.78 254.84 281.36 293.39 324.44 365.94 395.59 436.53 501.20 582.70 586.69 436.87 374.44 297.47 272.20 253.00 237.68 231.34 159.83 25.07 -95.30 -148.20 -152.92 -142.71 -113.21 -3.50 152.66 233.37 245.38 265.22 284.83 308.11 325.39 309.80 307.11 301.46 312.66 324.04 339.39 343.30 354.32 363.89 373.55 393.77 402.90 421.50 436.44 450.55 461.65 471.95 489.40 493.79 506.58 515.70 527.19 534.74 547.98 574.79 590.19 571.50 544.88 507.61 463.03 463.86 417.84 551.81 542.97 251.36 -89.74 -811.67 -2485.75 -3339.61 -3679.57 -3979.78 -4237.84 -4496.80 -4611.71 -4872.87 -5006.71 -5253.78 -5318.23 -5255.54 -4760.04 -3626.05 -2032.27 -573.11 -429.66 -478.56 -698.03 -838.45 -1159.65 -1421.98 -1628.30 -1823.90 -1964.13 -2026.31 -2076.24 -2191.10 -2341.55 -2618.42 -2904.02 -3149.69 -3288.06 -3455.39 -3455.45
-5391.45 -5393.40 -5395.26 -5397.59 -5401.41 -5407.72 -5419.24 -5428.23 -5454.91 -5471.75 -5482.78 -5490.32 -5502.26 -5512.59 -5511.28 -5504.23 -5507.48 -5511.89 -5519.10 -5524.74 -5534.27 -5552.20 -5561.82 -5561.91 -5564.55 -5533.46 -5468.89 -4682.85 -3867.92 -2907.91 -1311.85 -926.30 -122.90 120.70 220.65 226.42 239.46 265.34 283.35 306.42 333.50 366.09 411.08 457.08 513.85 608.50 605.73 524.24 361.35 307.97 291.79 257.63 244.90 236.00 230.96 94.94 15.87 -42.09 2.32 -18.69 30.01 183.09 236.75 242.83 281.60 301.26 322.64 323.84 309.45 301.15 298.81 301.58 308.09 319.43 327.46 347.18 358.27 366.17 378.83 402.63 410.19 426.73 438.57 452.33 466.18 478.60 490.33 497.49 508.22 516.96 530.50 538.77 545.58 568.95 586.55 603.68 591.32 585.47 568.82 543.63 455.06 550.09 580.15 354.78 232.61 -302.36 -1723.83 -3359.74 -3705.34 -4049.12 -4286.08 -4468.49 -4620.50 -4811.56 -4970.95 -5215.86 -5264.65 -5236.03 -5030.79 -3799.12 -1812.39 -546.98 -389.09 -411.70 -471.61 -791.10 -970.47 -1288.46 -1501.40 -1704.60 -1818.43 -1934.74 -2008.79 -2078.72 -2187.29 -2449.31 -2691.58 -2898.58 -3174.16 -3325.48 -3336.34
-5368.12 -5368.07 -5368.59 -5374.94 -5383.06 -5386.80 -5392.81 -5410.13 -5435.22 -5457.96 -5468.79 -5480.23 -5491.42 -5495.56 -5499.21 -5494.57 -5499.94 -5507.34 -5516.61 -5525.30 -5532.87 -5552.77 -5558.64 -5551.81 -5472.30 -5424.61 -5227.97 -4117.11 -3336.33 -1886.21 -1088.59 -272.92 120.62 181.11 212.49 227.92 242.29 269.74 292.78 313.68 354.65 382.04 430.46 474.29 510.64 633.54 628.08 493.54 404.71 347.97 285.01 271.64 255.81 244.58 237.52 168.33 81.51 51.93 106.55 235.82 241.79 241.15 252.55 287.53 306.25 309.31 310.32 284.48 288.97 290.88 296.29 300.91 307.44 318.20 330.40 341.91 354.95 370.37 378.65 401.42 412.88 429.60 441.96 455.30 469.49 482.03 491.25 498.69 515.70 523.12 534.08 543.80 553.76 572.48 594.73 617.35 629.21 613.60 615.89 579.14 502.92 556.78 591.80 445.42 228.47 -45.82 -469.75 -2252.31 -3483.51 -4123.31 -4322.10 -4500.10 -4618.75 -4832.12 -4977.54 -5146.69 -5225.65 -5196.20 -4885.81 -4441.76 -1801.17 -677.52 -317.61 -332.34 -374.92 -754.00 -976.35 -1311.09 -1543.18 -1545.02 -1731.36 -1832.17 -1918.57 -2029.33 -2158.10 -2394.22 -2579.98 -2934.33 -3170.30 -3294.15 -3294.22
-5341.51 -5341.46 -5337.59 -5347.52 -5351.81 -5364.41 -5364.73 -5393.11 -5415.31 -5428.77 -5441.32 -5463.97 -5476.68 -5488.29 -5494.32 -5491.02 -5494.84 -5510.66 -5518.52 -5529.31 -5535.56 -5539.00 -5488.03 -5470.47 -5202.23 -4705.22 -4261.66 -3490.16 -2616.89 -1366.48 -768.15 -48.84 146.86 200.62 230.64 235.16 249.52 257.47 295.40 322.44 350.62 388.77 427.23 474.50 521.87 595.38 577.79 535.51 393.48 349.24 309.74 279.88 264.25 247.29 238.44 221.35 149.89 122.73 203.98 242.89 249.49 272.19 304.65 306.92 302.00 295.00 287.36 275.46 274.07 278.66 288.50 297.46 302.97 318.03 324.88 333.88 347.93 372.08 381.89 397.48 417.95 440.51 448.07 458.28 474.14 485.29 494.29 508.21 517.84 533.88 544.48 554.77 561.11 575.62 596.57 619.46 637.49 641.71 651.43 641.08 594.33 629.24 633.63 600.20 286.19 220.02 -12.20 -1528.04 -3026.31 -3754.98 -4245.60 -4380.41 -4641.25 -4806.90 -5007.03 -5110.44 -5167.31 -5140.87 -4996.28 -3583.57 -2007.83 -705.18 -340.75 -289.87 -405.30 -588.71 -1012.09 -1158.49 -1251.18 -1472.10 -1712.13 -1776.69 -1905.24 -2012.13 -2158.92 -2255.64 -2604.89 -2878.53 -3016.11 -3107.58 -3107.50
-5314.02 -5313.97 -5314.34 -5319.86 -5325.54 -5335.17 -5349.05 -5360.34 -5386.34 -5403.39 -5418.30 -5446.95 -5454.40 -5474.19 -5489.09 -5495.31 -5508.40 -5526.62 -5525.52 -5520.93 -5516.05 -5471.67 -5376.01 -5090.82 -4319.88 -4098.01 -3120.82 -2646.69 -1445.81 -526.07 -119.81 100.62 195.62 237.58 238.81 245.27 260.74 270.09 301.55 334.96 384.28 406.39 445.16 509.73 545.18 615.15 609.62 536.55 468.44 379.54 323.44 283.20 271.75 253.01 247.82 235.75 215.15 214.03 242.33 258.99 274.94 315.58 330.35 309.98 291.70 277.22 263.99 267.00 272.78 274.83 286.41 291.77 302.76 312.12 323.14 337.09 357.56 370.64 385.53 399.99 425.54 440.94 450.87 468.49 479.77 490.53 507.59 514.09 523.92 545.45 549.25 559.65 567.78 579.44 591.05 609.49 628.52 654.73 688.92 699.85 685.41 678.63 611.13 668.26 297.84 170.01 42.59 -990.67 -2805.17 -3573.79 -3918.04 -4265.70 -4545.00 -4650.83 -5037.43 -5108.15 -5125.75 -5082.23 -4875.82 -3590.81 -2055.62 -572.25 -284.06 -258.54 -343.58 -580.17 -811.61 -965.59 -1117.34 -1355.76 -1651.39 -1720.53 -1831.86 -2021.28 -2145.80 -2257.66 -2374.98 -2704.12 -2860.88 -3048.08 -3048.15
-5281.04 -5283.92 -5281.88 -5295.11 -5298.74 -5303.16 -5310.99 -5344.92 -5360.22 -5381.50 -5387.62 -5413.86 -5437.58 -5451.18 -5473.56 -5494.06 -5509.73 -5518.99 -5525.86 -5456.61 -5370.07 -5129.66 -4547.73 -3988.98 -3534.86 -2827.28 -2439.71 -2013.91 -1127.77 -234.15 41.45 189.81 241.52 246.55 246.51 261.07 272.21 290.55 311.55 333.52 388.15 428.62 481.29 527.33 570.41 600.61 589.85 562.09 503.38 378.68 328.07 286.29 281.52 265.74 253.47 246.08 231.91 223.29 257.67 292.62 330.47 323.01 288.47 274.20 259.49 255.12 251.45 254.63 266.86 265.92 277.12 283.32 293.81 310.33 322.36 336.21 344.50 363.11 383.84 395.83 427.68 438.79 446.21 470.36 480.54 493.75 516.68 524.86 534.64 544.82 554.52 560.82 574.85 581.88 596.49 610.13 621.20 649.85 679.96 720.72 736.64 646.94 528.48 587.68 442.37 225.89 85.88 -914.06 -2521.16 -3597.40 -4005.47 -4135.26 -4417.56 -4552.49 -4804.69 -5083.81 -5072.88 -5056.19 -4805.00 -3567.25 -1900.14 -485.29 -262.93 -233.76 -322.93 -482.14 -591.87 -792.50 -1171.63 -1326.85 -1447.24 -1649.73 -1829.04 -1938.75 -2049.73 -2172.85 -2360.85 -2605.63 -2733.52 -2824.09 -2823.99
-5243.25 -5243.20 -5242.41 -5248.84 -5243.36 -5274.72 -5280.17 -5300.78 -5320.79 -5346.41 -5369.23 -5395.35 -5413.50 -5439.69 -5458.96 -5462.58 -5483.71 -5476.94 -5309.38 -5262.92 -4869.06 -4428.28 -3809.60 -2847.05 -2501.59 -2160.49 -2008.59 -1749.51 -654.61 123.12 204.65 242.98 248.51 257.45 263.95 267.71 280.21 293.88 306.66 348.84 431.70 453.20 508.29 548.01 561.08 546.62 517.51 500.30 384.23 372.99 350.02 309.17 289.14 271.83 259.62 253.25 247.67 251.80 279.31 304.06 311.56 295.72 279.88 250.58 246.49 246.46 249.89 253.75 256.44 260.84 268.73 283.13 288.89 299.60 317.69 328.13 347.26 364.38 383.66 404.20 415.09 441.39 456.97 467.50 481.58 497.50 513.28 527.40 538.73 547.02 559.07 568.93 577.56 585.97 595.54 610.59 619.80 642.20 671.72 718.03 741.71 688.15 629.52 722.53 490.01 226.43 92.84 -293.37 -1633.50 -3183.09 -3816.06 -4137.51 -4303.58 -4550.76 -4744.52 -4972.22 -5019.09 -4983.64 -4686.75 -3606.62 -1382.75 -651.63 -243.67 -213.73 -236.68 -437.01 -635.89 -730.86 -946.57 -1143.60 -1387.83 -1588.36 -1825.58 -1942.41 -2054.79 -2157.22 -2349.47 -2513.12 -2661.11 -2765.72 -2765.79
-5202.18 -5202.13 -5195.46 -5206.94 -5213.63 -5220.38 -5223.75 -5269.86 -5291.15 -5323.73 -5346.95 -5366.76 -5400.44 -5416.70 -5417.84 -5416.62 -5298.61 -5178.20 -4843.80 -4285.88 -3773.33 -3539.07 -2683.89 -2090.03 -2056.70 -1877.61 -1570.10 -1023.21 12.50 220.76 247.76 254.64 260.58 266.20 275.67 286.91 294.95 303.20 331.04 359.65 463.43 474.15 526.55 539.98 503.50 498.48 479.30 453.18 396.08 373.27 351.18 318.94 287.19 267.36 265.85 263.06 254.47 259.43 285.07 306.72 301.06 278.83 264.75 250.45 246.06 245.94 247.16 250.03 252.92 256.93 261.40 269.93 281.33 290.27 311.50 322.52 343.18 353.39 379.11 400.40 413.51 431.21 449.60 467.34 482.42 498.79 510.43 527.74 541.43 550.38 557.77 570.57 579.93 593.74 602.40 608.70 625.22 638.35 655.07 705.60 733.75 745.79 716.46 719.63 386.34 223.58 189.89 -458.69 -1848.51 -3499.90 -3918.27 -4069.31 -4379.81 -4638.49 -4808.88 -4946.56 -4990.63 -4919.18 -4485.55 -3564.47 -1260.42 -448.57 -173.06 -183.15 -228.46 -347.21 -507.91 -562.83 -813.44 -1194.35 -1459.91 -1503.20 -1794.91 -2016.05 -2107.72 -2208.66 -2296.34 -2482.56 -2549.84 -2629.28 -2629.26
-5158.33 -5160.89 -5157.03 -5154.56 -5164.04 -5167.62 -5194.01 -5220.57 -5267.38 -5287.85 -5313.47 -5344.04 -5350.15 -5335.52 -5325.96 -5094.67 -4808.07 -4158.22 -3672.40 -3354.86 -3236.62 -2277.12 -2078.08 -1811.77 -1728.79 -1559.08 -1105.41 -267.91 217.86 246.58 258.61 266.12 275.33 278.37 291.76 305.25 310.35 334.05 355.50 389.72 451.96 482.56 517.84 510.23 486.62 452.07 437.71 430.92 398.03 373.62 335.69 313.46 298.61 276.91 271.02 268.23 270.91 287.29 296.42 286.81 277.37 266.56 252.90 247.74 245.74 245.66 245.80 247.46 250.70 253.03 258.82 268.22 276.80 287.77 301.80 320.55 329.42 351.81 375.91 392.56 418.76 437.53 445.31 466.49 484.12 503.94 515.99 536.09 546.51 552.17 563.03 570.82 578.44 593.93 603.39 612.72 620.74 636.23 658.41 684.38 737.34 755.29 770.36 766.64 528.51 226.89 -15.49 -982.33 -1875.93 -3229.32 -3901.39 -4140.56 -4412.01 -4651.75 -4840.37 -4915.82 -4946.80 -4879.92 -4472.80 -2931.32 -1206.18 -354.20 -170.33 -166.92 -223.12 -292.34 -370.34 -536.55 -785.26 -1145.28 -1321.81 -1546.86 -1853.84 -2035.50 -2144.21 -2201.78 -2292.80 -2369.91 -2486.71 -2597.15 -2597.22
-5111.70 -5111.65 -5101.97 -5114.54 -5120.22 -5126.45 -5143.45 -5171.60 -5200.25 -5242.25 -5251.05 -5262.70 -5236.10 -5053.36 -4656.96 -4232.21 -3583.76 -3234.58 -2729.46 -2352.95 -2017.48 -1834.79 -1739.15 -1615.93 -1507.10 -1366.28 -465.02 106.88 234.87 250.80 265.63 273.15 284.61 302.19 304.47 312.11 344.54 360.79 375.94 412.54 461.41 486.57 505.27 499.70 463.04 418.12 407.39 381.47 368.99 358.58 330.78 317.40 301.43 289.69 278.24 276.90 281.73 288.47 294.02 287.67 282.45 262.46 258.95 250.68 246.26 245.55 245.50 245.74 247.26 250.99 256.75 264.43 270.76 282.79 296.93 313.22 327.89 347.30 371.47 376.85 423.69 433.93 442.65 467.64 478.71 502.79 519.94 532.49 546.37 554.38 562.02 572.90 581.71 596.49 605.25 616.96 629.57 636.99 666.06 684.86 705.95 750.03 741.89 733.01 496.78 221.85 -247.10 -1200.69 -2322.18 -3316.72 -3797.69 -4218.04 -4422.69 -4572.28 -4753.92 -4792.68 -4809.30 -4667.36 -4390.26 -2517.88 -1466.53 -261.76 -127.68 -135.19 -214.21 -274.84 -369.19 -556.70 -725.58 -1004.38 -1339.51 -1537.82 -1898.37 -2035.59 -2135.26 -2238.96 -2296.39 -2400.33 -2492.39 -2586.96 -2593.76
-5060.22 -5060.18 -5051.40 -5051.32 -5062.74 -5078.00 -5105.62 -5132.42 -5172.20 -5205.72 -5191.45 -5042.08 -4752.24 -4608.16 -4112.79 -3449.02 -2975.50 -2445.70 -2108.67 -1982.22 -1789.61 -1719.53 -1685.28 -1634.68 -1455.50 -829.82 -144.56 176.98 244.45 257.14 271.09 280.98 306.63 314.94 319.38 339.67 358.07 380.42 393.35 435.18 470.22 507.35 493.00 472.86 446.64 421.67 389.57 370.27 357.27 342.20 329.69 317.79 308.73 295.56 284.82 287.79 288.43 291.19 292.29 291.78 291.55 273.29 260.76 251.45 247.51 245.55 245.44 245.58 245.91 248.23 250.90 259.61 269.24 281.20 292.78 307.36 326.75 342.07 368.03 381.53 405.51 425.71 439.70 463.01 475.22 500.48 513.81 526.60 543.14 557.04 560.80 572.31 581.13 593.31 608.77 619.75 633.58 645.87 667.98 672.71 664.32 711.73 698.82 641.38 477.21 211.35 83.98 -1087.90 -2194.20 -3362.82 -3940.58 -4100.80 -4509.88 -4591.56 -4666.05 -4687.88 -4736.02 -4492.89 -3873.90 -2216.83 -537.52 -168.70 -85.99 -129.92 -192.10 -280.64 -382.57 -533.72 -730.54 -914.65 -1227.02 -1544.07 -1766.55 -2005.83 -2121.90 -2230.13 -2352.04 -2405.83 -2535.71 -2590.12 -2590.20
-5019.42 -5019.37 -5002.93 -5000.96 -4993.63 -5004.56 -5053.30 -5075.43 -5130.86 -5130.25 -5080.95 -4823.84 -4210.12 -3503.52 -2747.39 -2602.48 -2325.83 -2203.76 -2005.57 -1866.91 -1731.69 -1661.08 -1677.87 -1619.69 -1136.70 -477.23 17.18 242.82 255.13 269.45 290.94 303.28 324.39 350.44 360.29 361.87 378.90 393.91 422.61 462.35 480.41 516.49 495.44 464.49 430.39 416.80 391.69 359.89 348.70 334.51 325.96 314.34 308.80 300.20 292.14 294.17 293.96 304.43 313.68 308.36 303.72 279.87 265.21 254.81 250.90 245.69 245.56 245.63 246.03 246.79 250.76 253.83 263.89 278.53 288.46 302.07 313.05 330.20 351.92 366.83 392.52 407.75 434.00 445.74 483.50 498.48 512.36 527.66 542.79 556.19 563.29 571.93 582.23 592.21 606.80 622.95 640.32 665.02 678.29 680.75 613.28 656.55 697.56 666.06 359.26 222.29 60.58 -975.04 -2558.70 -3392.15 -3703.94 -3996.28 -4439.95 -4550.66 -4639.99 -4659.23 -4641.19 -4261.90 -3190.25 -1647.48 -401.34 -72.30 -64.11 -145.65 -221.58 -321.00 -420.57 -566.44 -715.60 -926.18 -1242.21 -1435.22 -1741.18 -1934.44 -2113.65 -2272.38 -2421.34 -2513.11 -2636.45 -2658.00 -2658.13
-4984.46 -4983.01 -4965.35 -4954.34 -4950.60 -4958.85 -4969.71 -5008.58 -5026.34 -5029.49 -4861.19 -4496.83 -3440.63 -2835.16 -2323.72 -2074.58 -2087.75 -2109.15 -2003.14 -1837.84 -1733.68 -1681.65 -1667.45 -1581.69 -972.77 -209.61 218.09 248.49 261.06 278.03 297.92 313.95 338.67 375.42 398.99 391.95 399.07 407.32 443.81 468.46 486.54 507.14 490.74 459.74 410.21 388.17 377.06 360.49 342.42 327.56 322.32 311.35 306.36 300.20 298.12 302.01 309.16 332.85 357.46 348.21 336.77 302.08 270.65 262.88 257.57 247.39 246.54 245.85 246.03 246.39 249.16 251.83 261.16 270.92 282.47 292.67 298.37 321.14 337.49 356.73 373.77 396.30 429.45 447.59 471.97 492.93 502.79 526.42 537.61 548.61 557.43 573.77 586.14 597.33 616.83 624.35 644.58 671.60 696.01 690.80 644.36 537.51 706.83 557.88 366.76 158.95 -104.96 -808.69 -1873.84 -2711.83 -3661.97 -3987.15 -4136.34 -4444.79 -4601.16 -4598.78 -4435.62 -3839.26 -1971.61 -628.90 -126.12 -36.39 -52.39 -127.22 -229.45 -390.21 -594.58 -723.14 -790.36 -949.40 -1322.62 -1571.72 -1801.18 -1973.78 -2106.28 -2223.93 -2404.70 -2575.90 -2779.86 -2825.88 -2826.09
-4954.53 -4954.47 -4926.53 -4892.17 -4874.83 -4872.34 -4810.69 -4815.10 -4835.13 -4449.97 -3998.00 -3559.33 -2891.33 -2054.72 -1845.52 -1762.03 -1871.94 -1949.75 -1919.20 -1712.59 -1658.52 -1668.16 -1666.44 -1594.04 -1155.38 -196.34 134.09 239.35 264.42 280.52 305.37 322.96 340.88 382.84 422.13 423.34 430.17 439.91 460.05 492.14 499.07 481.02 459.08 448.06 398.17 368.99 348.33 334.41 327.47 322.66 310.55 304.97 303.96 300.38 303.41 304.94 318.74 348.29 389.23 393.83 388.96 350.29 313.32 279.58 258.70 254.07 249.53 247.66 246.61 246.52 247.28 249.59 257.24 263.78 271.09 285.64 294.93 314.14 327.05 346.13 360.46 383.13 413.72 434.78 452.17 483.54 498.00 519.13 531.17 544.92 557.08 577.31 589.50 612.91 625.27 637.00 664.02 681.08 696.82 659.10 656.69 479.07 534.65 422.10 260.01 161.45 51.71 -472.66 -1230.66 -1835.71 -3018.16 -3591.41 -3864.52 -4312.37 -4498.84 -4487.45 -4073.10 -3377.74 -1319.63 -226.25 -46.30 1.65 -79.26 -136.32 -190.64 -383.95 -507.73 -746.09 -878.59 -1095.01 -1496.74 -1712.30 -1888.01 -2020.98 -2108.60 -2155.94 -2381.55 -2471.21 -2867.04 -2939.32 -2939.48
-4887.77 -4885.36 -4771.00 -4552.17 -4501.82 -4507.30 -4345.16 -3990.42 -3835.25 -3503.40 -2865.63 -2200.13 -2116.35 -1851.21 -1719.92 -1717.13 -1758.37 -1758.67 -1629.05 -1337.14 -1427.01 -1382.13 -1408.85 -1471.67 -1290.56 -318.80 134.55 238.02 263.76 286.07 325.51 347.06 367.83 395.22 436.28 443.81 453.50 468.26 499.03 515.23 509.16 484.48 432.98 403.37 389.21 354.78 327.69 320.85 318.44 302.80 301.51 300.42 299.70 300.12 307.17 310.81 333.60 377.46 430.43 440.66 434.55 375.85 342.70 289.48 269.45 259.05 259.32 252.16 247.27 246.78 246.83 247.43 251.99 258.61 266.92 275.64 289.23 296.51 321.97 332.05 344.65 367.55 388.23 414.72 440.44 458.15 481.90 496.69 527.93 548.49 562.72 585.16 596.90 619.62 628.08 644.26 676.26 692.89 692.30 630.33 593.79 588.57 563.23 291.78 246.60 175.85 70.41 -234.71 -296.63 -1444.93 -2709.86 -3222.96 -3566.78 -4072.47 -4439.12 -4443.74 -3397.80 -2332.48 -613.13 -180.69 18.95 -8.57 -66.15 -118.69 -201.50 -371.47 -585.99 -798.60 -935.30 -1196.70 -1581.58 -1860.80 -1989.01 -2035.31 -2124.69 -2202.49 -2348.04 -2522.24 -2870.31 -3284.14 -3284.56
-4338.11 -4338.66 -3929.60 -3836.87 -3691.03 -3315.08 -3134.64 -2725.80 -2334.87 -2064.91 -2085.83 -1881.67 -1745.42 -1721.95 -1730.83 -1749.68 -1748.08 -1640.86 -1417.06 -1137.05 -851.64 -691.19 -930.28 -1084.51 -713.46 19.19 174.92 234.94 262.67 289.00 324.76 359.08 388.14 432.20 453.59 485.24 506.18 506.22 501.58 510.54 500.30 473.08 417.19 378.18 368.39 321.01 315.79 305.51 301.57 293.06 290.39 289.84 292.03 297.68 303.73 313.89 331.24 371.00 434.52 461.28 451.28 406.94 369.56 330.31 285.72 272.26 262.87 261.92 253.20 248.71 247.00 247.14 247.76 254.54 263.20 273.23 284.52 292.50 303.22 311.17 331.86 355.96 371.11 392.06 435.46 449.54 472.22 492.92 521.66 548.70 563.56 591.85 606.44 621.19 638.41 651.80 687.09 707.48 703.76 655.29 694.14 813.18 530.57 281.93 224.20 163.49 88.39 -80.29 -307.44 -1318.26 -2210.13 -2305.97 -2985.31 -3711.49 -4098.32 -4198.95 -3157.98 -1566.96 -383.53 -85.13 40.04 -8.29 -68.37 -126.38 -186.33 -305.19 -565.76 -807.07 -1105.62 -1431.26 -1548.12 -1783.12 -1947.18 -2093.43 -2198.71 -2304.31 -2529.65 -2688.75 -3005.28 -3314.49 -3314.57
-2847.92 -2849.96 -2785.47 -2445.56 -2496.64 -1914.29 -1881.34 -1696.42 -1695.11 -1600.37 -1560.22 -1610.50 -1647.83 -1708.12 -1738.84 -1772.67 -1779.73 -1668.09 -1319.49 -1013.21 -558.98 -449.84 -437.81 -639.74 -161.98 165.87 199.28 242.15 263.75 281.74 303.76 353.03 372.18 423.10 454.84 506.24 532.07 548.58 548.00 517.29 462.90 433.35 390.12 367.67 335.58 305.99 298.77 290.08 288.41 281.69 282.73 281.55 280.81 283.74 290.35 309.53 314.33 353.95 386.68 436.13 447.52 408.18 375.36 319.83 301.61 285.86 272.33 266.50 256.62 253.45 249.93 247.89 247.23 249.14 259.50 265.75 270.19 281.64 287.29 301.07 316.94 353.39 367.58 381.30 410.25 441.79 463.00 492.80 504.93 546.14 566.67 597.34 622.08 632.82 655.38 674.43 699.63 732.56 739.01 713.53 811.70 678.25 335.44 251.20 190.39 130.78 67.95 -69.19 -452.89 -1014.29 -1395.10 -1881.25 -2510.55 -2976.49 -3735.98 -3190.04 -2532.23 -1208.31 -302.48 21.17 30.36 -20.43 -71.23 -110.33 -141.36 -264.35 -516.76 -846.15 -1173.61 -1472.86 -1659.94 -1724.45 -1980.68 -2139.71 -2295.25 -2425.05 -2630.12 -2961.03 -3065.48 -3318.12 -3318.22
-1636.33 -1638.44 -1648.06 -1732.31 -1568.74 -1512.84 -1439.09 -1401.18 -1427.10 -1449.41 -1510.03 -1555.41 -1648.49 -1694.08 -1738.50 -1780.68 -1801.70 -1751.36 -1574.47 -1101.97 -573.02 -246.30 -128.15 -177.18 48.97 195.03 228.70 241.99 254.10 278.68 294.83 343.82 397.33 441.17 484.57 508.50 485.23 533.07 533.98 495.70 462.38 423.51 381.33 326.21 308.10 295.80 286.33 277.64 274.90 268.60 274.92 273.15 270.03 275.12 281.96 292.38 306.37 324.36 377.69 403.64 428.28 416.76 396.44 317.54 313.87 295.30 283.61 276.26 264.91 258.82 251.57 248.86 247.50 248.90 253.68 258.51 262.81 273.53 278.58 300.80 314.98 335.12 353.32 370.25 414.39 423.78 448.84 480.95 508.64 533.95 573.23 604.44 628.89 655.72 678.10 694.56 729.67 741.66 778.13 785.20 807.67 460.00 287.78 237.66 173.21 128.30 48.65 -12.55 -193.31 -467.23 -826.53 -1468.90 -2006.06 -2013.88 -2074.98 -2207.89 -1567.76 -448.39 -40.62 19.59 23.43 -43.84 -86.86 -127.31 -144.60 -279.16 -506.15 -892.46 -1207.72 -1429.90 -1614.60 -1867.16 -2076.82 -2190.84 -2329.25 -2536.84 -2895.63 -3046.30 -3190.14 -3306.52 -3306.58
-1343.46 -1344.07 -1349.37 -1338.20 -1297.12 -1290.03 -1314.83 -1346.30 -1391.98 -1434.70 -1507.45 -1562.60 -1638.63 -1685.23 -1746.60 -1799.18 -1818.19 -1790.73 -1673.62 -1061.67 -882.63 -403.47 -116.42 -34.99 46.97 162.43 217.29 240.03 247.73 268.48 298.70 324.75 378.00 402.56 471.67 471.30 433.77 440.63 453.09 459.87 453.49 421.16 358.87 292.81 277.64 272.71 269.24 261.14 253.09 254.65 260.06 256.96 258.84 265.70 270.82 286.37 295.93 311.86 355.72 406.58 437.51 432.19 376.70 344.74 326.83 310.56 289.15 279.46 270.46 265.40 255.61 249.89 248.10 247.42 247.31 253.92 261.22 272.26 277.26 299.04 312.46 320.82 351.14 366.77 392.22 412.83 458.84 481.07 505.07 544.99 549.98 628.55 629.68 658.16 685.81 720.65 736.52 754.55 786.90 849.20 671.67 313.90 258.95 216.60 158.33 127.17 73.89 16.56 -179.23 -263.94 -813.06 -1162.78 -1450.84 -1624.97 -1697.51 -1373.80 -560.39 -160.20 24.84 19.58 -28.62 -71.84 -109.16 -139.06 -186.20 -298.60 -626.47 -853.36 -1281.92 -1485.43 -1780.55 -2001.85 -2042.66 -2157.52 -2322.00 -2416.27 -2884.07 -3120.82 -3174.05 -3301.91 -3301.99
-1346.14 -1345.99 -1327.15 -1302.42 -1298.28 -1312.47 -1327.68 -1359.86 -1402.09 -1467.38 -1524.56 -1573.43 -1644.47 -1706.27 -1747.37 -1795.84 -1822.78 -1819.67 -1643.56 -1250.28 -687.32 -370.56 -103.80 -3.32 50.79 123.61 211.66 228.79 235.96 253.71 275.38 310.62 336.58 381.57 412.54 373.79 377.50 387.76 393.84 370.29 349.23 342.16 283.14 274.50 262.68 249.96 247.86 244.09 245.55 245.08 245.63 244.06 251.24 259.66 264.38 275.19 293.28 315.37 350.53 397.62 425.29 431.38 396.51 371.18 345.18 327.92 312.46 284.30 282.59 272.51 263.45 255.38 248.86 248.08 247.37 252.57 259.96 269.63 277.59 290.96 304.46 324.53 347.00 375.45 397.88 423.62 467.28 480.56 496.20 528.29 548.08 618.27 638.65 673.67 693.88 704.10 700.58 720.35 796.45 685.65 372.91 333.02 246.97 178.27 158.23 132.20 68.38 -48.95 -165.22 -311.75 -714.93 -980.14 -1374.52 -1397.64 -1269.30 -902.07 -429.41 -48.90 50.74 39.31 -31.00 -72.52 -127.32 -173.76 -253.67 -360.00 -648.71 -823.38 -1127.27 -1540.48 -1790.21 -1974.67 -2079.59 -2149.10 -2287.69 -2452.07 -2687.79 -2996.79 -3166.77 -3300.38 -3300.47
-1384.59 -1384.69 -1358.79 -1342.82 -1331.43 -1339.90 -1362.83 -1418.45 -1432.81 -1496.84 -1547.17 -1599.75 -1658.78 -1702.41 -1761.95 -1793.85 -1809.36 -1755.35 -1567.86 -1225.66 -753.49 -397.86 -171.96 -30.62 -2.04 93.56 145.38 193.23 226.75 239.68 268.81 279.83 295.74 341.66 389.88 366.60 337.28 347.48 335.17 300.90 310.42 286.33 259.50 257.62 247.30 239.85 240.00 230.01 225.91 235.59 238.19 238.22 243.19 252.81 255.38 269.14 288.71 317.75 336.67 377.51 416.67 435.29 431.84 402.47 390.95 359.78 360.77 333.44 301.19 280.72 265.81 259.54 251.62 248.20 247.47 252.53 259.99 264.95 278.81 288.21 312.32 330.12 346.30 365.91 402.31 416.02 459.79 481.04 511.35 541.75 549.56 600.04 644.42 676.01 673.93 689.24 628.25 713.68 858.19 522.58 323.53 291.69 208.45 168.20 133.49 81.36 -16.58 -73.50 -232.61 -346.43 -723.51 -1133.96 -1307.75 -1370.54 -1226.51 -756.06 -264.17 101.30 130.02 77.91 -26.65 -82.53 -135.56 -185.13 -312.32 -439.51 -527.73 -780.38 -1143.90 -1415.11 -1683.51 -1910.05 -2023.41 -2087.89 -2244.34 -2427.39 -2607.66 -2899.48 -3066.70 -3277.58 -3277.41
-1438.11 -1438.28 -1416.63 -1391.20 -1396.98 -1389.44 -1409.13 -1441.37 -1458.78 -1514.85 -1584.57 -1627.08 -1680.02 -1726.99 -1768.17 -1804.00 -1796.01 -1683.55 -1476.08 -1086.76 -466.55 -277.70 -142.08 -105.96 -67.49 11.87 69.49 131.10 209.26 229.83 257.03 256.59 264.55 294.15 348.59 321.31 286.11 286.78 271.99 271.98 268.25 243.69 239.52 236.91 231.69 232.51 227.64 223.11 223.62 226.96 228.08 231.94 239.98 247.33 250.83 256.15 279.98 295.97 330.32 359.56 418.28 438.62 445.40 430.84 427.12 422.22 407.30 380.40 318.32 291.40 268.37 261.28 251.25 248.06 250.03 255.82 262.53 268.38 280.10 285.30 312.17 328.53 339.26 362.71 386.91 415.92 452.60 482.33 526.36 543.04 575.26 629.28 643.87 641.57 614.98 633.31 618.81 769.35 814.82 481.56 354.79 234.19 207.99 169.02 116.90 35.31 -27.53 -106.47 -193.25 -374.74 -731.23 -1194.51 -1335.74 -1350.31 -1298.21 -986.08 -94.50 37.91 131.75 77.06 -21.35 -90.71 -139.69 -174.11 -260.60 -436.94 -549.83 -829.80 -1156.75 -1308.02 -1461.82 -1753.54 -1945.31 -2111.50 -2185.24 -2328.47 -2542.51 -2787.89 -3009.95 -3273.75 -3273.83
-1490.60 -1490.66 -1472.56 -1447.46 -1448.25 -1466.64 -1494.12 -1516.01 -1560.28 -1588.40 -1616.37 -1662.53 -1709.76 -1745.26 -1780.47 -1822.89 -1788.65 -1641.48 -1192.41 -702.62 -369.03 -199.60 -179.63 -163.94 -117.23 -38.17 27.39 67.20 146.01 212.14 238.52 246.18 248.28 248.94 274.14 260.42 260.94 262.24 260.62 256.61 250.10 237.32 228.44 217.97 219.97 211.80 203.46 206.93 204.73 213.79 222.95 226.47 236.40 237.58 245.66 254.23 274.91 289.39 314.62 331.83 378.69 406.55 394.88 406.05 408.10 388.73 387.65 355.19 320.25 290.88 264.89 255.55 249.80 248.20 249.49 257.22 263.55 272.14 283.09 303.82 323.43 337.05 356.95 373.83 395.17 425.32 474.73 484.21 528.76 563.01 613.23 631.67 649.70 614.64 531.46 526.88 643.33 881.12 538.65 375.71 256.34 228.41 190.69 156.52 64.45 -7.76 -60.09 -111.88 -180.33 -432.67 -689.22 -1287.56 -1331.66 -1378.27 -1331.18 -991.09 -440.45 -113.06 62.80 28.60 -44.75 -85.86 -140.68 -175.55 -261.73 -377.83 -614.50 -851.33 -1132.07 -1267.67 -1543.92 -1712.95 -1914.88 -2079.79 -2162.83 -2264.30 -2453.47 -2834.42 -3061.45 -3279.50 -3279.37
-1547.54 -1547.55 -1524.97 -1519.22 -1505.46 -1514.53 -1522.61 -1559.96 -1590.90 -1611.64 -1653.20 -1704.77 -1734.66 -1760.19 -1799.81 -1827.40 -1781.43 -1567.05 -963.97 -625.86 -355.76 -187.62 -160.61 -172.70 -135.45 -69.04 -31.19 4.06 107.93 190.52 208.50 226.17 236.58 240.74 250.66 256.33 252.80 248.43 240.31 236.30 233.79 227.46 202.35 191.94 199.71 167.17 148.77 157.36 156.02 175.00 198.70 216.21 231.98 234.30 243.25 251.27 266.89 277.60 299.49 314.41 349.03 370.48 360.11 353.38 353.57 322.30 311.35 319.47 293.30 267.01 253.20 252.95 249.60 248.80 251.81 258.77 266.52 279.82 294.63 306.83 329.31 339.92 366.65 375.30 415.46 426.31 470.97 491.16 535.76 559.57 613.99 638.11 636.64 604.41 528.08 503.93 658.67 584.82 342.35 307.43 263.23 233.49 188.39 123.99 57.67 -10.27 -93.65 -123.22 -225.48 -502.06 -835.93 -1245.27 -1370.79 -1382.57 -1353.80 -1150.16 -776.85 -332.16 -204.24 13.41 -53.64 -99.77 -140.23 -198.62 -259.19 -440.94 -700.48 -966.24 -1150.02 -1342.26 -1588.16 -1776.47 -1896.97 -2029.69 -2146.35 -2329.25 -2681.61 -3072.04 -3262.60 -3362.38 -3362.16
-1605.67 -1605.67 -1584.92 -1587.71 -1578.28 -1566.20 -1554.34 -1568.15 -1606.94 -1614.67 -1673.32 -1710.76 -1745.63 -1786.24 -1807.61 -1839.59 -1772.32 -1623.62 -1081.45 -692.43 -421.75 -232.34 -176.38 -172.46 -159.91 -90.13 -74.41 -18.12 4.11 79.10 105.46 149.80 224.72 234.57 236.49 241.50 243.83 238.61 229.62 226.53 178.82 166.19 130.13 144.64 126.96 111.56 119.03 123.54 131.41 149.33 169.38 207.19 223.72 232.08 241.19 249.99 264.36 274.17 284.34 296.56 312.07 311.57 308.47 309.12 315.97 295.95 301.54 287.52 269.79 254.93 253.37 251.04 247.97 249.90 254.22 263.10 272.55 287.79 298.07 316.69 335.96 351.31 370.95 381.64 414.20 445.63 476.25 489.80 539.26 575.73 602.62 642.87 634.96 555.68 485.95 541.67 486.33 351.54 332.23 285.70 259.93 231.78 178.73 112.46 46.52 -26.25 -102.67 -151.80 -207.62 -568.08 -959.23 -1204.34 -1375.81 -1388.75 -1389.56 -1330.00 -1176.85 -649.77 -383.66 -193.45 -100.74 -127.05 -162.28 -244.14 -366.34 -564.25 -844.41 -1089.99 -1219.82 -1423.02 -1670.79 -1775.58 -1927.17 -2052.36 -2164.80 -2424.12 -2766.56 -3122.50 -3417.41 -3526.44 -3526.46
-1663.53 -1663.51 -1649.42 -1631.31 -1612.73 -1612.70 -1621.62 -1636.42 -1659.18 -1672.46 -1720.82 -1698.49 -1687.11 -1773.21 -1833.50 -1851.80 -1822.53 -1752.99 -1424.70 -1126.24 -641.74 -392.51 -249.18 -181.46 -195.60 -172.12 -87.01 -56.59 -32.16 16.67 41.06 123.27 181.39 197.67 219.27 191.04 227.79 209.39 205.45 135.95 106.37 113.77 108.93 75.63 92.18 107.60 116.47 120.02 126.45 138.99 165.19 200.18 225.77 232.53 240.05 250.11 264.33 290.68 322.62 308.54 281.53 285.87 297.56 290.39 269.98 268.81 271.04 268.44 252.53 251.56 250.62 248.18 247.89 254.43 261.76 270.40 280.22 295.15 305.41 320.86 347.72 359.85 375.94 392.50 418.99 449.85 482.02 505.01 539.88 580.21 609.69 649.22 651.44 604.51 672.67 696.78 360.45 327.35 311.34 261.82 229.18 202.36 145.71 59.09 7.13 -35.07 -100.35 -158.53 -204.30 -541.60 -953.12 -1300.72 -1371.25 -1389.70 -1397.39 -1395.25 -1357.09 -1159.26 -685.08 -427.63 -160.23 -155.30 -185.81 -240.85 -472.92 -759.13 -834.20 -1226.70 -1310.45 -1467.54 -1712.62 -1860.23 -1972.64 -2033.44 -2140.13 -2375.55 -2753.84 -3089.79 -3453.43 -3567.86 -3568.11
-1719.31 -1720.36 -1712.73 -1656.16 -1631.48 -1685.21 -1684.10 -1706.82 -1752.44 -1741.12 -1761.41 -1757.57 -1773.32 -1823.36 -1838.77 -1857.92 -1851.49 -1780.94 -1592.09 -1372.22 -1129.40 -682.95 -405.04 -218.01 -191.72 -192.02 -157.73 -131.93 -109.98 -56.95 8.04 32.62 101.07 122.34 122.89 107.14 154.45 133.75 93.99 79.01 77.23 69.47 40.52 23.03 27.06 47.57 121.06 123.14 126.18 136.72 176.01 210.93 226.15 233.58 238.45 257.75 278.08 303.34 333.49 296.35 280.54 269.73 270.07 266.06 259.28 254.02 253.77 249.30 249.36 249.03 248.65 247.91 252.03 262.42 269.61 280.55 295.21 300.87 314.81 335.37 357.19 370.65 385.11 411.57 427.39 440.99 489.98 510.23 536.04 582.69 622.14 659.87 669.95 645.24 573.46 438.19 343.40 316.82 285.75 200.11 179.47 149.19 131.36 42.03 -22.24 -57.99 -108.97 -165.99 -254.29 -568.80 -1038.67 -1279.15 -1374.40 -1389.11 -1406.15 -1425.97 -1394.20 -1298.69 -898.94 -490.05 -207.52 -174.95 -218.66 -303.58 -456.49 -692.52 -870.51 -1192.94 -1457.39 -1656.98 -1773.52 -1857.58 -1948.91 -2013.70 -2095.70 -2312.15 -2684.28 -2941.25 -3308.35 -3429.94 -3430.03
-1770.85 -1770.81 -1709.95 -1745.55 -1732.46 -1736.40 -1771.95 -1768.18 -1774.57 -1804.42 -1825.23 -1825.36 -1825.77 -1831.73 -1850.17 -1873.49 -1891.72 -1891.06 -1805.52 -1739.53 -1413.07 -936.12 -588.70 -312.57 -215.59 -190.66 -208.52 -208.44 -165.71 -116.95 -73.35 -40.23 -38.83 35.22 63.01 56.79 79.50 46.24 32.38 23.13 33.00 33.59 -4.76 -19.72 3.95 18.82 74.70 100.26 118.39 146.63 191.90 227.49 233.52 245.30 261.91 273.91 291.09 322.91 323.82 289.09 261.92 252.09 251.69 245.49 244.67 244.96 246.33 237.45 236.76 243.12 247.05 247.81 257.55 264.92 276.83 293.24 299.80 316.36 322.52 348.08 371.08 388.56 412.33 434.64 446.96 461.55 492.65 525.67 543.89 585.53 622.15 650.86 669.08 668.63 552.09 316.67 291.35 295.95 247.17 188.95 147.71 113.45 81.72 -1.41 -58.96 -85.65 -132.16 -195.92 -396.44 -669.81 -1129.05 -1305.17 -1374.40 -1387.02 -1403.44 -1435.72 -1433.62 -1359.21 -977.68 -652.27 -244.67 -191.25 -227.84 -344.54 -475.17 -750.14 -1080.21 -1302.82 -1584.03 -1718.24 -1810.42 -1872.66 -1973.62 -2022.92 -2114.34 -2315.24 -2630.88 -2973.80 -3177.93 -3425.76 -3425.84
-1815.18 -1816.57 -1785.72 -1769.89 -1780.46 -1798.16 -1814.08 -1809.34 -1825.98 -1829.11 -1853.38 -1858.11 -1859.55 -1873.64 -1861.62 -1840.31 -1903.56 -1909.21 -1893.64 -1783.94 -1680.73 -1296.69 -600.55 -387.22 -212.42 -185.34 -201.99 -228.42 -258.65 -211.00 -161.03 -170.12 -78.95 -27.29 -3.05 18.11 33.65 -8.75 -38.07 -44.39 -53.56 -51.68 -66.60 -30.99 -4.57 29.53 47.61 105.54 141.83 172.83 207.00 232.09 243.72 251.63 270.27 301.27 345.54 339.31 319.47 289.16 245.71 244.08 243.70 237.37 236.52 238.28 233.17 229.50 233.19 240.07 246.25 248.58 261.00 265.33 277.56 292.23 306.11 330.25 336.88 356.54 380.14 405.27 418.81 447.09 463.57 476.08 492.47 535.28 561.85 591.61 616.93 629.43 642.91 518.49 380.74 282.78 247.40 225.16 197.63 170.23 140.26 93.08 55.41 -8.20 -55.79 -94.04 -152.11 -206.59 -339.12 -741.00 -1230.87 -1324.42 -1367.52 -1382.03 -1405.90 -1449.14 -1447.89 -1402.03 -1035.35 -655.56 -291.66 -208.26 -249.08 -379.02 -599.43 -823.24 -966.42 -1296.06 -1577.85 -1754.71 -1855.10 -1916.41 -1972.50 -2078.40 -2207.37 -2412.54 -2549.94 -3112.72 -3301.59 -3459.85 -3459.72
-1840.28 -1840.23 -1833.71 -1827.29 -1864.68 -1867.07 -1853.90 -1856.81 -1862.24 -1858.38 -1870.70 -1880.35 -1881.40 -1890.86 -1896.85 -1839.67 -1896.01 -1929.47 -1928.49 -1886.74 -1797.46 -1391.39 -905.64 -534.39 -258.20 -189.47 -189.26 -213.52 -241.42 -258.85 -276.90 -290.79 -222.07 -134.95 -82.24 -62.02 -43.31 -55.89 -72.27 -80.46 -104.99 -113.05 -107.02 -39.35 22.33 54.15 96.01 149.34 169.01 208.60 230.91 242.84 251.89 275.04 299.06 324.81 367.17 340.81 311.40 274.18 243.95 236.58 230.68 223.70 222.75 221.03 222.53 228.56 230.66 235.26 239.03 253.10 260.74 271.48 281.56 294.51 310.85 346.22 355.12 375.21 388.54 413.91 429.43 451.96 471.17 491.01 504.89 519.14 570.85 579.03 596.15 596.80 623.23 420.55 289.97 274.04 215.98 191.58 181.68 149.37 112.70 83.49 24.87 -54.78 -104.51 -126.98 -159.53 -181.25 -488.32 -817.78 -1180.16 -1366.90 -1365.60 -1379.78 -1408.65 -1453.85 -1452.19 -1382.62 -924.82 -574.21 -252.78 -213.44 -294.29 -459.46 -598.24 -852.19 -1262.59 -1390.69 -1685.30 -1845.63 -1901.70 -1957.02 -2004.54 -2082.94 -2172.08 -2407.45 -2821.90 -3235.86 -3462.01 -3720.17 -3720.25
-1875.02 -1874.91 -1875.14 -1885.63 -1886.14 -1880.72 -1883.36 -1879.50 -1881.93 -1887.71 -1896.38 -1899.99 -1907.06 -1922.91 -1912.84 -1871.08 -1892.43 -1934.82 -1933.59 -1919.41 -1739.21 -1423.51 -909.17 -475.02 -217.52 -195.23 -200.12 -234.09 -264.89 -285.48 -311.25 -328.81 -340.90 -224.94 -167.40 -123.56 -127.36 -143.79 -135.10 -138.26 -136.87 -122.92 -115.33 -80.42 1.70 73.55 97.42 149.25 211.77 229.22 241.54 252.47 262.19 295.01 317.23 341.43 374.43 357.57 291.95 259.60 240.08 234.19 219.88 219.31 211.69 208.24 217.54 221.27 224.41 227.94 234.78 246.57 260.23 271.68 286.35 296.04 324.61 349.29 365.75 386.80 404.04 421.73 444.36 462.39 489.24 501.25 510.07 547.22 567.92 568.19 591.73 522.27 402.72 310.72 279.84 240.59 192.58 182.52 173.02 137.64 93.97 25.92 -25.66 -74.40 -124.18 -142.57 -166.73 -266.54 -514.85 -771.51 -1117.98 -1319.54 -1370.53 -1380.86 -1411.36 -1448.81 -1420.57 -1331.54 -827.98 -540.07 -181.03 -224.27 -354.28 -567.85 -773.91 -978.11 -1411.52 -1713.98 -1805.33 -1905.48 -1940.65 -1994.70 -2056.59 -2073.55 -2250.24 -2559.55 -2961.68 -3411.49 -3646.57 -3727.59 -3726.94
-1839.90 -1839.85 -1872.78 -1909.48 -1941.22 -1932.40 -1924.63 -1914.85 -1909.78 -1907.30 -1918.18 -1933.85 -1943.06 -1949.67 -1937.95 -1930.65 -1932.82 -1947.54 -1938.56 -1895.37 -1633.68 -1389.42 -837.13 -424.03 -268.98 -304.73 -429.67 -372.21 -389.15 -438.94 -414.51 -424.82 -481.74 -278.11 -272.26 -205.56 -193.89 -196.99 -192.60 -185.88 -172.16 -148.46 -113.53 -102.51 -14.63 31.31 120.46 179.93 224.69 235.34 247.83 257.20 283.76 307.69 345.93 359.26 342.69 313.79 275.08 243.69 230.97 224.14 206.11 173.37 168.21 168.57 200.93 209.00 218.39 219.43 230.88 242.23 256.79 269.09 287.88 296.02 335.57 352.61 371.35 399.96 413.31 431.00 451.22 465.74 496.07 509.74 521.12 546.54 566.91 550.52 534.18 497.22 361.86 296.22 259.65 221.05 184.15 174.98 151.22 104.03 12.55 -36.07 -40.56 -99.54 -121.34 -153.03 -182.52 -329.77 -628.07 -961.79 -1152.29 -1337.44 -1372.42 -1385.16 -1407.76 -1448.52 -1435.55 -1228.54 -785.08 -412.92 -216.22 -258.85 -503.51 -683.32 -1049.35 -1343.57 -1666.17 -1869.90 -1903.89 -1966.61 -1968.88 -1990.82 -2060.72 -2118.63 -2252.12 -2420.15 -2864.08 -3473.67 -3741.89 -3795.62 -3795.69
-1889.24 -1901.04 -1940.84 -1945.85 -1965.94 -1970.12 -1953.97 -1938.62 -1942.41 -1947.13 -1947.34 -1954.14 -1966.75 -1961.22 -1952.67 -1939.23 -1942.27 -1961.99 -1947.89 -1867.13 -1645.86 -1236.67 -803.74 -549.16 -559.47 -588.46 -624.68 -704.81 -836.96 -781.99 -846.56 -870.08 -872.45 -727.87 -425.71 -255.28 -242.39 -239.62 -249.27 -230.07 -205.92 -183.45 -132.06 -94.02 -10.45 41.06 132.47 187.25 226.16 237.30 266.66 280.40 301.99 344.18 345.30 332.49 315.40 275.34 255.94 240.40 229.63 218.60 203.32 159.87 155.86 164.54 172.44 198.04 211.12 211.46 223.57 240.79 251.85 263.20 287.27 302.35 327.60 352.90 369.44 393.40 414.83 438.38 452.89 475.16 497.49 511.58 538.00 555.25 565.10 564.10 514.07 483.17 352.60 289.04 252.18 192.65 177.47 157.55 111.77 46.81 -35.07 -75.26 -113.66 -108.82 -131.97 -160.50 -186.12 -339.40 -582.72 -1073.93 -1306.49 -1365.03 -1386.35 -1392.47 -1435.29 -1455.23 -1387.73 -1298.18 -621.32 -237.80 -218.53 -354.35 -472.55 -725.74 -1145.52 -1569.94 -1723.71 -1887.80 -1930.19 -1962.07 -1972.67 -1994.80 -2032.63 -2153.51 -2428.91 -2687.56 -3108.66 -3464.28 -3731.98 -3795.76 -3795.83
-1979.77 -1979.67 -1955.72 -1956.12 -1981.11 -2004.20 -1996.00 -1980.10 -1970.35 -1975.52 -1990.05 -1979.24 -1986.59 -1983.84 -1960.65 -1923.76 -1926.17 -1967.45 -1966.55 -1897.94 -1727.75 -1328.09 -1024.28 -884.16 -892.81 -1019.20 -1095.07 -1194.42 -1233.26 -1414.01 -1385.43 -1271.10 -1385.48 -1020.47 -509.51 -315.03 -287.08 -275.61 -277.43 -270.30 -293.71 -309.37 -223.92 -133.31 -39.81 78.88 161.39 205.20 228.28 247.89 284.56 306.46 332.15 341.51 342.30 307.13 277.43 261.43 240.41 230.19 224.08 203.46 173.92 141.63 149.88 159.43 174.11 190.66 193.16 203.54 223.95 236.38 242.52 255.96 274.46 289.51 316.81 345.73 373.92 392.95 418.87 430.71 460.67 472.44 495.93 516.27 538.99 561.86 579.29 597.22 632.60 497.89 364.13 283.01 257.94 200.12 175.44 145.78 61.88 -6.04 -88.51 -91.85 -128.12 -128.73 -153.67 -191.83 -279.67 -443.61 -706.38 -1061.53 -1325.49 -1346.05 -1391.58 -1416.91 -1452.76 -1458.34 -1404.12 -1082.57 -488.21 -266.03 -241.58 -366.73 -585.95 -762.28 -1116.51 -1523.81 -1631.71 -1824.95 -1916.25 -1959.77 -1974.07 -1995.37 -2157.05 -2305.55 -2702.86 -2928.17 -3343.04 -3586.47 -3733.62 -3795.58 -3795.65
-1958.94 -1958.93 -1979.65 -2003.38 -2015.94 -2024.35 -2030.68 -2013.04 -1998.51 -2010.03 -2023.58 -2001.01 -2000.84 -1998.39 -1968.03 -1957.84 -1965.54 -1986.05 -1978.91 -1921.62 -1816.08 -1642.07 -1491.07 -1451.04 -1429.89 -1701.06 -1751.50 -1754.24 -1855.82 -1818.26 -1863.61 -1881.72 -1856.11 -1255.13 -747.80 -474.13 -334.14 -313.32 -342.55 -352.21 -335.54 -322.28 -246.14 -151.66 -82.85 33.35 173.09 223.94 241.60 259.19 286.84 327.49 341.82 318.44 297.15 269.54 240.43 240.32 235.86 220.61 206.49 157.75 138.07 142.59 144.04 154.37 168.34 167.28 177.93 191.41 216.79 227.60 238.22 260.35 268.36 283.89 312.20 348.47 375.08 400.25 416.46 437.36 463.49 472.57 501.25 509.61 544.14 559.73 583.04 597.38 627.74 463.06 337.07 289.84 258.64 210.44 179.05 128.59 45.87 -38.78 -78.73 -119.55 -147.51 -166.16 -188.96 -276.37 -358.43 -592.11 -852.83 -1043.06 -1201.57 -1313.27 -1394.02 -1424.61 -1464.92 -1464.79 -1394.03 -945.79 -474.46 -247.16 -262.11 -358.31 -588.31 -986.38 -1210.12 -1484.60 -1702.90 -1827.51 -1936.24 -1979.71 -2006.14 -2046.81 -2170.22 -2350.92 -2711.02 -3178.13 -3419.09 -3651.29 -3737.79 -3796.29 -3796.36
-2037.13 -2037.07 -2000.27 -1982.58 -2010.10 -2042.42 -2046.99 -2033.42 -2035.06 -2032.14 -2037.27 -2034.80 -2029.27 -2024.52 -2002.19 -1992.75 -2003.20 -2003.99 -1997.78 -1993.57 -1962.05 -1873.06 -1828.14 -1801.88 -1858.11 -1908.47 -1967.80 -1973.59 -2053.09 -2077.85 -2120.82 -2110.79 -2050.73 -1916.78 -1362.93 -748.05 -406.91 -355.67 -399.85 -397.47 -393.20 -335.26 -239.51 -218.11 -105.98 5.02 125.79 226.60 237.31 248.44 287.67 314.49 312.57 278.07 259.91 241.63 236.42 233.98 230.27 207.72 185.86 146.36 142.66 141.52 143.32 145.79 153.42 155.56 165.19 179.31 207.82 224.23 236.88 252.67 259.09 295.90 310.83 342.88 371.24 396.66 411.66 433.61 462.91 472.48 503.27 514.92 528.43 552.99 581.84 611.54 518.98 351.17 319.40 274.65 237.29 200.07 157.82 115.64 47.30 -42.25 -79.36 -187.38 -214.87 -308.95 -329.39 -376.78 -644.85 -761.92 -898.92 -993.56 -1154.11 -1248.48 -1371.65 -1430.85 -1463.35 -1478.71 -1290.29 -1074.46 -542.86 -252.59 -307.70 -502.75 -690.51 -1109.69 -1296.02 -1534.91 -1701.41 -1844.86 -1948.24 -1990.53 -2014.22 -2103.42 -2203.88 -2332.88 -2674.52 -3062.62 -3395.45 -3616.40 -3739.46 -3796.67 -3796.74
-2048.10 -2048.04 -2034.84 -2001.07 -1993.45 -2040.67 -2063.18 -2063.40 -2060.76 -2055.78 -2060.93 -2039.98 -2028.79 -2014.28 -2042.68 -2043.39 -2033.19 -2032.90 -2034.90 -2024.62 -2041.89 -2051.85 -2022.12 -2028.55 -2046.56 -2072.97 -2083.43 -2117.69 -2126.13 -2149.73 -2168.68 -2172.86 -2154.27 -2024.74 -1485.00 -1025.17 -562.35 -470.74 -428.76 -425.76 -421.99 -339.93 -265.91 -232.55 -162.74 -40.22 94.30 218.30 237.35 247.07 272.36 283.51 277.39 253.30 245.96 240.84 234.97 229.93 211.24 173.71 159.39 152.87 147.11 144.04 142.15 142.83 147.52 151.06 158.31 169.83 198.86 216.00 238.81 248.75 258.24 286.50 306.82 325.01 358.95 397.20 412.52 435.14 453.50 473.45 489.80 504.47 501.40 518.71 624.80 581.46 402.33 315.46 295.68 236.24 198.58 173.60 143.93 98.57 58.73 -16.36 -167.04 -249.84 -307.73 -426.84 -503.18 -626.67 -763.70 -875.61 -915.26 -946.15 -993.82 -1133.60 -1306.39 -1383.33 -1479.15 -1493.78 -1381.86 -805.05 -493.28 -240.95 -392.25 -610.92 -777.15 -1217.74 -1460.72 -1640.32 -1871.00 -1942.39 -1966.40 -1987.35 -2041.45 -2124.14 -2242.20 -2422.68 -2619.84 -2971.14 -3311.50 -3607.71 -3755.53 -3799.71 -3799.77
-2073.27 -2073.21 -2076.27 -2058.65 -2046.80 -2040.22 -2058.55 -2069.13 -2061.51 -2070.29 -2063.26 -2021.80 -2028.51 -2007.18 -2063.11 -2065.40 -2060.06 -2054.61 -2054.20 -2065.89 -2065.96 -2073.53 -2078.84 -2099.46 -2098.91 -2126.18 -2138.50 -2147.08 -2160.41 -2174.37 -2187.34 -2195.71 -2182.64 -2104.54 -1678.96 -1366.96 -895.30 -573.22 -447.71 -425.32 -440.35 -334.79 -280.05 -250.45 -234.63 -18.32 113.67 217.35 234.65 240.75 259.57 257.58 255.40 250.26 237.73 234.23 233.16 213.30 181.45 151.61 151.84 155.28 152.56 147.20 146.77 145.03 146.71 149.03 153.80 166.82 175.09 200.34 225.05 241.07 254.06 264.72 298.47 321.01 356.93 373.63 400.20 428.92 444.70 461.55 481.43 481.53 466.38 478.76 594.76 621.55 378.88 298.87 255.86 205.20 169.45 132.11 104.37 53.62 -24.10 -141.51 -411.55 -418.72 -548.41 -683.50 -761.46 -834.60 -866.16 -890.63 -906.93 -925.66 -982.74 -1039.09 -1187.57 -1354.74 -1434.53 -1430.84 -1179.71 -716.00 -319.83 -250.66 -414.86 -613.04 -868.55 -1209.11 -1532.84 -1705.55 -1914.80 -1960.03 -1966.36 -1969.21 -2006.98 -2097.81 -2216.76 -2434.90 -2688.21 -3087.46 -3368.92 -3674.57 -3769.91 -3809.15 -3809.22
-2087.98 -2087.93 -2092.00 -2095.42 -2102.00 -2078.00 -2078.48 -2073.26 -2055.92 -2072.16 -2077.65 -2046.32 -2053.24 -2093.76 -2096.11 -2091.46 -2088.01 -2084.46 -2088.57 -2083.88 -2099.63 -2108.06 -2123.66 -2133.18 -2131.63 -2149.06 -2156.32 -2167.07 -2178.09 -2183.96 -2197.46 -2205.08 -2198.82 -2167.25 -1973.77 -1675.66 -989.67 -721.94 -478.33 -426.37 -397.33 -341.93 -320.86 -288.33 -220.30 -113.78 51.80 188.34 231.74 238.12 245.27 244.39 238.80 239.25 230.48 215.12 190.81 166.62 158.09 138.99 155.00 158.74 157.17 152.86 158.80 153.19 153.00 152.94 153.40 157.92 161.14 164.37 205.32 233.29 247.44 260.14 289.62 316.57 333.81 362.61 384.79 414.87 423.23 452.52 461.97 454.83 441.17 604.97 565.04 403.08 285.97 257.15 210.32 168.13 127.12 107.96 26.45 -76.30 -173.52 -313.25 -558.80 -740.83 -786.98 -854.20 -871.57 -882.71 -894.68 -875.82 -878.80 -902.87 -926.58 -923.18 -1002.17 -1094.30 -1148.48 -1081.23 -1034.34 -542.80 -234.67 -349.91 -497.46 -821.71 -1130.06 -1329.46 -1601.32 -1821.54 -1951.16 -1964.48 -1957.21 -1952.95 -2001.78 -2090.61 -2207.57 -2408.82 -2816.01 -3195.51 -3606.82 -3769.29 -3799.34 -3810.52 -3810.58
-2105.93 -2105.88 -2107.10 -2116.09 -2120.93 -2124.71 -2127.28 -2108.66 -2070.04 -2096.01 -2111.93 -2106.26 -2113.08 -2107.93 -2119.02 -2118.84 -2117.23 -2121.05 -2117.59 -2122.63 -2131.63 -2135.88 -2152.96 -2163.52 -2164.17 -2184.48 -2181.54 -2188.99 -2197.98 -2208.12 -2215.86 -2225.19 -2225.16 -2198.94 -2077.26 -1788.60 -1328.84 -737.59 -538.64 -433.65 -402.34 -336.51 -308.03 -284.88 -213.12 -106.55 30.43 85.01 193.96 230.05 230.65 223.96 216.19 203.36 147.51 145.43 110.85 92.28 102.75 123.28 143.11 142.72 152.53 166.70 183.73 164.98 157.53 158.18 157.89 160.02 160.85 163.13 206.96 228.89 236.77 252.60 270.78 298.71 318.65 362.60 380.03 401.35 413.60 424.07 435.63 422.79 386.33 729.94 379.95 277.20 253.17 196.23 158.92 132.80 107.76 22.59 -108.97 -300.34 -387.46 -622.86 -776.00 -837.40 -879.22 -905.40 -906.76 -894.41 -888.18 -864.09 -832.33 -813.13 -754.92 -732.64 -715.69 -578.04 -546.80 -552.14 -415.65 -261.55 -243.44 -355.09 -568.50 -942.13 -1188.75 -1530.30 -1735.66 -1894.46 -1944.27 -1948.93 -1948.29 -1944.71 -2001.77 -2084.83 -2346.08 -2475.16 -2779.46 -3365.86 -3575.29 -3769.37 -3806.63 -3813.40 -3813.46
-2130.77 -2132.59 -2134.32 -2133.76 -2135.90 -2141.16 -2144.66 -2131.31 -2112.06 -2126.99 -2124.82 -2126.83 -2127.26 -2134.96 -2143.33 -2155.11 -2154.26 -2166.88 -2164.28 -2166.44 -2172.37 -2170.53 -2180.08 -2185.59 -2198.22 -2198.82 -2210.32 -2210.43 -2220.75 -2232.05 -2232.89 -2239.10 -2242.86 -2236.07 -2177.03 -1900.71 -1411.86 -948.98 -583.30 -446.75 -408.68 -346.49 -300.56 -285.80 -216.72 -108.70 -50.75 5.81 133.24 174.44 198.55 111.79 136.42 55.59 -11.33 -86.77 -93.50 -41.90 -12.57 95.23 89.60 115.60 151.25 181.55 206.79 196.03 184.50 178.17 168.11 161.88 163.88 164.10 202.78 221.43 231.99 252.20 269.29 283.96 301.40 329.71 346.15 365.28 397.60 403.49 405.59 402.88 443.95 406.09 270.58 268.41 204.42 142.16 95.34 72.21 40.46 -62.23 -363.48 -479.17 -542.16 -592.52 -847.54 -887.55 -911.21 -908.10 -890.84 -874.10 -766.25 -729.54 -653.83 -629.32 -442.59 -302.25 -72.05 -158.54 -179.54 -237.51 -172.13 -193.76 -288.90 -502.58 -732.07 -1162.60 -1408.08 -1656.48 -1807.65 -1901.39 -1937.53 -1939.21 -1928.77 -1934.20 -1975.25 -2113.58 -2432.83 -2590.54 -2941.01 -3222.62 -3635.05 -3758.15 -3801.53 -3813.15 -3813.64
-2147.70 -2147.65 -2146.27 -2151.73 -2156.73 -2156.24 -2162.90 -2157.26 -2140.24 -2139.15 -2144.29 -2144.64 -2147.09 -2150.43 -2164.50 -2173.73 -2172.63 -2184.66 -2187.95 -2192.47 -2198.37 -2199.21 -2212.98 -2216.44 -2221.67 -2222.93 -2232.19 -2236.74 -2234.16 -2244.81 -2247.73 -2251.40 -2256.93 -2255.75 -2185.89 -1939.80 -1657.20 -1071.90 -614.61 -449.80 -413.49 -358.65 -321.19 -288.70 -219.81 -142.85 -111.21 -52.45 40.22 49.29 63.83 7.13 -42.86 -69.24 -91.94 -109.44 -103.22 -88.52 -73.98 -65.42 -27.66 36.63 113.40 190.45 207.84 220.84 225.14 200.27 189.68 176.56 169.40 163.84 181.29 205.82 226.71 244.26 252.17 268.58 278.94 302.90 334.97 336.47 368.22 372.26 390.30 391.19 561.31 644.42 267.66 232.07 152.06 109.07 -30.96 -52.62 -229.41 -333.81 -651.53 -683.72 -672.50 -750.86 -897.08 -920.13 -923.23 -889.64 -851.85 -730.33 -545.68 -458.59 -235.13 -120.39 -115.44 56.69 26.50 79.76 -3.97 -53.06 -226.98 -408.11 -540.04 -700.36 -1087.57 -1278.89 -1598.48 -1806.34 -1867.52 -1925.83 -1930.99 -1925.63 -1916.36 -1927.66 -1963.97 -2085.24 -2426.38 -2563.29 -2958.53 -3343.71 -3653.11 -3767.48 -3809.38 -3812.97 -3813.04
