-5201.35 -5201.30 -5201.40 -5205.96 -5207.27 -5210.01 -5215.75 -5226.50 -5242.49 -5250.97 -5253.42 -5253.98 -5254.43 -5254.21 -5249.73 -5232.45 -5226.86 -5228.44 -5228.59 -5226.19 -5183.27 -5053.91 -4618.99 -4403.85 -3789.08 -3607.14 -3563.05 -3557.21 -3564.07 -3576.49 -3580.02 -3578.24 -3577.60 -3573.19 -3544.12 -3529.35 -3499.08 -3467.75 -3512.95 -3531.14 -3585.33 -3604.48 -3628.15 -3646.47 -3662.79 -3664.42 -3678.69 -3680.81 -3683.41 -3680.70 -3679.41 -3677.88 -3677.61 -3676.92 -3675.11 -3674.84 -3673.77 -3676.70 -3677.42 -3672.07 -3669.18 -3665.71 -3666.16 -3663.59 -3671.15 -3674.59 -3682.21 -3689.89 -3688.05 -3679.83 -3643.47 -3527.51 -3347.30 -3016.02 -2835.01 -2186.72 -1766.69 -1281.05 -953.84 -710.48 -427.21 -266.73 -199.34 -109.23 -58.75 7.90 56.22 102.16 135.34 152.83 165.67 191.77 212.09 233.99 290.08 443.38 2556.83 3812.13 4722.88 7422.10 7441.30 5450.27 2804.83 2068.03 1911.67 546.81 296.88 275.62 234.83 205.42 168.72 88.11 -46.46 -236.14 -446.59 -671.48 -899.41 -1118.41 -1321.86 -1462.13 -1583.28 -1741.39 -1794.84 -1855.25 -1872.33 -1883.33 -1886.36 -1888.72 -1889.47 -1914.24 -1968.75 -2004.44 -2283.83 -2463.81 -2848.84 -3244.44 -3436.92 -3714.20 -3774.12 -3802.07 -3806.23
-5211.16 -5211.11 -5216.64 -5216.27 -5213.65 -5215.71 -5219.54 -5225.69 -5243.48 -5247.07 -5249.02 -5249.43 -5250.16 -5249.80 -5241.65 -5227.11 -5222.54 -5222.85 -5227.20 -5227.59 -5220.99 -5148.57 -4924.56 -4335.84 -3801.03 -3604.04 -3554.20 -3548.76 -3555.10 -3559.48 -3557.62 -3560.20 -3527.61 -3508.05 -3445.71 -3278.03 -3028.09 -3158.54 -3229.92 -3243.38 -3407.58 -3469.36 -3537.16 -3590.97 -3605.14 -3625.82 -3669.21 -3681.11 -3684.09 -3681.14 -3680.62 -3679.12 -3677.92 -3674.83 -3673.77 -3669.82 -3670.38 -3671.31 -3668.58 -3661.10 -3659.67 -3655.65 -3652.75 -3648.30 -3650.14 -3657.98 -3667.00 -3678.36 -3682.96 -3663.02 -3633.89 -3509.05 -3343.13 -3017.28 -2738.69 -2265.22 -1743.36 -1461.03 -1007.98 -783.80 -446.98 -263.81 -199.11 -112.91 -39.61 1.16 56.07 108.00 141.84 168.68 186.30 209.04 228.94 246.58 284.62 411.81 1738.97 2604.86 4284.38 6592.09 7623.95 6601.16 3299.52 2491.10 1727.25 994.37 301.74 295.56 272.87 220.10 164.72 89.60 8.65 -199.06 -396.18 -627.86 -818.71 -996.69 -1229.51 -1417.60 -1612.42 -1698.97 -1787.72 -1863.34 -1881.33 -1884.46 -1886.80 -1887.55 -1892.62 -1903.67 -1937.28 -1988.78 -2178.12 -2376.29 -2812.65 -3154.58 -3497.84 -3691.72 -3749.02 -3807.55 -3807.61
-5235.99 -5239.02 -5235.55 -5235.11 -5224.52 -5238.31 -5232.91 -5234.88 -5239.17 -5234.97 -5230.45 -5232.83 -5232.01 -5226.73 -5232.95 -5220.98 -5220.58 -5224.69 -5226.74 -5228.72 -5220.48 -5160.38 -4915.53 -4549.31 -3836.44 -3511.41 -3509.83 -3510.07 -3536.30 -3544.78 -3527.45 -3496.81 -3300.69 -3127.32 -2953.26 -2703.32 -2252.87 -2143.20 -2383.79 -2542.02 -2744.18 -2743.92 -3144.07 -3445.89 -3387.74 -3591.74 -3639.01 -3657.19 -3660.14 -3674.48 -3676.22 -3676.18 -3677.08 -3672.96 -3668.30 -3663.62 -3657.96 -3647.40 -3644.71 -3636.24 -3628.86 -3627.27 -3625.89 -3629.72 -3635.15 -3638.97 -3643.43 -3657.53 -3672.47 -3661.05 -3647.94 -3555.07 -3376.48 -2993.91 -2788.33 -2297.58 -1917.01 -1549.51 -1122.02 -797.04 -463.24 -309.68 -176.97 -102.68 -45.53 8.15 63.37 95.35 147.40 181.07 213.52 223.16 233.82 252.85 297.39 404.00 1148.61 2294.81 3236.17 5931.67 8140.99 7881.16 5360.15 3274.00 2721.60 1536.91 435.05 363.80 286.79 237.13 220.49 134.60 68.64 -91.39 -295.05 -509.81 -701.48 -920.02 -1054.85 -1386.09 -1476.17 -1676.31 -1773.24 -1859.91 -1876.12 -1884.92 -1886.20 -1887.94 -1893.94 -1912.92 -1950.86 -2002.63 -2151.01 -2321.07 -2721.22 -3129.37 -3577.13 -3741.86 -3793.94 -3830.87 -3830.89
-5280.64 -5280.62 -5280.97 -5260.85 -5267.61 -5300.31 -5271.09 -5244.83 -5230.39 -5221.31 -5220.21 -5217.71 -5216.54 -5217.80 -5220.57 -5223.16 -5226.76 -5230.65 -5233.02 -5232.30 -5215.34 -5135.45 -4936.29 -4184.29 -3513.20 -3049.21 -3219.85 -3332.38 -3334.68 -3474.05 -3385.24 -3130.40 -2931.55 -2613.22 -2219.82 -1823.25 -1588.95 -1573.35 -1701.47 -1681.51 -1924.26 -2269.89 -2215.63 -2674.28 -2911.53 -3186.61 -3596.36 -3589.65 -3622.75 -3629.14 -3660.68 -3663.86 -3660.23 -3662.06 -3660.75 -3652.31 -3639.23 -3628.77 -3616.38 -3604.75 -3601.87 -3598.25 -3601.06 -3608.17 -3609.47 -3620.14 -3618.55 -3638.24 -3632.53 -3636.70 -3586.79 -3410.82 -3265.99 -3047.02 -2511.12 -2221.25 -1932.15 -1487.21 -1148.75 -829.59 -461.40 -349.85 -190.85 -89.37 -62.99 29.54 98.13 107.18 144.96 213.32 226.58 241.01 244.09 255.05 307.04 407.56 2121.21 3657.85 4049.35 7259.05 9072.58 9601.28 6344.90 3851.25 1839.02 1799.57 1317.57 406.59 340.46 243.64 223.79 175.02 83.22 -45.43 -256.13 -369.27 -613.89 -784.69 -1123.26 -1251.66 -1535.06 -1637.45 -1760.13 -1841.46 -1868.45 -1881.51 -1884.12 -1886.97 -1892.05 -1909.43 -1952.75 -1993.76 -2101.13 -2344.31 -2684.15 -2937.56 -3497.04 -3739.91 -3838.96 -3866.47 -3866.53
-5347.24 -5353.89 -5354.32 -5341.83 -5323.94 -5311.39 -5290.64 -5258.77 -5252.41 -5245.64 -5225.25 -5227.75 -5227.42 -5222.45 -5226.74 -5233.40 -5251.59 -5249.68 -5255.10 -5245.72 -5218.08 -5033.51 -4370.16 -3544.31 -2560.99 -2476.85 -2428.06 -2862.71 -2938.25 -3147.08 -2990.17 -2467.67 -2006.85 -1781.52 -1552.41 -1273.17 -1153.80 -1154.67 -1213.75 -1238.46 -1376.48 -1408.09 -1573.57 -1802.10 -2372.83 -2689.15 -3145.87 -3428.18 -3479.48 -3418.55 -3507.17 -3576.03 -3639.08 -3624.31 -3646.59 -3647.52 -3632.92 -3612.79 -3602.72 -3595.40 -3591.64 -3585.48 -3586.93 -3592.48 -3595.09 -3589.54 -3588.21 -3577.34 -3581.27 -3533.09 -3306.44 -3237.88 -3154.92 -3031.64 -2600.52 -2144.35 -1637.46 -1271.07 -1008.41 -833.69 -574.10 -428.13 -233.40 -17.50 38.14 86.08 126.78 160.07 187.52 218.31 241.44 250.39 250.35 267.40 299.08 386.95 1027.80 2875.97 3863.88 6042.30 7612.83 8817.53 7481.44 5091.65 2806.98 2475.89 1303.46 602.53 357.43 263.41 221.52 169.28 121.59 9.30 -184.67 -370.20 -431.44 -837.01 -1204.99 -1359.70 -1533.34 -1659.21 -1738.15 -1849.88 -1874.69 -1881.11 -1881.95 -1883.93 -1889.80 -1904.95 -1937.74 -2033.66 -2092.72 -2242.38 -2513.33 -3018.78 -3451.70 -3759.79 -3869.93 -3870.97 -3873.23
-5465.96 -5451.97 -5429.33 -5423.10 -5389.86 -5379.36 -5359.73 -5330.79 -5283.55 -5278.64 -5264.00 -5254.17 -5258.68 -5257.54 -5299.93 -5286.62 -5310.26 -5298.13 -5288.43 -5271.33 -5227.06 -4977.02 -4012.18 -2705.81 -1907.19 -1746.75 -1994.73 -2199.10 -2180.04 -2455.49 -2558.50 -2061.07 -1426.73 -1220.75 -1140.13 -1005.71 -812.36 -891.53 -869.99 -1042.07 -1021.84 -1165.58 -1238.36 -1400.39 -1693.00 -1959.28 -2640.58 -2990.24 -3018.01 -3095.83 -3233.17 -3422.98 -3420.26 -3533.75 -3598.18 -3632.82 -3608.25 -3598.10 -3585.78 -3577.16 -3575.81 -3573.09 -3570.15 -3569.34 -3560.67 -3557.97 -3444.08 -3434.70 -3388.46 -3095.39 -2991.28 -2574.78 -2438.97 -2100.28 -1938.40 -1512.05 -1086.36 -1042.60 -947.53 -666.48 -331.23 -108.68 7.83 153.65 186.65 150.80 174.32 164.47 188.03 218.41 246.12 265.05 252.62 261.31 292.81 383.47 549.39 1916.89 2651.00 3105.61 4288.04 7063.00 7764.93 5838.66 4884.99 3184.49 1472.52 559.36 439.22 316.87 228.12 207.49 179.78 122.74 -50.12 -214.08 -410.78 -635.77 -1046.17 -1195.82 -1498.04 -1637.64 -1781.97 -1825.60 -1875.12 -1881.06 -1881.48 -1882.88 -1889.52 -1905.49 -1954.80 -2036.93 -2073.79 -2283.64 -2587.93 -3050.53 -3496.72 -3797.54 -3853.98 -3878.26 -3878.32
-5558.13 -5558.00 -5517.77 -5497.28 -5477.03 -5481.01 -5476.54 -5433.77 -5400.83 -5361.81 -5339.49 -5312.90 -5349.22 -5349.41 -5362.09 -5363.20 -5356.82 -5385.83 -5377.06 -5349.14 -5248.45 -4942.05 -3893.56 -2906.94 -1603.18 -1481.59 -1460.49 -1581.87 -1699.66 -1902.90 -1881.49 -1606.88 -1297.72 -1033.47 -809.44 -450.60 -465.34 -382.54 -515.17 -665.92 -767.74 -1042.27 -1098.72 -1133.88 -1223.77 -1385.24 -1785.85 -2104.30 -2418.90 -2260.84 -2384.66 -2633.88 -2863.45 -3044.04 -3338.52 -3424.34 -3573.70 -3545.50 -3481.26 -3530.75 -3531.11 -3547.30 -3507.99 -3486.50 -3431.23 -3284.77 -3273.61 -2846.89 -2606.32 -2335.57 -1938.49 -1980.70 -2019.26 -1514.21 -1252.92 -1000.92 -496.55 -298.87 -175.20 24.29 109.35 119.08 187.76 218.50 220.29 222.23 184.67 168.94 189.52 214.80 242.62 264.89 255.02 269.19 281.86 302.73 386.28 1146.71 1279.26 2215.78 3783.80 6738.45 8202.86 7508.05 5281.00 2948.28 1728.55 2057.22 1393.29 404.01 256.04 223.00 190.65 151.34 35.37 -131.13 -303.96 -534.37 -921.48 -1211.10 -1409.50 -1557.67 -1739.41 -1816.43 -1869.76 -1880.42 -1881.17 -1881.57 -1889.64 -1902.07 -1952.27 -1991.10 -2199.15 -2254.21 -2526.80 -3130.81 -3501.70 -3857.13 -3867.07 -3878.43 -3881.48
-5606.03 -5605.95 -5599.70 -5569.50 -5550.66 -5535.13 -5525.50 -5492.72 -5492.68 -5462.77 -5446.14 -5418.94 -5419.69 -5432.92 -5440.26 -5479.01 -5478.44 -5508.69 -5461.00 -5440.21 -5364.48 -4925.25 -3706.96 -2610.98 -1647.19 -1556.12 -1550.64 -1569.73 -1497.00 -1545.32 -1575.41 -1476.17 -1157.94 -764.83 -400.37 -156.70 62.61 118.34 -23.48 -159.97 -127.47 -665.30 -1035.06 -1085.21 -1046.19 -1177.80 -1303.00 -1374.21 -1540.06 -1590.66 -1764.32 -1865.99 -2121.14 -2323.73 -2707.78 -3163.60 -3279.15 -3353.26 -3363.87 -3407.90 -3374.76 -3178.37 -3303.54 -3285.90 -3098.35 -2873.37 -2827.44 -2257.48 -2143.59 -1604.00 -1522.51 -1340.09 -1102.63 -915.56 -593.33 -281.10 60.33 116.57 148.48 194.68 193.72 186.50 176.09 186.55 198.43 195.26 157.39 160.71 191.05 228.46 249.20 256.18 262.58 269.22 288.68 305.85 333.45 503.08 2179.75 3264.65 4622.91 5648.67 8185.44 7859.63 5799.96 3262.31 3200.27 2758.89 2169.89 750.77 271.47 244.34 217.34 181.77 116.48 71.77 -165.28 -412.74 -889.02 -1238.37 -1421.97 -1595.56 -1667.18 -1787.99 -1844.26 -1875.61 -1879.29 -1880.77 -1892.45 -1914.94 -1966.81 -2026.41 -2151.44 -2279.18 -2521.37 -2872.00 -3352.30 -3775.11 -3860.84 -3883.24 -3883.31
-5609.34 -5609.28 -5606.02 -5600.49 -5594.64 -5587.62 -5576.12 -5564.79 -5566.91 -5552.85 -5528.90 -5532.56 -5507.56 -5529.88 -5540.40 -5522.55 -5519.49 -5532.09 -5531.09 -5509.09 -5402.99 -5072.97 -3792.01 -2923.07 -1930.84 -1942.94 -2065.89 -2025.56 -1665.43 -1538.63 -1465.24 -1338.94 -1194.52 -432.81 -47.63 273.94 306.07 329.50 274.53 161.31 35.15 -299.73 -755.65 -828.09 -859.57 -962.79 -1046.93 -1141.03 -1167.47 -1337.62 -1377.74 -1304.94 -1278.00 -1903.31 -1908.55 -2250.34 -2527.92 -2747.11 -2764.94 -2850.99 -2656.53 -2802.20 -2648.80 -2733.35 -2417.30 -2028.93 -1678.36 -1577.72 -1359.55 -1302.49 -1172.63 -1049.24 -802.24 -617.69 -46.72 218.87 274.11 276.29 269.43 219.77 167.18 137.62 149.41 161.59 152.56 155.49 151.85 158.89 176.44 213.12 238.69 250.16 263.61 278.04 284.64 316.83 337.66 358.52 1907.08 2460.13 2929.09 4149.82 7071.15 8136.31 7100.49 5331.66 4299.19 2774.03 2536.98 1470.16 313.81 249.94 236.79 172.55 113.69 92.79 -44.19 -220.16 -608.04 -932.57 -1125.79 -1483.72 -1614.38 -1754.61 -1850.70 -1873.32 -1873.25 -1878.97 -1887.35 -1926.38 -2016.17 -2078.16 -2203.10 -2396.64 -2550.65 -2980.47 -3375.17 -3762.07 -3870.98 -3883.70 -3883.76
-5602.07 -5602.10 -5600.12 -5597.39 -5594.34 -5590.09 -5584.05 -5587.26 -5585.22 -5582.41 -5573.13 -5573.14 -5572.88 -5571.60 -5564.80 -5560.11 -5556.39 -5557.37 -5555.95 -5535.45 -5447.42 -5276.24 -4444.10 -3385.00 -3313.10 -2890.12 -3187.20 -3237.30 -2352.48 -1974.95 -1607.07 -1316.05 -1010.23 -371.26 68.50 287.23 363.07 408.18 417.27 356.05 301.29 105.13 -206.68 -208.34 -368.99 -638.84 -794.27 -882.10 -970.01 -1057.39 -1032.02 -1059.26 -1148.16 -1124.99 -1417.09 -1656.10 -1718.09 -1779.03 -1860.77 -1797.65 -1808.39 -1940.89 -1755.08 -1908.44 -1724.79 -1503.97 -1490.99 -1291.89 -1260.04 -1207.70 -1076.83 -668.44 -379.27 -24.93 211.84 320.73 300.26 291.58 272.61 206.88 141.33 122.54 140.43 138.68 131.47 148.57 147.35 154.32 168.23 201.25 221.90 242.86 251.94 271.92 281.32 295.43 292.33 341.61 718.86 1529.12 1461.34 3149.00 5493.23 6828.23 8150.99 8121.53 6117.51 3507.71 3255.52 3021.16 958.48 325.21 229.25 174.50 157.72 153.25 74.58 -144.61 -299.33 -640.21 -945.26 -1257.33 -1393.73 -1690.55 -1827.72 -1860.28 -1869.43 -1877.48 -1882.52 -1922.39 -1994.06 -2096.89 -2342.93 -2563.09 -2896.85 -3470.41 -3650.11 -3850.43 -3869.73 -3876.01 -3876.06
-5597.89 -5597.64 -5595.63 -5592.04 -5591.25 -5586.15 -5583.35 -5585.85 -5592.94 -5591.60 -5586.62 -5586.05 -5580.26 -5578.36 -5568.44 -5561.33 -5556.65 -5557.20 -5554.41 -5550.62 -5515.59 -5393.46 -4988.51 -4634.52 -4518.43 -4783.43 -4671.98 -4131.22 -2979.98 -2199.80 -1789.16 -1541.59 -1193.69 -666.12 -30.46 212.81 328.15 448.47 466.01 402.94 317.92 290.36 183.67 184.81 149.76 20.92 -244.05 -156.41 -349.59 -498.53 -584.02 -665.24 -1007.44 -1135.68 -1232.91 -1261.57 -1283.39 -1327.26 -1288.87 -1396.31 -1375.16 -1318.71 -1380.82 -1415.07 -1440.03 -1339.33 -1280.43 -1215.67 -1127.27 -1025.84 -844.03 -264.04 67.11 269.64 323.54 398.12 359.48 289.36 239.65 149.48 131.60 109.70 120.95 131.72 129.79 135.50 141.69 147.62 164.63 192.88 213.75 229.51 247.48 253.43 264.64 277.75 289.51 308.83 392.96 899.07 2462.51 3708.85 3827.64 4661.57 6754.88 8355.05 6434.77 5694.16 3879.46 3116.03 1534.74 370.37 301.51 229.17 223.45 187.34 87.51 -25.72 -183.19 -433.02 -675.35 -828.88 -1103.92 -1491.24 -1669.01 -1801.34 -1849.62 -1870.87 -1882.40 -1900.07 -1974.08 -2184.38 -2519.92 -2879.17 -3162.15 -3574.63 -3834.01 -3866.00 -3868.58 -3870.55 -3871.16
-5593.96 -5593.81 -5591.50 -5589.58 -5586.01 -5583.12 -5581.12 -5585.65 -5594.12 -5592.08 -5587.67 -5584.54 -5579.75 -5575.29 -5568.40 -5555.93 -5552.61 -5549.63 -5549.62 -5546.97 -5537.36 -5516.93 -5456.71 -5354.63 -5365.66 -5396.21 -5218.68 -5009.55 -4286.70 -3339.10 -2386.07 -1770.24 -1147.45 -527.34 85.38 197.32 317.34 350.00 432.32 426.50 443.19 364.31 314.20 298.26 303.35 245.21 208.78 199.06 42.37 -102.24 -55.73 -147.59 -544.46 -867.43 -889.45 -852.49 -913.11 -936.41 -1046.50 -1115.24 -1083.41 -1127.40 -1192.34 -1188.84 -1266.47 -1274.30 -1265.57 -1175.74 -973.79 -774.86 -464.02 76.71 258.15 303.42 335.11 411.68 350.18 266.96 210.72 146.11 114.92 121.77 120.92 126.05 128.09 127.41 135.16 146.58 162.47 177.99 197.72 220.99 239.11 244.31 246.92 253.72 258.44 262.90 314.45 347.60 2177.97 3175.63 2958.30 3337.95 4565.83 7030.19 7199.32 5579.34 3457.06 2112.71 1400.02 344.19 326.69 267.87 236.69 186.10 136.45 71.04 -55.23 -252.27 -398.95 -624.68 -974.67 -1402.10 -1698.02 -1800.53 -1840.40 -1866.35 -1875.05 -1895.78 -1986.88 -2289.53 -2649.37 -2909.11 -3310.89 -3577.45 -3776.87 -3851.87 -3870.15 -3870.71 -3870.84
-5589.03 -5588.97 -5585.76 -5584.15 -5582.80 -5578.45 -5576.80 -5578.65 -5591.06 -5588.83 -5586.69 -5581.33 -5577.45 -5574.14 -5564.17 -5551.99 -5548.58 -5544.58 -5544.36 -5542.63 -5539.75 -5529.37 -5509.98 -5513.84 -5509.41 -5508.84 -5508.94 -5366.26 -5134.61 -4677.13 -3278.76 -2207.70 -1435.55 -688.74 -97.54 186.15 310.64 323.93 384.70 458.15 460.21 403.51 371.10 354.25 340.71 317.71 354.03 326.06 296.00 258.33 245.55 144.64 -295.34 -407.65 -513.49 -580.69 -572.56 -587.97 -722.10 -880.96 -851.97 -839.00 -918.27 -1020.26 -1082.07 -1131.81 -1193.44 -1072.30 -559.71 -246.42 49.29 228.75 354.96 368.93 354.18 344.73 324.16 251.15 175.72 111.43 127.35 113.33 119.77 124.76 124.34 125.25 130.07 139.59 153.12 169.99 187.33 213.97 231.68 241.66 243.79 246.31 249.21 251.76 297.07 358.23 748.01 1664.49 1864.75 2141.33 4279.56 6616.21 7941.48 4167.68 2961.28 2510.88 2843.08 1351.20 359.37 274.78 221.07 191.35 156.30 89.44 -16.42 -207.52 -353.07 -715.92 -1086.74 -1453.52 -1658.74 -1807.00 -1843.53 -1861.66 -1865.07 -1874.46 -2003.23 -2232.59 -2589.66 -2963.54 -3370.26 -3694.20 -3828.60 -3849.96 -3867.64 -3869.83 -3869.89
-5583.48 -5583.59 -5582.07 -5579.96 -5576.98 -5575.92 -5572.96 -5577.73 -5586.49 -5586.87 -5584.51 -5580.34 -5575.20 -5571.47 -5565.31 -5552.34 -5544.17 -5541.49 -5538.83 -5536.98 -5534.80 -5535.97 -5536.23 -5538.11 -5542.72 -5547.03 -5542.85 -5529.13 -5482.92 -5182.27 -3352.57 -1878.91 -1226.32 -387.24 -73.38 119.92 269.76 328.70 352.84 394.33 437.13 432.55 406.43 405.18 450.70 471.13 533.18 449.28 405.39 318.44 270.74 244.44 46.79 -34.68 -90.74 -254.90 -213.59 -349.40 -416.13 -506.53 -629.03 -589.73 -570.43 -734.25 -638.95 -883.66 -839.64 -619.74 -345.94 -19.17 232.70 316.18 323.39 332.80 292.75 290.00 274.32 218.13 175.10 99.51 112.13 120.64 118.72 121.80 123.73 125.03 130.22 139.96 155.58 174.03 193.18 213.11 229.98 240.24 240.94 245.25 247.54 248.85 264.68 320.67 323.15 543.98 1678.43 2726.27 3289.03 6966.83 7616.94 7569.91 6333.68 3280.43 3090.88 1258.61 520.04 267.87 233.62 220.70 178.07 114.08 4.41 -152.54 -467.04 -873.63 -1193.13 -1432.91 -1631.63 -1797.55 -1854.39 -1860.01 -1861.09 -1895.99 -2001.13 -2118.28 -2555.23 -2893.73 -3348.10 -3728.97 -3800.19 -3842.91 -3863.96 -3867.50 -3867.73
-5580.16 -5580.10 -5577.40 -5576.27 -5575.02 -5572.65 -5571.61 -5577.40 -5585.99 -5590.70 -5586.36 -5583.15 -5581.05 -5575.27 -5568.01 -5544.80 -5541.46 -5537.10 -5534.02 -5530.81 -5530.52 -5535.71 -5541.79 -5544.92 -5550.59 -5554.33 -5568.57 -5568.85 -5480.88 -5216.69 -3261.83 -1813.38 -899.23 -241.66 21.03 217.30 268.45 311.49 329.75 375.83 412.71 433.11 443.14 444.31 512.61 564.60 617.13 497.69 387.25 342.83 282.03 248.99 195.00 133.63 73.86 -32.11 -85.62 -86.90 -192.90 -309.90 -287.45 -252.50 -294.76 -314.99 -219.56 -269.22 -307.17 -97.31 149.99 241.52 280.98 307.73 304.31 297.06 266.04 259.31 248.20 193.60 144.01 108.20 111.83 117.31 116.61 117.77 120.67 124.18 132.57 140.92 159.93 177.70 195.66 212.25 216.88 229.98 238.84 242.36 246.90 248.35 250.12 287.51 317.71 456.93 1697.74 2320.22 2768.00 4991.11 6763.45 7937.21 6943.11 5399.99 2571.00 1800.25 501.21 276.04 237.19 221.14 184.11 116.99 36.35 -206.82 -459.30 -906.98 -1122.51 -1385.49 -1715.58 -1832.22 -1855.82 -1859.88 -1863.01 -1900.01 -1948.28 -2160.87 -2501.17 -2975.74 -3523.13 -3778.88 -3817.30 -3838.20 -3864.73 -3866.21 -3866.28
-5573.58 -5573.52 -5571.76 -5570.92 -5569.56 -5568.50 -5567.34 -5575.42 -5591.44 -5592.28 -5589.34 -5585.90 -5584.05 -5578.80 -5567.75 -5547.84 -5537.49 -5533.21 -5528.66 -5526.46 -5526.43 -5533.82 -5541.23 -5546.89 -5549.74 -5554.88 -5576.22 -5595.99 -5564.15 -5218.03 -3694.34 -1482.07 -339.84 -127.25 174.22 234.79 282.42 328.57 343.61 378.50 399.83 419.52 441.12 476.84 561.35 644.10 701.44 571.63 455.62 388.60 306.47 265.29 245.06 228.47 155.63 73.92 28.88 20.73 -24.02 -37.57 -50.96 -67.13 -2.36 11.68 26.17 236.64 239.29 208.53 311.28 340.76 295.78 298.82 253.12 198.83 186.61 227.44 209.57 164.89 110.78 112.13 115.39 115.44 115.19 116.10 117.86 121.72 134.45 144.45 160.54 179.96 193.87 198.63 203.75 226.92 231.81 239.22 244.47 248.11 249.96 250.71 276.93 315.63 804.50 1582.73 2826.87 3673.67 5234.26 6922.90 6910.61 5740.08 2738.51 1750.64 604.51 287.13 245.23 226.53 184.21 143.87 40.24 -164.80 -447.28 -898.98 -1030.20 -1446.73 -1688.79 -1815.03 -1858.58 -1861.11 -1862.50 -1877.43 -1943.01 -2073.31 -2355.34 -2967.33 -3610.78 -3846.43 -3853.57 -3865.46 -3862.12 -3865.01 -3865.07
-5564.19 -5564.14 -5561.81 -5562.75 -5564.30 -5564.03 -5562.61 -5571.05 -5588.68 -5588.38 -5586.71 -5585.32 -5581.98 -5578.62 -5567.16 -5544.96 -5536.18 -5532.26 -5528.77 -5526.09 -5526.55 -5538.61 -5544.48 -5548.75 -5549.69 -5551.34 -5559.91 -5489.67 -5393.03 -3426.40 -2230.76 -818.98 -280.68 74.46 253.23 274.66 293.38 331.56 358.57 375.85 403.69 428.30 452.02 512.05 585.19 701.94 745.21 669.74 593.74 454.31 326.48 304.98 256.05 253.82 224.12 162.11 84.45 65.91 42.63 39.14 30.47 40.73 143.76 172.86 240.52 289.15 308.44 350.10 355.56 294.02 240.16 168.51 113.75 130.01 146.54 149.48 179.85 175.08 133.83 120.99 114.20 114.14 113.93 114.45 116.51 122.71 137.75 149.52 164.83 175.28 187.61 196.79 205.22 220.27 226.36 232.24 238.14 246.47 249.03 250.38 253.75 324.32 574.17 1158.42 1691.50 2198.75 3825.53 5625.85 6152.28 3755.78 2415.59 1661.41 1318.52 293.40 261.18 233.10 207.75 136.12 -0.37 -167.27 -370.31 -746.72 -1217.12 -1484.90 -1659.74 -1759.77 -1841.54 -1863.55 -1864.45 -1876.70 -1938.64 -2060.68 -2220.03 -2741.85 -3267.60 -3791.49 -3819.40 -3862.87 -3861.54 -3864.45 -3864.51
-5553.88 -5554.69 -5554.87 -5554.79 -5554.85 -5555.36 -5557.27 -5561.29 -5579.78 -5584.77 -5583.73 -5582.03 -5580.12 -5577.92 -5562.54 -5545.94 -5535.40 -5532.41 -5530.27 -5529.34 -5531.21 -5543.32 -5550.58 -5545.33 -5544.29 -5502.02 -5416.33 -4532.34 -3654.61 -2570.04 -914.99 -849.44 -258.59 45.84 268.98 284.74 307.98 338.68 358.02 376.94 412.97 429.29 469.16 500.54 562.25 682.82 757.09 742.65 564.94 408.38 330.08 293.02 257.71 255.12 253.53 196.63 140.30 91.09 92.80 76.33 120.54 183.79 253.38 273.43 324.08 348.69 328.66 318.45 268.02 231.27 130.36 101.45 118.86 98.59 107.75 122.38 141.02 143.42 137.40 115.34 114.05 113.60 113.92 113.82 116.07 124.12 138.11 149.94 160.73 173.43 187.66 193.47 200.56 212.88 216.51 230.05 236.66 239.95 246.09 249.22 253.15 269.42 343.74 714.91 1156.14 2760.49 3910.92 7647.09 7768.28 4790.39 3486.55 3126.76 1992.16 310.21 259.57 240.02 223.68 179.74 67.00 -89.15 -371.58 -983.48 -1041.83 -1449.76 -1540.21 -1765.65 -1830.07 -1864.44 -1868.85 -1884.55 -1927.15 -1988.77 -2165.02 -2735.49 -3082.57 -3743.37 -3842.76 -3858.26 -3859.40 -3862.84 -3863.51
-5543.00 -5542.94 -5542.82 -5545.49 -5546.69 -5546.78 -5546.91 -5555.14 -5571.12 -5579.03 -5578.30 -5578.14 -5576.46 -5572.39 -5555.76 -5545.89 -5538.22 -5535.61 -5535.17 -5533.93 -5537.26 -5550.66 -5551.30 -5535.66 -5440.41 -5375.38 -5137.87 -3891.21 -2987.47 -1384.46 -674.79 -247.39 59.94 210.96 258.59 291.61 310.74 340.37 361.88 379.96 445.41 465.60 501.30 537.73 575.61 663.33 732.20 724.59 644.24 519.43 365.61 332.16 276.71 263.95 256.31 230.44 189.23 149.82 141.19 191.79 266.48 290.03 316.68 349.65 363.75 314.54 287.36 207.35 169.26 124.11 97.75 106.60 96.14 104.39 113.03 119.78 118.17 114.85 128.40 116.96 116.70 113.13 112.99 113.49 115.96 119.34 127.96 140.72 161.67 176.71 186.88 195.06 204.08 211.03 216.71 224.37 231.53 237.32 243.99 247.22 251.26 255.50 270.99 775.73 1957.40 2891.52 4944.39 7180.13 7490.98 4849.82 3770.98 3607.90 2084.49 477.89 279.60 248.42 236.48 201.72 74.12 -6.35 -290.13 -668.86 -1118.42 -1345.53 -1435.67 -1764.90 -1831.40 -1865.07 -1871.00 -1885.90 -1962.32 -2063.90 -2231.81 -2636.72 -3185.08 -3718.89 -3842.21 -3860.01 -3861.52 -3862.96 -3863.03
-5532.22 -5532.16 -5531.19 -5534.60 -5535.51 -5538.45 -5538.01 -5549.43 -5563.40 -5567.09 -5569.31 -5572.46 -5573.42 -5573.01 -5565.10 -5548.21 -5542.60 -5547.21 -5547.76 -5545.65 -5546.56 -5541.90 -5476.62 -5450.10 -5130.88 -4551.48 -4020.56 -3127.94 -2151.31 -828.25 -430.62 -68.71 140.33 239.49 287.78 301.31 324.14 338.74 368.22 402.91 435.32 466.54 545.58 543.11 580.58 616.26 707.01 746.69 618.26 506.10 423.87 313.28 294.11 275.70 259.11 257.94 222.22 202.59 258.08 284.15 314.97 358.79 397.37 372.38 315.02 270.71 256.47 154.56 113.60 107.21 101.28 103.41 103.86 104.17 110.99 113.61 118.30 116.44 122.54 112.35 113.72 112.36 112.46 113.10 114.92 120.03 124.91 137.21 153.88 173.58 185.60 196.22 200.89 208.54 215.91 220.62 227.31 235.58 241.10 242.41 246.17 249.95 265.11 732.94 1644.26 1817.14 4524.78 6915.81 7514.79 6202.07 3157.64 2066.06 1173.74 891.17 277.19 254.22 232.57 202.92 169.40 50.28 -114.51 -466.22 -744.52 -1088.25 -1462.87 -1664.95 -1852.12 -1862.63 -1867.55 -1902.52 -1977.10 -2116.45 -2367.67 -2623.13 -3179.45 -3500.68 -3830.88 -3863.84 -3864.01 -3862.84 -3862.91
-5524.27 -5524.20 -5524.94 -5526.79 -5528.52 -5530.90 -5533.88 -5538.96 -5551.91 -5556.88 -5559.54 -5565.22 -5563.96 -5566.31 -5567.17 -5562.05 -5567.84 -5574.02 -5561.70 -5545.59 -5529.29 -5471.26 -5361.70 -5025.17 -4123.71 -3856.34 -2701.88 -2143.24 -962.10 -338.33 -126.71 113.53 229.43 284.22 294.90 321.58 367.22 375.86 394.19 462.37 517.20 514.87 541.56 586.36 604.29 665.26 726.02 739.60 694.42 557.93 466.03 347.58 316.14 289.47 278.64 271.08 264.95 273.25 283.56 341.61 386.73 448.62 410.49 329.81 281.51 217.55 146.82 97.53 81.91 88.74 102.52 101.40 103.54 111.74 118.09 115.13 115.58 119.88 121.85 114.66 111.23 111.08 111.62 112.39 114.41 120.89 134.04 137.96 157.05 173.97 179.89 193.04 200.87 208.83 216.17 220.85 228.41 235.43 238.44 240.37 244.92 248.63 256.36 407.90 1214.90 1647.97 3150.80 3869.73 6671.48 6997.82 5089.72 2961.68 2286.87 965.96 272.50 250.38 225.69 182.72 148.00 48.37 -82.07 -429.72 -705.34 -1017.95 -1328.13 -1666.79 -1821.57 -1851.50 -1869.25 -1908.62 -2010.42 -2141.91 -2319.41 -2675.66 -3119.18 -3456.35 -3672.79 -3834.28 -3863.35 -3863.15 -3863.22
-5515.17 -5516.02 -5516.28 -5520.94 -5521.98 -5523.28 -5524.95 -5536.21 -5542.26 -5548.23 -5549.06 -5554.13 -5558.43 -5562.06 -5569.05 -5572.51 -5575.16 -5573.99 -5567.60 -5478.10 -5368.56 -5089.10 -4432.38 -3782.04 -3231.15 -2399.21 -1935.77 -1438.89 -861.34 -240.22 34.36 202.68 282.89 291.09 300.62 338.80 370.82 401.04 412.80 457.30 503.47 561.94 613.52 617.06 635.05 680.43 700.16 684.98 662.65 569.12 440.70 354.93 331.61 306.05 289.49 287.11 285.72 289.54 334.04 429.87 461.43 431.56 354.42 280.77 231.08 181.48 89.88 81.45 81.98 85.12 99.41 99.92 100.34 106.15 112.36 113.64 112.44 116.77 118.82 115.96 110.94 110.80 111.03 111.61 113.62 118.34 130.12 136.33 154.82 166.36 179.51 186.67 197.16 206.85 217.87 224.67 228.70 234.43 236.84 239.92 244.00 249.98 259.81 433.32 906.09 1518.72 3337.65 5427.33 7482.43 6787.86 4375.70 2830.00 1959.78 849.54 365.91 241.31 217.58 170.97 145.36 49.71 -93.64 -363.86 -763.48 -838.44 -1260.59 -1579.17 -1722.97 -1825.51 -1878.44 -1904.43 -1955.20 -2124.91 -2361.76 -2575.03 -2840.41 -3231.97 -3613.45 -3810.27 -3859.41 -3861.58 -3861.65
-5506.26 -5506.19 -5507.47 -5509.98 -5509.64 -5516.94 -5518.21 -5524.41 -5534.76 -5541.87 -5546.67 -5552.08 -5556.70 -5562.11 -5566.63 -5556.08 -5554.65 -5532.24 -5330.24 -5265.27 -4806.99 -4290.36 -3588.50 -2496.97 -2056.17 -1654.62 -1449.47 -1182.21 -618.11 21.16 181.01 282.52 290.60 306.21 320.20 335.15 368.87 397.99 412.12 470.16 561.06 594.64 664.53 665.42 652.36 642.72 636.04 620.78 522.51 527.79 439.60 376.86 347.25 320.04 300.61 304.18 302.97 317.09 393.09 435.36 392.35 343.57 324.56 267.92 210.37 129.86 108.34 92.92 89.94 89.37 92.64 99.34 99.36 99.11 107.53 113.38 113.89 117.43 118.02 112.54 110.38 110.51 110.68 110.62 112.44 114.96 122.65 136.18 150.11 163.02 174.15 183.85 197.35 207.89 213.84 221.64 226.81 232.18 236.13 240.41 245.80 248.92 263.68 381.30 1082.83 1713.33 3170.12 5963.99 7307.77 6731.31 4605.05 2297.05 1687.03 669.70 370.83 257.10 219.02 181.48 130.44 -15.49 -240.81 -280.78 -512.88 -850.30 -1083.18 -1599.19 -1757.04 -1800.13 -1862.79 -1900.26 -1948.00 -2072.12 -2389.00 -2624.38 -2881.44 -3196.90 -3591.69 -3776.17 -3853.94 -3861.04 -3861.11
-5499.05 -5498.99 -5499.55 -5502.68 -5504.70 -5507.60 -5509.48 -5521.59 -5530.82 -5539.97 -5544.93 -5548.78 -5556.16 -5552.13 -5534.42 -5508.54 -5357.10 -5196.60 -4803.17 -4152.74 -3561.67 -3278.69 -2290.33 -1631.36 -1577.24 -1346.93 -1044.61 -710.55 -74.05 169.47 282.26 296.98 306.08 319.39 339.80 373.52 397.00 414.24 446.84 471.57 582.73 604.84 653.17 658.53 612.36 591.31 561.09 543.99 486.92 478.84 450.34 402.00 338.25 321.85 319.87 321.42 319.70 342.67 394.39 415.25 380.22 334.74 303.27 264.03 235.68 130.87 101.61 85.48 89.07 92.61 95.70 98.21 100.00 99.79 103.83 104.80 108.37 112.34 116.17 112.59 110.09 110.16 109.90 110.42 112.25 115.38 122.09 136.50 152.12 162.65 169.77 182.39 194.95 206.15 211.99 218.63 226.03 228.54 233.44 237.83 242.46 247.74 280.79 381.15 1273.50 1251.45 2216.61 3954.37 6678.15 7785.26 4226.03 2058.72 1862.68 1160.06 307.64 253.40 229.86 200.85 78.12 -47.66 -323.51 -467.36 -664.73 -983.58 -1210.17 -1524.02 -1716.83 -1783.21 -1853.83 -1899.76 -1957.34 -2000.04 -2261.89 -2663.06 -2886.10 -3136.85 -3458.77 -3761.50 -3805.23 -3836.96 -3837.02
-5494.38 -5494.67 -5495.57 -5497.38 -5500.68 -5502.88 -5507.95 -5517.85 -5530.62 -5537.19 -5542.68 -5539.57 -5522.73 -5487.02 -5444.16 -5156.33 -4801.30 -4025.67 -3456.41 -3091.54 -2953.26 -1861.72 -1615.82 -1315.98 -1211.25 -1054.69 -712.82 -251.42 143.61 276.23 290.21 306.87 321.41 333.90 354.15 401.31 427.16 470.95 469.32 514.24 521.60 562.79 616.15 617.29 577.40 541.99 506.46 500.31 458.78 438.41 417.91 392.60 349.47 335.63 328.92 326.81 335.30 365.55 384.80 360.22 333.25 316.82 291.40 260.49 241.63 169.92 120.36 98.90 99.57 96.70 92.96 97.47 99.08 100.14 100.98 102.63 103.35 105.33 108.85 109.38 109.61 109.57 109.42 109.85 112.63 119.65 124.64 136.62 144.67 159.68 170.35 177.06 189.52 204.87 208.94 217.55 223.31 227.88 231.61 235.54 240.78 245.56 299.35 401.70 858.57 2022.50 3441.52 5176.06 6802.90 7282.64 5335.71 3667.61 2306.34 1360.48 319.79 258.10 238.80 215.15 56.03 -164.83 -348.09 -620.22 -751.22 -1075.74 -1365.06 -1569.50 -1688.09 -1809.87 -1848.08 -1886.40 -1909.78 -2004.44 -2162.13 -2409.88 -2758.78 -3015.44 -3410.94 -3623.90 -3773.94 -3831.40 -3831.47
-5492.94 -5492.86 -5493.51 -5495.85 -5497.65 -5501.48 -5507.34 -5514.79 -5529.36 -5534.40 -5522.17 -5484.50 -5425.62 -5180.31 -4693.78 -4170.02 -3392.68 -2968.76 -2377.42 -1951.39 -1573.68 -1362.39 -1249.34 -1112.52 -999.97 -890.53 -352.62 73.79 227.64 286.79 309.88 325.25 334.66 370.56 365.24 380.45 427.36 486.37 507.85 548.90 567.82 594.50 623.55 617.76 564.56 512.82 475.29 450.19 418.20 411.01 395.11 375.64 352.83 343.56 340.35 341.26 344.94 362.17 372.87 358.61 340.82 325.64 292.23 273.07 257.98 226.12 145.63 106.03 109.89 94.64 88.85 95.56 96.10 99.69 101.52 105.41 105.59 106.65 108.99 108.83 108.72 108.93 109.03 109.49 111.87 118.46 127.48 132.30 141.04 153.69 162.41 177.09 186.68 199.02 207.18 215.21 223.39 227.42 233.61 235.97 238.47 245.27 274.51 320.33 692.28 1659.78 2950.16 4837.35 7058.75 6005.78 3869.10 3236.32 2070.78 1297.65 320.00 264.73 240.27 172.35 29.98 -185.28 -306.25 -647.09 -911.55 -1119.81 -1450.14 -1592.25 -1720.01 -1800.48 -1840.74 -1872.53 -1913.51 -1956.35 -2163.39 -2405.60 -2713.95 -3112.26 -3325.23 -3626.79 -3770.49 -3830.48 -3830.78
-5491.79 -5491.71 -5494.75 -5495.53 -5497.11 -5500.75 -5509.94 -5518.78 -5533.50 -5522.53 -5476.46 -5299.26 -4882.51 -4690.48 -4085.91 -3285.39 -2709.53 -2067.97 -1687.07 -1540.16 -1323.60 -1242.46 -1191.18 -1128.50 -949.13 -503.14 -97.09 179.26 275.07 303.52 335.21 353.36 370.34 394.69 427.98 424.76 437.63 507.95 533.68 572.17 589.54 609.65 616.32 588.05 551.90 510.85 456.92 433.94 405.61 401.50 382.72 361.51 352.48 346.96 347.40 351.15 355.17 373.29 382.89 376.85 386.72 348.12 286.08 272.53 268.01 249.59 215.24 140.25 122.17 110.24 113.89 108.26 96.57 99.58 102.07 106.02 108.15 108.17 108.99 108.68 108.32 108.42 108.56 109.40 111.19 115.38 123.98 132.83 141.04 149.09 155.17 172.24 183.36 193.70 205.00 209.98 220.15 227.24 234.96 236.68 240.40 245.63 273.91 403.06 1536.90 2858.43 3818.40 6779.66 7823.36 6598.84 4268.97 3425.76 1390.81 645.68 337.99 257.92 237.76 196.80 77.85 -120.47 -261.91 -581.10 -730.48 -1097.48 -1376.77 -1615.19 -1756.48 -1823.83 -1844.29 -1862.29 -1892.04 -1957.38 -2085.30 -2348.36 -2640.45 -2963.77 -3330.39 -3482.20 -3722.55 -3829.97 -3830.05
-5504.65 -5504.56 -5503.97 -5503.47 -5507.10 -5509.72 -5514.08 -5521.18 -5530.02 -5506.15 -5401.75 -5067.20 -4334.21 -3493.62 -2588.30 -2378.66 -2017.60 -1835.47 -1590.15 -1432.33 -1276.04 -1190.47 -1193.93 -1106.97 -751.19 -287.58 33.13 237.20 301.09 353.02 395.12 406.58 405.63 417.41 437.15 442.89 486.27 511.54 539.10 571.45 578.49 590.64 610.32 604.30 528.14 505.39 444.66 408.70 396.52 379.61 358.27 352.04 345.83 342.99 348.99 358.05 363.17 387.83 425.19 410.29 427.04 394.17 349.54 297.96 264.96 254.26 224.57 154.81 125.13 124.16 113.15 94.03 96.75 100.07 101.60 104.75 107.99 109.80 109.10 108.55 108.16 108.03 108.33 109.25 114.68 118.80 124.34 130.97 142.69 150.02 159.96 168.95 180.02 189.29 199.74 208.96 220.42 231.65 236.34 240.54 242.02 248.96 277.81 643.69 1587.27 2535.42 3779.00 6989.04 7989.57 5787.73 4329.33 3839.86 1856.43 648.05 305.51 259.37 246.69 190.84 122.27 -22.60 -213.68 -536.54 -711.16 -1114.77 -1388.05 -1635.41 -1754.27 -1819.71 -1841.88 -1863.73 -1892.31 -1928.95 -2061.98 -2237.32 -2517.00 -2855.01 -3221.79 -3454.89 -3720.74 -3830.91 -3830.99
-5525.95 -5525.22 -5523.13 -5516.14 -5515.64 -5513.94 -5508.52 -5514.29 -5489.29 -5449.52 -5205.40 -4773.56 -3597.56 -2853.72 -2253.45 -1954.33 -1879.88 -1800.20 -1626.00 -1420.34 -1298.39 -1220.80 -1197.33 -1067.92 -661.86 -176.94 158.96 281.75 290.24 358.14 382.13 408.31 435.88 453.28 489.24 488.50 519.94 534.37 540.42 555.06 572.30 591.21 602.27 571.24 521.03 452.48 426.17 407.92 385.93 356.14 351.26 342.37 333.26 340.55 351.52 371.44 392.70 423.81 452.62 425.77 462.58 522.64 415.37 356.20 311.13 272.58 194.44 121.02 115.20 117.37 92.82 93.90 95.23 100.63 97.80 103.28 104.95 108.80 109.38 108.58 108.04 107.89 108.18 110.74 114.76 120.00 124.58 131.32 137.33 147.53 159.29 172.43 182.19 190.67 199.39 205.96 217.82 235.26 240.19 243.15 244.04 249.98 300.91 944.41 1172.39 2684.26 4300.67 5132.17 6574.61 4912.64 3022.57 4015.67 1612.18 396.88 299.41 253.19 228.81 202.99 104.49 41.95 -147.52 -300.47 -592.97 -1024.19 -1317.32 -1634.10 -1759.30 -1818.69 -1847.26 -1865.47 -1905.93 -1949.11 -2052.63 -2211.08 -2432.70 -2716.44 -3129.30 -3462.09 -3721.78 -3831.05 -3831.13
-5552.82 -5552.71 -5543.89 -5517.78 -5499.04 -5478.06 -5403.49 -5369.87 -5339.21 -4923.18 -4435.33 -3896.24 -3168.65 -2244.32 -1966.66 -1816.90 -1837.29 -1805.54 -1618.24 -1367.50 -1283.94 -1243.74 -1206.53 -1076.86 -839.16 -325.21 29.06 244.80 308.04 328.05 368.34 401.70 429.20 468.49 515.81 530.66 553.59 551.87 556.76 572.21 587.25 601.26 585.94 580.40 548.95 442.95 406.87 383.28 358.93 351.61 338.08 325.52 328.59 331.72 367.68 377.80 426.94 452.65 489.77 494.56 513.95 538.97 448.16 384.03 382.54 301.83 237.36 210.37 153.72 120.87 101.04 95.80 106.97 113.18 96.16 95.45 99.71 109.54 109.26 108.59 108.07 107.73 107.26 108.66 112.90 121.52 127.88 132.22 137.04 145.51 158.46 170.52 180.16 193.11 201.52 210.95 222.14 227.69 237.98 248.31 250.31 272.16 503.16 1043.56 2044.05 2921.34 4765.89 7413.77 6365.61 3454.25 1606.01 1171.41 834.14 328.50 274.99 247.76 225.21 202.18 133.99 38.42 -71.59 -247.24 -716.86 -1067.21 -1237.41 -1563.17 -1660.27 -1788.94 -1842.62 -1874.37 -1926.50 -1985.67 -2106.37 -2292.84 -2508.83 -2636.71 -3114.65 -3267.77 -3717.18 -3830.47 -3830.55
-5539.40 -5537.72 -5444.11 -5245.03 -5194.89 -5177.28 -4991.39 -4604.55 -4410.18 -4002.97 -3324.69 -2588.96 -2467.66 -2122.46 -1969.46 -1877.51 -1867.91 -1791.71 -1542.35 -1192.33 -1126.76 -1054.43 -1041.15 -998.79 -910.33 -403.19 66.26 245.38 309.88 340.74 373.69 406.46 436.75 471.93 517.35 541.58 573.88 587.83 583.99 597.55 606.48 612.35 582.61 537.84 472.38 427.57 371.86 357.49 351.15 325.02 322.27 318.39 323.25 330.61 372.60 383.64 444.61 492.68 534.59 550.47 565.73 542.02 483.56 455.26 446.73 321.21 266.74 244.21 224.23 152.87 135.25 121.21 107.78 111.65 114.71 97.50 98.69 106.86 109.03 108.12 107.62 107.25 106.84 107.30 111.42 118.70 126.28 133.00 140.95 147.84 154.92 167.06 176.52 192.00 199.72 206.19 219.32 228.64 241.97 251.53 255.04 393.91 691.99 2060.91 2847.74 4113.61 5853.11 7562.36 7761.71 4113.96 2322.03 2031.09 873.64 324.02 275.58 242.68 226.43 197.60 136.82 71.72 -55.73 -318.90 -594.85 -907.67 -1251.26 -1544.06 -1716.50 -1814.60 -1854.62 -1887.16 -1936.02 -2027.60 -2127.77 -2264.48 -2504.48 -2795.26 -3089.81 -3326.62 -3651.03 -3845.46 -3845.56
-5037.23 -5037.74 -4654.94 -4574.85 -4427.71 -4045.26 -3824.66 -3379.60 -2956.53 -2621.47 -2562.87 -2295.14 -2125.28 -2045.58 -2021.35 -2004.55 -1948.76 -1770.11 -1463.51 -1146.25 -773.32 -599.18 -720.23 -780.59 -652.33 -206.41 99.75 240.32 314.31 357.43 390.21 427.14 464.65 522.28 540.64 555.15 580.40 597.35 605.70 608.35 600.11 595.08 556.84 536.88 474.58 401.51 371.04 337.80 321.19 307.32 304.26 300.71 307.07 323.69 335.11 370.13 418.05 465.62 527.16 570.71 576.85 551.50 548.02 525.19 455.01 318.35 279.27 269.97 250.53 207.98 163.47 131.65 131.29 125.76 132.18 108.89 100.50 108.94 109.00 107.90 107.04 106.71 106.45 107.08 110.40 112.88 122.88 135.37 147.46 147.96 156.95 167.93 177.45 192.08 201.86 206.66 221.30 232.77 245.77 261.67 317.84 543.19 1394.10 2143.00 2743.90 4159.88 5554.21 6917.19 6766.28 4916.86 3172.78 2296.21 573.60 279.47 246.30 237.30 227.29 205.53 164.53 84.04 -67.10 -319.45 -629.70 -997.56 -1271.42 -1501.49 -1704.98 -1800.64 -1858.70 -1890.79 -1919.41 -1992.44 -2112.26 -2321.88 -2599.56 -2815.39 -3323.08 -3492.66 -3731.02 -3843.69 -3843.77
-3585.47 -3587.46 -3544.22 -3227.67 -3276.18 -2688.67 -2623.34 -2383.41 -2341.57 -2178.20 -2080.89 -2059.26 -2050.08 -2045.13 -2043.44 -2048.17 -2012.55 -1864.46 -1464.28 -1138.63 -651.32 -459.17 -395.95 -493.85 -358.48 -54.13 127.22 281.44 323.57 340.94 363.30 416.39 446.51 504.01 563.97 599.59 604.28 631.64 631.06 630.96 606.59 562.86 496.96 464.45 420.66 370.07 347.06 325.28 314.59 294.73 292.37 284.35 285.97 316.04 320.10 372.60 402.97 482.98 509.14 554.33 562.98 511.21 469.81 452.06 407.48 351.57 321.45 291.71 253.55 249.94 185.43 126.68 121.71 80.25 96.17 95.33 106.09 111.38 109.58 107.55 106.62 106.24 105.83 105.84 107.14 111.08 120.31 135.52 143.50 158.16 165.45 173.35 189.16 199.51 212.91 221.79 229.85 243.37 255.44 263.07 398.73 1143.56 1978.34 1897.77 3069.16 4729.16 5876.82 5728.36 5065.39 3402.01 2914.38 1211.23 460.27 259.97 247.51 240.13 231.60 209.80 173.40 63.46 -56.63 -331.61 -662.14 -1005.12 -1176.97 -1462.67 -1684.61 -1826.09 -1857.07 -1884.54 -1915.96 -1945.59 -2044.35 -2229.35 -2560.36 -2964.31 -3432.10 -3730.06 -3765.04 -3843.52 -3843.61
-2398.10 -2400.17 -2435.60 -2533.72 -2373.60 -2294.85 -2195.95 -2114.32 -2069.00 -2046.41 -2042.90 -2039.94 -2046.43 -2052.61 -2058.54 -2066.38 -2059.60 -1970.50 -1771.90 -1267.11 -704.67 -357.06 -193.20 -215.23 -117.87 105.59 212.71 284.56 307.41 336.96 364.18 420.41 492.30 557.56 610.63 636.53 631.43 648.07 642.32 636.10 614.22 563.85 510.42 448.60 408.30 365.98 339.04 310.62 295.52 279.52 280.57 280.93 279.29 290.96 316.35 345.72 407.50 445.74 492.92 487.06 532.43 517.81 494.37 392.05 368.10 365.99 331.50 314.13 273.73 254.71 209.80 131.56 128.08 101.29 108.27 105.31 110.13 110.38 109.72 107.78 106.45 105.83 105.26 104.67 106.36 109.43 120.61 136.06 149.15 157.94 169.06 177.25 194.54 214.25 226.47 230.72 238.39 243.64 267.55 347.51 493.95 2059.77 3155.54 3245.20 4620.40 5882.00 6066.00 5618.11 4351.56 1967.31 1311.58 607.55 306.73 266.08 247.32 244.30 233.21 206.46 163.55 100.74 -12.82 -281.95 -564.99 -969.88 -1141.30 -1504.05 -1673.43 -1829.54 -1860.72 -1871.81 -1887.39 -1956.92 -2120.26 -2410.25 -2790.41 -3143.53 -3548.42 -3752.06 -3836.66 -3845.96 -3846.06
-2113.98 -2114.57 -2144.82 -2146.58 -2111.66 -2086.84 -2080.52 -2071.91 -2052.11 -2044.51 -2042.91 -2046.67 -2055.40 -2061.10 -2070.14 -2078.90 -2067.93 -2014.67 -1876.35 -1226.55 -1039.60 -529.51 -208.04 -144.55 -60.22 78.88 203.58 279.68 293.88 302.62 369.73 426.47 497.23 548.00 629.11 601.96 587.70 603.78 618.12 628.04 611.25 590.38 532.48 437.87 375.64 327.38 310.84 301.37 281.05 274.52 267.36 262.31 264.31 273.41 296.50 326.62 343.07 375.28 431.26 491.76 563.82 552.11 480.42 447.66 444.97 409.49 371.43 371.67 294.50 259.96 232.51 176.45 152.55 136.22 120.55 109.68 104.01 107.49 109.97 108.03 106.14 105.29 104.43 103.53 103.91 105.62 117.23 134.45 146.21 164.06 168.09 187.70 196.19 214.19 225.19 239.61 239.50 250.91 282.74 472.43 1005.92 2581.24 4140.51 5313.49 6905.52 6518.91 5363.86 3956.52 2545.84 2328.01 944.06 394.41 327.57 274.32 248.37 243.62 232.95 206.50 160.19 69.43 -40.24 -317.46 -725.04 -1017.30 -1295.04 -1521.74 -1737.27 -1827.13 -1861.32 -1871.18 -1901.85 -1970.76 -2099.95 -2441.83 -3048.21 -3331.10 -3649.72 -3809.63 -3838.58 -3845.21 -3845.30
-2110.18 -2110.06 -2112.37 -2106.69 -2101.08 -2091.91 -2084.96 -2070.85 -2062.51 -2055.80 -2053.54 -2054.91 -2062.06 -2069.44 -2073.92 -2079.70 -2073.66 -2044.41 -1838.81 -1421.73 -832.39 -495.58 -204.53 -106.96 -53.13 45.79 171.61 218.48 285.89 293.94 336.54 388.44 418.26 520.54 577.18 491.15 508.53 549.48 578.19 554.81 531.72 515.90 449.83 433.88 335.46 312.02 296.73 283.10 272.02 258.87 256.23 255.82 258.16 271.00 291.09 308.13 351.18 421.49 502.43 546.50 551.73 536.22 490.54 496.11 464.08 425.50 456.87 401.42 337.48 318.49 307.93 228.34 148.13 128.51 114.09 102.91 100.20 107.69 109.44 108.33 106.30 104.04 103.02 103.01 103.27 105.76 113.03 125.68 145.14 160.79 174.68 189.36 200.91 215.12 227.77 239.58 245.47 257.43 328.95 1038.37 2173.92 2485.87 3092.13 5179.23 7661.65 7067.62 5279.05 2460.49 1874.08 1623.02 699.09 394.45 287.71 256.45 247.99 244.24 236.74 204.07 165.27 41.25 -215.91 -343.00 -834.96 -1149.04 -1332.81 -1516.15 -1769.47 -1822.60 -1850.83 -1873.61 -1905.91 -1992.16 -2162.23 -2427.95 -2997.61 -3468.98 -3737.56 -3828.22 -3842.77 -3845.02 -3845.12
-2127.65 -2127.59 -2123.68 -2119.80 -2111.90 -2102.12 -2094.59 -2091.02 -2075.75 -2067.70 -2067.78 -2065.13 -2067.39 -2070.13 -2075.20 -2076.41 -2066.17 -1966.33 -1758.21 -1393.90 -898.60 -518.98 -272.78 -132.58 -116.50 30.96 78.48 114.90 228.58 294.55 326.15 332.19 357.85 480.38 539.03 477.34 425.68 461.39 489.20 457.38 496.27 475.45 414.85 397.79 323.14 292.56 283.40 263.64 251.07 248.66 250.59 254.32 255.79 267.50 287.07 305.98 340.53 404.85 438.86 513.74 548.75 551.43 543.72 514.84 480.92 450.37 512.70 503.99 401.54 412.90 375.62 303.57 222.20 122.92 106.55 96.41 107.77 109.62 109.73 109.02 104.45 102.66 101.95 102.16 103.39 105.78 112.95 128.02 149.83 161.71 176.79 194.67 206.66 214.60 227.23 238.84 251.13 267.41 423.31 1625.62 3124.40 3637.25 4042.82 5992.55 6689.87 5236.20 2814.11 2336.71 1198.67 670.73 363.18 261.25 253.90 250.32 247.14 237.46 228.65 185.87 129.24 29.40 -214.13 -414.71 -821.32 -1047.70 -1359.09 -1538.48 -1693.59 -1820.37 -1854.35 -1866.92 -1887.38 -1999.41 -2159.41 -2324.34 -2925.75 -3420.41 -3750.76 -3829.08 -3842.94 -3845.07 -3845.11
-2148.05 -2148.02 -2142.51 -2133.77 -2128.42 -2119.45 -2107.33 -2100.69 -2084.04 -2073.74 -2074.71 -2073.43 -2070.75 -2071.94 -2074.31 -2073.18 -2033.00 -1892.46 -1661.60 -1248.68 -595.24 -388.61 -235.65 -194.31 -154.06 -44.43 -25.55 41.75 167.12 259.44 322.78 323.96 366.88 428.23 509.72 479.24 390.68 443.40 433.99 390.96 409.15 421.56 396.02 350.57 288.17 283.57 272.10 245.34 224.22 227.19 239.08 252.59 256.41 271.68 285.83 297.52 326.08 356.54 429.90 461.16 550.34 561.30 557.07 552.45 546.18 535.24 532.10 527.40 486.77 507.15 402.38 318.33 262.82 143.94 105.74 87.37 99.12 106.94 111.36 110.49 104.59 101.62 101.13 101.44 102.52 108.48 119.37 135.04 155.84 172.26 188.12 200.24 208.63 218.28 226.20 242.91 261.42 476.87 1012.63 1696.93 2252.36 4817.28 5746.73 6977.91 6643.94 4219.88 2828.62 2206.16 997.18 393.93 272.33 256.56 253.07 250.28 247.19 236.67 210.35 189.30 119.26 -3.99 -164.20 -413.30 -739.47 -983.83 -1334.08 -1603.27 -1732.32 -1843.84 -1856.06 -1860.82 -1879.67 -1962.63 -2100.95 -2460.82 -2715.38 -3264.86 -3744.99 -3817.50 -3847.30 -3849.63 -3849.73
-2159.18 -2159.11 -2154.78 -2144.78 -2138.34 -2129.97 -2118.71 -2110.91 -2100.86 -2090.64 -2080.75 -2074.40 -2071.34 -2071.56 -2074.22 -2070.00 -2015.96 -1839.82 -1358.11 -844.02 -490.08 -299.37 -261.38 -243.36 -194.84 -93.16 -82.99 -30.33 140.59 251.80 294.29 312.38 338.02 369.21 395.19 331.69 335.90 388.44 405.65 357.71 351.22 342.28 306.29 287.83 285.93 278.37 251.34 226.77 199.29 205.96 227.21 241.78 256.32 259.26 277.54 296.91 320.34 367.90 430.07 467.98 509.64 518.18 504.68 523.00 532.14 514.66 519.08 481.21 440.25 413.71 368.72 301.02 256.75 209.53 119.78 118.12 108.12 112.79 108.13 104.78 100.25 100.71 100.78 101.10 103.63 110.01 122.60 137.03 157.00 182.11 192.73 200.72 210.55 220.49 234.06 258.52 384.07 513.24 2195.49 2642.79 3186.92 4965.76 6901.83 6074.21 4394.96 4177.61 2917.41 2035.11 742.06 328.93 262.42 253.84 253.09 251.65 246.77 228.27 203.03 184.64 92.41 -50.83 -191.43 -337.39 -650.56 -924.04 -1404.23 -1635.04 -1797.37 -1845.59 -1851.97 -1857.89 -1892.89 -1946.11 -2085.09 -2388.86 -2660.05 -3323.46 -3745.18 -3819.90 -3849.70 -3849.98 -3850.07
-2168.63 -2168.55 -2162.00 -2155.61 -2145.48 -2138.15 -2122.41 -2111.54 -2102.58 -2094.64 -2085.72 -2076.04 -2070.92 -2068.04 -2071.61 -2064.10 -1988.70 -1750.66 -1109.08 -756.65 -471.50 -278.00 -225.35 -237.36 -204.94 -111.36 -69.13 -42.36 105.44 205.98 237.15 286.26 316.21 337.97 338.26 320.48 314.02 310.46 325.09 312.01 297.12 279.28 272.26 271.66 268.18 249.83 211.02 197.54 191.99 196.25 211.87 235.62 260.86 272.32 283.47 294.85 306.49 346.62 417.34 459.43 461.84 480.50 471.43 456.53 476.58 452.09 434.01 451.07 416.70 342.54 322.90 300.80 253.92 212.86 130.72 124.06 115.95 113.83 98.17 98.16 99.35 99.65 99.72 99.61 104.36 110.00 123.84 140.52 164.56 179.76 193.57 208.26 216.97 221.69 234.76 268.01 445.80 1539.24 2683.12 4021.52 5285.44 7238.84 7321.57 4608.75 2623.53 3297.64 2287.88 1272.48 461.88 273.23 255.27 252.95 252.52 251.84 245.88 222.06 199.86 135.37 69.91 -73.23 -202.66 -373.31 -621.31 -1057.18 -1388.86 -1712.06 -1824.39 -1846.10 -1848.40 -1858.77 -1960.47 -2109.27 -2164.09 -2361.45 -2836.41 -3666.23 -3842.59 -3843.83 -3843.78 -3849.98 -3850.07
-2174.76 -2174.68 -2166.98 -2160.16 -2153.09 -2142.47 -2128.77 -2118.73 -2109.41 -2096.41 -2083.75 -2075.37 -2067.43 -2059.81 -2059.06 -2048.01 -1959.24 -1785.93 -1211.71 -813.04 -515.95 -307.09 -224.67 -207.31 -192.72 -102.84 -68.11 -56.98 -50.15 6.93 130.37 199.33 286.59 303.09 300.63 300.30 298.50 290.49 286.34 276.86 258.17 254.56 249.15 253.77 234.03 211.34 187.75 186.08 197.86 225.09 227.34 259.15 271.52 277.25 294.20 303.95 335.72 371.49 398.52 430.33 424.97 432.98 441.65 413.86 441.82 411.10 410.29 376.51 353.56 315.30 302.64 292.21 256.43 228.47 159.62 142.34 115.02 102.07 97.90 97.85 98.42 98.97 99.17 99.44 102.95 115.41 129.80 140.02 162.68 182.63 196.43 216.54 226.21 233.75 250.64 289.02 813.37 2083.87 2787.29 4569.41 6734.31 7679.28 6239.34 4328.32 2401.11 1839.97 1719.86 445.82 338.21 292.09 262.65 256.73 252.71 252.41 248.79 233.94 191.50 107.50 16.03 -137.36 -270.93 -541.61 -797.85 -1300.79 -1618.08 -1783.84 -1837.12 -1837.75 -1839.68 -1871.17 -2012.03 -2193.19 -2580.87 -2913.67 -3323.40 -3752.57 -3843.39 -3844.31 -3845.81 -3849.93 -3850.01
-2178.15 -2178.06 -2171.08 -2165.33 -2157.42 -2145.40 -2135.04 -2121.49 -2109.25 -2096.67 -2083.41 -2071.35 -2061.19 -2053.73 -2049.77 -2045.49 -1988.66 -1893.22 -1541.12 -1231.11 -722.61 -453.15 -289.98 -202.19 -196.02 -179.62 -74.63 -54.34 -54.97 -24.49 77.09 170.08 231.08 260.57 273.28 260.77 283.48 271.70 266.73 245.44 219.50 232.75 217.56 182.23 186.48 185.71 180.47 184.01 218.09 241.25 261.87 270.96 279.34 288.58 308.55 324.02 344.36 421.02 436.02 429.50 403.66 393.38 390.41 386.04 363.02 350.56 343.07 343.99 309.59 291.84 278.18 268.38 257.77 204.10 158.85 113.07 101.74 94.94 95.64 97.34 97.75 97.92 98.38 98.86 103.60 116.23 131.75 144.07 164.68 192.53 205.47 233.91 241.97 261.47 284.72 1178.50 1979.44 2106.73 3397.89 5843.18 6192.85 6151.20 5211.00 4268.52 2873.08 1837.39 808.89 338.08 323.85 289.94 275.82 260.54 253.07 251.77 245.47 217.48 183.61 132.27 37.12 -95.93 -271.74 -610.71 -962.68 -1282.94 -1689.14 -1830.29 -1832.95 -1830.80 -1820.04 -1870.12 -1934.22 -2342.08 -3154.38 -3537.26 -3593.59 -3785.52 -3825.26 -3845.64 -3845.99 -3850.35 -3850.43
-2179.23 -2178.76 -2174.39 -2166.11 -2156.69 -2149.50 -2137.79 -2123.90 -2108.62 -2095.13 -2078.75 -2069.33 -2054.77 -2044.28 -2046.73 -2038.48 -2001.47 -1900.84 -1693.36 -1457.76 -1192.49 -725.31 -434.24 -230.31 -186.16 -178.78 -158.71 -131.07 -122.63 -29.85 61.06 80.02 160.29 198.60 203.49 207.79 249.10 249.77 192.29 157.77 158.44 150.54 138.75 149.36 159.52 166.30 179.93 199.94 241.41 255.84 270.42 276.09 280.99 306.09 312.12 375.68 409.21 451.49 462.64 421.35 396.24 379.14 356.55 349.20 332.33 306.38 303.39 294.34 292.94 280.44 266.48 250.65 222.09 174.18 114.71 93.28 89.54 91.98 94.59 94.88 96.04 96.77 97.17 97.90 100.54 108.71 130.49 141.79 160.93 196.55 218.12 245.75 256.86 308.54 636.07 1959.91 2559.32 2571.48 3364.36 6896.73 6556.16 4258.52 2559.61 2952.51 2261.11 1530.49 638.31 326.09 308.01 279.80 270.72 266.40 253.57 249.84 238.14 212.17 160.22 114.03 17.60 -171.00 -343.91 -763.65 -1178.03 -1493.75 -1744.36 -1811.31 -1827.66 -1824.90 -1818.87 -1854.03 -1949.13 -2277.75 -3210.49 -3610.57 -3739.89 -3816.12 -3846.78 -3848.85 -3847.13 -3850.15 -3850.23
-2178.32 -2178.23 -2174.46 -2167.03 -2159.15 -2149.09 -2136.29 -2122.39 -2109.94 -2093.75 -2077.47 -2065.24 -2048.42 -2040.23 -2031.13 -2028.75 -2009.87 -1992.11 -1885.66 -1809.19 -1462.95 -974.66 -604.78 -314.76 -194.07 -160.61 -171.84 -165.94 -155.06 -67.72 -6.74 12.25 12.15 81.59 142.56 154.85 186.22 159.98 125.00 85.03 88.34 96.77 94.16 127.05 152.22 155.70 173.39 214.69 235.83 269.07 274.13 291.69 307.68 360.96 359.71 423.97 467.67 485.58 444.14 402.94 369.68 344.44 333.59 311.92 304.14 297.45 289.90 271.11 266.56 264.60 253.81 226.79 155.10 123.55 129.58 112.99 86.76 89.87 92.31 93.69 94.53 94.66 94.50 94.73 98.98 110.52 134.30 141.14 159.56 203.22 226.49 245.21 273.51 644.90 905.45 1797.66 2652.97 3356.24 4942.48 6500.85 6394.07 3621.70 2011.88 1286.65 1628.98 894.87 325.37 315.85 292.83 283.26 270.71 262.44 254.99 249.28 236.76 213.70 173.71 120.53 -14.85 -128.43 -429.84 -845.03 -1259.88 -1644.69 -1763.18 -1819.22 -1832.22 -1830.87 -1823.71 -1870.45 -1980.80 -2193.31 -3043.63 -3451.32 -3766.26 -3843.67 -3848.42 -3851.38 -3851.40 -3850.39 -3850.47
-2176.21 -2175.52 -2172.50 -2163.65 -2158.04 -2148.31 -2135.03 -2123.80 -2109.83 -2090.61 -2072.22 -2061.94 -2044.92 -2031.21 -2023.31 -2018.17 -2009.63 -1996.37 -1962.51 -1835.38 -1718.03 -1319.05 -606.91 -383.01 -185.93 -146.03 -151.55 -162.15 -178.41 -122.62 -73.13 -83.79 -6.07 42.20 70.09 98.37 129.28 96.63 59.32 46.84 45.72 51.81 69.19 110.67 137.08 156.97 168.89 223.36 256.22 276.49 286.87 309.81 339.69 375.98 398.34 455.30 514.02 501.35 439.61 393.39 359.12 323.85 317.62 302.51 293.25 283.68 273.53 263.97 258.64 230.51 205.73 131.65 93.74 98.47 104.77 130.83 99.48 87.86 89.74 92.29 92.01 92.29 91.76 92.43 99.28 116.76 143.90 172.11 181.77 211.10 239.81 256.39 351.53 770.34 2001.32 2918.96 4463.13 5590.81 6489.51 6135.51 5199.60 3545.12 3160.97 1849.86 846.72 593.31 305.94 298.96 281.01 267.24 254.52 253.94 253.34 249.48 237.51 214.87 178.44 135.82 11.19 -128.44 -403.62 -1008.36 -1359.08 -1649.03 -1765.24 -1819.41 -1825.68 -1832.83 -1837.07 -1862.08 -1934.28 -2071.35 -2424.01 -3213.89 -3718.59 -3839.78 -3840.03 -3851.88 -3851.72 -3851.32 -3851.40
-2171.19 -2171.11 -2167.59 -2160.88 -2151.29 -2143.82 -2134.38 -2121.47 -2104.16 -2090.12 -2073.37 -2054.11 -2042.76 -2025.98 -2013.85 -2008.18 -1996.96 -1991.33 -1976.94 -1921.06 -1821.50 -1401.01 -898.19 -519.41 -225.64 -148.98 -134.82 -146.50 -163.17 -172.50 -178.44 -180.84 -108.60 -23.92 10.04 28.69 42.88 46.53 37.52 34.81 27.44 36.27 46.74 84.58 111.63 160.39 230.45 258.29 268.58 291.76 312.47 344.59 385.01 419.95 434.74 464.69 508.98 487.97 444.72 393.85 360.21 318.67 300.76 278.20 273.70 265.39 259.79 259.60 214.78 176.86 148.31 94.99 86.91 95.28 88.22 97.37 85.57 86.96 87.30 89.37 89.77 89.18 90.06 91.97 100.07 122.77 161.11 172.17 193.67 208.84 241.02 270.65 497.33 1705.89 1860.49 2784.35 4131.84 6745.42 6979.05 5693.23 3362.55 2861.65 3279.26 1323.89 381.90 296.77 299.04 297.04 268.07 260.31 261.19 254.28 253.33 248.33 237.50 215.97 186.59 132.39 19.51 -106.09 -442.86 -784.95 -1363.28 -1648.30 -1692.61 -1814.33 -1831.86 -1836.05 -1844.22 -1867.06 -1927.00 -2016.10 -2216.43 -2871.92 -3423.89 -3767.61 -3834.83 -3851.24 -3851.82 -3853.13 -3853.21
-2164.40 -2164.31 -2160.18 -2153.68 -2148.64 -2139.06 -2129.84 -2116.01 -2101.68 -2081.55 -2068.53 -2050.61 -2038.03 -2022.40 -2011.50 -2004.71 -1992.74 -1985.22 -1963.61 -1946.93 -1750.74 -1419.19 -892.41 -445.44 -172.16 -146.21 -139.79 -164.21 -186.45 -199.02 -217.05 -224.09 -227.90 -99.20 -46.36 -9.05 -1.07 -3.97 5.60 -0.25 3.98 22.95 37.04 56.14 100.95 212.26 252.74 267.15 285.60 300.85 328.81 369.67 402.08 444.78 459.11 480.12 517.48 506.93 431.89 396.73 350.61 325.26 284.51 271.93 265.00 256.04 242.44 199.54 165.10 134.99 112.16 102.08 98.04 94.54 89.59 86.23 87.30 86.42 86.28 87.25 87.38 87.63 89.40 95.60 112.26 127.63 154.06 189.85 206.58 240.09 257.47 521.97 1522.64 3152.71 2817.63 4538.19 5705.29 6616.02 7145.37 5825.85 3792.64 2092.88 1813.73 639.47 286.72 286.66 285.44 279.43 268.85 265.89 262.19 252.48 251.42 247.56 236.34 216.33 174.71 128.88 24.28 -32.97 -297.24 -587.66 -1116.88 -1576.30 -1742.62 -1817.05 -1826.43 -1839.31 -1845.10 -1867.39 -1896.97 -2085.89 -2369.24 -2669.15 -3348.67 -3739.66 -3822.14 -3851.17 -3847.85 -3852.24 -3853.25
-2156.43 -2156.35 -2153.16 -2145.56 -2140.63 -2129.77 -2121.52 -2110.11 -2096.91 -2081.76 -2065.01 -2050.32 -2037.42 -2019.93 -2007.96 -2000.54 -1988.32 -1978.40 -1955.38 -1903.47 -1625.81 -1373.62 -809.42 -384.61 -220.79 -249.65 -359.52 -297.51 -306.68 -349.65 -319.12 -322.65 -371.34 -158.06 -149.68 -82.73 -64.33 -62.64 -57.62 -49.91 -39.72 -12.02 27.78 35.17 82.39 131.38 242.12 274.95 288.96 308.76 331.67 360.21 414.38 442.79 482.68 494.35 485.21 461.05 414.32 363.38 321.50 307.06 282.04 258.54 248.86 225.89 208.04 175.69 148.62 113.08 80.23 66.71 83.08 86.48 87.68 87.47 88.13 86.49 85.67 85.96 86.12 86.54 88.67 90.21 106.85 144.49 169.72 195.43 224.25 239.46 286.13 615.03 986.25 2095.09 3456.05 4973.55 8088.26 7408.65 6056.64 4873.54 2782.54 2702.51 2283.75 383.83 279.01 273.26 274.42 269.78 263.25 261.44 252.28 249.74 248.60 243.44 237.58 220.56 197.81 129.11 64.53 -38.77 -264.41 -600.05 -1241.04 -1526.54 -1817.95 -1827.55 -1828.86 -1839.25 -1843.02 -1867.96 -1899.43 -2025.83 -2418.11 -2654.05 -3104.22 -3521.30 -3812.67 -3853.48 -3850.64 -3853.46 -3853.53
-2147.94 -2146.97 -2143.08 -2140.74 -2133.74 -2126.40 -2117.31 -2107.90 -2094.55 -2078.27 -2066.19 -2051.71 -2037.68 -2021.07 -2007.71 -1999.50 -1991.45 -1981.39 -1949.72 -1865.43 -1629.88 -1210.49 -766.06 -501.56 -502.19 -525.18 -553.15 -625.40 -748.87 -689.04 -746.49 -764.78 -761.95 -611.73 -305.75 -130.43 -114.87 -110.53 -119.19 -101.32 -80.88 -54.44 1.92 30.69 74.57 139.68 245.34 284.68 301.47 317.26 353.79 385.39 430.03 477.64 496.74 463.92 437.71 419.10 391.98 353.70 314.92 301.38 279.42 253.13 231.37 194.46 173.27 152.28 137.94 92.44 82.43 73.42 80.36 83.64 89.07 88.26 87.74 85.18 84.53 84.64 85.17 86.85 88.51 89.73 103.32 148.17 190.58 207.71 232.71 251.62 349.58 470.24 1382.44 2617.94 3666.35 6058.49 7420.41 6398.72 4329.27 3424.67 1623.63 1697.12 507.65 300.65 274.88 268.03 267.22 256.17 255.57 256.30 248.29 246.89 240.55 238.35 230.16 214.60 187.66 162.56 31.43 -92.93 -288.94 -776.24 -1082.13 -1582.48 -1813.10 -1823.47 -1832.32 -1839.20 -1843.52 -1866.22 -1927.48 -2019.45 -2173.95 -2628.79 -3191.53 -3620.54 -3823.43 -3848.39 -3852.79 -3853.74 -3853.82
-2140.36 -2140.28 -2138.73 -2135.19 -2130.23 -2119.61 -2113.99 -2104.27 -2090.83 -2074.35 -2063.86 -2048.72 -2036.68 -2024.73 -2009.01 -1995.33 -1985.82 -1975.17 -1959.95 -1882.90 -1698.58 -1293.09 -979.71 -831.23 -830.48 -947.75 -1019.78 -1110.03 -1142.35 -1315.36 -1282.77 -1163.72 -1271.92 -902.90 -387.78 -190.82 -161.41 -148.60 -150.35 -146.37 -175.60 -194.47 -104.05 -10.18 51.51 164.71 246.29 287.66 321.92 351.51 391.14 414.33 434.45 501.45 506.39 426.64 390.54 409.19 374.88 349.74 310.00 299.25 277.06 249.43 197.23 174.24 154.99 154.73 108.88 73.35 79.21 80.22 80.14 85.77 88.91 87.30 86.68 85.23 84.08 84.33 84.67 85.18 86.95 88.71 96.79 152.02 200.13 223.87 241.12 254.71 403.51 1457.26 1393.93 3619.05 5106.94 7472.77 7908.89 7075.71 3780.95 2526.37 3055.28 870.70 481.14 309.24 273.43 263.61 259.11 248.88 249.77 249.31 247.24 245.87 238.73 232.19 223.20 200.82 175.60 137.61 -23.46 -207.56 -353.47 -772.63 -1313.89 -1591.14 -1812.97 -1826.55 -1833.32 -1839.42 -1848.95 -1870.24 -1939.53 -2019.94 -2636.64 -3006.19 -3600.57 -3702.52 -3833.33 -3840.91 -3849.86 -3853.87 -3853.94
-2134.99 -2134.91 -2132.43 -2128.82 -2123.72 -2119.61 -2110.97 -2100.71 -2086.67 -2070.77 -2062.13 -2047.92 -2037.35 -2023.07 -2007.85 -1993.95 -1986.83 -1970.87 -1960.39 -1891.60 -1780.18 -1597.60 -1439.87 -1388.61 -1362.63 -1623.06 -1668.93 -1665.18 -1759.57 -1718.60 -1755.95 -1771.54 -1740.08 -1136.90 -625.54 -349.60 -208.08 -186.62 -215.88 -227.46 -217.60 -206.54 -130.07 -34.47 20.77 96.26 206.37 276.76 344.06 398.26 418.37 466.25 481.39 470.40 424.50 376.21 346.53 329.59 334.59 338.80 309.38 283.26 264.40 226.84 184.41 164.20 144.54 106.73 90.28 78.82 78.23 79.27 87.70 89.40 88.98 87.15 86.04 84.46 83.96 84.14 84.26 84.72 91.97 100.22 104.01 125.44 207.48 230.16 247.53 261.07 611.13 2012.98 2547.46 3364.98 5463.20 8526.54 7882.52 6000.13 4089.91 3596.92 3523.37 885.85 360.68 268.90 274.22 265.01 258.37 249.71 249.03 248.15 245.01 242.56 234.46 228.76 214.81 195.99 165.50 54.67 -105.23 -336.29 -598.64 -859.45 -1350.85 -1745.59 -1817.82 -1825.60 -1832.91 -1838.46 -1854.54 -1888.40 -1962.47 -2168.41 -2772.69 -3214.77 -3643.74 -3823.05 -3840.50 -3851.70 -3852.02 -3854.70 -3854.77
-2128.03 -2127.96 -2126.46 -2122.24 -2120.49 -2114.28 -2108.86 -2095.47 -2086.21 -2071.45 -2063.34 -2052.46 -2041.18 -2032.71 -2016.62 -2002.57 -1988.51 -1981.60 -1967.93 -1955.96 -1922.08 -1819.23 -1768.43 -1734.47 -1783.96 -1828.86 -1882.54 -1881.67 -1956.17 -1974.03 -2011.91 -1995.82 -1933.69 -1796.36 -1238.54 -622.42 -280.00 -228.62 -273.51 -274.08 -276.53 -220.52 -127.59 -109.36 -4.97 79.72 164.15 254.88 303.23 314.69 394.12 448.63 448.68 393.52 351.40 316.35 330.43 295.68 305.97 296.40 296.77 279.82 256.25 231.29 187.94 156.92 129.60 98.16 82.60 80.84 79.93 79.56 83.42 87.46 89.50 87.74 86.93 84.66 83.36 83.67 83.94 84.59 97.21 118.78 140.96 170.62 195.01 238.27 262.68 357.59 767.61 2151.43 2770.56 4581.77 7031.30 8369.65 6623.41 4206.66 2599.81 2124.52 1593.93 351.12 271.88 253.86 259.39 257.26 250.15 249.64 248.45 245.85 242.24 239.59 232.46 226.27 214.86 175.17 70.53 -43.45 -208.77 -430.79 -832.68 -1217.26 -1522.44 -1814.76 -1821.06 -1820.80 -1827.49 -1838.43 -1847.92 -1880.66 -1934.25 -2346.96 -2994.79 -3351.92 -3770.92 -3836.57 -3854.29 -3853.50 -3854.81 -3857.37 -3857.44
-2121.91 -2121.84 -2120.35 -2118.16 -2115.84 -2110.88 -2106.63 -2093.79 -2086.56 -2075.13 -2069.08 -2059.13 -2046.60 -2038.80 -2025.89 -2018.11 -2004.55 -1998.89 -1994.87 -1979.36 -1986.71 -1989.39 -1955.22 -1956.90 -1968.95 -1988.51 -1994.85 -2022.34 -2026.89 -2044.17 -2057.74 -2057.34 -2035.30 -1902.29 -1359.63 -898.08 -434.34 -342.79 -302.13 -301.38 -304.22 -226.40 -156.57 -127.90 -57.47 41.02 154.78 250.08 266.87 301.83 401.83 418.59 393.25 326.08 330.11 295.76 288.19 283.36 277.32 259.74 281.59 278.81 246.47 208.91 189.47 159.99 124.81 91.74 79.87 85.90 85.55 87.03 86.12 87.43 89.18 85.86 87.21 85.30 83.16 83.39 83.73 84.68 97.97 127.76 151.32 173.77 221.55 235.07 284.96 747.77 1381.46 1380.82 2964.49 5063.12 7890.35 8316.80 6111.38 3443.53 3131.10 2603.91 635.52 365.78 269.45 253.89 249.83 249.10 248.77 246.27 244.61 240.10 239.63 235.55 229.61 221.64 188.67 165.47 78.02 -225.04 -393.94 -619.05 -1037.26 -1388.84 -1601.91 -1799.02 -1826.15 -1830.87 -1839.57 -1841.74 -1847.94 -1863.67 -1933.12 -2349.93 -3241.51 -3619.62 -3778.73 -3851.55 -3854.18 -3855.40 -3855.96 -3857.93 -3858.00
-2117.28 -2117.21 -2116.48 -2114.63 -2112.01 -2109.45 -2105.21 -2097.97 -2085.37 -2079.15 -2071.80 -2065.01 -2061.59 -2051.94 -2044.21 -2030.31 -2023.37 -2013.18 -2006.22 -2010.29 -2004.26 -2007.53 -2008.46 -2022.28 -2018.68 -2038.86 -2045.84 -2050.15 -2058.13 -2066.93 -2074.56 -2079.44 -2062.16 -1980.54 -1551.97 -1238.64 -766.17 -444.36 -320.74 -300.48 -321.31 -220.99 -174.03 -148.85 -133.10 38.12 162.68 240.79 253.63 294.43 388.82 354.58 314.59 279.56 268.03 269.52 272.77 242.93 204.97 175.39 210.37 242.86 260.40 223.86 213.10 180.97 158.36 109.12 91.54 91.43 95.41 92.50 94.62 93.25 87.89 84.18 84.63 84.75 83.06 83.07 84.14 95.17 105.64 150.40 172.25 194.06 220.53 247.60 333.51 970.33 2190.41 2646.58 2873.35 4754.73 8235.21 6926.98 5599.04 2857.89 1878.88 1878.24 318.14 297.97 256.39 251.71 248.13 246.95 244.54 237.86 240.68 236.76 232.79 227.47 223.75 206.33 164.65 111.22 14.98 -91.35 -456.19 -646.37 -1086.09 -1413.14 -1664.67 -1804.14 -1829.84 -1835.16 -1841.14 -1845.20 -1850.81 -1857.66 -1893.38 -2580.42 -3179.90 -3765.13 -3837.34 -3850.94 -3854.28 -3856.35 -3857.31 -3859.08 -3859.15
-2114.56 -2114.49 -2113.43 -2112.60 -2111.31 -2108.79 -2106.32 -2098.25 -2088.90 -2081.76 -2077.43 -2070.26 -2065.98 -2062.16 -2058.11 -2048.22 -2041.30 -2034.07 -2030.38 -2023.57 -2032.56 -2036.36 -2046.92 -2052.22 -2048.06 -2059.20 -2063.41 -2067.63 -2074.20 -2076.07 -2083.84 -2087.25 -2076.09 -2041.93 -1845.55 -1545.54 -859.10 -592.00 -350.07 -301.99 -276.56 -226.75 -214.44 -186.54 -120.34 -25.10 110.73 194.62 240.00 276.32 324.89 336.03 268.36 263.66 250.99 203.85 183.97 174.20 159.65 109.29 133.42 179.98 248.39 252.22 245.32 213.83 189.10 163.31 125.28 103.53 100.84 97.96 94.30 92.01 89.19 86.98 81.68 82.87 82.51 83.98 85.89 96.76 108.43 157.45 192.98 198.35 231.30 269.28 630.63 917.16 1877.68 3015.01 5641.22 6735.30 8087.95 6110.54 4857.38 3290.39 2099.58 1046.19 300.00 260.13 249.66 247.18 244.67 241.08 237.36 231.61 229.81 226.74 223.18 215.67 206.09 180.17 149.21 49.98 -11.94 -129.24 -355.09 -908.56 -1257.84 -1625.50 -1803.05 -1832.30 -1846.53 -1840.61 -1843.98 -1850.13 -1858.18 -1863.78 -1911.30 -2371.13 -3039.14 -3772.81 -3849.37 -3853.89 -3855.50 -3856.44 -3857.13 -3860.33 -3860.40
-2116.63 -2116.57 -2115.97 -2116.77 -2116.08 -2115.93 -2114.14 -2105.88 -2090.82 -2085.36 -2082.92 -2078.21 -2075.70 -2070.85 -2070.30 -2068.93 -2062.39 -2061.91 -2054.38 -2055.26 -2060.63 -2060.51 -2072.81 -2080.09 -2077.36 -2092.56 -2086.73 -2088.59 -2093.49 -2098.77 -2102.68 -2106.73 -2102.12 -2072.55 -1947.96 -1657.79 -1197.72 -607.38 -409.96 -308.66 -280.72 -221.13 -201.78 -183.07 -116.60 -17.65 85.12 87.94 191.98 254.33 285.73 268.34 226.65 214.40 179.91 54.14 53.80 50.02 47.67 46.34 83.17 153.53 219.79 279.08 288.55 240.54 218.51 220.58 199.35 146.11 105.21 101.99 96.54 92.86 87.58 81.51 81.02 82.01 82.47 85.30 89.38 93.96 110.06 146.29 192.49 223.82 251.22 290.16 1644.62 2531.03 2401.79 2510.57 5868.75 7262.46 6690.86 3308.04 2421.34 2410.86 1979.46 425.33 286.06 248.21 243.69 241.55 237.19 233.81 231.95 225.31 224.49 220.45 200.49 187.28 172.78 132.58 38.75 -16.00 -150.88 -265.95 -511.19 -981.32 -1386.58 -1719.77 -1811.96 -1852.17 -1849.37 -1840.12 -1846.69 -1854.47 -1861.91 -1867.35 -1883.09 -2215.88 -3286.59 -3788.35 -3852.17 -3854.85 -3855.58 -3856.49 -3858.72 -3864.40 -3864.47
-2124.54 -2124.55 -2123.66 -2122.75 -2121.90 -2122.47 -2120.77 -2114.40 -2094.34 -2088.74 -2086.22 -2084.40 -2080.93 -2082.66 -2087.21 -2095.41 -2091.00 -2097.70 -2092.40 -2092.79 -2095.02 -2091.10 -2097.16 -2099.76 -2108.45 -2106.53 -2113.96 -2109.48 -2114.97 -2120.43 -2117.03 -2119.49 -2118.55 -2108.47 -2047.00 -1769.79 -1280.62 -818.81 -456.51 -321.78 -287.58 -232.26 -193.76 -183.54 -122.35 -22.00 17.15 74.16 184.43 216.15 234.86 146.15 153.66 104.81 69.69 -26.55 -56.99 -18.25 -9.20 22.80 21.36 126.30 214.20 278.52 315.55 297.98 279.13 273.66 241.14 172.64 165.06 120.87 100.63 86.41 81.99 80.22 80.47 81.28 81.63 81.45 81.12 84.01 109.18 143.63 193.33 234.68 264.54 746.51 2085.65 2897.64 4426.43 5134.42 7532.10 7501.43 5745.59 3515.08 1826.94 1503.68 560.74 379.21 254.12 242.65 237.24 231.94 224.45 223.18 211.65 216.80 213.83 206.52 167.58 148.53 95.70 67.81 -22.40 -216.50 -287.97 -414.23 -540.11 -1065.60 -1356.65 -1696.47 -1821.58 -1852.94 -1850.18 -1844.71 -1851.17 -1860.91 -1868.46 -1870.24 -1904.10 -2235.33 -3347.36 -3792.30 -3848.22 -3851.65 -3856.37 -3857.95 -3858.88 -3864.55 -3865.74
-2126.08 -2126.02 -2125.77 -2126.47 -2127.45 -2127.32 -2127.96 -2118.75 -2098.54 -2095.47 -2096.26 -2094.08 -2092.69 -2092.42 -2100.82 -2107.64 -2105.24 -2110.75 -2111.48 -2113.17 -2116.35 -2116.09 -2126.30 -2127.34 -2129.80 -2128.49 -2133.85 -2134.36 -2127.25 -2132.61 -2130.98 -2130.98 -2131.66 -2124.76 -2052.49 -1803.03 -1519.89 -941.47 -489.49 -329.31 -297.29 -248.98 -213.95 -189.46 -126.05 -55.57 -27.38 22.64 104.05 113.27 124.23 85.10 46.03 -7.86 -53.33 -85.92 -87.54 -46.11 -65.97 -69.41 -35.32 56.85 149.40 264.04 304.96 329.16 323.22 285.78 279.21 253.80 210.42 174.71 97.52 79.94 77.49 78.92 79.35 79.56 79.88 79.47 80.79 85.48 113.30 140.39 200.63 233.04 274.02 1012.85 1994.65 3026.15 5267.75 6256.43 7117.91 7137.78 5240.81 3967.45 1863.79 1282.53 429.68 274.34 243.12 227.99 224.41 223.30 217.53 209.10 196.79 196.06 187.88 169.49 125.22 68.20 53.98 -45.52 -176.87 -375.56 -606.02 -734.49 -828.74 -1019.90 -1460.63 -1653.27 -1832.26 -1853.30 -1853.17 -1854.81 -1860.10 -1866.01 -1871.75 -1878.09 -1893.91 -2211.44 -3440.33 -3764.75 -3843.66 -3843.33 -3855.14 -3859.41 -3860.85 -3867.05 -3867.11
-2127.65 -2127.58 -2128.02 -2129.00 -2131.55 -2131.50 -2132.43 -2125.34 -2106.16 -2105.29 -2103.43 -2103.35 -2102.68 -2102.77 -2109.76 -2121.56 -2124.33 -2126.18 -2127.92 -2134.14 -2132.54 -2140.33 -2142.71 -2145.88 -2149.38 -2147.04 -2146.67 -2149.11 -2151.21 -2146.15 -2143.43 -2139.15 -2137.69 -2134.45 -2092.69 -1899.43 -1580.97 -1214.75 -581.39 -401.95 -293.73 -266.31 -231.91 -197.14 -127.75 -59.24 -43.69 1.94 32.42 35.93 6.74 -58.41 -92.87 -111.35 -117.08 -121.90 -122.01 -130.94 -126.13 -115.67 -85.14 46.47 150.66 204.50 267.92 304.27 345.66 337.58 312.39 277.51 255.15 214.61 130.32 86.40 76.90 77.16 77.66 78.29 77.34 76.63 76.85 82.59 104.85 128.98 188.91 240.29 275.16 628.07 2573.78 3698.08 4854.99 5513.03 5588.17 4626.73 3915.13 3218.69 1883.53 700.39 272.32 246.65 239.35 220.89 214.48 204.97 198.49 191.79 184.59 183.02 174.01 137.68 70.03 6.74 -85.16 -142.56 -350.13 -615.66 -858.04 -1029.94 -1102.16 -1328.13 -1520.44 -1755.93 -1836.42 -1856.04 -1858.33 -1859.86 -1866.56 -1872.73 -1878.58 -1884.22 -1903.09 -2361.40 -3375.97 -3745.51 -3846.13 -3843.47 -3848.62 -3861.20 -3862.78 -3868.30 -3868.36
-2130.07 -2130.00 -2130.63 -2132.80 -2133.54 -2137.76 -2137.59 -2134.61 -2115.58 -2112.77 -2113.22 -2114.52 -2116.97 -2117.82 -2123.99 -2134.36 -2142.15 -2144.89 -2145.30 -2151.44 -2151.06 -2154.68 -2159.17 -2161.19 -2165.24 -2167.73 -2167.63 -2158.99 -2160.08 -2157.86 -2155.54 -2151.10 -2147.44 -2144.48 -2097.52 -2048.19 -1690.05 -1316.06 -754.66 -416.93 -342.22 -288.99 -264.44 -211.27 -163.90 -114.28 -84.62 -65.81 -69.02 -68.52 -82.96 -157.55 -193.11 -193.24 -179.41 -166.68 -174.95 -167.68 -152.43 -150.19 -112.63 -15.42 62.64 139.81 238.80 285.90 317.69 336.62 338.53 332.53 317.93 260.79 186.65 103.47 75.92 75.26 75.34 75.45 74.52 73.93 73.99 76.13 96.09 117.02 154.10 239.74 297.10 321.17 2803.42 3671.40 3461.77 3209.99 2367.04 2357.89 2251.16 2173.47 453.44 279.55 253.76 239.90 236.20 212.56 196.75 184.08 167.22 159.87 157.56 160.53 118.40 78.97 11.55 -114.93 -182.05 -349.04 -502.42 -717.10 -1044.42 -1201.46 -1316.37 -1492.31 -1707.66 -1791.40 -1846.01 -1859.49 -1861.84 -1861.49 -1869.64 -1874.45 -1881.39 -1895.18 -1975.79 -2525.53 -3168.41 -3562.68 -3828.76 -3847.69 -3845.68 -3854.84 -3864.96 -3869.21 -3869.27
-2133.04 -2133.49 -2134.72 -2136.22 -2139.37 -2141.68 -2144.43 -2134.22 -2128.25 -2122.04 -2123.60 -2126.07 -2126.05 -2126.01 -2135.36 -2145.95 -2151.41 -2152.33 -2157.71 -2159.48 -2165.78 -2170.37 -2175.76 -2182.06 -2183.12 -2183.40 -2182.36 -2179.26 -2173.66 -2171.40 -2163.46 -2159.10 -2153.15 -2149.74 -2139.06 -2077.14 -1929.06 -1289.38 -1081.69 -715.48 -414.57 -309.81 -250.70 -208.78 -192.88 -157.74 -118.03 -100.24 -119.01 -144.60 -195.51 -241.80 -254.98 -240.72 -216.68 -187.50 -179.75 -174.22 -159.02 -120.29 -97.17 -69.25 -4.81 61.31 145.78 207.84 258.77 293.42 319.01 344.14 302.93 272.13 179.50 118.53 74.48 74.29 74.18 74.34 73.33 72.19 73.18 73.28 107.76 121.28 171.75 226.31 283.22 335.70 1556.12 2423.18 3271.74 3159.08 1615.55 1196.53 1446.79 617.91 322.16 247.35 239.15 219.12 206.11 186.63 177.29 169.36 118.16 89.11 62.35 47.16 46.54 46.86 -73.30 -176.97 -290.66 -512.01 -654.08 -832.69 -1184.69 -1397.39 -1624.85 -1722.54 -1793.68 -1825.69 -1853.38 -1862.40 -1862.92 -1863.47 -1869.31 -1875.37 -1880.98 -1894.17 -1960.27 -2183.76 -2875.70 -3601.95 -3826.41 -3850.80 -3851.23 -3858.17 -3867.01 -3870.46 -3870.52
-2136.04 -2135.98 -2139.02 -2140.28 -2144.75 -2147.14 -2152.28 -2149.90 -2145.77 -2144.84 -2152.95 -2158.19 -2155.88 -2157.19 -2156.36 -2152.03 -2155.80 -2156.30 -2161.79 -2164.94 -2169.60 -2181.49 -2190.64 -2193.39 -2191.09 -2194.96 -2194.55 -2194.02 -2185.99 -2169.85 -2165.43 -2159.29 -2151.89 -2148.39 -2136.01 -2075.20 -2004.23 -1737.84 -1174.33 -878.28 -603.91 -424.73 -343.73 -237.64 -224.33 -162.18 -150.85 -160.77 -179.66 -232.52 -264.95 -276.77 -266.31 -250.70 -223.53 -204.34 -183.91 -162.95 -143.33 -111.64 -94.30 -85.48 -65.76 -28.01 33.25 110.11 197.10 247.44 266.83 265.28 269.38 222.35 175.81 97.53 72.72 72.45 72.47 71.55 71.08 69.82 69.47 70.34 80.62 86.12 145.77 220.63 261.44 274.07 737.25 1056.18 1672.66 994.16 924.35 708.90 664.71 264.02 249.97 223.22 187.88 150.78 162.17 146.23 120.82 108.80 43.69 -4.60 1.83 7.34 -34.92 -121.39 -259.21 -300.95 -425.94 -718.15 -815.28 -1098.25 -1399.77 -1613.00 -1752.45 -1827.21 -1869.78 -1867.03 -1863.13 -1864.94 -1865.14 -1870.92 -1871.77 -1874.34 -1882.19 -1890.89 -1946.55 -2080.59 -2830.06 -3512.91 -3806.51 -3855.00 -3859.10 -3865.48 -3868.78 -3871.90 -3871.96
-2138.88 -2139.50 -2141.62 -2145.22 -2148.58 -2153.31 -2157.06 -2163.10 -2167.22 -2169.84 -2179.57 -2178.49 -2182.59 -2177.83 -2172.05 -2160.26 -2157.92 -2158.75 -2162.29 -2167.01 -2169.53 -2181.65 -2195.38 -2206.09 -2209.24 -2209.32 -2208.21 -2203.33 -2188.06 -2171.47 -2161.18 -2154.88 -2145.09 -2141.93 -2137.43 -2131.28 -2068.91 -1859.29 -1721.09 -1237.61 -814.45 -639.51 -535.42 -380.08 -237.61 -227.33 -195.29 -185.00 -204.13 -246.99 -307.02 -305.69 -274.74 -254.78 -232.97 -209.08 -193.76 -160.68 -125.72 -106.10 -91.54 -70.57 -58.77 -31.70 -15.25 23.33 84.72 129.94 139.99 186.08 183.41 163.30 96.85 70.88 70.93 69.48 68.34 69.48 68.73 68.98 67.68 66.78 66.23 79.75 150.96 219.48 245.05 256.71 260.09 397.00 399.72 544.94 407.85 414.16 266.98 245.37 233.30 205.73 161.03 72.24 70.94 58.39 -13.86 -52.91 -18.68 -86.49 -121.75 -147.68 -269.59 -371.11 -553.91 -653.68 -847.38 -1015.15 -1236.15 -1349.19 -1525.84 -1716.24 -1824.76 -1873.62 -1874.53 -1872.74 -1871.57 -1871.04 -1871.23 -1874.00 -1874.60 -1874.06 -1877.10 -1891.68 -1949.51 -2131.45 -3060.66 -3567.72 -3842.37 -3854.40 -3860.73 -3867.52 -3870.29 -3873.02 -3873.08
-2142.34 -2143.05 -2145.07 -2149.19 -2153.31 -2159.88 -2165.98 -2173.65 -2179.42 -2185.43 -2188.07 -2192.42 -2191.75 -2193.28 -2182.99 -2169.54 -2165.75 -2167.21 -2168.33 -2170.56 -2174.63 -2192.45 -2206.14 -2213.65 -2216.20 -2219.32 -2217.13 -2214.68 -2195.36 -2175.16 -2167.80 -2160.32 -2157.20 -2147.14 -2144.25 -2134.90 -2119.47 -1979.25 -1854.56 -1681.51 -1325.12 -1270.57 -944.82 -734.56 -634.13 -323.11 -309.68 -273.14 -298.56 -311.35 -332.04 -316.22 -289.33 -279.32 -244.53 -206.41 -188.29 -159.35 -114.63 -96.93 -82.01 -64.42 -51.71 -33.61 -22.96 -13.02 13.81 42.73 51.24 75.52 71.52 68.35 61.06 62.68 67.14 67.61 66.77 66.99 67.36 66.89 64.65 63.97 64.35 90.19 138.35 203.87 226.27 239.07 251.51 267.33 303.71 301.76 289.98 259.00 255.07 236.99 216.10 178.28 142.07 54.28 -22.85 -69.84 -158.94 -275.08 -301.34 -148.99 -246.36 -285.85 -506.62 -615.58 -852.61 -1073.79 -1241.96 -1346.90 -1404.94 -1556.99 -1675.60 -1802.85 -1865.68 -1874.13 -1876.56 -1876.15 -1875.11 -1877.87 -1879.87 -1880.95 -1879.74 -1878.39 -1876.11 -1880.24 -1893.34 -2192.73 -3334.59 -3817.49 -3854.62 -3853.57 -3865.53 -3868.01 -3870.90 -3874.71 -3874.77
-2145.68 -2145.62 -2149.78 -2152.05 -2156.82 -2161.66 -2171.48 -2179.35 -2187.23 -2193.61 -2196.93 -2201.43 -2206.15 -2203.68 -2198.98 -2178.73 -2173.89 -2173.15 -2176.68 -2178.07 -2182.88 -2196.44 -2208.42 -2219.36 -2220.88 -2224.39 -2224.25 -2222.25 -2204.93 -2186.66 -2174.04 -2171.96 -2162.24 -2156.11 -2146.85 -2148.20 -2147.20 -2134.85 -2057.72 -1972.73 -1953.07 -1627.19 -1525.01 -1396.77 -989.66 -732.25 -510.03 -434.74 -363.61 -386.27 -356.59 -348.65 -322.96 -289.01 -248.12 -207.24 -180.91 -146.35 -102.51 -88.94 -74.26 -63.66 -47.93 -33.15 -21.03 -11.64 5.01 15.31 30.85 47.43 51.65 55.68 57.71 59.69 64.30 65.57 65.32 65.38 65.35 64.61 63.79 62.50 62.08 83.51 118.27 146.93 190.43 213.42 221.36 216.93 257.37 257.22 244.97 243.58 242.80 225.01 200.67 148.97 92.68 -32.01 -165.22 -292.50 -404.37 -446.46 -524.52 -352.64 -326.09 -581.34 -754.74 -961.44 -1099.84 -1374.08 -1464.89 -1412.37 -1569.88 -1780.46 -1808.27 -1851.73 -1872.28 -1874.71 -1877.12 -1878.82 -1881.09 -1882.58 -1884.43 -1888.92 -1887.04 -1882.37 -1877.71 -1879.05 -1920.48 -2401.66 -3182.17 -3839.04 -3866.36 -3865.83 -3871.99 -3870.31 -3871.96 -3876.11 -3876.17
-2148.75 -2148.69 -2151.94 -2155.64 -2161.83 -2169.80 -2177.79 -2185.64 -2191.95 -2198.32 -2204.73 -2210.39 -2209.66 -2209.68 -2207.26 -2185.32 -2180.75 -2181.26 -2181.35 -2183.35 -2186.57 -2201.28 -2216.80 -2222.05 -2226.56 -2227.76 -2228.82 -2226.91 -2209.15 -2195.04 -2183.82 -2178.45 -2172.28 -2164.52 -2158.65 -2159.48 -2160.19 -2146.69 -2105.75 -2068.46 -1993.78 -1958.45 -1909.22 -1778.72 -1520.05 -1144.58 -793.68 -648.04 -503.32 -462.20 -432.98 -398.93 -345.24 -308.72 -268.74 -228.71 -182.85 -149.65 -103.51 -75.84 -63.22 -54.58 -38.57 -31.20 -18.84 -5.72 9.45 21.28 31.14 41.46 48.27 53.91 57.07 59.70 61.86 61.77 63.67 63.96 63.53 63.41 61.79 61.12 61.42 61.16 85.67 95.76 146.63 169.34 186.05 193.67 215.10 222.27 231.59 216.96 206.56 184.41 169.20 46.74 45.85 -78.49 -153.78 -442.22 -543.31 -613.86 -703.19 -480.72 -537.26 -638.89 -954.40 -1175.53 -1292.04 -1403.29 -1525.39 -1613.57 -1716.32 -1839.94 -1851.16 -1861.55 -1872.38 -1874.33 -1877.42 -1881.36 -1884.67 -1886.72 -1892.79 -1897.77 -1893.62 -1890.19 -1884.38 -1883.15 -1900.60 -2689.15 -3307.59 -3820.92 -3861.98 -3866.23 -3874.19 -3875.09 -3881.01 -3879.01 -3878.05
-2150.51 -2150.45 -2152.70 -2156.94 -2165.91 -2171.34 -2179.83 -2187.23 -2194.66 -2202.79 -2209.24 -2211.20 -2215.25 -2214.03 -2208.57 -2193.54 -2191.26 -2188.07 -2188.75 -2188.35 -2191.69 -2199.57 -2216.88 -2223.24 -2227.47 -2228.88 -2229.25 -2229.38 -2214.84 -2203.94 -2192.31 -2189.23 -2181.04 -2173.52 -2167.81 -2167.29 -2171.62 -2152.10 -2140.18 -2095.10 -2024.90 -1983.42 -1951.73 -1893.72 -1737.74 -1492.16 -1063.65 -756.47 -551.35 -507.88 -461.02 -398.43 -371.29 -313.16 -282.75 -232.00 -173.15 -129.97 -99.18 -66.94 -56.04 -44.74 -36.50 -23.47 -12.90 2.25 9.60 22.73 35.54 40.72 46.17 49.90 53.70 56.48 58.81 60.64 61.79 62.18 62.07 61.60 60.15 59.71 59.15 59.19 59.53 66.05 96.28 119.90 109.05 105.72 115.74 121.02 159.07 171.04 151.36 119.39 92.45 -22.75 -80.19 -148.96 -261.58 -453.28 -644.45 -700.01 -755.11 -746.22 -744.35 -909.36 -1124.25 -1345.85 -1492.57 -1529.08 -1628.03 -1726.29 -1807.80 -1848.38 -1861.18 -1868.40 -1871.34 -1877.25 -1880.94 -1884.83 -1888.58 -1893.79 -1898.86 -1904.53 -1902.88 -1894.96 -1890.17 -1887.42 -1919.98 -2380.33 -3541.60 -3806.63 -3853.93 -3868.69 -3876.75 -3875.50 -3879.90 -3879.42 -3879.48
-2143.72 -2142.71 -2145.91 -2150.16 -2157.67 -2161.63 -2171.29 -2179.51 -2185.09 -2191.79 -2194.91 -2199.30 -2202.61 -2205.46 -2205.80 -2201.23 -2200.27 -2197.22 -2196.57 -2198.08 -2200.97 -2201.84 -2209.80 -2209.87 -2217.92 -2220.18 -2219.98 -2219.90 -2216.61 -2207.22 -2198.16 -2197.48 -2189.70 -2183.28 -2184.10 -2183.83 -2174.74 -2160.47 -2122.43 -2085.57 -2029.93 -1981.00 -1916.84 -1835.57 -1621.64 -1409.51 -1103.12 -779.89 -619.97 -568.64 -506.28 -483.69 -412.87 -344.17 -316.95 -261.38 -184.56 -144.71 -96.44 -70.68 -45.73 -36.37 -28.81 -16.64 -7.39 0.30 9.86 23.52 30.89 41.63 43.55 47.13 50.71 54.21 56.17 58.11 59.75 59.34 58.64 58.62 57.68 57.58 56.27 56.31 55.63 54.39 62.02 66.00 76.85 65.77 47.39 61.97 61.84 101.36 64.20 0.02 -7.75 -108.49 -121.15 -255.25 -618.72 -703.39 -787.48 -917.82 -890.62 -933.19 -1032.49 -1144.86 -1477.43 -1504.78 -1609.96 -1683.63 -1727.94 -1779.43 -1823.85 -1856.24 -1866.99 -1871.26 -1872.70 -1879.83 -1887.84 -1891.47 -1896.81 -1899.01 -1903.02 -1908.47 -1906.09 -1900.31 -1894.72 -1889.98 -1930.88 -2107.12 -3121.34 -3811.17 -3854.40 -3868.40 -3878.80 -3883.09 -3883.46 -3880.99 -3881.05
-2132.74 -2132.38 -2139.60 -2142.41 -2150.24 -2153.97 -2162.31 -2169.38 -2172.72 -2177.33 -2182.85 -2187.63 -2190.73 -2194.51 -2204.30 -2209.44 -2212.92 -2211.02 -2210.29 -2211.19 -2207.30 -2206.74 -2203.34 -2202.75 -2206.16 -2206.92 -2208.87 -2211.13 -2213.04 -2212.21 -2211.05 -2208.01 -2204.26 -2196.37 -2190.48 -2185.36 -2173.01 -2153.20 -2130.44 -2100.19 -2024.54 -1970.58 -1891.32 -1734.29 -1598.59 -1389.64 -1228.42 -971.01 -738.48 -648.84 -611.82 -576.10 -429.15 -382.28 -320.20 -259.07 -190.44 -151.32 -104.92 -74.46 -52.51 -38.18 -27.39 -17.72 -7.15 -2.46 12.33 19.09 28.92 36.98 42.03 42.67 48.12 52.16 53.60 56.32 56.71 55.64 53.67 55.59 55.40 54.81 54.70 52.98 53.34 52.30 53.36 50.36 51.29 44.79 40.26 43.00 5.17 -11.43 -19.57 -51.17 -111.49 -241.98 -307.93 -655.62 -841.97 -936.82 -1088.94 -1147.02 -1161.41 -1093.06 -1187.33 -1451.93 -1565.32 -1674.84 -1697.23 -1782.47 -1807.18 -1821.55 -1840.25 -1858.64 -1868.21 -1872.02 -1877.72 -1885.04 -1894.29 -1899.57 -1904.38 -1907.08 -1907.21 -1910.75 -1912.62 -1904.76 -1895.99 -1893.07 -1949.33 -2214.32 -3341.73 -3844.47 -3869.49 -3875.11 -3879.42 -3886.36 -3886.89 -3882.99 -3882.73
-2131.91 -2131.84 -2134.77 -2139.71 -2146.50 -2153.07 -2161.81 -2166.38 -2168.95 -2174.74 -2181.09 -2186.59 -2189.19 -2191.51 -2203.33 -2210.87 -2215.11 -2214.08 -2212.87 -2212.31 -2212.22 -2206.05 -2199.84 -2200.22 -2202.18 -2204.65 -2207.41 -2209.83 -2212.41 -2214.63 -2214.03 -2210.29 -2205.02 -2201.92 -2195.71 -2189.46 -2175.77 -2159.79 -2127.15 -2074.42 -1990.92 -1906.60 -1827.19 -1693.08 -1547.03 -1351.72 -1254.31 -1041.94 -884.32 -833.08 -725.01 -661.21 -552.27 -421.15 -308.50 -268.13 -206.89 -145.19 -97.04 -76.74 -57.61 -44.83 -28.34 -19.06 -9.87 -3.10 5.62 16.28 26.38 31.91 36.82 41.31 45.29 48.43 49.76 53.18 51.55 51.70 51.03 51.92 52.94 51.24 51.50 51.74 51.78 49.36 48.65 47.56 47.04 42.24 35.36 29.69 -4.79 -35.17 -69.93 -126.44 -253.06 -326.44 -480.87 -829.12 -1102.09 -1249.97 -1353.03 -1400.13 -1420.94 -1357.78 -1336.99 -1567.24 -1734.89 -1783.87 -1804.03 -1817.73 -1830.79 -1839.21 -1844.81 -1860.48 -1870.84 -1873.98 -1881.41 -1891.92 -1899.44 -1908.69 -1913.03 -1914.08 -1918.14 -1918.35 -1919.51 -1911.16 -1900.09 -1897.15 -1947.97 -2074.68 -3214.53 -3865.31 -3884.03 -3883.57 -3888.14 -3889.74 -3886.70 -3885.01 -3884.88
-2132.01 -2131.95 -2137.45 -2139.43 -2145.08 -2152.15 -2159.84 -2165.17 -2166.86 -2173.53 -2179.78 -2184.75 -2188.84 -2192.99 -2199.68 -2211.23 -2215.90 -2215.42 -2214.65 -2213.37 -2212.87 -2206.60 -2199.08 -2199.14 -2201.68 -2203.54 -2207.68 -2209.75 -2213.66 -2216.16 -2216.33 -2215.83 -2212.63 -2208.68 -2202.62 -2197.92 -2184.96 -2175.05 -2150.00 -2081.86 -2032.67 -1911.44 -1756.18 -1606.28 -1505.95 -1317.13 -1237.04 -1125.63 -1014.23 -920.76 -766.27 -692.12 -595.69 -502.49 -288.00 -240.38 -187.78 -130.80 -104.22 -79.06 -61.71 -45.98 -36.29 -22.72 -11.09 -3.88 4.05 16.11 25.28 31.98 34.26 37.65 41.65 44.57 46.69 46.63 49.38 48.22 47.66 48.90 49.83 48.30 49.70 50.11 48.52 47.34 45.66 45.39 44.03 39.28 33.17 23.47 -4.53 -63.35 -126.93 -179.71 -307.80 -535.72 -758.16 -1086.20 -1304.01 -1509.88 -1565.91 -1601.09 -1537.00 -1509.89 -1616.95 -1732.96 -1779.58 -1815.62 -1828.05 -1835.40 -1837.45 -1841.02 -1847.70 -1856.08 -1879.44 -1886.72 -1896.72 -1904.77 -1915.94 -1916.72 -1916.92 -1921.11 -1924.89 -1924.67 -1926.03 -1919.29 -1906.51 -1900.77 -1941.76 -2264.02 -3360.72 -3837.62 -3895.59 -3893.19 -3892.94 -3891.34 -3888.71 -3887.07 -3886.83
-2132.00 -2131.94 -2135.31 -2139.12 -2144.65 -2152.18 -2158.70 -2163.53 -2165.80 -2169.69 -2178.17 -2183.25 -2185.86 -2192.64 -2200.11 -2211.52 -2215.77 -2215.31 -2214.68 -2213.83 -2212.88 -2207.45 -2199.55 -2199.07 -2201.46 -2202.61 -2208.26 -2210.08 -2214.40 -2218.99 -2219.30 -2220.64 -2221.42 -2218.57 -2214.40 -2208.74 -2204.57 -2196.04 -2153.09 -2108.22 -2050.30 -1985.63 -1813.70 -1654.78 -1461.53 -1339.69 -1247.08 -1168.22 -1040.78 -958.99 -803.02 -716.44 -651.44 -487.25 -374.80 -284.18 -214.79 -143.55 -105.95 -84.30 -66.49 -56.59 -40.79 -29.91 -16.91 -2.83 4.29 13.13 25.39 27.59 34.25 37.52 40.44 43.74 43.13 44.64 45.15 44.80 45.17 45.61 46.33 46.20 46.52 46.86 46.49 45.39 44.78 41.03 40.07 37.09 31.22 19.66 -6.95 -63.21 -177.04 -211.81 -379.12 -584.85 -898.57 -1206.88 -1360.39 -1649.41 -1706.14 -1678.35 -1695.20 -1682.17 -1712.41 -1764.33 -1803.77 -1826.61 -1833.06 -1838.40 -1838.71 -1845.26 -1853.86 -1864.65 -1882.14 -1900.87 -1902.41 -1918.82 -1928.84 -1928.84 -1929.04 -1925.54 -1926.07 -1930.13 -1929.74 -1919.63 -1911.30 -1905.26 -1954.46 -2208.73 -3133.75 -3813.55 -3896.96 -3894.34 -3895.09 -3892.63 -3890.52 -3888.73 -3888.83
-2132.99 -2133.26 -2136.21 -2140.17 -2146.51 -2150.65 -2158.45 -2164.56 -2165.46 -2169.50 -2179.36 -2182.64 -2186.70 -2192.31 -2200.60 -2211.47 -2214.24 -2214.32 -2214.13 -2213.73 -2212.02 -2208.39 -2197.50 -2198.77 -2200.51 -2203.44 -2207.42 -2209.90 -2214.90 -2221.02 -2223.53 -2225.99 -2226.25 -2223.24 -2221.60 -2218.67 -2215.90 -2202.10 -2168.81 -2125.54 -2064.10 -1979.27 -1868.15 -1680.91 -1539.14 -1380.51 -1318.57 -1145.49 -1000.62 -883.06 -814.50 -715.24 -649.50 -518.18 -447.40 -339.24 -239.65 -168.14 -120.27 -87.77 -78.43 -69.38 -52.32 -34.54 -23.64 -8.40 9.11 14.17 15.87 24.84 31.71 36.21 38.53 40.50 40.78 41.13 41.47 42.23 42.63 42.77 43.24 43.99 43.51 42.72 44.03 41.77 38.44 36.68 33.71 31.49 23.57 2.94 -13.08 -48.86 -149.97 -303.11 -475.23 -693.25 -1100.03 -1393.10 -1604.23 -1714.88 -1734.13 -1734.23 -1769.42 -1776.28 -1787.34 -1805.40 -1828.05 -1833.55 -1840.32 -1842.86 -1849.24 -1862.74 -1866.52 -1882.85 -1899.41 -1912.72 -1910.66 -1918.71 -1935.63 -1939.44 -1934.83 -1934.52 -1932.09 -1934.47 -1935.61 -1925.41 -1917.01 -1909.25 -1906.38 -2364.24 -3332.75 -3824.29 -3897.10 -3896.25 -3897.02 -3894.47 -3893.05 -3890.80 -3890.87
-2144.25 -2142.89 -2145.14 -2149.88 -2156.60 -2159.41 -2168.62 -2172.72 -2174.76 -2180.01 -2181.09 -2190.70 -2196.46 -2200.13 -2204.20 -2207.07 -2210.61 -2210.53 -2210.19 -2209.99 -2209.90 -2205.35 -2195.94 -2196.83 -2197.87 -2200.28 -2204.86 -2209.17 -2214.69 -2226.77 -2229.47 -2235.69 -2232.08 -2230.41 -2226.97 -2225.48 -2223.10 -2208.13 -2171.57 -2146.57 -2108.71 -2035.30 -1922.33 -1748.63 -1710.50 -1531.70 -1318.77 -1187.49 -1071.44 -938.30 -815.29 -699.04 -608.13 -532.70 -439.84 -343.38 -245.14 -187.47 -111.67 -101.28 -82.29 -67.81 -50.82 -41.48 -29.19 -13.56 0.70 7.25 13.49 22.86 28.54 31.08 34.04 37.31 39.16 38.68 38.20 39.52 39.75 39.85 39.37 40.46 38.93 39.21 41.25 40.02 34.58 32.17 24.78 19.55 4.39 -8.42 -44.39 -90.75 -174.84 -449.17 -654.28 -1024.63 -1371.47 -1528.16 -1683.07 -1747.01 -1779.81 -1803.86 -1805.34 -1809.50 -1817.86 -1823.01 -1832.27 -1840.53 -1845.96 -1852.91 -1863.57 -1873.50 -1897.59 -1912.84 -1923.09 -1936.24 -1931.87 -1934.73 -1941.74 -1945.88 -1942.27 -1943.25 -1938.62 -1943.76 -1941.25 -1930.55 -1921.44 -1911.78 -1927.28 -2586.29 -3333.47 -3859.93 -3899.90 -3899.34 -3898.73 -3897.11 -3895.55 -3892.87 -3892.93
-2150.90 -2151.21 -2153.84 -2157.35 -2160.20 -2168.69 -2172.93 -2177.28 -2182.61 -2188.36 -2192.47 -2200.13 -2203.64 -2207.08 -2208.19 -2205.76 -2205.74 -2206.63 -2207.24 -2207.59 -2207.68 -2203.10 -2195.56 -2195.08 -2197.23 -2199.79 -2204.32 -2207.51 -2217.40 -2229.02 -2235.86 -2238.00 -2236.50 -2235.59 -2232.58 -2229.37 -2225.02 -2206.04 -2197.55 -2184.71 -2121.16 -2061.70 -1965.75 -1819.67 -1687.43 -1473.95 -1296.63 -1168.41 -1073.37 -910.93 -808.05 -676.87 -635.82 -528.84 -438.25 -371.63 -285.11 -195.62 -138.13 -118.03 -87.38 -71.79 -61.91 -52.26 -33.33 -17.65 -8.63 0.60 8.32 14.98 20.70 21.58 32.00 34.67 35.49 35.87 36.22 35.71 36.49 37.02 37.43 36.47 35.53 36.00 34.59 33.22 25.19 14.53 5.15 4.38 -24.97 -72.74 -119.30 -141.05 -280.58 -659.41 -1068.43 -1426.61 -1639.51 -1730.31 -1786.66 -1806.63 -1800.95 -1810.52 -1811.01 -1815.39 -1820.37 -1827.48 -1839.33 -1846.19 -1856.29 -1871.13 -1886.21 -1891.43 -1905.19 -1920.11 -1934.98 -1943.17 -1942.07 -1950.29 -1952.18 -1951.84 -1951.27 -1944.92 -1948.70 -1951.77 -1951.21 -1935.90 -1923.63 -1912.84 -1945.16 -2157.14 -3132.01 -3876.76 -3898.65 -3903.42 -3902.55 -3899.02 -3897.84 -3894.98 -3895.05
-2150.97 -2150.91 -2154.32 -2158.40 -2162.63 -2167.78 -2174.13 -2177.46 -2182.81 -2187.02 -2191.21 -2198.00 -2203.84 -2206.99 -2207.35 -2204.25 -2204.51 -2205.93 -2207.89 -2208.65 -2208.85 -2205.48 -2197.31 -2198.60 -2199.15 -2201.70 -2205.95 -2209.25 -2218.87 -2234.60 -2243.59 -2243.91 -2242.18 -2240.50 -2239.01 -2237.56 -2237.77 -2231.01 -2228.65 -2215.70 -2184.58 -2087.07 -1927.40 -1799.85 -1649.02 -1496.00 -1352.27 -1166.75 -1014.78 -864.90 -757.62 -691.92 -650.87 -553.92 -460.74 -366.21 -301.52 -204.88 -171.80 -133.61 -109.16 -79.23 -70.62 -60.51 -35.58 -26.26 -16.79 -6.96 -0.21 1.78 11.79 18.38 28.13 31.01 31.44 33.52 34.54 33.95 34.04 33.53 33.56 31.43 28.51 29.64 25.29 15.86 6.03 -4.89 -12.18 -44.64 -75.42 -121.88 -245.90 -459.90 -501.66 -767.27 -1412.63 -1778.34 -1750.95 -1806.33 -1827.72 -1825.15 -1819.16 -1818.15 -1819.67 -1821.60 -1825.97 -1839.85 -1851.71 -1861.64 -1868.24 -1872.36 -1900.56 -1919.92 -1931.90 -1936.47 -1952.93 -1957.09 -1962.40 -1967.07 -1962.09 -1963.28 -1959.63 -1954.20 -1956.26 -1957.45 -1953.00 -1942.88 -1924.65 -1918.50 -1947.93 -2257.40 -3097.62 -3846.16 -3906.38 -3907.77 -3904.64 -3902.00 -3899.44 -3897.18 -3897.24
-2150.57 -2150.50 -2154.08 -2157.15 -2161.50 -2167.91 -2172.39 -2176.16 -2179.66 -2184.53 -2191.67 -2195.42 -2201.14 -2204.79 -2206.36 -2204.23 -2205.14 -2207.27 -2208.89 -2210.69 -2210.99 -2207.34 -2200.38 -2199.98 -2201.64 -2205.16 -2207.84 -2213.74 -2222.89 -2237.34 -2245.03 -2246.60 -2246.20 -2246.48 -2244.36 -2246.46 -2245.95 -2244.83 -2249.64 -2241.82 -2239.21 -2166.83 -2022.73 -1843.07 -1742.09 -1632.51 -1476.99 -1323.48 -1069.08 -842.74 -737.38 -655.99 -599.25 -560.71 -475.23 -408.17 -335.29 -238.01 -184.25 -140.37 -126.71 -96.39 -79.72 -63.15 -49.89 -37.86 -23.38 -15.04 -12.62 -9.23 3.54 10.57 23.03 25.28 27.44 29.04 31.35 31.10 30.74 29.75 28.02 27.12 18.95 20.90 7.82 0.29 -17.51 -39.66 -68.15 -91.59 -147.74 -255.86 -417.74 -573.93 -927.42 -1337.83 -1541.59 -1834.53 -1831.37 -1827.45 -1829.16 -1828.68 -1828.14 -1827.38 -1823.90 -1826.94 -1843.86 -1862.00 -1869.45 -1887.49 -1894.83 -1896.22 -1908.02 -1940.70 -1956.01 -1960.71 -1969.55 -1969.62 -1976.31 -1980.68 -1975.53 -1972.01 -1967.29 -1965.62 -1966.98 -1966.73 -1959.74 -1943.45 -1931.84 -1922.95 -1959.50 -2403.49 -3222.20 -3859.88 -3911.64 -3910.96 -3906.52 -3903.45 -3901.68 -3899.62 -3899.52
-2150.52 -2150.46 -2153.94 -2157.79 -2162.00 -2167.59 -2171.28 -2175.17 -2178.53 -2183.97 -2188.72 -2195.28 -2200.74 -2203.80 -2206.13 -2205.30 -2206.36 -2210.15 -2212.77 -2213.96 -2215.09 -2211.24 -2203.88 -2205.35 -2205.80 -2209.02 -2212.09 -2218.25 -2229.05 -2238.13 -2248.42 -2249.97 -2252.20 -2253.66 -2251.93 -2254.51 -2258.62 -2262.47 -2257.04 -2258.70 -2247.86 -2183.77 -2103.12 -1984.82 -1830.09 -1672.73 -1568.46 -1313.43 -1151.55 -801.20 -718.90 -622.00 -573.32 -542.90 -488.41 -431.96 -340.10 -272.43 -227.47 -172.91 -140.02 -107.17 -93.86 -78.31 -57.08 -51.16 -37.50 -25.74 -22.96 -15.06 -2.31 8.04 14.26 17.68 18.01 21.35 21.71 26.28 23.13 23.38 21.40 18.09 12.16 4.71 -13.42 -32.84 -54.14 -122.97 -141.34 -173.80 -295.20 -406.76 -585.94 -986.74 -1207.39 -1529.26 -1802.69 -1837.58 -1835.92 -1832.32 -1830.77 -1833.90 -1832.08 -1837.70 -1836.56 -1837.18 -1858.41 -1878.03 -1894.71 -1908.20 -1913.24 -1921.38 -1942.01 -1961.70 -1982.65 -1982.85 -1986.68 -1986.97 -1989.37 -1987.68 -1982.72 -1976.56 -1975.80 -1981.29 -1980.93 -1978.88 -1968.17 -1946.60 -1934.25 -1923.85 -1929.52 -2192.66 -3177.02 -3849.64 -3899.65 -3912.88 -3910.26 -3906.69 -3904.68 -3901.80 -3901.87
-2150.81 -2151.30 -2154.73 -2158.32 -2162.14 -2166.57 -2171.98 -2175.92 -2177.49 -2182.11 -2187.69 -2191.87 -2198.37 -2202.43 -2204.68 -2204.25 -2208.13 -2212.75 -2215.17 -2218.44 -2219.18 -2217.39 -2216.28 -2215.21 -2217.73 -2215.83 -2219.58 -2221.78 -2234.19 -2242.98 -2249.95 -2255.30 -2256.81 -2257.35 -2258.67 -2261.52 -2265.35 -2269.20 -2265.99 -2266.17 -2253.86 -2223.71 -2154.56 -2045.18 -1867.36 -1689.15 -1456.07 -1325.93 -1007.84 -885.63 -774.99 -654.65 -568.85 -506.08 -489.09 -436.26 -387.25 -305.94 -261.10 -212.87 -159.81 -123.68 -97.15 -80.88 -67.78 -62.71 -56.97 -47.48 -38.51 -26.59 -14.49 -9.12 -0.46 10.33 0.43 9.00 13.07 13.94 12.30 9.24 1.83 5.03 -17.35 -19.29 -44.08 -58.96 -114.04 -163.27 -224.14 -364.58 -588.16 -772.39 -853.90 -1149.72 -1338.47 -1648.29 -1765.55 -1841.51 -1843.26 -1838.06 -1837.37 -1839.95 -1845.42 -1850.34 -1850.41 -1860.58 -1877.66 -1896.83 -1912.73 -1922.48 -1936.18 -1954.55 -1977.86 -1982.89 -1993.95 -1991.04 -1996.17 -2000.83 -1999.30 -1993.81 -1990.08 -1985.71 -1988.77 -1990.41 -1989.22 -1985.76 -1964.73 -1950.79 -1939.41 -1927.60 -1951.63 -2505.12 -3330.40 -3871.66 -3916.72 -3915.22 -3911.77 -3909.11 -3907.03 -3904.23 -3904.30
-2151.42 -2151.36 -2155.63 -2158.33 -2163.54 -2167.97 -2171.39 -2171.48 -2167.63 -2168.82 -2174.22 -2183.78 -2189.96 -2196.00 -2198.95 -2203.07 -2207.95 -2212.09 -2216.41 -2218.43 -2220.84 -2226.82 -2231.46 -2234.23 -2234.58 -2238.97 -2233.76 -2240.68 -2243.17 -2242.85 -2246.43 -2254.89 -2260.55 -2262.38 -2265.62 -2269.07 -2272.29 -2270.64 -2271.43 -2271.14 -2259.96 -2231.67 -2165.77 -2052.55 -1900.63 -1780.77 -1442.74 -1276.54 -1037.02 -841.65 -775.29 -611.59 -515.21 -483.93 -469.07 -440.12 -402.62 -314.42 -279.77 -218.17 -169.59 -125.60 -105.10 -79.97 -67.66 -67.65 -64.65 -57.74 -50.38 -49.02 -43.04 -40.03 -34.76 -32.68 -32.07 -22.35 -22.74 -34.91 -19.37 -18.69 -13.91 -39.00 -41.59 -71.07 -86.48 -105.98 -189.44 -246.03 -331.63 -450.17 -653.83 -1054.86 -1034.24 -1348.18 -1520.77 -1789.09 -1829.37 -1857.80 -1852.22 -1848.05 -1848.23 -1850.63 -1857.75 -1865.08 -1863.15 -1880.15 -1899.54 -1915.28 -1930.34 -1943.10 -1950.32 -1963.77 -1982.03 -1995.58 -2002.35 -2004.08 -2012.89 -2014.53 -2009.25 -2004.66 -2002.74 -2005.30 -2000.22 -1998.25 -1995.64 -1993.11 -1984.02 -1962.74 -1958.71 -1951.22 -1992.90 -2376.66 -3650.66 -3906.10 -3920.39 -3918.71 -3916.00 -3912.71 -3909.75 -3906.78 -3906.85
-2153.64 -2153.57 -2157.67 -2160.20 -2164.73 -2169.11 -2173.34 -2172.04 -2164.12 -2164.05 -2168.94 -2174.47 -2181.92 -2188.79 -2197.08 -2202.07 -2208.90 -2214.09 -2218.99 -2221.97 -2226.17 -2235.53 -2252.19 -2254.97 -2250.21 -2250.98 -2252.04 -2249.36 -2243.33 -2239.99 -2243.14 -2252.53 -2265.54 -2270.16 -2276.16 -2276.98 -2274.56 -2276.78 -2274.69 -2272.48 -2263.05 -2213.58 -2160.76 -2058.14 -1943.47 -1739.62 -1539.22 -1274.05 -1145.69 -873.30 -589.35 -435.19 -401.85 -430.10 -442.40 -417.49 -402.10 -351.70 -286.90 -215.87 -171.75 -134.32 -103.89 -72.70 -53.37 -52.60 -67.79 -68.16 -76.57 -89.52 -125.94 -86.03 -62.42 -67.50 -59.30 -54.83 -74.28 -81.67 -60.60 -48.38 -70.63 -82.90 -78.98 -114.07 -136.12 -191.65 -280.93 -375.89 -489.44 -581.52 -802.49 -1083.67 -1272.65 -1402.50 -1704.39 -1819.78 -1865.53 -1866.75 -1870.98 -1868.22 -1864.82 -1872.75 -1874.43 -1884.50 -1893.99 -1899.26 -1924.29 -1943.90 -1959.65 -1964.78 -1967.48 -1974.80 -1995.78 -2016.27 -2020.74 -2015.12 -2022.76 -2025.94 -2022.31 -2015.14 -2013.12 -2019.31 -2008.55 -2003.67 -2004.69 -2004.16 -1986.21 -1974.73 -1962.28 -1958.84 -1959.10 -2312.91 -3400.14 -3859.71 -3921.32 -3920.95 -3917.91 -3914.55 -3912.06 -3909.58 -3909.48
-2160.38 -2160.31 -2162.89 -2163.19 -2167.07 -2171.25 -2176.46 -2171.81 -2161.78 -2163.75 -2172.24 -2175.43 -2183.51 -2190.96 -2200.69 -2206.62 -2217.75 -2220.45 -2228.63 -2231.62 -2235.70 -2241.56 -2260.61 -2260.36 -2260.83 -2255.55 -2252.37 -2248.31 -2247.34 -2248.39 -2273.60 -2299.79 -2283.96 -2285.25 -2286.44 -2283.66 -2282.30 -2282.23 -2278.94 -2276.98 -2263.02 -2206.87 -2140.76 -2079.78 -1923.29 -1616.48 -1388.76 -1149.92 -843.66 -704.40 -441.51 -396.14 -345.31 -343.37 -418.80 -402.46 -400.69 -372.95 -295.88 -229.15 -181.73 -128.68 -28.01 -6.06 -1.40 -54.00 -104.71 -103.28 -99.89 -136.76 -149.04 -137.69 -115.00 -161.89 -154.09 -178.01 -144.76 -183.94 -139.39 -109.09 -116.77 -178.81 -194.89 -209.99 -253.52 -336.77 -504.42 -667.11 -808.13 -1057.46 -1024.60 -1267.38 -1411.21 -1537.65 -1761.13 -1876.35 -1890.59 -1887.75 -1898.91 -1888.28 -1891.30 -1889.57 -1900.38 -1907.59 -1913.19 -1925.32 -1949.89 -1980.11 -1983.14 -1983.83 -1999.51 -2011.48 -2006.89 -2025.11 -2031.30 -2024.22 -2030.35 -2033.99 -2024.96 -2023.41 -2031.23 -2031.94 -2025.21 -2017.25 -2017.25 -2016.03 -1992.85 -1973.86 -1962.15 -1958.34 -1961.14 -2663.29 -3300.12 -3870.48 -3924.11 -3923.19 -3920.61 -3917.50 -3914.84 -3912.09 -3912.16
