-5329.46 -5337.55 -5341.74 -5333.60 -5319.10 -5308.68 -5292.21 -5262.20 -5262.84 -5264.47 -5244.49 -5252.91 -5259.30 -5256.72 -5269.27 -5282.87 -5311.71 -5315.84 -5329.01 -5325.81 -5313.81 -5220.98 -4849.01 -4278.76 -3560.66 -3693.82 -3705.81 -4420.30 -4536.68 -4875.36 -4655.32 -3938.65 -3303.91 -2994.52 -2679.06 -2313.99 -2151.43 -2150.74 -2256.69 -2307.80 -2497.75 -2515.27 -2743.92 -3079.77 -3882.58 -4331.18 -4979.18 -5381.45 -5456.08 -5367.28 -5477.33 -5569.24 -5648.21 -5627.70 -5656.14 -5656.67 -5638.81 -5616.12 -5598.86 -5589.02 -5579.61 -5568.82 -5562.99 -5558.90 -5550.65 -5533.68 -5530.15 -5521.20 -5470.91 -5233.96 -4824.17 -4581.02 -4369.55 -4221.18 -3376.94 -2730.34 -1726.34 -609.45 -202.05 -46.27 13.33 50.74 69.27 116.59 168.74 302.86 475.37 747.82 1064.97 1249.00 1081.47 1101.94 1331.65 1160.92 1330.63 875.64 364.27 96.52 38.55 -25.33 -67.55 -1048.88 -5561.13 -4659.09 -3741.12 -3263.99 -2482.48 -1819.32 -1035.25 -1054.75 -1930.66 -5380.15 -6636.15 -6492.12 -6493.70 -6474.24 -6487.37 -6498.34 -5809.85 -4631.17 -2428.22 -1894.16 -1908.74 -2137.39 -2264.58 -2348.95 -2439.97 -2459.09 -2447.91 -2431.44 -2420.30 -2444.46 -2476.05 -2574.59 -2747.43 -3135.56 -3465.42 -3769.77 -3937.44 -3969.60 -4000.75
-5458.88 -5444.75 -5424.47 -5422.77 -5392.95 -5387.57 -5370.98 -5347.04 -5299.21 -5305.58 -5295.40 -5290.56 -5301.20 -5310.11 -5365.96 -5354.57 -5387.85 -5378.41 -5375.09 -5364.16 -5338.02 -5175.68 -4466.52 -3425.44 -2716.25 -2602.44 -3037.78 -3374.86 -3340.93 -3799.44 -4008.24 -3347.07 -2474.27 -2208.59 -2120.08 -1949.01 -1691.40 -1813.48 -1711.56 -2069.23 -1924.74 -2230.26 -2326.32 -2552.28 -2952.71 -3313.42 -4295.89 -4785.59 -4820.03 -4919.40 -5105.08 -5365.53 -5357.51 -5517.46 -5604.35 -5647.25 -5623.85 -5611.77 -5595.31 -5583.73 -5575.02 -5568.94 -5558.99 -5548.11 -5523.02 -5507.89 -5335.00 -5319.88 -5234.12 -4812.36 -4592.76 -4189.11 -3946.18 -3754.01 -3289.14 -1966.05 -650.74 -190.16 -26.91 24.27 45.52 69.08 106.13 133.47 147.21 257.19 323.39 665.46 1019.56 1080.32 1355.27 1445.25 1526.72 1455.31 1420.02 753.80 509.08 107.95 40.77 -10.83 -153.05 -956.80 -5686.22 -5323.15 -4826.65 -4424.73 -3653.71 -3011.22 -2381.78 -1908.45 -1773.29 -2860.85 -3001.21 -2943.58 -3215.06 -2892.57 -4881.81 -5038.92 -4468.95 -4744.39 -2494.03 -2113.19 -1964.80 -2101.15 -2326.23 -2414.72 -2438.67 -2444.87 -2432.91 -2412.08 -2407.76 -2430.82 -2449.34 -2573.16 -2757.38 -3087.53 -3424.74 -3842.70 -3936.45 -4061.93 -4061.98
-5561.71 -5561.57 -5522.61 -5505.78 -5490.39 -5502.01 -5502.92 -5463.45 -5436.89 -5401.83 -5382.76 -5362.58 -5411.46 -5417.47 -5438.11 -5444.22 -5443.04 -5484.32 -5482.90 -5464.41 -5384.15 -5135.58 -4272.41 -3441.82 -2287.11 -2190.73 -2193.18 -2380.94 -2573.35 -2907.18 -2930.39 -2633.71 -2244.21 -1926.38 -1556.40 -893.85 -917.31 -825.90 -950.63 -1220.33 -1402.63 -2079.93 -2219.20 -2291.19 -2378.39 -2564.74 -3112.32 -3551.05 -3981.33 -3752.74 -3908.67 -4252.99 -4589.60 -4864.10 -5275.38 -5392.88 -5589.97 -5556.47 -5472.71 -5536.73 -5533.26 -5546.71 -5490.86 -5445.70 -5357.88 -5126.46 -5096.90 -4478.66 -4133.13 -3763.83 -3214.17 -3359.32 -3460.30 -2669.81 -1900.17 -909.77 8.23 20.75 15.76 44.51 77.57 91.36 130.15 164.32 205.27 226.62 288.46 446.80 529.27 710.77 877.81 1099.66 1256.48 1462.95 1499.70 880.09 692.74 129.41 76.44 -0.12 -52.07 -296.56 -3471.62 -5605.27 -5342.31 -4798.85 -4594.89 -4487.14 -4053.86 -2942.49 -2196.48 -1518.05 -1365.30 -1411.19 -1494.35 -1686.50 -2253.78 -2314.62 -2811.35 -3992.27 -3087.33 -2341.81 -1928.85 -2065.35 -2268.52 -2380.83 -2433.54 -2430.32 -2413.36 -2399.56 -2390.24 -2403.27 -2503.37 -2531.93 -2707.86 -3138.94 -3419.13 -3936.91 -4047.43 -4067.73 -4070.62
-5621.88 -5621.79 -5623.86 -5589.92 -5572.74 -5566.77 -5559.00 -5533.42 -5540.76 -5518.91 -5507.11 -5485.66 -5493.26 -5513.07 -5529.00 -5582.36 -5587.45 -5631.20 -5581.90 -5571.18 -5507.22 -5124.20 -4080.49 -3131.86 -2295.51 -2216.37 -2227.60 -2243.35 -2200.54 -2312.27 -2403.76 -2318.81 -1958.83 -1417.01 -839.45 -461.91 -163.34 -119.34 -311.72 -311.21 -436.05 -1301.48 -2124.45 -2313.50 -2034.58 -2365.78 -2495.73 -2553.39 -2761.50 -2813.52 -3042.96 -3178.94 -3565.38 -3872.82 -4427.94 -5047.30 -5202.61 -5309.15 -5323.01 -5382.91 -5330.33 -5055.09 -5218.45 -5176.27 -4887.14 -4554.49 -4465.04 -3638.62 -3470.45 -2703.54 -2650.61 -2462.85 -1839.47 -1134.23 -519.18 -137.88 61.31 72.26 66.16 75.20 106.54 125.79 160.79 213.24 218.22 244.98 299.38 348.53 408.63 468.23 558.71 666.34 891.59 1171.60 1410.80 1162.94 733.21 545.65 244.70 9.68 -61.80 -184.90 -2704.65 -5153.51 -4825.57 -5062.34 -4740.18 -4795.31 -4873.57 -4253.52 -3410.16 -2732.08 -1669.14 -1251.32 -1096.46 -1029.42 -1323.95 -1196.54 -1752.60 -2830.74 -2605.52 -2277.99 -2010.10 -2061.45 -2177.98 -2332.66 -2403.02 -2412.80 -2399.34 -2387.75 -2394.68 -2415.05 -2480.42 -2548.49 -2711.73 -2956.19 -3311.36 -3793.63 -3956.81 -4074.82 -4074.88
-5638.82 -5638.75 -5642.92 -5634.21 -5635.20 -5635.11 -5628.58 -5620.85 -5631.27 -5623.48 -5602.73 -5618.29 -5597.99 -5631.81 -5651.37 -5638.60 -5639.34 -5664.39 -5667.37 -5655.58 -5558.32 -5272.99 -4167.08 -3414.47 -2547.16 -2550.92 -2654.93 -2617.02 -2309.07 -2212.98 -2199.05 -2062.01 -1910.81 -801.34 -340.46 -56.57 -52.85 -54.08 -57.38 -87.41 -107.22 -315.63 -1172.41 -1048.66 -1295.77 -2063.27 -2182.29 -2305.77 -2310.19 -2484.82 -2531.63 -2450.64 -2417.85 -3289.04 -3297.65 -3766.78 -4167.55 -4474.60 -4495.41 -4610.14 -4335.78 -4531.43 -4303.28 -4396.10 -3916.35 -3348.34 -2829.44 -2676.63 -2382.85 -2334.84 -2112.72 -1691.62 -1167.50 -816.72 35.75 58.19 75.36 91.58 97.42 108.12 136.23 159.65 186.90 221.69 265.19 281.73 310.53 350.69 372.86 401.27 452.48 496.68 637.16 911.20 1017.33 1074.50 897.34 822.52 331.59 109.63 -6.50 -68.45 -125.96 -1072.86 -4183.26 -4857.59 -4884.94 -4842.94 -5038.94 -5137.20 -4567.44 -3655.86 -2902.76 -1901.71 -1324.66 -1093.17 -940.52 -950.23 -1223.07 -1751.94 -2068.79 -2223.83 -2048.70 -2133.61 -2231.85 -2311.53 -2372.82 -2379.20 -2383.10 -2381.24 -2399.80 -2422.19 -2474.48 -2590.75 -2686.96 -2942.17 -3262.06 -3725.44 -3926.66 -4059.89 -4059.94
-5646.60 -5645.88 -5648.42 -5650.08 -5650.35 -5648.42 -5650.00 -5663.61 -5661.93 -5667.70 -5665.45 -5672.71 -5681.86 -5687.29 -5690.37 -5696.81 -5699.92 -5706.00 -5712.46 -5695.11 -5613.29 -5462.96 -4746.06 -3827.04 -3764.88 -3382.31 -3630.49 -3672.40 -2908.14 -2581.93 -2273.23 -2036.22 -1565.90 -535.37 -168.68 -33.29 -5.34 -12.59 -3.11 -14.35 -29.77 -94.43 -346.57 -412.89 -478.05 -1393.62 -1703.67 -1769.05 -1947.69 -2190.56 -2162.52 -2184.10 -2266.99 -2251.70 -2585.88 -2932.67 -3030.11 -3111.39 -3213.33 -3132.28 -3132.56 -3317.40 -3027.65 -3213.36 -2933.12 -2602.65 -2580.89 -2336.62 -2307.83 -2293.57 -1958.75 -756.69 -100.28 32.19 50.72 91.58 107.25 118.19 121.04 143.02 163.93 186.58 210.98 256.66 287.89 295.13 307.96 339.23 367.31 399.77 432.80 446.53 455.40 542.94 697.34 979.59 1137.02 888.06 451.15 99.63 35.28 -8.47 -44.69 -79.91 -2331.03 -4283.28 -5170.64 -4834.38 -4878.62 -5201.64 -5193.37 -5080.87 -3887.63 -3428.83 -2528.16 -1501.77 -1208.00 -977.04 -1010.24 -1237.44 -1518.79 -1844.48 -1921.39 -2076.59 -2215.70 -2239.88 -2322.63 -2342.17 -2347.24 -2357.77 -2378.66 -2400.15 -2473.69 -2551.65 -2702.54 -3006.73 -3249.58 -3610.30 -3874.41 -4006.96 -4006.97
-5660.47 -5659.29 -5661.31 -5664.62 -5661.75 -5664.71 -5669.65 -5675.83 -5688.64 -5685.83 -5693.07 -5701.67 -5701.41 -5710.54 -5710.60 -5707.86 -5714.24 -5718.82 -5727.17 -5723.37 -5694.33 -5588.27 -5233.36 -4925.63 -4820.22 -5044.08 -4931.78 -4455.93 -3458.18 -2787.35 -2459.93 -2311.41 -1831.41 -824.27 -83.37 -44.03 -4.75 15.26 16.63 6.13 -14.30 -48.28 -67.23 -122.32 -130.02 -278.11 -501.27 -512.63 -783.73 -1139.65 -1462.27 -1663.89 -2136.52 -2264.58 -2355.95 -2383.00 -2435.03 -2497.95 -2430.59 -2558.16 -2515.66 -2438.77 -2491.37 -2517.60 -2535.66 -2390.93 -2335.74 -2292.72 -2098.24 -1924.40 -1448.36 -51.64 38.25 52.77 77.46 102.89 118.15 149.81 159.25 168.82 174.65 205.75 220.85 268.68 286.80 294.77 308.22 331.10 364.96 388.68 419.09 422.07 447.20 465.65 532.93 716.41 1025.84 1042.78 743.48 325.64 46.38 32.16 15.39 6.43 -1011.13 -4004.31 -5182.64 -4949.68 -4837.29 -5012.82 -5108.90 -5237.21 -5149.71 -4771.40 -3707.19 -3017.15 -2501.49 -1472.17 -1295.80 -1225.86 -1259.87 -1366.77 -1639.17 -1911.31 -2019.52 -2123.90 -2167.32 -2271.22 -2322.55 -2338.56 -2342.46 -2386.77 -2475.60 -2615.61 -2755.58 -2969.20 -3233.43 -3446.85 -3785.84 -3941.09 -3967.84
-5676.55 -5675.18 -5676.63 -5677.04 -5680.65 -5680.84 -5681.45 -5684.99 -5708.32 -5711.72 -5715.24 -5718.16 -5725.82 -5726.32 -5725.26 -5722.85 -5724.38 -5733.52 -5734.00 -5737.46 -5728.05 -5709.85 -5656.55 -5563.99 -5568.45 -5588.48 -5420.92 -5233.36 -4603.45 -3808.30 -3039.75 -2578.63 -1609.09 -537.74 -82.27 -57.73 -9.27 10.91 27.19 23.53 14.74 3.75 -4.60 -41.09 -53.44 -77.85 -100.61 -101.69 -295.86 -495.30 -442.83 -517.78 -1274.34 -1972.30 -1988.45 -1925.55 -1986.94 -2022.62 -2124.50 -2196.30 -2157.12 -2202.09 -2260.61 -2239.03 -2339.98 -2358.14 -2429.11 -2261.19 -1586.39 -1086.19 -457.01 15.08 53.03 67.73 88.66 114.84 160.08 188.35 185.63 189.59 203.97 226.27 239.15 261.21 284.41 291.78 300.96 328.38 366.97 375.85 382.85 385.20 394.64 440.63 482.79 643.30 895.12 1133.35 960.33 746.09 144.89 117.13 77.07 16.21 -11.79 -1721.40 -4881.64 -5237.60 -4995.41 -4856.85 -4857.35 -5047.91 -5210.16 -5268.85 -4999.77 -4360.22 -3827.65 -3119.51 -2166.59 -1354.20 -1154.78 -1057.60 -1377.92 -1627.71 -1818.96 -1874.72 -2107.33 -2197.93 -2295.79 -2307.65 -2325.94 -2391.53 -2500.27 -2601.76 -2791.66 -2945.80 -3098.43 -3322.07 -3720.77 -3899.51 -3937.97
-5692.82 -5692.75 -5697.06 -5696.06 -5692.59 -5698.62 -5699.28 -5702.08 -5721.29 -5727.14 -5723.70 -5732.57 -5735.19 -5736.75 -5740.88 -5739.25 -5736.40 -5742.32 -5742.39 -5744.65 -5742.24 -5730.47 -5710.63 -5711.57 -5701.58 -5693.91 -5687.10 -5555.96 -5355.27 -4991.76 -3873.46 -2891.78 -1620.00 -571.82 -88.77 -49.36 -5.95 9.71 26.57 37.99 37.24 32.57 26.30 19.90 6.82 -23.01 -27.53 -32.57 -53.54 -75.39 -95.79 -160.04 -494.95 -945.41 -1462.42 -1563.24 -1567.17 -1588.24 -1728.09 -1905.68 -1867.97 -1832.51 -1908.73 -2029.93 -2097.42 -2228.10 -2405.94 -1715.03 -316.36 26.32 37.50 51.96 85.57 97.56 118.20 158.63 223.87 249.97 234.11 232.62 234.20 240.22 242.23 249.94 263.16 278.24 288.03 305.78 334.48 375.25 382.07 383.94 391.85 438.28 456.33 482.57 711.49 960.90 984.55 548.58 237.98 181.53 140.66 54.29 6.33 -347.01 -2126.49 -4621.08 -5099.43 -4933.98 -4921.44 -5069.34 -5234.49 -5439.82 -5560.90 -5381.23 -5228.09 -4712.97 -3528.30 -2177.39 -1396.93 -979.77 -1104.11 -1413.16 -1519.73 -1750.59 -1827.58 -2042.08 -2128.02 -2245.86 -2283.24 -2339.25 -2428.21 -2496.07 -2678.73 -2921.21 -3173.66 -3345.37 -3658.96 -3905.07 -3905.11
-5709.14 -5707.81 -5709.27 -5711.42 -5716.97 -5710.36 -5718.42 -5721.40 -5732.59 -5738.92 -5746.12 -5750.38 -5755.20 -5755.70 -5756.10 -5748.42 -5751.80 -5750.52 -5751.34 -5752.53 -5752.67 -5749.16 -5745.47 -5745.11 -5744.76 -5739.22 -5723.12 -5706.13 -5678.28 -5483.26 -3805.96 -2146.04 -1294.00 -143.44 -111.86 -51.27 -4.03 12.56 29.81 61.98 53.07 45.70 40.17 42.75 36.01 29.95 19.08 6.80 1.86 -23.73 -77.76 -99.48 -123.56 -442.27 -653.89 -910.99 -849.19 -1170.74 -1252.35 -1367.21 -1532.63 -1456.39 -1404.79 -1572.14 -1351.80 -1740.18 -1386.55 -637.36 -146.52 37.19 52.43 73.57 88.40 116.37 138.95 167.03 222.61 245.82 247.86 251.03 261.42 252.28 258.75 260.88 268.57 271.40 285.41 304.83 329.22 372.64 379.67 381.40 392.80 431.09 451.91 464.07 546.45 672.34 880.14 825.25 980.02 597.92 249.93 100.43 58.95 -203.39 -883.21 -1938.09 -3800.03 -4965.63 -4981.10 -4969.47 -5102.82 -5362.11 -5557.08 -5595.67 -5531.65 -5237.72 -4445.45 -3195.80 -1485.15 -882.80 -889.43 -1071.44 -1171.68 -1356.45 -1640.08 -1928.67 -2056.78 -2108.13 -2247.02 -2274.46 -2342.52 -2403.65 -2528.57 -2718.78 -2981.96 -3397.88 -3626.24 -3744.33 -3744.17
-5727.07 -5726.99 -5731.04 -5729.37 -5727.82 -5730.17 -5730.12 -5740.90 -5756.41 -5769.76 -5764.84 -5769.07 -5775.37 -5777.13 -5773.69 -5758.92 -5757.48 -5760.05 -5758.26 -5758.83 -5757.97 -5763.85 -5767.58 -5768.32 -5762.48 -5756.48 -5755.99 -5755.53 -5707.03 -5535.90 -3770.33 -2078.59 -812.63 -139.13 -104.52 -21.89 1.88 13.39 42.16 68.81 62.12 55.66 56.18 51.14 47.89 39.20 28.35 15.04 14.50 4.19 -45.10 -100.88 -125.52 -141.56 -167.71 -325.31 -456.34 -514.43 -829.32 -1056.90 -872.42 -782.17 -901.03 -809.37 -437.96 -506.52 -577.07 20.28 31.00 47.08 58.89 87.12 113.96 121.09 156.63 189.19 224.89 257.53 270.44 274.78 268.99 260.85 261.46 263.75 269.79 274.05 288.17 301.15 324.43 358.18 364.62 376.11 386.03 397.80 444.23 453.53 481.54 575.57 745.70 1038.11 1127.07 688.38 282.91 163.53 84.81 38.25 -42.12 -2073.76 -3561.87 -4639.20 -4776.71 -4756.95 -5016.73 -5256.86 -5512.79 -5603.90 -5615.47 -5445.81 -4883.67 -2963.29 -1599.87 -776.43 -750.70 -814.27 -1038.29 -1243.17 -1474.64 -1818.06 -1980.82 -2093.15 -2182.54 -2272.30 -2310.67 -2405.78 -2598.39 -2818.92 -3054.56 -3199.65 -3469.07 -3662.83 -3662.87
-5741.33 -5741.26 -5744.77 -5747.21 -5749.87 -5750.00 -5754.66 -5764.20 -5786.57 -5785.34 -5791.36 -5794.58 -5795.48 -5798.11 -5791.47 -5775.69 -5769.46 -5769.04 -5770.68 -5769.38 -5770.00 -5774.77 -5782.00 -5779.90 -5777.53 -5772.50 -5784.46 -5800.25 -5802.71 -5582.63 -4330.84 -1744.14 -144.16 -128.71 -72.17 -31.61 6.30 19.95 34.76 73.86 94.09 98.14 72.59 75.20 76.84 85.46 59.69 47.61 23.40 11.98 -24.99 -64.94 -111.86 -131.57 -170.31 -188.56 -202.28 -267.27 -422.96 -434.34 -344.95 -341.10 -263.51 -164.00 -147.03 -0.23 17.87 27.31 36.97 46.48 60.73 78.98 119.32 132.69 179.64 195.71 244.04 261.85 271.24 277.00 271.93 264.33 261.84 262.75 266.67 272.20 291.42 300.68 307.74 333.53 354.29 368.57 378.58 399.43 417.37 427.28 459.38 492.17 585.87 869.65 1164.66 1045.26 692.43 283.95 98.49 80.45 11.39 -1908.97 -3807.48 -4511.81 -4649.97 -4671.96 -4908.78 -5124.49 -5437.27 -5564.78 -5610.90 -5557.65 -4984.88 -3288.39 -1726.20 -576.97 -546.65 -598.05 -859.03 -1120.58 -1444.67 -1636.21 -1744.31 -1960.69 -2143.08 -2181.74 -2243.14 -2399.24 -2603.35 -2837.74 -2992.80 -3262.20 -3434.60 -3630.41 -3630.45
-5752.78 -5752.71 -5757.83 -5759.61 -5758.92 -5759.21 -5764.74 -5771.70 -5795.66 -5801.82 -5804.68 -5806.43 -5811.56 -5814.33 -5807.51 -5790.34 -5786.44 -5790.73 -5785.19 -5783.74 -5782.15 -5790.67 -5794.58 -5795.86 -5786.89 -5782.20 -5787.39 -5741.75 -5679.08 -3978.59 -2707.75 -648.35 -134.16 -88.77 -29.18 -0.23 8.79 20.89 46.54 59.45 75.94 101.00 111.22 105.01 119.76 95.45 88.31 66.64 33.01 13.24 6.41 -15.93 -103.04 -132.24 -151.96 -167.24 -192.32 -209.14 -258.09 -219.04 -230.70 -194.49 -163.41 -137.17 -62.94 -5.85 20.63 29.91 41.38 51.31 56.39 79.41 108.61 135.95 177.20 189.20 210.55 239.45 260.28 268.02 269.66 261.75 256.48 257.84 265.04 271.15 282.61 291.82 304.51 304.05 332.72 358.39 371.06 390.30 410.70 425.04 441.03 482.76 576.65 869.43 1168.92 1097.51 867.50 436.99 136.30 80.51 14.50 -720.72 -3363.12 -5052.54 -4715.79 -4719.67 -4802.83 -5105.16 -5260.17 -5530.12 -5594.77 -5523.09 -4993.14 -3807.55 -2144.77 -616.75 -453.21 -495.44 -712.77 -848.49 -1173.22 -1442.70 -1663.83 -1877.20 -2038.87 -2108.00 -2172.90 -2302.46 -2460.34 -2740.46 -3033.60 -3287.07 -3424.54 -3599.42 -3599.46
-5761.43 -5761.37 -5765.32 -5768.54 -5771.40 -5772.49 -5774.63 -5786.48 -5806.65 -5811.40 -5816.02 -5821.25 -5824.25 -5823.74 -5814.99 -5802.89 -5793.67 -5796.86 -5798.16 -5799.98 -5800.26 -5810.03 -5817.96 -5807.84 -5797.08 -5758.90 -5690.68 -4941.89 -4164.94 -3277.05 -1194.30 -428.97 -147.54 -108.23 -20.72 1.79 14.67 29.28 44.17 61.43 75.78 99.76 139.37 158.58 180.07 147.41 118.22 89.44 47.69 27.21 12.99 -7.05 -65.73 -121.31 -139.37 -160.49 -177.30 -192.75 -200.00 -206.25 -197.59 -159.30 -132.15 -87.85 -4.32 16.78 21.51 32.18 45.72 53.04 61.96 78.95 100.12 133.38 155.01 196.98 219.66 241.86 255.81 262.13 261.82 253.85 255.04 252.91 260.72 270.82 278.39 285.57 292.89 300.22 321.29 340.83 356.99 378.63 394.20 416.34 436.37 455.52 483.18 622.66 1047.15 1130.22 957.49 466.99 264.40 152.82 38.72 -1003.65 -2097.26 -4611.50 -4895.14 -4732.86 -4824.03 -5032.38 -5220.34 -5487.38 -5538.72 -5502.40 -5275.09 -3979.42 -1906.19 -577.53 -404.82 -409.87 -461.56 -778.74 -950.72 -1279.83 -1501.22 -1722.76 -1847.34 -1982.80 -2076.57 -2152.31 -2273.66 -2547.90 -2796.68 -3011.98 -3294.54 -3449.86 -3459.66
-5767.46 -5767.39 -5773.35 -5774.02 -5779.82 -5781.93 -5790.75 -5796.77 -5816.25 -5826.38 -5830.53 -5832.04 -5838.82 -5840.32 -5826.14 -5818.51 -5816.20 -5813.22 -5815.57 -5813.44 -5817.75 -5829.65 -5830.81 -5805.54 -5724.41 -5663.66 -5472.41 -4405.26 -3684.99 -2339.53 -715.69 -172.99 -124.86 -83.53 -42.61 -5.62 10.92 33.23 50.16 62.65 90.80 101.19 138.78 175.94 208.05 172.07 148.36 83.59 46.43 34.89 10.94 3.41 -33.26 -87.43 -120.06 -154.44 -174.36 -189.29 -190.30 -175.26 -144.85 -115.01 -81.24 -44.46 -12.93 15.90 26.24 42.17 49.21 55.80 64.74 82.50 104.83 131.20 155.02 178.86 210.39 235.29 242.68 248.13 241.32 239.95 241.23 249.19 258.96 269.03 276.01 280.82 289.72 302.58 319.35 338.07 361.07 384.49 396.00 400.31 402.03 437.18 479.19 518.38 915.34 1192.89 1232.29 723.43 368.18 151.28 37.16 -7.02 -1869.80 -4994.72 -5292.94 -4868.64 -4860.67 -5051.71 -5220.56 -5414.68 -5500.16 -5463.63 -5121.53 -4652.94 -1890.39 -707.39 -313.76 -314.72 -345.46 -718.76 -942.75 -1276.18 -1521.09 -1533.56 -1738.88 -1849.52 -1952.31 -2083.99 -2225.36 -2476.71 -2668.59 -3028.78 -3268.31 -3399.64 -3399.69
-5771.73 -5771.66 -5778.50 -5782.07 -5787.14 -5790.99 -5796.86 -5804.51 -5821.11 -5835.60 -5839.61 -5843.74 -5847.77 -5850.84 -5848.52 -5834.54 -5828.66 -5838.19 -5840.84 -5838.42 -5840.74 -5837.06 -5777.12 -5749.86 -5466.71 -4983.72 -4552.91 -3817.25 -2830.86 -1070.17 -220.12 -142.83 -112.05 -65.55 -23.54 -1.69 14.49 24.43 48.72 62.09 86.78 108.39 147.76 173.38 220.52 191.66 123.52 77.29 43.23 29.95 16.28 5.25 -5.18 -56.44 -105.67 -137.55 -165.54 -179.73 -162.96 -149.58 -114.24 -89.54 -36.89 -15.01 1.96 17.38 27.87 39.92 50.61 58.85 69.34 94.90 104.34 128.76 143.68 167.95 194.59 219.55 232.64 231.29 235.30 233.96 236.11 242.82 256.16 267.06 273.66 282.54 286.92 299.79 315.07 343.84 365.84 387.55 393.49 396.08 399.77 418.41 469.69 488.75 764.68 1172.80 1320.02 860.77 563.54 288.19 50.61 3.54 -497.95 -3344.06 -5353.20 -5012.91 -4914.80 -5033.37 -5259.52 -5378.54 -5447.43 -5414.68 -5250.65 -3758.91 -2106.11 -735.71 -339.29 -263.25 -363.29 -543.19 -958.83 -1108.26 -1210.28 -1450.14 -1702.05 -1772.29 -1918.30 -2039.60 -2204.74 -2315.35 -2677.22 -2956.03 -3099.99 -3197.81 -3197.71
-5776.87 -5776.80 -5784.01 -5788.51 -5795.65 -5799.03 -5803.05 -5812.53 -5828.90 -5835.69 -5840.69 -5848.51 -5852.63 -5854.90 -5860.81 -5857.58 -5868.25 -5879.82 -5864.49 -5854.58 -5840.31 -5786.18 -5682.71 -5389.11 -4615.02 -4392.13 -3462.56 -2876.54 -1374.39 -211.24 -173.21 -145.23 -116.02 -53.63 -15.81 6.63 22.20 27.90 37.48 67.64 98.46 114.83 146.71 196.60 228.56 198.02 118.97 76.51 46.42 24.83 15.79 3.23 -31.96 -68.00 -102.10 -120.05 -146.19 -149.90 -143.20 -115.95 -75.29 -51.06 -27.71 0.90 13.45 19.89 30.04 40.95 49.79 54.20 74.14 86.63 103.63 113.64 140.95 164.71 185.27 198.31 203.67 207.99 211.48 215.43 229.91 242.79 252.40 262.30 277.03 280.52 286.81 300.34 308.27 333.23 370.20 387.87 391.40 393.09 394.32 396.54 426.92 458.78 628.32 1032.81 1267.50 980.99 470.02 235.72 109.66 74.95 -5.52 -2077.22 -3518.50 -5058.30 -4910.19 -4906.30 -5305.24 -5395.16 -5418.68 -5360.33 -5137.81 -3777.29 -2166.32 -601.66 -284.61 -230.12 -300.72 -521.53 -749.59 -902.87 -1056.87 -1301.23 -1620.63 -1703.53 -1829.83 -2037.12 -2174.91 -2303.52 -2430.84 -2769.62 -2930.77 -3127.04 -3127.10
-5779.16 -5779.91 -5784.86 -5795.48 -5799.27 -5803.31 -5810.53 -5820.61 -5828.94 -5839.95 -5846.86 -5854.21 -5858.49 -5864.87 -5875.37 -5880.78 -5885.53 -5886.15 -5879.52 -5806.64 -5710.65 -5466.42 -4871.96 -4303.08 -3847.96 -3168.15 -2834.81 -1970.67 -980.35 -200.03 -171.49 -140.33 -97.67 -39.39 -15.84 17.13 27.05 39.07 50.70 61.08 106.99 128.38 159.43 204.70 228.93 209.46 146.96 114.53 64.31 27.85 14.99 5.85 -19.00 -69.20 -97.46 -106.77 -126.62 -140.13 -113.92 -83.72 -59.09 -38.29 -15.74 0.35 15.36 22.02 30.81 39.64 49.55 51.75 64.18 73.96 88.65 107.96 120.57 145.22 155.36 171.31 187.51 193.40 205.51 209.42 218.67 242.12 252.68 259.46 275.20 281.38 288.46 298.13 306.71 322.00 362.22 379.09 389.46 392.56 394.00 396.43 429.38 472.52 538.06 1019.88 1159.49 872.25 507.47 196.32 110.65 66.26 10.80 -369.52 -2747.05 -4757.27 -4841.06 -4837.52 -5079.05 -5388.14 -5381.53 -5352.17 -5080.26 -3765.10 -2015.79 -520.12 -260.78 -215.30 -276.65 -421.97 -522.92 -721.17 -1108.06 -1268.69 -1395.93 -1618.62 -1818.43 -1940.21 -2070.48 -2207.19 -2407.73 -2664.93 -2798.08 -2896.75 -2896.65
-5780.41 -5780.34 -5788.03 -5795.79 -5800.42 -5810.51 -5813.11 -5823.53 -5838.45 -5849.07 -5853.43 -5859.94 -5867.24 -5873.39 -5883.31 -5879.59 -5876.93 -5859.86 -5690.12 -5631.47 -5228.36 -4776.82 -4148.53 -3187.10 -2848.33 -2552.33 -2478.71 -1817.10 -531.87 -175.61 -147.01 -105.37 -77.73 -32.47 2.80 15.98 27.35 39.22 49.89 59.92 99.96 136.20 165.23 196.68 199.29 180.33 133.91 107.28 46.28 34.28 20.29 9.39 -18.67 -62.63 -91.25 -102.20 -117.60 -126.00 -90.82 -63.65 -37.05 -27.76 -19.51 -10.26 14.63 22.46 31.29 39.63 46.22 51.65 59.54 74.93 84.42 95.28 111.52 122.74 144.93 161.25 175.57 186.58 186.75 206.64 223.94 233.78 249.96 260.42 272.74 282.23 287.24 293.27 299.76 317.42 356.71 374.25 384.61 390.32 392.82 395.50 434.50 475.50 517.57 773.12 1009.19 785.39 475.56 224.10 132.94 58.20 14.97 -966.84 -3004.69 -4870.83 -4784.21 -4843.95 -5038.89 -5283.86 -5341.39 -5293.38 -4971.94 -3824.20 -1490.45 -713.64 -255.06 -193.23 -203.53 -379.67 -567.38 -658.46 -875.63 -1077.32 -1330.78 -1549.78 -1805.83 -1934.11 -2069.74 -2186.61 -2393.62 -2566.26 -2723.95 -2837.17 -2837.24
-5782.47 -5782.39 -5790.06 -5796.84 -5803.85 -5813.27 -5819.12 -5831.18 -5843.35 -5854.47 -5860.63 -5867.70 -5875.73 -5875.65 -5864.16 -5844.14 -5716.92 -5580.39 -5238.33 -4672.16 -4145.50 -3899.12 -3039.77 -2453.62 -2425.87 -2331.78 -1740.98 -817.58 -191.75 -160.42 -106.90 -74.05 -39.81 -7.59 8.87 19.85 31.96 45.78 68.81 82.73 118.61 148.03 193.13 185.04 135.27 131.97 123.37 89.35 52.11 33.39 19.81 11.17 -30.65 -66.12 -89.73 -96.87 -114.62 -109.50 -71.19 -58.02 -42.45 -41.56 -26.04 -9.07 6.70 22.29 31.28 42.92 47.03 51.15 55.21 62.51 75.03 81.54 101.17 114.31 131.48 139.06 156.97 166.88 173.89 189.82 207.77 229.24 242.68 256.92 268.98 279.19 287.90 293.49 297.15 302.06 323.02 332.68 361.14 382.46 385.53 386.06 415.26 454.29 465.93 637.97 914.24 787.62 313.06 168.85 135.20 71.00 -3.38 -2520.54 -4652.49 -4806.93 -4758.02 -4941.63 -5125.54 -5284.66 -5336.39 -5252.43 -4778.39 -3797.37 -1376.08 -515.31 -194.67 -176.39 -200.03 -296.70 -442.15 -494.15 -743.60 -1128.55 -1404.24 -1461.46 -1773.03 -2011.50 -2120.48 -2239.71 -2339.39 -2540.48 -2616.40 -2704.50 -2704.48
-5786.36 -5786.90 -5793.09 -5802.25 -5810.99 -5818.90 -5825.59 -5839.31 -5851.08 -5861.13 -5868.06 -5867.22 -5855.81 -5827.46 -5791.95 -5547.78 -5246.86 -4580.52 -4087.14 -3751.44 -3626.15 -2662.73 -2453.82 -2199.80 -2176.51 -1832.72 -1125.53 -258.17 -207.30 -149.18 -100.69 -54.71 -21.62 10.68 16.76 22.85 42.94 61.29 77.25 91.66 117.62 166.22 188.93 164.45 119.32 95.86 84.01 71.26 46.72 31.56 14.74 9.12 -12.04 -55.27 -83.49 -92.07 -89.69 -71.48 -61.54 -56.57 -52.16 -47.31 -15.87 -0.59 10.13 20.11 30.68 40.32 45.05 48.40 53.51 61.33 71.06 77.01 89.25 108.48 115.02 133.83 146.22 155.27 174.18 189.42 195.44 217.17 238.84 251.70 257.32 276.12 283.71 294.73 300.84 302.32 305.71 311.39 320.50 353.80 374.20 379.58 383.31 403.84 451.62 454.42 628.35 745.79 416.48 170.36 113.23 63.00 12.67 -2117.47 -4814.75 -4862.41 -4802.67 -4971.03 -5177.45 -5275.72 -5311.78 -5230.18 -4788.29 -3159.99 -1341.70 -422.58 -209.59 -172.61 -202.57 -252.30 -316.77 -472.03 -719.49 -1083.48 -1267.87 -1510.29 -1836.18 -2035.42 -2161.02 -2230.32 -2345.22 -2435.13 -2563.16 -2680.91 -2680.99
-5793.11 -5793.03 -5801.31 -5808.69 -5813.89 -5824.97 -5835.00 -5844.31 -5863.43 -5869.91 -5860.75 -5827.96 -5778.11 -5569.15 -5153.95 -4707.05 -4041.24 -3675.84 -3159.62 -2772.71 -2424.55 -2232.40 -2143.82 -2046.81 -1878.88 -1486.51 -618.09 -227.01 -194.35 -150.09 -88.77 -32.77 -9.66 7.72 18.87 26.54 51.96 65.69 81.98 102.24 119.85 170.27 175.96 147.90 114.46 89.32 64.16 48.85 33.56 26.96 15.14 8.50 -11.53 -39.03 -85.95 -87.78 -84.26 -65.78 -53.86 -52.11 -52.23 -47.06 -37.79 -9.20 8.70 15.39 30.25 37.03 40.92 46.70 51.92 57.57 62.67 72.95 81.99 100.01 110.69 122.42 139.27 140.53 175.04 182.39 190.50 215.33 227.93 240.64 252.64 266.97 280.68 289.60 295.75 302.91 304.55 307.77 309.84 338.72 357.58 370.56 383.98 385.42 377.39 370.84 420.13 430.73 331.10 160.72 98.29 63.10 8.79 -2341.84 -4355.09 -4984.03 -4843.23 -4917.10 -5117.83 -5170.49 -5194.86 -5035.51 -4717.73 -2745.28 -1628.80 -340.48 -176.52 -161.65 -203.05 -248.43 -327.11 -503.18 -671.14 -955.01 -1299.32 -1507.72 -1887.14 -2045.04 -2159.43 -2280.42 -2354.04 -2475.09 -2574.71 -2681.74 -2690.56
-5799.79 -5799.71 -5809.59 -5816.71 -5822.25 -5831.39 -5844.94 -5856.66 -5873.19 -5864.69 -5825.64 -5674.07 -5313.97 -5150.52 -4628.84 -3942.25 -3452.76 -2901.49 -2556.57 -2415.42 -2205.61 -2131.49 -2115.44 -2097.99 -1842.18 -888.59 -365.79 -218.42 -168.27 -135.91 -76.62 -26.44 3.95 11.88 26.09 33.93 53.78 73.04 87.44 109.07 129.61 178.90 136.85 108.03 103.07 94.03 56.25 38.12 25.72 18.90 11.69 1.02 -14.24 -45.04 -82.50 -81.36 -79.58 -65.89 -55.63 -49.74 -48.10 -45.26 -35.01 -11.38 1.04 15.11 27.64 33.45 37.94 43.41 47.35 54.23 60.96 71.41 80.56 93.94 109.17 119.32 133.95 143.26 162.54 175.21 187.93 202.99 217.23 232.40 242.99 261.15 277.27 286.86 291.89 301.81 307.32 309.86 313.07 318.19 334.58 353.89 371.78 377.79 337.32 307.86 329.27 307.61 242.64 138.12 110.35 56.00 17.74 -2439.34 -4758.06 -5038.37 -4876.37 -4947.72 -5045.03 -5087.47 -5132.76 -4860.93 -4195.36 -2448.17 -688.44 -269.28 -160.81 -164.70 -200.17 -265.60 -348.24 -490.93 -687.16 -877.27 -1198.19 -1530.07 -1765.79 -2024.05 -2157.61 -2280.44 -2424.09 -2489.52 -2639.03 -2703.99 -2704.08
-5819.98 -5819.89 -5826.80 -5830.62 -5842.72 -5850.25 -5856.55 -5865.45 -5875.25 -5856.47 -5762.92 -5475.16 -4822.81 -4088.86 -3294.95 -3123.03 -2827.66 -2683.49 -2467.43 -2316.48 -2164.58 -2086.02 -2130.14 -2110.81 -1415.29 -661.48 -384.48 -221.08 -171.56 -137.63 -67.60 -19.25 -1.41 18.26 35.82 43.42 59.98 90.41 104.39 127.44 153.99 179.89 144.11 113.68 80.87 81.57 54.69 25.95 21.22 12.33 1.93 -12.78 -26.12 -52.53 -77.08 -76.67 -74.62 -58.85 -42.66 -40.99 -40.40 -41.80 -30.05 -7.20 5.48 15.27 25.19 31.30 35.52 38.68 47.43 50.35 57.08 69.96 77.51 87.76 96.78 110.94 123.83 133.72 151.05 162.66 184.84 192.28 220.72 232.55 242.79 256.38 269.29 284.27 293.32 300.77 312.67 316.28 318.99 329.78 334.28 338.39 347.75 356.81 340.74 300.13 297.72 237.40 175.35 153.41 106.58 62.15 12.79 -2113.16 -4339.81 -4695.69 -4865.52 -4921.27 -5032.86 -5072.06 -5052.86 -4633.82 -3505.93 -1880.28 -561.06 -179.26 -143.75 -189.01 -242.94 -318.13 -400.70 -542.38 -693.27 -902.01 -1231.47 -1433.10 -1763.00 -1972.46 -2166.80 -2346.53 -2513.73 -2616.89 -2757.68 -2791.87 -2792.01
-5847.95 -5847.83 -5852.34 -5852.22 -5857.66 -5859.25 -5859.29 -5865.71 -5841.46 -5804.73 -5580.24 -5181.39 -4089.63 -3436.88 -2895.24 -2620.52 -2608.47 -2603.75 -2479.03 -2295.67 -2179.26 -2122.94 -2126.09 -2105.56 -1100.23 -345.47 -275.06 -202.07 -160.84 -129.13 -68.02 -30.20 0.63 19.02 43.85 55.59 65.37 98.39 123.57 143.44 169.48 163.53 129.17 87.43 63.33 53.24 47.24 32.01 19.42 4.76 -2.77 -20.10 -41.51 -62.22 -70.52 -67.36 -60.03 -41.32 -21.56 -22.60 -23.10 -21.19 -21.86 -10.79 6.11 14.90 24.39 30.17 32.89 36.21 43.27 45.75 53.48 61.03 70.33 78.62 83.86 101.96 115.39 128.28 141.07 158.03 180.92 196.41 211.90 227.21 236.70 253.41 268.99 281.18 290.11 305.02 317.52 327.53 337.29 340.27 344.35 339.70 338.10 327.67 314.41 279.26 284.63 224.81 185.85 128.98 87.70 74.93 41.27 -1861.52 -4124.35 -4601.48 -4591.45 -4835.44 -5005.21 -5017.25 -4841.70 -4211.42 -2244.49 -833.55 -287.29 -166.41 -147.65 -187.76 -268.08 -400.72 -597.63 -713.41 -779.92 -943.73 -1330.44 -1594.88 -1843.16 -2033.05 -2183.29 -2319.60 -2506.91 -2702.92 -2925.89 -2981.82 -2982.05
-5880.73 -5880.62 -5878.67 -5858.02 -5845.02 -5829.15 -5758.19 -5725.85 -5695.42 -5281.77 -4796.18 -4285.27 -3579.34 -2695.21 -2451.96 -2326.93 -2412.28 -2468.07 -2409.13 -2185.50 -2122.02 -2130.64 -2147.07 -2074.16 -1315.37 -339.17 -293.20 -230.20 -164.52 -127.76 -59.18 -14.61 3.50 16.08 37.47 63.38 87.49 107.09 136.90 161.04 148.92 114.21 83.31 74.04 54.28 36.66 31.03 21.74 14.17 6.91 -5.42 -35.25 -51.92 -66.63 -69.57 -66.51 -54.67 -35.94 -8.36 3.27 0.75 -11.43 -11.97 0.43 5.97 14.20 19.36 25.88 31.14 35.36 37.89 41.66 51.38 56.74 62.40 74.03 84.45 97.98 107.21 124.71 135.73 154.74 171.86 190.22 201.82 220.16 236.58 249.42 267.92 279.16 291.11 309.83 321.23 347.72 354.56 355.32 356.41 348.20 339.79 284.79 261.96 242.32 224.92 197.54 151.49 116.33 88.34 63.67 -139.23 -1379.17 -3565.10 -4225.29 -4314.29 -4733.63 -4940.30 -4920.02 -4475.15 -3737.46 -1584.55 -424.97 -212.36 -132.92 -176.65 -210.97 -243.72 -406.76 -522.62 -759.43 -889.44 -1108.23 -1530.56 -1750.88 -1947.27 -2099.10 -2206.23 -2263.55 -2516.42 -2619.64 -3036.17 -3118.35 -3118.54
-5872.39 -5871.16 -5784.57 -5591.61 -5547.58 -5533.75 -5351.27 -4966.24 -4771.95 -4364.40 -3687.89 -2959.44 -2839.50 -2516.95 -2349.96 -2303.55 -2319.55 -2295.61 -2137.69 -1827.07 -1898.18 -1862.37 -1919.92 -1864.53 -1371.80 -452.67 -277.08 -226.44 -172.94 -135.01 -58.93 -12.38 0.38 26.53 54.66 68.70 114.55 134.41 158.45 143.93 123.84 93.14 48.59 43.11 38.19 27.11 17.55 12.33 9.82 -13.91 -20.87 -38.00 -61.67 -71.15 -70.10 -68.74 -49.39 -19.03 13.90 25.69 20.47 2.17 3.42 4.61 7.63 13.59 19.07 24.47 27.68 29.88 31.38 36.77 46.19 51.67 59.17 67.19 79.81 86.62 104.79 116.37 130.70 146.11 158.82 178.23 198.51 214.39 232.18 241.97 265.12 281.87 295.67 317.73 333.35 361.90 368.85 367.09 362.25 350.36 330.26 290.76 259.87 216.29 181.33 139.39 111.87 81.04 51.88 50.32 -255.14 -1657.58 -3301.60 -3931.67 -4127.47 -4573.08 -4917.70 -4917.02 -3784.01 -2664.76 -855.68 -389.53 -153.49 -146.76 -181.88 -208.26 -270.50 -416.92 -622.12 -830.79 -963.33 -1237.82 -1630.69 -1931.11 -2070.56 -2124.63 -2245.86 -2338.02 -2501.54 -2695.28 -3055.04 -3486.98 -3487.42
-5374.44 -5374.94 -4998.82 -4925.40 -4784.20 -4405.91 -4188.79 -3745.68 -3323.82 -2988.53 -2927.74 -2659.32 -2490.19 -2408.35 -2381.69 -2368.95 -2326.98 -2187.15 -1935.99 -1641.55 -1338.65 -1178.09 -1449.37 -1525.28 -869.28 -303.94 -261.39 -225.47 -177.54 -138.28 -65.12 -13.37 7.96 30.30 63.74 110.60 137.18 156.41 164.96 154.01 128.44 89.05 40.24 33.85 26.03 12.74 12.66 3.78 -11.81 -32.73 -36.33 -45.11 -66.39 -72.42 -71.73 -65.47 -51.46 -15.88 26.42 35.23 34.16 15.49 9.42 10.17 9.80 16.81 20.29 21.13 23.60 24.56 26.76 34.74 37.11 45.40 54.74 64.71 75.48 82.63 98.68 106.58 119.82 140.71 155.12 167.93 196.27 211.69 226.79 241.20 262.72 281.20 297.13 321.43 342.17 363.13 370.37 370.10 360.97 348.56 319.87 284.67 265.46 204.05 147.74 116.21 86.06 65.54 28.23 -222.45 -863.30 -2085.33 -3262.15 -3618.84 -4087.42 -4585.03 -4815.17 -4867.83 -3657.14 -1896.37 -630.81 -295.49 -136.54 -158.72 -191.01 -219.35 -265.44 -370.54 -618.38 -868.29 -1163.32 -1500.88 -1626.24 -1872.36 -2050.98 -2222.02 -2339.20 -2463.11 -2711.42 -2882.10 -3228.75 -3541.22 -3541.33
-3926.11 -3928.10 -3891.08 -3582.28 -3634.87 -3054.51 -2992.15 -2754.40 -2712.29 -2548.84 -2450.80 -2425.87 -2415.77 -2406.94 -2402.56 -2407.63 -2373.57 -2230.45 -1850.82 -1529.25 -1059.08 -947.40 -957.36 -1000.58 -478.60 -302.58 -266.41 -217.11 -178.92 -142.48 -94.18 -17.10 0.44 19.23 73.38 125.20 115.53 86.11 116.72 128.70 91.27 76.40 34.89 21.11 13.66 9.84 4.78 -11.19 -21.31 -48.76 -50.69 -70.51 -70.37 -77.22 -75.40 -68.39 -63.08 -17.41 6.32 31.87 46.86 21.60 13.37 12.27 12.89 16.75 19.38 20.31 21.14 21.38 22.66 28.04 33.41 39.44 50.63 60.09 65.12 74.06 84.41 101.95 114.89 140.99 158.70 170.37 187.77 210.07 222.63 241.53 251.13 279.98 296.10 317.86 343.06 357.28 363.01 360.65 351.94 326.56 290.43 268.58 227.34 178.15 125.99 91.03 71.24 45.86 2.93 -401.11 -1331.95 -2367.45 -3233.07 -3727.01 -4573.12 -4892.41 -4923.63 -4438.90 -3252.50 -1598.92 -567.12 -182.17 -148.04 -180.27 -205.97 -222.03 -239.54 -344.70 -589.12 -918.42 -1256.19 -1559.52 -1756.66 -1837.82 -2114.71 -2291.74 -2464.18 -2610.30 -2833.47 -3183.40 -3301.37 -3567.67 -3567.80
-2741.55 -2743.61 -2786.45 -2891.84 -2736.45 -2663.95 -2567.78 -2488.83 -2444.73 -2422.55 -2416.49 -2412.66 -2415.08 -2419.66 -2422.35 -2429.12 -2420.67 -2331.13 -2131.82 -1630.78 -1082.66 -752.90 -651.28 -602.72 -346.68 -308.21 -272.53 -224.35 -194.25 -147.01 -118.15 -55.71 -4.80 17.45 50.56 86.11 51.72 63.00 76.13 83.00 59.29 56.16 29.87 11.52 9.41 2.31 -8.17 -23.83 -43.52 -69.72 -69.38 -77.82 -80.11 -78.06 -78.01 -75.21 -66.13 -38.67 6.11 28.74 40.90 32.06 25.14 16.23 16.15 17.23 18.47 19.51 18.89 18.98 21.17 23.51 30.53 37.81 43.68 51.74 59.31 72.12 77.56 100.95 116.53 134.33 150.48 164.83 192.14 203.04 217.31 233.50 253.73 269.64 295.35 309.95 336.65 349.79 352.85 350.71 331.63 322.82 280.80 232.79 194.58 143.12 98.55 78.58 51.71 25.16 -34.33 -123.19 -1072.84 -1934.22 -2684.79 -4371.67 -5334.19 -5308.78 -5102.17 -4586.19 -2765.50 -1000.43 -311.19 -193.92 -157.51 -205.54 -232.39 -248.51 -254.09 -375.03 -599.03 -989.87 -1308.83 -1539.57 -1743.59 -2014.86 -2235.42 -2363.63 -2523.76 -2749.46 -3124.82 -3281.89 -3447.95 -3577.88 -3577.99
-2459.85 -2460.43 -2497.98 -2504.88 -2477.90 -2459.18 -2456.46 -2450.91 -2432.64 -2425.19 -2423.29 -2426.71 -2434.48 -2437.81 -2444.14 -2452.27 -2436.46 -2381.68 -2242.19 -1594.05 -1408.36 -917.56 -624.94 -440.12 -344.94 -317.78 -280.30 -234.00 -207.24 -174.66 -129.51 -85.02 -31.49 -11.70 26.19 42.98 36.34 32.14 29.59 38.48 35.41 7.55 9.38 0.39 -17.33 -25.52 -30.85 -48.77 -65.17 -69.59 -75.43 -83.99 -84.99 -82.08 -85.47 -76.21 -63.23 -40.76 -4.64 27.71 40.71 33.60 26.05 22.87 19.46 17.39 17.42 17.13 16.04 16.63 18.58 19.08 25.51 30.76 36.14 48.77 54.81 70.00 76.89 100.60 114.86 122.32 148.39 163.08 178.13 194.06 213.83 228.09 245.41 274.18 278.70 320.92 334.03 344.18 344.85 326.20 319.36 304.03 254.76 227.59 191.18 119.51 78.55 45.58 -0.66 -12.42 -120.76 -442.34 -1314.99 -1622.03 -3180.37 -4542.35 -5313.05 -5484.07 -5235.99 -4123.16 -1807.03 -757.93 -266.07 -185.03 -207.93 -237.38 -259.57 -272.01 -308.59 -413.95 -742.63 -968.67 -1403.40 -1618.09 -1938.72 -2170.40 -2227.34 -2360.48 -2540.16 -2649.85 -3130.89 -3384.32 -3448.40 -3593.57 -3593.71
-2458.32 -2458.19 -2467.23 -2469.10 -2469.27 -2468.30 -2464.98 -2454.15 -2448.83 -2444.09 -2440.64 -2441.19 -2448.53 -2452.81 -2454.62 -2461.16 -2449.85 -2423.45 -2217.43 -1798.07 -1213.58 -892.28 -630.83 -385.18 -347.15 -325.42 -282.39 -256.74 -236.59 -196.16 -150.45 -102.65 -70.70 -29.85 -20.94 -0.94 13.41 12.45 10.97 9.11 -12.19 -25.03 -12.49 -25.96 -44.07 -67.44 -70.00 -81.65 -83.64 -83.78 -86.19 -92.14 -91.56 -89.51 -89.06 -82.34 -68.96 -49.28 -25.75 15.87 33.23 34.10 30.83 25.76 22.04 18.00 16.24 15.66 13.79 12.69 13.78 15.89 22.62 25.90 32.01 47.27 52.93 65.87 77.27 91.59 106.19 123.90 146.00 166.59 181.07 196.70 211.00 219.79 244.96 263.91 276.78 312.68 331.15 340.27 339.27 317.89 303.24 276.19 246.19 210.74 171.38 141.16 85.94 36.41 -0.56 -13.98 -566.53 -1228.80 -1351.57 -1831.83 -3299.90 -4198.75 -5477.05 -5531.23 -5022.80 -3764.38 -2029.44 -613.95 -262.51 -165.29 -210.14 -240.89 -280.60 -315.50 -388.24 -492.37 -781.69 -955.01 -1273.41 -1704.24 -1960.35 -2167.05 -2284.63 -2369.47 -2527.16 -2706.80 -2955.94 -3281.94 -3463.26 -3610.93 -3611.12
-2478.14 -2478.08 -2480.57 -2485.09 -2482.77 -2481.07 -2478.87 -2482.27 -2467.94 -2462.17 -2464.25 -2459.23 -2460.78 -2462.04 -2466.59 -2469.83 -2458.08 -2355.64 -2147.54 -1785.44 -1291.30 -925.88 -700.26 -438.05 -379.72 -330.14 -317.27 -275.39 -233.00 -203.75 -164.88 -145.62 -126.42 -78.05 -53.50 -11.48 4.08 5.34 -0.91 -17.60 -31.02 -50.72 -50.14 -57.18 -73.80 -87.54 -85.35 -94.80 -95.16 -94.52 -98.09 -98.10 -96.96 -95.60 -94.90 -84.23 -68.85 -46.33 -36.21 7.82 31.29 37.84 43.24 32.19 29.20 18.99 13.58 11.17 10.78 10.20 11.86 11.16 15.85 22.97 26.14 37.19 46.90 56.54 75.79 89.08 111.66 129.56 147.78 161.83 186.16 195.37 208.40 219.38 239.15 260.27 272.60 303.03 325.46 330.49 323.38 303.49 269.27 245.17 222.27 179.24 148.24 115.82 67.83 27.46 -3.32 -549.09 -1587.46 -1642.51 -1654.06 -1939.01 -3211.86 -4748.00 -5317.69 -5494.87 -4976.44 -3340.50 -1678.91 -345.64 -143.26 -123.21 -204.96 -251.80 -295.56 -341.59 -458.86 -587.39 -674.97 -936.83 -1316.39 -1601.94 -1872.80 -2121.82 -2251.64 -2333.18 -2513.93 -2704.81 -2897.94 -3201.21 -3379.77 -3605.75 -3605.60
-2501.27 -2501.41 -2502.23 -2501.68 -2505.30 -2500.78 -2496.97 -2495.56 -2479.67 -2472.34 -2481.18 -2481.90 -2477.70 -2477.68 -2476.36 -2475.34 -2434.34 -2295.16 -2065.50 -1652.52 -1005.71 -806.07 -671.54 -637.94 -509.63 -359.27 -326.35 -296.47 -254.83 -220.70 -184.75 -172.36 -153.75 -122.51 -76.97 -67.56 -41.71 -38.54 -41.65 -50.41 -74.26 -101.73 -98.62 -89.26 -104.08 -100.71 -104.30 -105.51 -104.86 -105.74 -106.57 -104.57 -100.79 -98.73 -97.85 -91.87 -73.17 -56.35 -28.71 -11.01 30.30 35.02 39.58 37.66 34.62 25.67 17.11 8.54 7.73 7.55 8.51 9.70 12.33 20.29 25.31 34.98 42.29 52.56 66.20 84.00 111.23 126.28 138.91 155.76 174.84 193.72 208.04 217.83 236.01 258.84 275.28 297.36 311.48 315.51 304.12 275.56 254.72 224.60 187.10 154.73 133.33 83.08 70.31 41.17 -9.02 -991.48 -1577.05 -1591.70 -1619.98 -2108.42 -3270.73 -4874.49 -5407.35 -5438.15 -5226.17 -4147.69 -1094.18 -613.54 -158.81 -120.24 -200.97 -259.44 -303.86 -336.02 -421.36 -600.03 -722.63 -1011.97 -1350.95 -1513.21 -1685.69 -1993.05 -2190.97 -2378.91 -2464.45 -2622.00 -2847.41 -3111.66 -3340.81 -3618.17 -3618.17
-2515.83 -2515.78 -2516.94 -2518.25 -2519.38 -2522.31 -2521.68 -2520.01 -2517.32 -2508.26 -2496.92 -2492.08 -2487.18 -2491.90 -2494.42 -2490.52 -2434.85 -2255.38 -1779.36 -1267.93 -916.64 -730.30 -704.82 -692.80 -632.75 -380.01 -341.51 -319.02 -296.74 -260.15 -241.20 -210.39 -187.44 -178.34 -137.43 -113.16 -99.95 -87.28 -94.91 -104.00 -103.75 -119.60 -125.17 -129.12 -111.76 -111.97 -118.35 -114.26 -115.15 -116.74 -114.64 -115.82 -113.97 -107.87 -102.13 -93.84 -79.47 -60.30 -40.27 -25.85 2.14 16.37 16.96 17.33 24.67 25.43 13.41 2.85 3.22 2.99 3.66 4.53 8.14 10.03 18.81 30.92 36.42 49.82 60.19 86.97 102.07 124.04 137.86 153.41 169.08 185.28 201.93 219.33 229.75 255.23 274.39 287.08 303.52 303.88 285.22 249.85 223.36 203.17 172.76 152.42 105.10 81.00 57.63 -3.41 -505.20 -1395.89 -1479.12 -1462.95 -1559.96 -2360.59 -3235.85 -5242.60 -5389.60 -5545.69 -5368.62 -4177.48 -2283.33 -1140.43 -377.52 -205.57 -238.93 -260.80 -308.04 -344.10 -431.62 -554.48 -799.28 -1046.62 -1343.19 -1488.63 -1784.87 -1962.96 -2186.34 -2364.32 -2459.34 -2572.70 -2777.77 -3168.91 -3405.52 -3638.56 -3638.40
-2530.16 -2530.10 -2530.96 -2535.40 -2534.25 -2536.56 -2518.03 -2529.29 -2525.88 -2519.60 -2518.68 -2513.22 -2509.42 -2504.78 -2504.93 -2497.72 -2426.69 -2185.11 -1548.36 -1197.11 -908.37 -725.07 -683.99 -696.47 -672.78 -457.41 -369.64 -348.22 -313.87 -283.68 -274.08 -239.43 -214.10 -200.82 -166.46 -140.78 -147.38 -141.62 -144.23 -149.60 -140.50 -142.00 -141.42 -149.58 -143.78 -137.41 -137.16 -131.86 -132.79 -131.80 -128.34 -123.27 -119.61 -114.39 -106.59 -97.86 -86.08 -72.38 -56.80 -41.85 -20.88 -3.09 3.47 -0.28 2.27 4.81 -2.00 -1.99 -1.71 -1.93 -2.59 -0.15 4.18 7.74 13.52 25.85 35.61 47.99 58.53 72.67 99.68 111.03 135.87 144.37 168.40 177.05 193.84 209.34 227.98 241.34 270.56 282.13 286.10 286.61 267.89 239.92 206.99 176.02 160.21 124.19 88.39 62.40 33.48 -182.79 -741.95 -1562.48 -1458.51 -1416.84 -1649.79 -2596.59 -3754.73 -5106.20 -5509.36 -5553.90 -5444.71 -4705.77 -3412.55 -1836.75 -1298.14 -238.15 -287.27 -282.59 -312.71 -373.80 -436.77 -628.11 -900.55 -1180.31 -1372.53 -1581.95 -1847.51 -2055.48 -2185.96 -2330.92 -2458.69 -2660.45 -3023.18 -3422.55 -3623.86 -3734.84 -3734.59
-2543.46 -2543.39 -2546.90 -2554.00 -2553.74 -2544.25 -2505.47 -2494.96 -2514.07 -2483.82 -2501.93 -2508.31 -2509.70 -2507.86 -2513.05 -2505.60 -2410.98 -2242.78 -1669.93 -1266.19 -978.57 -772.37 -701.57 -691.78 -689.41 -589.16 -521.55 -351.44 -342.09 -325.73 -303.17 -277.55 -242.53 -238.41 -218.43 -189.39 -170.66 -168.77 -168.90 -169.52 -182.70 -185.03 -187.39 -175.65 -171.06 -164.54 -152.45 -154.14 -149.39 -148.50 -140.15 -137.43 -129.99 -120.32 -111.88 -102.74 -87.51 -76.09 -66.21 -49.82 -39.91 -30.51 -19.49 -17.42 -17.09 -19.36 -8.56 -16.83 -17.67 -9.04 -6.23 -5.65 -2.48 4.12 11.90 19.69 28.99 41.39 53.92 78.84 96.70 115.25 131.75 139.49 157.16 179.40 196.55 206.09 227.48 248.76 268.02 275.72 276.73 265.37 242.52 226.83 197.48 151.76 126.00 95.67 72.29 40.25 12.91 -326.90 -998.95 -1548.73 -1414.78 -1411.58 -1574.85 -2764.76 -4103.64 -4937.56 -5526.19 -5572.94 -5566.85 -5329.36 -4725.36 -2843.18 -1798.49 -892.49 -353.32 -308.66 -338.92 -426.21 -555.74 -764.74 -1058.51 -1321.64 -1468.74 -1686.34 -1951.24 -2062.71 -2228.33 -2369.88 -2497.59 -2767.65 -3118.32 -3485.43 -3790.23 -3911.12 -3911.11
-2557.03 -2556.96 -2561.60 -2562.41 -2530.24 -2534.87 -2532.47 -2527.14 -2526.74 -2517.24 -2522.88 -2474.19 -2433.74 -2495.18 -2523.46 -2515.82 -2462.12 -2370.60 -2018.81 -1707.04 -1199.15 -934.85 -779.45 -702.07 -715.78 -706.03 -511.06 -429.14 -372.74 -335.10 -319.82 -286.96 -267.62 -254.31 -228.78 -229.04 -201.29 -209.97 -198.60 -209.44 -217.69 -202.87 -195.68 -202.85 -190.41 -184.04 -174.61 -175.84 -166.08 -162.58 -153.01 -143.73 -133.54 -124.78 -115.06 -106.04 -92.08 -77.54 -63.78 -58.01 -54.02 -46.17 -41.41 -34.25 -37.12 -34.69 -31.81 -31.23 -31.17 -20.37 -16.43 -17.92 -11.87 4.37 9.16 16.31 26.02 35.91 45.24 73.05 99.52 110.61 125.25 135.10 156.68 178.37 200.22 213.74 234.99 257.00 264.66 265.79 266.45 239.77 221.42 180.86 160.65 124.71 102.50 82.14 49.07 4.76 -188.03 -639.54 -1363.16 -1462.68 -1348.24 -1426.21 -1562.41 -2692.36 -4057.41 -5264.54 -5513.55 -5582.59 -5594.81 -5515.55 -5328.56 -4605.78 -2860.91 -1754.01 -554.58 -381.88 -370.80 -425.36 -671.80 -969.66 -1053.59 -1469.90 -1568.40 -1737.57 -2003.25 -2169.00 -2295.30 -2364.42 -2482.68 -2727.15 -3117.63 -3463.67 -3840.16 -3963.70 -3963.94
-2571.01 -2571.93 -2576.82 -2535.54 -2515.53 -2558.66 -2560.89 -2566.63 -2575.18 -2559.30 -2543.22 -2521.05 -2503.84 -2528.74 -2521.44 -2516.39 -2486.78 -2392.49 -2185.13 -1951.84 -1693.33 -1229.93 -940.77 -740.92 -709.25 -710.17 -650.67 -603.91 -558.08 -460.84 -326.90 -314.08 -292.13 -275.99 -269.82 -266.46 -242.27 -249.91 -253.67 -238.68 -241.48 -236.75 -225.21 -228.13 -224.75 -215.80 -188.43 -194.09 -180.95 -169.84 -158.86 -144.64 -139.67 -127.34 -119.48 -103.24 -86.08 -74.54 -61.58 -63.35 -64.97 -61.32 -58.06 -52.68 -47.20 -48.50 -46.65 -49.18 -35.47 -29.12 -30.43 -30.99 -19.49 -1.06 7.15 15.07 27.19 35.79 49.32 65.22 87.23 103.03 119.71 143.99 160.53 171.02 210.46 229.30 250.16 259.66 260.62 250.56 241.22 218.81 176.18 154.32 134.13 95.72 67.09 36.27 19.40 -13.51 -112.96 -901.41 -1406.22 -1364.48 -1352.02 -1455.65 -1707.44 -2795.02 -4396.61 -5198.21 -5530.31 -5579.98 -5603.75 -5596.31 -5414.88 -5047.04 -3542.26 -1827.71 -659.43 -395.82 -409.04 -494.43 -657.73 -913.13 -1105.36 -1448.24 -1729.96 -1948.91 -2076.53 -2174.35 -2280.22 -2353.32 -2447.04 -2679.79 -3064.05 -3327.08 -3703.93 -3836.02 -3836.10
-2584.42 -2584.35 -2534.67 -2580.40 -2568.49 -2575.31 -2597.08 -2589.28 -2580.16 -2582.11 -2580.11 -2565.40 -2542.20 -2531.51 -2521.50 -2528.65 -2520.15 -2505.10 -2399.26 -2323.20 -1979.37 -1488.12 -1128.25 -841.57 -732.89 -701.53 -720.30 -712.67 -672.45 -575.81 -444.22 -374.27 -373.16 -296.81 -284.37 -279.43 -273.71 -271.52 -273.05 -272.71 -273.98 -269.00 -262.47 -255.99 -246.21 -234.77 -212.83 -203.75 -195.61 -180.36 -164.60 -151.61 -145.04 -127.07 -110.77 -99.09 -81.49 -59.31 -56.20 -64.88 -71.08 -73.74 -71.41 -69.83 -66.40 -61.98 -56.63 -60.69 -55.42 -48.12 -39.90 -39.35 -28.66 -20.87 3.65 13.57 23.01 37.34 46.05 63.57 81.37 95.87 114.96 148.21 163.87 182.09 234.28 251.80 258.80 261.36 256.78 238.44 208.95 173.60 156.88 119.46 113.98 79.43 45.73 12.43 -28.29 -359.26 -1012.09 -1338.40 -1322.20 -1303.21 -1362.13 -1536.13 -2186.10 -3154.81 -4712.48 -5309.54 -5543.92 -5576.42 -5597.61 -5616.57 -5543.24 -5234.42 -3643.75 -2351.81 -738.82 -434.80 -423.47 -540.80 -682.89 -978.54 -1333.68 -1565.21 -1864.38 -2020.79 -2124.49 -2199.20 -2324.08 -2379.49 -2482.26 -2692.24 -3016.21 -3368.93 -3580.52 -3841.41 -3841.48
-2594.48 -2595.31 -2574.63 -2571.49 -2589.70 -2607.85 -2611.74 -2596.23 -2602.51 -2585.06 -2589.11 -2582.52 -2562.03 -2558.15 -2529.79 -2489.25 -2531.72 -2526.05 -2491.23 -2363.04 -2252.30 -1853.81 -1139.78 -919.28 -733.14 -697.04 -710.17 -728.07 -758.69 -681.42 -591.95 -596.66 -448.21 -373.04 -341.29 -313.96 -302.68 -307.23 -319.57 -314.95 -310.08 -303.96 -289.00 -276.73 -260.16 -244.26 -232.87 -220.12 -206.13 -182.02 -172.25 -154.37 -140.97 -127.43 -103.73 -86.96 -68.57 -55.13 -60.98 -73.06 -82.48 -84.21 -84.38 -86.15 -80.36 -68.17 -64.56 -68.16 -64.14 -60.20 -50.37 -46.36 -38.31 -30.89 -8.12 10.50 18.85 33.26 42.27 59.07 73.41 94.08 104.04 144.23 165.47 186.38 227.00 252.30 260.88 258.74 230.08 203.10 170.37 150.32 124.97 91.09 62.16 50.90 17.83 -29.51 -253.86 -974.89 -1324.44 -1282.67 -1269.79 -1295.92 -1424.67 -1576.21 -1988.97 -3439.54 -5080.48 -5379.31 -5531.80 -5565.00 -5594.44 -5630.55 -5561.83 -5335.35 -3797.13 -2301.98 -880.36 -441.37 -445.73 -579.60 -821.22 -1059.15 -1215.72 -1569.75 -1868.08 -2062.72 -2183.15 -2260.03 -2327.72 -2441.73 -2584.30 -2799.54 -2941.31 -3520.04 -3716.18 -3884.37 -3884.23
-2589.19 -2589.13 -2594.99 -2590.10 -2623.78 -2625.28 -2623.29 -2615.33 -2607.37 -2595.02 -2592.59 -2583.51 -2573.60 -2564.83 -2555.10 -2482.53 -2521.15 -2546.46 -2527.91 -2471.55 -2373.55 -1951.81 -1453.37 -1073.22 -783.81 -705.08 -696.84 -711.77 -735.76 -749.82 -772.13 -791.79 -688.64 -576.96 -483.18 -465.33 -433.38 -414.65 -401.65 -409.63 -460.96 -359.51 -318.17 -299.86 -291.61 -273.80 -246.73 -229.46 -219.12 -195.52 -180.29 -157.18 -140.05 -124.18 -93.67 -82.32 -50.45 -57.90 -70.82 -85.99 -93.01 -94.66 -96.42 -99.46 -90.88 -80.62 -74.06 -68.51 -70.45 -65.59 -59.02 -49.98 -42.18 -17.95 -1.04 9.73 17.19 30.40 36.33 52.59 65.63 83.59 103.43 125.05 158.33 179.20 207.55 237.21 261.32 258.54 235.66 221.67 146.24 110.20 104.59 91.12 38.53 22.87 -5.38 -322.50 -1117.71 -1284.62 -1248.34 -1247.04 -1290.05 -1331.76 -1429.46 -1494.69 -2536.87 -3756.21 -4978.88 -5522.51 -5536.89 -5557.54 -5590.85 -5624.80 -5562.10 -5189.35 -3392.48 -2016.24 -698.78 -441.18 -490.57 -668.14 -819.88 -1095.64 -1530.97 -1671.65 -1991.00 -2166.83 -2238.89 -2309.35 -2366.50 -2460.98 -2556.70 -2803.74 -3226.81 -3650.67 -3883.29 -4152.71 -4152.79
-2596.69 -2596.56 -2605.62 -2620.57 -2624.67 -2620.42 -2618.18 -2611.58 -2606.92 -2597.38 -2595.03 -2591.60 -2586.97 -2587.50 -2567.36 -2511.81 -2517.24 -2549.37 -2530.29 -2509.52 -2314.88 -1989.55 -1461.26 -1017.47 -744.12 -716.31 -708.16 -734.97 -759.19 -773.50 -795.85 -813.53 -824.69 -710.77 -633.35 -597.52 -588.42 -601.92 -591.56 -594.02 -581.56 -506.73 -374.97 -322.69 -309.93 -288.96 -267.55 -250.73 -231.13 -202.43 -181.97 -157.57 -136.98 -117.18 -90.85 -66.27 -44.83 -53.96 -86.77 -95.75 -102.41 -103.03 -108.89 -108.39 -102.21 -92.08 -83.31 -81.81 -78.04 -76.33 -66.50 -57.83 -46.65 -24.08 -1.43 4.69 14.14 22.12 26.92 41.59 55.73 73.78 100.05 117.19 154.02 170.04 194.97 234.00 249.96 223.82 207.36 186.18 138.45 84.86 72.26 51.82 19.04 -0.02 -56.36 -591.90 -1391.43 -1330.01 -1248.94 -1244.47 -1322.29 -1380.20 -1448.66 -1798.57 -2799.40 -3861.23 -4933.59 -5459.63 -5541.59 -5552.85 -5585.25 -5592.28 -5387.40 -4940.76 -2996.76 -1885.20 -512.45 -450.03 -548.88 -782.73 -1005.70 -1231.36 -1686.33 -2008.66 -2115.60 -2238.62 -2283.49 -2361.00 -2432.96 -2455.03 -2647.01 -2962.84 -3375.06 -3835.95 -4078.28 -4166.77 -4166.71
-2537.27 -2537.20 -2579.07 -2616.59 -2649.33 -2643.04 -2635.68 -2622.79 -2609.59 -2604.21 -2603.46 -2609.37 -2611.05 -2606.42 -2583.32 -2565.57 -2555.62 -2559.99 -2539.31 -2486.74 -2211.14 -1961.33 -1394.08 -968.63 -802.38 -832.17 -946.35 -880.22 -887.40 -930.71 -898.86 -905.44 -957.64 -751.20 -743.54 -668.24 -650.06 -642.87 -634.83 -629.24 -626.46 -607.25 -464.20 -364.85 -330.91 -321.29 -292.51 -262.96 -238.82 -204.50 -185.15 -156.98 -123.13 -103.66 -74.39 -51.95 -61.85 -81.82 -100.90 -110.59 -113.93 -115.09 -112.82 -118.17 -116.54 -114.03 -98.41 -97.18 -89.52 -87.82 -78.38 -71.37 -56.40 -42.02 -11.53 1.13 10.61 16.78 23.67 36.14 49.52 67.86 81.38 95.11 123.33 144.45 179.92 211.70 229.83 221.05 209.59 137.30 97.85 53.50 39.52 34.29 3.22 -45.43 -362.98 -1185.43 -1411.85 -1363.46 -1309.30 -1298.00 -1339.62 -1429.70 -1533.71 -2010.11 -3044.05 -4345.67 -5010.64 -5485.00 -5537.74 -5551.47 -5574.67 -5590.73 -5471.77 -4554.78 -2817.68 -1382.43 -555.33 -462.37 -701.50 -899.50 -1289.87 -1604.47 -1950.50 -2171.89 -2219.34 -2309.65 -2323.04 -2360.92 -2446.42 -2512.22 -2655.62 -2831.56 -3285.79 -3902.61 -4178.86 -4241.95 -4242.02
-2565.21 -2576.43 -2621.82 -2633.40 -2655.77 -2662.88 -2643.45 -2629.60 -2625.17 -2622.21 -2617.07 -2618.12 -2622.42 -2611.93 -2593.83 -2570.16 -2566.36 -2577.61 -2549.79 -2459.50 -2227.03 -1806.59 -1363.06 -1098.34 -1098.05 -1119.64 -1145.36 -1217.27 -1341.30 -1278.77 -1335.40 -1353.32 -1350.18 -1199.84 -893.95 -717.12 -696.77 -687.53 -691.41 -669.57 -650.46 -630.57 -568.28 -513.96 -364.90 -325.30 -296.19 -276.66 -230.30 -215.23 -176.12 -151.34 -120.27 -90.30 -63.80 -58.85 -72.82 -98.24 -105.91 -118.53 -118.61 -126.35 -133.45 -127.47 -125.22 -120.25 -114.86 -103.70 -94.56 -95.38 -89.09 -79.13 -69.04 -55.61 -19.63 -14.94 1.46 11.07 15.55 22.89 39.22 60.30 71.23 90.10 111.33 123.03 172.76 193.65 209.89 203.50 205.30 160.87 77.12 32.66 33.28 8.47 -59.43 -314.06 -1069.23 -1479.26 -1415.57 -1347.70 -1359.93 -1340.19 -1388.95 -1466.83 -1558.72 -2223.78 -3060.04 -4721.90 -5385.46 -5516.11 -5545.69 -5555.32 -5594.45 -5583.02 -5243.62 -4866.70 -2219.55 -716.97 -480.98 -554.03 -678.25 -951.43 -1395.79 -1844.69 -2013.47 -2201.92 -2261.07 -2311.12 -2339.77 -2375.31 -2423.58 -2554.91 -2841.11 -3107.63 -3536.46 -3898.83 -4175.21 -4248.16 -4248.23
-2637.16 -2637.05 -2620.44 -2627.14 -2652.31 -2669.76 -2666.71 -2652.09 -2637.58 -2637.73 -2645.87 -2631.92 -2633.84 -2627.85 -2598.10 -2551.77 -2547.91 -2580.10 -2573.03 -2492.76 -2313.13 -1900.49 -1586.89 -1437.72 -1434.78 -1550.49 -1621.94 -1710.35 -1741.21 -1915.09 -1880.97 -1759.08 -1869.81 -1498.99 -982.45 -783.13 -748.68 -731.80 -727.23 -717.04 -740.62 -756.07 -679.69 -582.36 -418.16 -334.18 -307.09 -281.94 -250.97 -219.25 -169.21 -141.94 -108.82 -75.30 -62.24 -83.29 -103.05 -118.52 -127.92 -133.59 -133.91 -141.35 -143.97 -139.81 -135.81 -127.39 -115.95 -105.22 -101.61 -100.01 -93.31 -86.39 -84.00 -65.44 -45.37 -45.40 -21.79 -2.47 7.68 15.24 31.46 40.32 57.83 70.15 83.91 104.69 144.74 157.24 173.80 187.81 155.23 102.42 75.96 22.95 15.00 -7.99 -117.08 -560.22 -1500.47 -1482.83 -1401.22 -1375.12 -1405.77 -1410.14 -1485.00 -1612.24 -2002.01 -2819.85 -3877.45 -4994.56 -5454.42 -5502.69 -5548.00 -5573.45 -5601.67 -5520.10 -5225.85 -4012.16 -1749.45 -747.50 -500.44 -569.50 -801.51 -995.83 -1375.55 -1806.33 -1931.68 -2151.34 -2258.30 -2317.25 -2353.32 -2378.44 -2561.50 -2716.86 -3125.88 -3355.06 -3778.94 -4027.23 -4181.23 -4253.50 -4253.57
-2599.80 -2599.78 -2627.05 -2650.64 -2666.08 -2677.81 -2681.10 -2666.39 -2652.84 -2656.12 -2667.38 -2643.97 -2641.05 -2634.18 -2597.01 -2583.93 -2587.59 -2598.86 -2586.04 -2515.41 -2402.41 -2217.92 -2058.32 -2005.95 -1977.09 -2237.12 -2281.14 -2274.74 -2368.24 -2325.97 -2362.59 -2377.92 -2346.18 -1737.58 -1226.01 -949.23 -804.42 -783.02 -804.81 -809.82 -790.82 -778.74 -714.11 -594.91 -486.81 -348.38 -319.26 -292.57 -255.50 -237.72 -181.57 -141.57 -107.68 -95.33 -101.24 -132.67 -142.44 -147.37 -155.74 -155.19 -159.36 -162.36 -155.67 -147.64 -144.19 -131.19 -120.15 -117.25 -107.04 -106.20 -104.36 -98.68 -88.37 -73.93 -74.10 -66.09 -35.29 -10.08 5.66 15.22 25.59 32.08 46.53 53.01 71.76 82.63 112.62 128.86 139.74 143.00 111.80 90.24 40.95 13.88 -152.26 -85.99 -228.46 -973.31 -1501.88 -1417.38 -1418.06 -1442.13 -1508.84 -1560.14 -1664.46 -2115.37 -2392.98 -3587.71 -4715.94 -5278.07 -5441.54 -5506.09 -5556.86 -5579.48 -5602.89 -5512.67 -5138.81 -3407.65 -1649.75 -706.86 -491.36 -562.66 -809.55 -1235.47 -1477.32 -1777.85 -2016.94 -2161.46 -2292.50 -2351.14 -2393.23 -2449.48 -2581.61 -2767.01 -3137.97 -3614.80 -3859.24 -4099.22 -4191.43 -4259.21 -4259.28
-2663.33 -2663.25 -2633.13 -2615.75 -2647.98 -2679.00 -2685.30 -2675.80 -2674.71 -2667.55 -2671.13 -2669.34 -2661.08 -2653.09 -2628.79 -2615.46 -2622.61 -2617.55 -2603.29 -2592.01 -2556.45 -2450.43 -2397.33 -2359.87 -2406.38 -2448.68 -2500.23 -2496.07 -2571.79 -2588.36 -2625.87 -2609.79 -2545.83 -2409.03 -1851.58 -1232.07 -887.02 -832.39 -873.33 -865.76 -861.76 -804.60 -724.98 -712.40 -451.93 -351.21 -329.51 -299.21 -266.58 -250.31 -188.81 -152.92 -125.44 -143.03 -154.53 -177.68 -174.41 -183.01 -175.30 -182.49 -177.27 -170.40 -166.49 -162.23 -152.57 -141.21 -132.04 -129.68 -118.78 -113.73 -109.72 -105.90 -97.59 -97.98 -89.64 -76.41 -48.68 -16.61 1.52 10.82 16.40 21.82 31.41 32.54 51.55 62.53 77.25 89.08 87.75 91.32 77.84 41.98 22.33 -38.09 -275.36 -469.62 -863.21 -1319.84 -1419.11 -1401.30 -1503.34 -1758.89 -1778.62 -2258.44 -2497.04 -2756.98 -4073.65 -4535.24 -5129.05 -5392.63 -5501.09 -5526.82 -5573.99 -5595.71 -5602.54 -5496.52 -4602.20 -3787.46 -1836.81 -714.81 -524.50 -726.20 -927.71 -1369.84 -1573.72 -1836.16 -2024.32 -2193.53 -2314.61 -2372.80 -2408.15 -2516.57 -2624.33 -2759.39 -3112.18 -3504.04 -3842.90 -4071.25 -4198.21 -4264.32 -4264.39
-2661.59 -2661.53 -2653.56 -2620.53 -2618.18 -2664.49 -2688.23 -2688.69 -2686.71 -2682.24 -2684.61 -2663.17 -2653.30 -2637.30 -2663.79 -2661.81 -2648.92 -2644.90 -2642.19 -2623.98 -2633.68 -2635.29 -2593.43 -2591.37 -2599.33 -2614.18 -2617.13 -2643.10 -2646.14 -2663.14 -2676.63 -2675.89 -2655.01 -2521.64 -1976.88 -1515.94 -1050.38 -957.21 -912.35 -910.80 -900.19 -823.62 -763.59 -748.93 -443.43 -371.93 -355.52 -318.44 -288.77 -265.74 -228.39 -206.52 -185.67 -201.85 -192.14 -204.78 -210.18 -206.46 -199.53 -208.51 -196.17 -192.16 -177.79 -175.42 -162.47 -147.78 -140.30 -139.09 -130.42 -124.04 -115.13 -116.53 -111.16 -108.25 -107.66 -95.51 -81.24 -59.41 -20.11 -0.75 6.34 13.05 18.60 25.67 28.50 33.97 54.61 64.75 64.23 58.51 42.90 24.92 17.96 -126.06 -471.66 -973.66 -1581.41 -1461.38 -1383.82 -1503.75 -1906.07 -2163.55 -2332.13 -2868.42 -3527.69 -4176.47 -4743.01 -5259.93 -5474.45 -5558.14 -5562.72 -5576.50 -5602.52 -5603.73 -5605.68 -5555.75 -4928.35 -2765.47 -1619.72 -568.20 -620.17 -838.65 -1025.01 -1496.09 -1756.58 -1956.02 -2215.15 -2303.77 -2346.89 -2384.60 -2451.27 -2543.52 -2673.41 -2859.83 -3061.12 -3418.76 -3767.02 -4068.06 -4219.77 -4272.09 -4272.15
-2676.07 -2676.01 -2685.11 -2668.53 -2658.28 -2652.91 -2674.36 -2685.15 -2677.71 -2686.41 -2678.61 -2636.87 -2643.41 -2622.61 -2678.40 -2680.07 -2674.01 -2665.45 -2659.52 -2666.74 -2656.65 -2657.23 -2653.11 -2662.48 -2654.68 -2670.46 -2673.91 -2675.16 -2681.73 -2690.50 -2698.80 -2703.69 -2686.10 -2605.74 -2176.41 -1862.96 -1390.24 -1067.70 -940.48 -917.48 -930.50 -830.78 -793.09 -762.38 -641.56 -407.29 -365.21 -336.17 -309.91 -283.59 -257.44 -254.23 -227.68 -224.95 -239.99 -241.23 -228.59 -235.54 -230.26 -225.83 -217.63 -210.19 -193.20 -185.31 -176.84 -160.11 -152.37 -146.62 -142.56 -134.09 -130.52 -127.17 -127.64 -120.26 -112.98 -117.64 -105.16 -83.14 -47.06 -40.33 -9.65 5.21 10.02 16.19 20.58 24.88 26.58 50.08 43.85 31.46 16.11 -21.96 -83.32 -366.57 -1005.61 -1290.17 -1527.71 -1529.64 -1733.87 -2163.55 -3288.11 -3180.89 -3673.20 -4298.55 -4858.01 -5212.53 -5343.07 -5580.73 -5573.83 -5690.86 -5748.02 -5705.60 -5601.63 -5542.51 -5474.29 -5283.84 -4251.37 -2589.82 -1022.37 -602.39 -652.83 -856.31 -1136.28 -1499.77 -1845.50 -2038.63 -2273.47 -2334.91 -2357.07 -2371.36 -2427.04 -2528.41 -2653.99 -2878.60 -3138.87 -3543.37 -3828.92 -4139.30 -4238.66 -4286.24 -4286.31
-2683.17 -2683.11 -2690.31 -2696.04 -2703.06 -2680.96 -2684.47 -2681.02 -2665.18 -2682.34 -2687.13 -2656.74 -2664.36 -2704.26 -2706.10 -2702.15 -2698.51 -2693.62 -2692.95 -2684.50 -2694.28 -2693.37 -2697.31 -2698.25 -2687.48 -2693.40 -2695.13 -2695.17 -2700.94 -2702.06 -2710.66 -2715.16 -2705.59 -2672.57 -2477.62 -2179.56 -1492.29 -1223.93 -978.81 -925.99 -900.83 -842.58 -838.90 -820.54 -685.08 -530.12 -406.59 -359.12 -332.68 -305.30 -290.10 -284.75 -289.09 -267.59 -267.93 -278.40 -260.48 -261.67 -246.85 -245.68 -237.58 -229.49 -211.85 -198.25 -190.40 -179.51 -168.01 -160.40 -149.30 -149.83 -147.45 -144.84 -141.64 -139.40 -145.55 -133.60 -114.82 -101.93 -97.48 -78.79 -46.35 -22.73 -24.06 7.16 -11.04 -6.57 18.96 -0.84 -3.32 -8.35 -67.71 -165.45 -537.54 -976.59 -1548.44 -1538.99 -1628.77 -1963.81 -2417.18 -3155.62 -4166.53 -4825.68 -4994.88 -5216.63 -5379.74 -5516.14 -5622.88 -5720.49 -5365.10 -5243.69 -5569.12 -5221.37 -5280.85 -4938.58 -4767.59 -4137.60 -3793.77 -1974.02 -792.24 -656.67 -748.24 -1085.51 -1421.16 -1641.21 -1939.91 -2177.28 -2330.13 -2354.43 -2365.19 -2374.52 -2435.81 -2531.58 -2654.64 -2863.07 -3276.09 -3659.92 -4074.62 -4240.09 -4274.77 -4292.43 -4292.50
-2695.84 -2695.79 -2699.57 -2709.00 -2714.87 -2719.72 -2724.34 -2706.59 -2670.95 -2698.03 -2713.58 -2709.50 -2717.01 -2714.08 -2725.00 -2726.00 -2725.12 -2728.10 -2722.18 -2723.55 -2728.21 -2722.39 -2729.00 -2731.28 -2720.03 -2730.64 -2720.96 -2719.31 -2723.05 -2728.29 -2732.91 -2738.85 -2735.67 -2708.18 -2585.41 -2297.02 -1836.33 -1246.34 -1048.78 -947.01 -915.77 -850.29 -832.55 -819.36 -741.41 -544.88 -394.28 -392.84 -361.90 -338.29 -332.80 -331.62 -328.27 -314.23 -319.74 -306.94 -292.69 -282.48 -274.11 -268.83 -255.59 -243.08 -233.32 -215.14 -203.29 -187.45 -175.15 -171.33 -168.22 -171.72 -171.52 -164.23 -151.84 -156.33 -156.24 -147.84 -140.11 -121.77 -108.40 -77.86 -67.46 -58.36 -48.04 -44.20 -42.48 -28.69 -44.38 -78.45 -91.06 -108.22 -167.95 -203.22 -503.72 -923.05 -1680.80 -1697.24 -2158.82 -3094.02 -3759.13 -4936.09 -5182.91 -5359.14 -5542.11 -5619.92 -5719.69 -5815.29 -5839.38 -5944.73 -4930.60 -3340.86 -2453.09 -1997.37 -3300.13 -2409.88 -2181.17 -2241.25 -1593.49 -952.93 -675.46 -631.53 -830.14 -1223.71 -1487.69 -1862.40 -2089.96 -2265.57 -2335.02 -2352.30 -2366.17 -2376.89 -2444.18 -2535.34 -2805.94 -2936.38 -3246.29 -3836.12 -4049.71 -4246.64 -4287.60 -4300.52 -4300.58
-2715.05 -2716.74 -2720.13 -2721.70 -2726.48 -2732.72 -2737.48 -2724.98 -2705.86 -2722.19 -2722.30 -2724.92 -2727.34 -2735.17 -2745.99 -2758.91 -2759.62 -2771.78 -2767.74 -2768.24 -2767.88 -2757.22 -2757.04 -2752.38 -2754.86 -2747.36 -2751.12 -2742.29 -2746.88 -2752.95 -2749.97 -2754.16 -2756.25 -2748.93 -2689.55 -2411.92 -1926.87 -1465.90 -1104.06 -965.78 -929.66 -869.40 -828.75 -820.60 -755.03 -567.38 -472.71 -420.21 -375.73 -367.22 -355.58 -365.30 -352.03 -349.73 -343.00 -342.14 -324.69 -302.86 -301.67 -276.26 -273.76 -254.88 -242.20 -229.22 -211.91 -198.08 -189.45 -186.58 -179.48 -177.32 -184.13 -182.67 -180.01 -182.92 -170.20 -157.40 -152.80 -142.44 -125.26 -110.14 -94.78 -87.82 -67.39 -66.87 -70.20 -68.96 -91.23 -95.52 -131.31 -151.29 -178.65 -208.05 -500.48 -1156.72 -1956.49 -2246.55 -3331.37 -4015.31 -4959.27 -5124.38 -5677.71 -5700.62 -5813.04 -5945.21 -5488.70 -5128.49 -4103.50 -3229.69 -2491.20 -587.29 -227.24 -284.70 14.35 6.74 -212.05 -1032.47 -719.60 -604.37 -618.28 -770.00 -1011.31 -1471.15 -1733.95 -2009.72 -2174.98 -2284.43 -2339.75 -2357.85 -2364.24 -2375.35 -2431.04 -2573.03 -2900.52 -3061.92 -3419.12 -3700.81 -4114.49 -4242.34 -4289.69 -4305.69 -4306.43
-2728.44 -2728.38 -2729.57 -2736.80 -2743.53 -2745.00 -2752.73 -2747.68 -2731.13 -2731.29 -2738.16 -2739.77 -2743.63 -2748.46 -2764.68 -2776.17 -2776.44 -2789.02 -2791.40 -2793.16 -2793.79 -2789.59 -2792.28 -2784.40 -2780.31 -2772.63 -2773.25 -2770.79 -2761.50 -2767.67 -2766.99 -2769.15 -2774.39 -2772.05 -2702.15 -2457.95 -2178.09 -1594.88 -1141.30 -979.42 -945.36 -892.72 -854.95 -829.37 -774.68 -678.54 -595.71 -508.13 -419.84 -447.98 -433.15 -403.77 -395.54 -451.79 -526.89 -530.27 -496.70 -407.63 -417.96 -462.15 -368.29 -293.28 -271.46 -236.53 -223.37 -214.67 -205.65 -199.23 -198.78 -198.77 -198.94 -197.05 -195.52 -198.51 -191.59 -180.07 -176.19 -172.91 -154.51 -142.69 -117.10 -109.63 -93.00 -94.55 -84.42 -91.56 -95.33 -126.32 -166.49 -191.47 -207.74 -222.38 -1259.61 -1783.01 -2620.38 -3170.67 -4634.11 -5102.52 -5521.31 -5555.28 -5809.06 -5978.19 -6128.72 -5147.54 -3531.58 -2822.29 -1735.47 -627.80 4.14 22.47 27.48 29.69 21.24 20.52 13.36 -126.58 -403.72 -649.85 -825.51 -983.48 -1395.76 -1604.40 -1945.94 -2177.85 -2258.46 -2337.02 -2354.39 -2358.78 -2362.91 -2389.98 -2429.32 -2555.69 -2902.38 -3041.11 -3443.54 -3833.93 -4143.80 -4259.27 -4303.54 -4311.85 -4311.91
-2742.69 -2742.64 -2746.08 -2751.21 -2761.83 -2760.94 -2765.49 -2762.78 -2747.06 -2751.91 -2750.18 -2754.08 -2757.67 -2764.88 -2777.61 -2795.89 -2802.32 -2809.86 -2813.30 -2820.41 -2815.41 -2818.34 -2812.27 -2808.30 -2804.24 -2794.90 -2787.96 -2788.54 -2790.04 -2784.27 -2782.68 -2783.28 -2787.13 -2791.90 -2756.31 -2573.12 -2257.12 -1889.50 -1237.44 -1057.41 -943.52 -911.61 -874.11 -836.92 -769.59 -708.52 -668.70 -550.01 -515.15 -526.88 -573.55 -611.37 -589.00 -577.28 -627.26 -629.68 -571.62 -591.49 -527.54 -529.87 -458.81 -317.25 -311.20 -280.41 -240.64 -231.19 -215.04 -218.01 -223.96 -216.23 -221.97 -221.49 -223.00 -213.53 -211.55 -206.84 -198.24 -185.92 -185.53 -168.14 -149.68 -127.40 -119.43 -118.41 -109.59 -98.19 -90.74 -122.99 -175.41 -231.99 -273.46 -850.57 -1686.24 -2153.03 -2617.59 -4161.24 -5181.44 -5200.74 -5010.98 -5085.42 -5366.00 -4471.92 -3632.80 -2061.66 -783.63 -228.82 5.69 14.99 27.01 36.55 40.93 38.52 30.75 24.38 18.09 -57.89 -305.74 -757.19 -970.00 -1223.59 -1466.63 -1786.43 -1983.76 -2212.54 -2322.03 -2358.69 -2368.20 -2375.21 -2376.42 -2422.05 -2508.71 -2621.45 -2956.89 -3220.83 -3647.79 -3998.69 -4188.14 -4291.81 -4305.71 -4318.18 -4318.24
-2759.37 -2759.32 -2761.56 -2770.71 -2771.14 -2783.74 -2781.48 -2784.83 -2764.70 -2766.40 -2769.45 -2775.05 -2782.73 -2789.56 -2800.18 -2816.09 -2830.41 -2837.49 -2838.89 -2847.52 -2841.14 -2840.08 -2836.95 -2829.58 -2825.54 -2822.34 -2817.54 -2801.53 -2801.85 -2799.93 -2802.66 -2805.68 -2801.85 -2798.78 -2745.69 -2700.54 -2405.17 -2026.58 -1448.10 -1080.59 -1006.48 -937.69 -913.24 -852.64 -801.28 -753.70 -725.33 -694.29 -700.33 -692.39 -706.41 -730.49 -699.00 -659.25 -676.87 -648.30 -627.43 -611.92 -560.55 -562.95 -534.79 -438.99 -397.59 -325.30 -253.94 -241.82 -235.08 -232.24 -236.57 -244.38 -249.74 -248.92 -253.03 -248.53 -242.80 -244.55 -240.62 -227.15 -214.97 -194.40 -180.91 -165.87 -143.75 -144.20 -131.87 -104.35 -62.73 -90.16 -204.21 -404.48 -881.85 -1485.22 -1892.22 -2126.51 -2856.76 -3872.64 -4822.70 -3422.81 -2594.36 -1433.66 -2218.00 -1143.24 40.93 0.34 0.42 38.97 38.57 35.94 41.86 41.37 40.50 37.06 30.94 23.70 19.73 7.23 -315.06 -764.43 -1121.33 -1283.87 -1603.81 -1813.80 -2055.54 -2298.97 -2357.13 -2366.52 -2376.32 -2380.27 -2386.34 -2415.15 -2517.37 -2708.94 -2957.84 -3177.05 -3608.72 -4014.94 -4202.08 -4285.69 -4307.53 -4326.02 -4326.08
-2778.79 -2781.57 -2786.15 -2789.19 -2795.87 -2798.36 -2802.85 -2794.07 -2791.17 -2786.65 -2790.22 -2796.66 -2800.28 -2803.09 -2819.88 -2837.35 -2847.71 -2850.99 -2861.68 -2862.70 -2867.48 -2864.69 -2862.13 -2863.48 -2856.43 -2848.07 -2841.55 -2832.59 -2823.09 -2823.55 -2816.02 -2816.69 -2813.29 -2807.10 -2761.32 -2669.56 -2539.24 -2118.78 -1895.86 -1522.33 -1129.97 -1005.34 -922.84 -888.59 -841.52 -824.18 -783.09 -759.88 -769.62 -770.61 -760.86 -737.76 -723.59 -697.99 -672.79 -647.82 -615.58 -591.39 -573.28 -542.08 -515.47 -472.97 -430.27 -395.35 -348.58 -308.12 -279.89 -262.07 -262.94 -260.83 -273.07 -273.25 -268.24 -263.53 -258.91 -253.57 -251.08 -245.84 -240.29 -222.74 -205.36 -197.66 -175.84 -158.59 -158.50 -157.50 -125.93 -169.11 -264.51 -431.37 -802.85 -1375.32 -1864.45 -2363.38 -2698.43 -3581.49 -3621.91 -1485.63 -490.36 -2.08 33.58 42.06 55.11 72.56 72.72 58.56 48.61 49.00 44.32 41.80 35.74 32.34 27.87 21.09 16.35 4.83 -218.31 -994.95 -1464.95 -1599.50 -1733.17 -1927.50 -2116.35 -2280.47 -2367.48 -2379.54 -2390.01 -2395.14 -2396.08 -2421.50 -2536.95 -2620.02 -2855.58 -3255.15 -3619.31 -3996.99 -4209.59 -4301.90 -4323.48 -4335.76 -4335.82
-2800.76 -2800.71 -2815.18 -2811.87 -2825.17 -2823.99 -2832.60 -2827.55 -2825.07 -2824.18 -2837.40 -2845.93 -2847.07 -2852.81 -2856.28 -2854.54 -2865.70 -2868.49 -2876.66 -2878.19 -2880.26 -2888.55 -2889.72 -2885.25 -2871.32 -2869.61 -2864.56 -2862.70 -2851.51 -2831.17 -2831.28 -2832.33 -2824.14 -2795.09 -2722.25 -2591.83 -2457.64 -2254.89 -1837.95 -1716.10 -1457.33 -1334.98 -1207.47 -998.82 -991.98 -894.78 -849.45 -840.07 -808.36 -796.53 -774.14 -751.28 -729.17 -709.94 -674.29 -648.06 -611.45 -579.15 -560.00 -532.33 -497.69 -462.72 -435.83 -392.58 -363.82 -344.61 -303.66 -295.21 -291.58 -291.89 -287.79 -277.62 -270.40 -262.67 -258.45 -255.55 -252.72 -245.49 -237.45 -233.63 -218.60 -210.21 -201.54 -198.46 -187.18 -185.63 -185.60 -191.43 -247.57 -300.33 -511.24 -803.85 -1140.60 -2244.04 -2186.91 -1657.24 -1386.42 51.05 57.18 46.65 93.97 97.13 112.19 114.19 110.58 102.79 74.27 61.26 44.83 38.89 30.34 27.76 24.59 17.25 11.99 -12.15 -459.61 -1518.90 -1701.24 -1881.08 -2060.32 -2149.23 -2267.02 -2358.51 -2370.06 -2391.29 -2393.78 -2404.15 -2406.81 -2423.36 -2485.68 -2590.60 -2852.91 -3223.49 -3658.06 -4085.34 -4289.72 -4322.78 -4341.33 -4346.13 -4346.19
-2825.71 -2829.30 -2837.47 -2844.40 -2849.53 -2853.44 -2852.59 -2861.94 -2866.06 -2868.64 -2884.64 -2880.42 -2890.99 -2888.69 -2892.71 -2880.29 -2880.53 -2883.91 -2895.32 -2902.84 -2899.36 -2905.43 -2914.21 -2915.70 -2915.86 -2899.25 -2899.64 -2889.35 -2869.74 -2854.81 -2852.42 -2850.22 -2827.22 -2780.59 -2708.27 -2565.44 -2306.10 -2017.71 -1989.35 -1786.91 -1595.17 -1527.47 -1334.41 -1061.72 -980.53 -957.54 -875.04 -856.49 -830.70 -803.68 -781.51 -767.17 -737.83 -715.09 -688.06 -651.87 -634.13 -603.21 -569.60 -533.35 -499.40 -460.55 -431.72 -386.97 -356.29 -341.52 -315.29 -306.98 -301.25 -296.82 -287.85 -280.66 -271.77 -263.99 -254.40 -249.63 -246.62 -244.31 -235.16 -230.76 -213.45 -210.14 -207.29 -200.87 -193.94 -183.31 -195.03 -202.15 -197.17 -234.19 -245.97 -325.67 -391.56 -892.66 -693.22 -471.19 -256.22 65.21 117.20 87.91 151.45 147.68 162.78 165.73 118.37 111.52 89.11 66.38 47.71 36.44 22.90 19.69 15.40 10.45 -1.35 -25.49 -827.95 -1730.32 -1991.03 -2126.19 -2141.81 -2247.40 -2346.41 -2364.77 -2381.95 -2392.35 -2401.30 -2409.79 -2419.11 -2445.44 -2482.16 -2587.52 -2846.36 -3071.00 -3846.21 -4205.62 -4334.93 -4352.61 -4350.97 -4353.66 -4353.72
-2854.71 -2858.83 -2863.77 -2872.15 -2877.20 -2887.89 -2893.93 -2899.76 -2905.96 -2910.38 -2910.35 -2917.80 -2914.92 -2924.58 -2913.92 -2908.61 -2910.34 -2917.28 -2917.55 -2920.20 -2921.16 -2937.27 -2943.93 -2943.74 -2941.67 -2926.32 -2922.80 -2915.85 -2889.90 -2874.84 -2870.92 -2862.88 -2842.44 -2785.59 -2718.15 -2534.57 -2354.54 -2117.75 -1887.71 -1758.11 -1620.87 -1473.51 -1257.08 -1103.16 -1016.60 -918.88 -899.78 -872.09 -852.15 -826.27 -801.93 -777.34 -753.01 -741.74 -704.09 -656.76 -642.58 -608.93 -560.21 -532.43 -506.20 -471.71 -439.69 -381.21 -352.57 -334.77 -315.32 -306.44 -300.77 -295.47 -289.17 -281.14 -274.35 -268.72 -240.02 -229.15 -227.95 -226.89 -225.05 -212.84 -197.48 -202.81 -204.05 -195.82 -158.06 -152.27 -154.54 -148.57 -152.08 -164.76 -128.22 -98.87 -102.13 -193.15 -116.48 25.42 70.38 128.57 178.85 152.01 250.34 247.09 224.41 202.80 157.60 110.64 87.99 70.13 46.03 38.21 16.45 10.13 -1.07 -17.63 -22.89 -43.38 -196.59 -1592.90 -1990.53 -2187.12 -2240.48 -2326.40 -2342.56 -2384.30 -2395.90 -2399.22 -2412.39 -2426.71 -2435.05 -2458.55 -2506.90 -2658.23 -3098.44 -3503.42 -4014.74 -4311.43 -4345.36 -4353.87 -4355.59 -4361.03 -4361.09
-2887.13 -2887.09 -2900.04 -2896.50 -2901.78 -2906.22 -2924.65 -2932.50 -2943.66 -2944.69 -2947.44 -2952.76 -2968.54 -2962.12 -2969.71 -2946.83 -2942.56 -2943.14 -2957.45 -2953.25 -2959.72 -2968.05 -2980.75 -2981.23 -2962.27 -2954.69 -2948.95 -2934.07 -2912.79 -2901.50 -2889.57 -2885.32 -2840.85 -2794.50 -2690.94 -2516.32 -2410.10 -2088.90 -1867.91 -1706.19 -1599.42 -1456.98 -1338.33 -1221.04 -1063.55 -971.83 -929.41 -898.21 -859.12 -842.55 -814.97 -802.03 -784.39 -753.01 -713.50 -666.30 -644.74 -601.53 -562.09 -544.86 -522.24 -486.45 -432.73 -379.64 -348.63 -332.40 -316.50 -311.75 -304.11 -297.96 -288.35 -278.19 -268.74 -265.87 -217.32 -200.11 -191.59 -203.12 -196.76 -177.39 -173.22 -181.10 -179.65 -179.48 -129.75 -95.33 -96.82 -85.07 -85.30 -76.50 -75.59 -41.39 -35.41 -23.69 13.36 73.35 101.34 201.80 296.76 387.52 476.27 308.65 244.67 191.90 159.84 117.89 100.30 60.30 45.54 26.16 7.73 -4.59 -24.14 -26.93 -39.38 -639.17 -948.34 -1646.74 -2220.12 -2225.75 -2301.72 -2355.70 -2376.09 -2390.16 -2406.50 -2423.12 -2430.61 -2437.00 -2440.25 -2457.77 -2572.23 -2912.79 -3395.43 -3975.33 -4195.36 -4321.07 -4337.38 -4359.96 -4358.45 -4363.34 -4363.40
-2922.62 -2922.58 -2927.10 -2934.09 -2947.83 -2959.24 -2962.58 -2970.98 -2965.52 -2972.69 -2985.98 -2996.59 -2985.24 -2987.99 -2999.46 -2979.87 -2977.47 -2985.50 -2984.06 -2994.19 -3000.98 -3015.01 -3019.07 -3003.80 -2998.65 -2978.39 -2976.27 -2960.54 -2936.94 -2923.07 -2911.32 -2898.72 -2846.77 -2792.89 -2725.72 -2504.30 -2417.06 -2165.68 -1991.86 -1795.85 -1573.14 -1485.92 -1406.44 -1280.48 -1153.42 -1016.21 -946.37 -917.70 -876.85 -863.84 -847.72 -829.21 -800.14 -771.24 -734.42 -696.24 -649.04 -614.71 -569.07 -545.29 -506.11 -477.97 -411.52 -382.83 -344.13 -331.19 -318.51 -312.01 -306.71 -298.96 -285.59 -263.95 -252.28 -239.70 -215.02 -157.87 -151.76 -163.71 -160.17 -153.14 -127.43 -128.69 -132.02 -94.65 -88.98 -51.21 -53.57 -31.96 -33.13 -41.56 -34.66 -22.84 -18.10 -1.43 56.79 90.59 128.71 480.03 482.23 705.75 665.01 269.50 225.87 193.88 167.40 107.29 90.22 69.11 51.55 23.97 6.13 -12.77 -34.03 -58.27 -398.84 -1186.11 -1501.40 -1955.50 -2241.21 -2254.81 -2324.37 -2369.23 -2389.57 -2408.75 -2429.50 -2438.95 -2445.41 -2450.74 -2456.31 -2471.70 -2547.33 -3303.41 -3867.86 -4265.81 -4311.58 -4325.47 -4346.49 -4362.76 -4357.41 -4359.51 -4361.17
-2959.77 -2959.73 -2975.30 -2992.77 -2994.18 -2991.67 -3006.13 -3011.85 -3009.57 -3018.91 -3021.48 -3023.71 -3034.70 -3046.16 -3045.52 -3029.72 -3035.63 -3030.11 -3036.59 -3028.62 -3032.50 -3042.04 -3043.06 -3034.86 -3017.95 -3010.86 -3014.92 -3006.59 -2980.05 -2968.81 -2952.93 -2936.18 -2883.81 -2832.82 -2755.65 -2589.61 -2481.44 -2244.36 -2165.18 -1918.85 -1671.17 -1533.78 -1415.98 -1298.50 -1191.99 -1059.38 -1002.96 -944.40 -896.26 -880.25 -863.06 -831.72 -818.21 -775.01 -747.87 -703.29 -650.44 -622.05 -602.91 -561.82 -520.31 -472.03 -437.37 -397.46 -353.74 -329.11 -317.99 -312.63 -303.70 -298.24 -286.57 -259.40 -241.23 -206.26 -191.72 -146.18 -129.31 -128.72 -122.56 -106.54 -79.00 -73.91 -57.47 -41.74 -35.12 -26.62 -16.29 -13.94 -11.78 8.21 24.86 43.93 59.69 53.33 75.28 133.66 253.97 766.75 902.09 639.79 408.76 231.49 199.96 167.94 129.45 111.87 91.59 65.26 47.13 13.92 -11.56 -32.04 -77.14 -466.77 -1025.49 -1746.68 -1956.10 -2150.29 -2215.92 -2305.88 -2346.29 -2368.34 -2395.02 -2425.75 -2436.10 -2447.18 -2461.31 -2464.21 -2469.90 -2476.25 -2575.21 -3058.83 -4004.14 -4194.97 -4313.47 -4347.37 -4359.41 -4364.04 -4353.88 -4350.39 -4350.47
-2990.86 -2994.84 -3002.24 -3013.34 -3020.92 -3031.43 -3042.48 -3038.82 -3044.13 -3045.35 -3063.76 -3068.23 -3070.84 -3068.02 -3071.29 -3067.71 -3075.18 -3070.19 -3069.65 -3080.78 -3088.14 -3094.54 -3084.71 -3077.90 -3050.88 -3047.09 -3043.81 -3029.26 -3015.49 -3005.54 -2979.71 -2971.29 -2912.92 -2860.53 -2791.26 -2635.29 -2440.07 -2311.41 -2074.33 -1902.65 -1754.86 -1572.17 -1379.48 -1280.65 -1141.49 -1089.32 -1017.03 -957.65 -921.73 -906.56 -887.45 -877.96 -843.71 -798.77 -772.76 -726.65 -685.13 -663.98 -623.16 -587.41 -527.49 -493.62 -457.14 -399.67 -366.58 -350.09 -337.29 -324.65 -318.87 -281.51 -258.58 -245.22 -218.47 -187.56 -157.85 -131.96 -102.57 -98.35 -80.26 -67.97 -55.51 -48.68 -29.96 -17.41 -12.88 4.53 -4.47 33.89 23.46 42.76 68.22 88.89 87.22 94.54 114.30 250.26 506.09 869.32 921.49 416.28 245.56 218.60 169.24 115.15 113.12 111.85 83.94 62.04 28.50 3.42 -30.44 -73.17 -381.54 -857.20 -1277.85 -1771.78 -2045.50 -2197.70 -2232.94 -2312.77 -2360.09 -2384.43 -2413.37 -2428.84 -2443.94 -2459.43 -2470.20 -2477.86 -2481.66 -2491.46 -2580.28 -2745.40 -3401.68 -4152.60 -4343.73 -4353.81 -4352.32 -4349.81 -4342.10 -4336.32 -4336.39
-3019.85 -3026.85 -3039.24 -3045.09 -3056.70 -3066.35 -3073.66 -3079.68 -3084.67 -3083.84 -3088.69 -3089.71 -3099.96 -3099.50 -3109.61 -3128.30 -3136.29 -3130.17 -3131.85 -3145.76 -3124.53 -3137.79 -3112.72 -3107.35 -3106.48 -3098.14 -3086.22 -3069.99 -3068.93 -3052.15 -3049.77 -3017.22 -2972.12 -2851.70 -2768.63 -2622.24 -2436.83 -2287.01 -2173.45 -2062.28 -1855.03 -1662.70 -1484.34 -1286.49 -1204.80 -1115.14 -1077.68 -1015.78 -966.29 -943.73 -921.35 -908.06 -845.54 -810.77 -771.77 -728.17 -693.46 -681.93 -640.02 -599.05 -562.90 -518.45 -471.81 -415.34 -378.96 -381.72 -364.28 -359.41 -329.54 -281.76 -218.75 -205.24 -178.13 -147.35 -123.65 -93.85 -81.80 -74.95 -65.81 -54.75 -37.90 -29.53 -22.63 -5.72 25.53 39.42 52.29 89.53 93.09 109.54 107.24 117.53 118.22 178.48 255.66 544.22 829.09 822.38 460.84 276.35 241.63 203.27 144.93 122.50 107.35 100.84 60.92 38.85 30.29 -29.44 -61.86 -437.35 -887.57 -1200.51 -1516.88 -1833.29 -2081.66 -2183.54 -2283.17 -2326.75 -2368.85 -2398.37 -2419.00 -2432.67 -2453.82 -2465.73 -2479.77 -2486.73 -2491.84 -2498.99 -2571.31 -2729.09 -3320.92 -4016.81 -4321.27 -4339.75 -4341.82 -4336.33 -4329.77 -4313.96 -4317.70
-3068.04 -3067.94 -3074.22 -3096.52 -3095.30 -3108.40 -3119.35 -3125.10 -3121.43 -3121.93 -3125.31 -3137.85 -3145.21 -3142.96 -3167.25 -3164.31 -3171.96 -3179.79 -3168.60 -3174.94 -3181.32 -3167.17 -3176.73 -3150.99 -3143.59 -3135.37 -3127.95 -3126.50 -3108.91 -3088.66 -3085.41 -3038.78 -2970.52 -2918.60 -2804.85 -2677.36 -2474.65 -2338.23 -2168.89 -2031.75 -1836.45 -1674.10 -1544.63 -1396.20 -1264.21 -1169.66 -1135.71 -1073.13 -1021.70 -1006.75 -967.56 -939.61 -898.98 -830.20 -771.82 -747.56 -714.76 -676.51 -630.99 -605.05 -571.28 -538.93 -468.77 -424.23 -397.94 -394.75 -395.46 -373.87 -339.94 -306.93 -192.89 -159.11 -154.19 -134.96 -102.12 -78.32 -56.46 -56.21 -44.15 -33.57 -26.83 -19.09 -10.94 6.95 47.78 103.48 110.29 118.93 127.30 130.80 160.83 170.59 177.60 393.02 562.44 885.56 981.22 574.52 302.13 214.47 169.99 147.15 127.82 120.71 77.55 70.86 50.25 20.86 -15.10 -102.98 -268.22 -777.94 -1197.43 -1503.55 -1627.99 -1883.63 -2103.34 -2192.57 -2288.62 -2349.81 -2376.41 -2408.74 -2426.68 -2442.28 -2463.86 -2479.08 -2484.56 -2491.80 -2499.50 -2509.95 -2573.75 -2643.68 -3028.60 -3865.00 -4306.98 -4342.94 -4335.35 -4326.98 -4308.56 -4296.02 -4291.54
-3110.42 -3110.32 -3126.67 -3137.98 -3128.41 -3165.02 -3172.85 -3165.07 -3179.36 -3171.08 -3175.54 -3187.30 -3191.15 -3191.72 -3205.05 -3215.98 -3233.31 -3226.98 -3216.61 -3228.54 -3220.78 -3215.10 -3210.65 -3206.05 -3196.50 -3181.96 -3172.48 -3159.38 -3154.39 -3142.39 -3123.89 -3106.12 -3065.57 -3014.70 -2898.62 -2784.94 -2488.78 -2393.53 -2268.63 -2053.58 -1946.67 -1761.99 -1584.81 -1396.55 -1326.42 -1224.17 -1194.10 -1138.00 -1107.02 -1059.44 -1002.60 -970.71 -918.66 -873.25 -766.42 -741.90 -706.85 -664.18 -639.31 -608.42 -575.25 -534.25 -493.58 -436.17 -406.94 -402.06 -392.24 -304.92 -253.44 -197.76 -134.15 -86.36 -105.05 -114.83 -80.46 -57.54 -46.85 -36.54 -32.79 -26.96 -21.25 -10.79 -4.29 15.72 77.86 118.99 132.04 131.74 131.22 224.33 307.80 382.09 416.26 982.80 1053.69 1225.10 953.86 400.76 297.03 198.81 145.85 129.44 86.66 68.30 53.21 52.51 17.50 -12.42 -33.22 -218.88 -635.20 -1254.71 -1462.02 -1577.27 -1723.84 -1859.07 -2201.66 -2250.28 -2330.00 -2369.85 -2398.86 -2413.56 -2433.84 -2455.15 -2474.05 -2484.54 -2490.64 -2493.28 -2497.33 -2507.42 -2567.56 -2760.27 -3300.06 -3923.01 -4280.26 -4311.84 -4299.37 -4281.56 -4285.26 -4270.87 -4271.12
-3152.66 -3152.56 -3175.70 -3167.42 -3186.32 -3204.10 -3212.57 -3216.63 -3213.05 -3221.49 -3232.23 -3240.67 -3224.61 -3241.99 -3245.15 -3260.37 -3261.21 -3265.44 -3277.67 -3265.15 -3257.68 -3249.58 -3251.75 -3235.04 -3232.00 -3225.64 -3217.49 -3208.05 -3191.02 -3184.73 -3162.22 -3148.03 -3131.62 -3077.33 -2973.31 -2832.25 -2627.10 -2494.94 -2278.73 -2124.23 -1976.66 -1879.39 -1683.74 -1500.05 -1372.34 -1312.36 -1242.53 -1205.52 -1130.33 -1097.50 -1029.12 -984.21 -944.15 -868.68 -811.44 -759.05 -720.59 -673.01 -639.78 -614.63 -584.27 -554.89 -506.99 -479.82 -454.06 -357.83 -341.65 -250.93 -79.31 -47.61 -59.04 -64.94 -56.45 -58.85 -36.77 -41.51 -33.89 -32.80 -27.12 -19.55 -14.77 -9.71 26.47 62.14 93.22 127.55 134.57 316.21 398.35 622.24 778.69 969.85 989.60 1724.46 2121.98 1982.89 1331.79 788.37 466.16 301.94 152.65 108.21 69.52 53.51 22.51 3.58 -24.58 -33.66 -85.68 -516.96 -1093.47 -1547.53 -1546.16 -1712.56 -1865.79 -1995.59 -2220.15 -2322.69 -2341.42 -2389.89 -2412.99 -2425.97 -2447.18 -2460.61 -2476.77 -2489.69 -2491.63 -2490.55 -2485.50 -2494.38 -2571.29 -2850.82 -3382.33 -3978.30 -4283.79 -4301.77 -4276.70 -4263.17 -4251.80 -4252.21 -4247.21
-3194.93 -3192.60 -3206.76 -3218.30 -3220.26 -3232.60 -3243.35 -3261.49 -3258.86 -3261.86 -3268.30 -3273.44 -3277.26 -3291.19 -3294.82 -3309.65 -3311.44 -3315.59 -3311.49 -3298.35 -3303.67 -3301.44 -3293.43 -3277.74 -3264.15 -3268.45 -3263.44 -3253.26 -3240.39 -3219.47 -3209.88 -3183.03 -3159.20 -3092.09 -3020.68 -2897.59 -2800.65 -2583.04 -2349.81 -2155.32 -1966.50 -1845.06 -1707.27 -1536.17 -1435.05 -1354.12 -1323.00 -1245.85 -1165.72 -1077.51 -1046.02 -987.50 -943.06 -878.17 -839.04 -775.27 -729.83 -687.38 -653.89 -617.84 -598.76 -576.27 -534.29 -503.75 -487.81 -302.91 -167.65 -88.04 -16.60 -9.86 -12.33 -10.65 -14.06 -22.07 -18.72 -22.62 -24.55 -23.41 -15.38 -12.17 11.09 19.25 81.82 95.27 103.96 208.00 370.55 580.46 1055.83 1325.93 1507.89 2071.25 2089.71 2335.85 2465.80 1865.13 1551.30 940.09 416.74 192.27 68.64 70.50 64.78 32.24 -22.77 -62.71 -110.70 -800.14 -940.71 -1150.71 -1634.63 -1741.66 -1788.68 -1966.24 -2000.19 -2137.49 -2249.39 -2329.36 -2368.05 -2387.95 -2419.84 -2431.61 -2449.43 -2460.95 -2476.88 -2485.12 -2484.44 -2480.98 -2471.33 -2463.68 -2460.92 -2990.59 -3755.18 -4175.80 -4282.29 -4268.72 -4242.80 -4224.58 -4220.66 -4219.93 -4219.98
-3244.79 -3241.46 -3254.20 -3270.62 -3282.12 -3286.80 -3307.77 -3309.75 -3311.79 -3316.51 -3307.93 -3320.08 -3328.61 -3329.68 -3330.90 -3339.69 -3335.82 -3341.94 -3346.73 -3338.97 -3337.18 -3323.65 -3326.68 -3311.28 -3313.44 -3311.85 -3296.91 -3287.39 -3281.65 -3257.98 -3249.21 -3236.42 -3204.81 -3156.89 -3038.44 -2950.47 -2849.35 -2630.38 -2348.23 -2184.77 -2051.92 -1922.46 -1767.63 -1603.29 -1573.25 -1482.87 -1368.80 -1333.54 -1236.37 -1144.36 -1060.17 -991.64 -935.00 -882.74 -827.87 -779.39 -730.77 -699.64 -647.42 -633.87 -604.80 -577.24 -525.96 -507.95 -360.90 -143.59 -45.01 -43.58 8.13 -2.00 -0.41 41.07 50.28 31.19 22.72 -13.73 -9.91 -10.43 21.80 34.35 67.61 70.16 178.84 165.04 129.53 248.30 832.31 1049.48 1815.50 2282.88 2376.38 2207.98 2077.23 1588.03 1956.29 1263.59 1142.92 409.61 210.55 139.35 41.38 21.82 -11.88 -60.51 -116.43 -248.55 -1071.13 -1416.09 -1561.78 -1619.20 -1777.85 -1926.48 -2014.86 -2062.17 -2199.00 -2277.47 -2324.40 -2360.71 -2386.40 -2402.67 -2424.03 -2438.92 -2454.61 -2466.45 -2474.23 -2479.59 -2478.35 -2469.63 -2458.78 -2439.95 -2449.34 -3132.17 -3870.54 -4252.49 -4259.06 -4239.83 -4221.01 -4207.96 -4199.74 -4191.18 -4191.22
-3286.15 -3285.46 -3297.72 -3310.61 -3314.42 -3337.19 -3339.27 -3337.07 -3346.22 -3352.56 -3362.63 -3365.95 -3367.30 -3363.49 -3362.79 -3359.38 -3366.56 -3368.96 -3372.12 -3370.38 -3365.77 -3354.84 -3346.20 -3339.18 -3335.94 -3333.28 -3324.29 -3318.82 -3306.10 -3282.32 -3269.99 -3257.36 -3232.37 -3208.88 -3096.73 -2924.82 -2804.77 -2606.25 -2492.12 -2354.97 -2084.47 -1943.66 -1836.35 -1671.22 -1609.79 -1511.23 -1420.81 -1376.35 -1330.89 -1209.88 -1108.22 -1011.08 -992.78 -891.80 -834.67 -801.13 -757.39 -709.32 -675.66 -649.39 -615.58 -595.18 -573.24 -457.74 -201.24 -24.70 33.99 46.35 58.16 48.53 51.03 74.29 92.82 96.97 90.53 58.64 33.43 35.84 72.52 77.36 108.53 443.08 495.80 388.43 610.55 1082.92 1530.93 1908.44 2483.71 2252.46 1998.92 1570.03 1442.94 1040.38 513.06 437.94 347.61 211.56 102.25 65.42 -5.16 -17.62 -49.47 -128.96 -213.72 -935.34 -1783.26 -1807.88 -1902.47 -1833.23 -1918.37 -2089.74 -2171.04 -2185.40 -2238.67 -2291.94 -2338.36 -2373.57 -2392.46 -2416.07 -2430.10 -2440.50 -2453.84 -2464.33 -2464.34 -2473.10 -2467.76 -2456.48 -2439.82 -2421.21 -2431.59 -2635.43 -3614.31 -4203.53 -4215.44 -4220.95 -4206.72 -4200.85 -4183.34 -4163.33 -4163.37
-3316.39 -3316.30 -3333.02 -3340.00 -3346.01 -3358.61 -3357.59 -3360.34 -3370.49 -3372.16 -3375.49 -3380.47 -3382.81 -3386.11 -3387.90 -3382.69 -3384.80 -3385.45 -3390.50 -3387.65 -3380.82 -3375.12 -3365.20 -3367.57 -3355.52 -3349.29 -3340.74 -3332.52 -3320.48 -3301.30 -3283.81 -3274.69 -3262.62 -3197.97 -3140.12 -2965.71 -2877.26 -2754.04 -2627.53 -2437.53 -2290.68 -2062.07 -1883.14 -1761.46 -1659.14 -1555.32 -1494.30 -1426.19 -1355.54 -1226.28 -1138.02 -1062.22 -1020.94 -920.63 -863.18 -805.82 -774.46 -729.02 -703.50 -663.24 -636.64 -546.80 -564.64 -431.25 -68.95 34.22 51.38 71.68 74.18 84.88 86.03 100.09 119.47 125.21 217.75 160.82 135.47 188.69 342.58 403.63 645.51 1123.61 1319.75 1390.20 1399.89 1455.03 1392.78 1811.21 1934.37 1512.54 1332.03 938.42 881.19 473.98 288.07 121.98 141.84 76.99 20.77 -1.12 -44.68 -63.39 -113.71 -177.95 -537.44 -1283.79 -1853.36 -1995.02 -1967.27 -2006.00 -2053.68 -2110.80 -2226.48 -2277.02 -2310.30 -2331.24 -2371.55 -2395.32 -2410.69 -2425.12 -2441.00 -2449.76 -2452.22 -2459.65 -2459.08 -2460.48 -2449.65 -2448.75 -2420.56 -2406.10 -2414.24 -2707.33 -3541.76 -4216.30 -4218.18 -4218.38 -4195.28 -4173.65 -4158.81 -4139.73 -4139.78
-3341.17 -3341.08 -3353.45 -3359.74 -3364.56 -3370.51 -3378.53 -3378.60 -3384.15 -3387.60 -3389.87 -3395.07 -3399.15 -3399.48 -3397.64 -3395.76 -3398.45 -3397.74 -3398.19 -3397.85 -3390.15 -3387.05 -3380.17 -3374.73 -3366.03 -3358.80 -3348.68 -3337.65 -3327.59 -3307.12 -3293.36 -3282.17 -3258.74 -3190.32 -3131.33 -2988.87 -2922.93 -2772.74 -2709.95 -2535.58 -2475.19 -2231.56 -2000.38 -1800.36 -1702.56 -1640.29 -1561.56 -1497.38 -1385.43 -1249.18 -1173.72 -1105.95 -1035.46 -961.82 -885.46 -851.92 -807.35 -753.50 -711.68 -668.11 -618.68 -438.85 -213.60 -110.98 -6.04 51.00 64.91 101.80 116.89 131.34 176.53 364.16 453.39 611.43 564.47 636.86 506.11 761.69 1080.71 1070.17 1268.62 1515.59 1577.75 1440.52 1110.68 1135.59 1070.19 1024.49 888.10 818.01 788.42 410.34 283.25 153.95 123.30 132.78 61.41 3.98 -6.85 -50.45 -127.55 -114.24 -751.36 -1193.80 -1057.04 -1727.99 -2131.09 -2133.17 -2089.00 -2145.46 -2175.55 -2233.61 -2268.16 -2321.38 -2343.73 -2366.36 -2394.88 -2404.38 -2423.15 -2440.60 -2453.24 -2457.20 -2455.80 -2455.44 -2450.92 -2447.68 -2440.80 -2429.32 -2408.22 -2390.61 -2385.13 -2824.79 -3626.24 -4226.85 -4215.70 -4190.86 -4166.39 -4142.44 -4139.97 -4125.31 -4120.67
-3361.37 -3361.29 -3372.32 -3377.21 -3382.89 -3385.78 -3389.28 -3389.78 -3393.26 -3395.46 -3398.58 -3400.70 -3405.34 -3406.12 -3406.72 -3405.22 -3404.00 -3407.00 -3403.77 -3401.18 -3397.83 -3392.18 -3384.73 -3380.36 -3370.64 -3360.14 -3354.48 -3343.40 -3329.28 -3315.50 -3302.61 -3289.81 -3276.17 -3214.09 -3115.24 -3047.42 -2979.59 -2916.54 -2690.97 -2626.24 -2495.06 -2248.35 -2089.84 -1920.84 -1810.55 -1717.45 -1624.85 -1526.50 -1442.92 -1265.50 -1211.96 -1124.01 -1054.87 -993.32 -910.62 -864.95 -810.12 -780.51 -747.33 -657.47 -572.99 -356.39 -108.43 -28.46 36.30 55.90 85.52 121.77 143.36 184.18 372.82 793.89 1138.67 1527.69 1620.77 1775.27 2102.16 1917.38 2108.66 1972.31 1957.31 1725.78 1638.39 1083.74 838.08 600.41 536.69 456.40 457.50 350.45 424.17 495.41 334.99 146.86 33.07 16.47 -20.34 -29.84 -57.47 -169.48 -336.40 -1524.75 -1547.03 -2079.16 -1850.04 -1931.91 -2141.24 -2159.13 -2185.70 -2224.85 -2244.18 -2294.11 -2331.99 -2353.09 -2375.09 -2390.94 -2418.51 -2425.01 -2439.32 -2450.65 -2456.30 -2459.81 -2459.26 -2456.12 -2445.79 -2435.54 -2425.21 -2410.84 -2396.93 -2358.10 -2347.01 -2590.88 -3559.99 -4202.30 -4185.56 -4179.36 -4170.97 -4142.29 -4129.79 -4105.40 -4105.46
-3376.75 -3376.59 -3381.89 -3386.35 -3389.46 -3391.85 -3395.19 -3395.94 -3395.31 -3396.79 -3400.34 -3401.92 -3405.23 -3407.91 -3407.78 -3405.13 -3407.30 -3408.62 -3406.88 -3402.50 -3400.35 -3392.68 -3386.98 -3380.61 -3370.83 -3362.42 -3352.92 -3344.99 -3331.66 -3321.15 -3308.30 -3291.75 -3270.26 -3227.32 -3184.59 -3128.58 -3028.93 -2952.18 -2812.03 -2702.85 -2513.98 -2299.07 -2121.03 -1971.30 -1847.43 -1753.50 -1628.59 -1558.81 -1382.91 -1328.71 -1254.39 -1156.22 -1075.04 -991.93 -941.98 -872.42 -842.83 -806.51 -749.79 -638.11 -430.82 -264.47 -83.99 -13.98 45.74 74.24 124.25 188.65 232.73 351.88 717.30 1275.01 1748.21 1993.16 2236.69 2139.25 2206.40 2039.21 1969.52 1917.02 1480.69 1038.31 627.94 751.81 629.93 519.23 382.81 546.25 434.30 181.61 263.96 288.76 93.37 24.78 18.87 -25.52 -74.74 -161.26 -189.41 -274.53 -885.91 -2442.39 -2338.01 -2264.43 -2204.36 -2181.25 -2165.42 -2224.13 -2248.31 -2275.21 -2304.67 -2340.34 -2371.46 -2380.75 -2396.10 -2403.23 -2427.22 -2445.89 -2455.24 -2459.65 -2455.85 -2457.10 -2455.62 -2451.06 -2440.61 -2432.98 -2416.58 -2403.99 -2382.26 -2353.82 -2352.28 -2878.40 -3687.77 -4210.40 -4179.42 -4171.96 -4163.78 -4142.99 -4128.83 -4095.14 -4095.20
-3387.45 -3387.37 -3391.55 -3393.31 -3395.00 -3396.64 -3397.08 -3393.66 -3385.94 -3383.76 -3387.16 -3393.65 -3396.77 -3400.65 -3401.55 -3402.59 -3403.06 -3402.92 -3401.89 -3399.06 -3400.64 -3396.73 -3389.20 -3379.76 -3370.26 -3363.99 -3352.34 -3342.41 -3328.06 -3322.40 -3311.92 -3297.13 -3275.31 -3254.10 -3210.68 -3171.65 -3101.44 -2973.52 -2889.44 -2744.25 -2546.87 -2318.35 -2124.97 -1982.69 -1848.24 -1719.95 -1580.55 -1509.85 -1407.86 -1338.45 -1277.72 -1190.86 -1092.06 -990.98 -929.46 -901.26 -861.65 -806.52 -747.40 -542.78 -300.58 -129.42 -37.76 20.10 73.21 107.00 163.42 230.80 305.69 395.63 531.52 1016.36 1300.90 1264.56 1547.09 1346.42 1325.56 1368.98 1285.36 777.70 913.94 738.64 590.40 359.84 434.96 444.55 293.98 422.90 364.48 284.50 142.16 96.44 29.64 -14.77 -90.68 -225.94 -241.72 -650.36 -652.91 -400.81 -1655.65 -2169.53 -2305.62 -2243.46 -2205.90 -2239.60 -2245.31 -2282.26 -2304.07 -2323.85 -2336.93 -2367.78 -2389.55 -2407.79 -2419.71 -2429.75 -2447.04 -2460.72 -2464.35 -2470.60 -2461.94 -2460.49 -2451.96 -2439.49 -2428.80 -2415.78 -2408.67 -2394.08 -2379.63 -2350.78 -2367.08 -2738.50 -3993.52 -4217.63 -4185.56 -4158.92 -4159.71 -4146.58 -4118.96 -4090.64 -4090.70
-3395.17 -3395.09 -3396.27 -3396.28 -3396.79 -3397.32 -3397.33 -3392.17 -3380.11 -3377.75 -3378.33 -3381.35 -3385.05 -3389.79 -3394.33 -3396.06 -3398.33 -3396.10 -3395.40 -3395.96 -3402.18 -3403.09 -3394.92 -3387.39 -3371.78 -3360.89 -3350.88 -3339.22 -3328.33 -3318.24 -3308.29 -3301.70 -3290.16 -3278.45 -3253.78 -3190.73 -3121.86 -3059.26 -2955.71 -2779.12 -2573.87 -2270.78 -2152.40 -1978.38 -1827.01 -1667.17 -1589.34 -1486.32 -1432.29 -1354.13 -1273.44 -1217.02 -1117.65 -1030.75 -971.53 -935.92 -917.38 -874.13 -769.35 -488.23 -247.16 -68.53 -13.98 25.08 75.61 121.14 176.65 195.69 262.95 327.54 413.26 488.20 669.57 765.16 991.11 818.61 691.93 818.85 585.79 572.71 583.40 569.24 516.20 306.84 386.26 392.29 240.47 300.01 223.20 159.73 19.07 -5.16 -15.10 -30.90 -488.78 -786.04 -1386.71 -1579.34 -1776.08 -1914.19 -1952.32 -2288.20 -2280.82 -2260.22 -2268.95 -2281.87 -2315.77 -2343.46 -2367.68 -2370.31 -2373.16 -2392.99 -2418.99 -2440.36 -2461.28 -2454.31 -2464.26 -2475.54 -2482.37 -2477.08 -2468.13 -2469.11 -2443.35 -2433.15 -2426.84 -2410.77 -2395.43 -2388.66 -2360.89 -2341.20 -2325.46 -2659.44 -3728.99 -4180.28 -4213.33 -4191.49 -4178.25 -4148.49 -4122.05 -4095.73 -4091.61
-3403.30 -3403.23 -3400.48 -3397.95 -3396.64 -3395.97 -3395.23 -3386.49 -3373.09 -3372.26 -3377.71 -3379.45 -3384.65 -3388.41 -3392.86 -3394.47 -3393.47 -3392.80 -3393.61 -3402.22 -3410.72 -3418.94 -3407.14 -3394.92 -3387.24 -3362.76 -3350.31 -3339.06 -3329.94 -3321.30 -3304.19 -3293.48 -3287.19 -3281.24 -3252.53 -3219.80 -3186.42 -3130.42 -3021.40 -2884.92 -2620.89 -2297.73 -2193.85 -2000.38 -1857.45 -1739.53 -1618.49 -1512.69 -1437.69 -1368.61 -1290.97 -1216.15 -1136.58 -1098.68 -1006.41 -981.86 -929.54 -912.08 -794.02 -522.23 -270.79 -78.43 7.13 25.76 78.69 128.42 195.94 243.02 264.73 325.64 330.90 385.84 486.75 602.72 631.87 598.53 426.69 514.20 418.58 393.99 511.03 458.16 473.89 276.67 228.73 228.08 194.77 144.32 90.61 29.73 -1.04 -28.96 -47.77 -106.15 -957.33 -2035.89 -2579.06 -2550.60 -2626.49 -2473.09 -2362.99 -2328.87 -2287.60 -2289.23 -2304.98 -2328.94 -2362.73 -2397.56 -2400.24 -2408.44 -2426.05 -2445.09 -2437.43 -2460.14 -2480.22 -2471.08 -2480.92 -2491.55 -2483.61 -2477.35 -2477.79 -2476.02 -2456.76 -2431.74 -2423.28 -2412.38 -2397.69 -2389.00 -2371.50 -2339.84 -2323.20 -2992.94 -3621.74 -4177.69 -4214.03 -4194.81 -4178.70 -4148.36 -4121.98 -4096.77 -4096.84
-3417.64 -3417.57 -3408.31 -3397.81 -3394.59 -3394.00 -3392.65 -3384.64 -3371.01 -3370.46 -3374.38 -3380.22 -3383.84 -3388.83 -3391.97 -3393.64 -3398.33 -3396.18 -3421.40 -3429.91 -3462.50 -3462.70 -3440.92 -3421.77 -3406.20 -3383.19 -3360.24 -3341.31 -3332.97 -3321.06 -3306.13 -3291.49 -3279.16 -3273.63 -3256.64 -3228.61 -3202.67 -3139.07 -3007.93 -2826.51 -2592.90 -2358.27 -2287.62 -2124.09 -1918.22 -1785.96 -1646.30 -1524.42 -1441.99 -1375.88 -1281.92 -1253.82 -1195.55 -1101.17 -1060.43 -1019.31 -985.47 -971.19 -916.52 -798.36 -507.76 -123.56 -9.47 42.66 143.53 364.82 386.11 564.99 357.57 423.79 400.09 418.42 539.47 598.18 624.90 575.43 457.76 390.39 367.40 269.96 423.02 330.54 298.27 241.18 152.54 110.16 106.93 78.31 24.50 -21.99 -41.38 -133.01 -227.37 -602.36 -1663.99 -2462.13 -2516.72 -2440.74 -2403.54 -2413.13 -2382.18 -2342.08 -2330.08 -2345.39 -2344.50 -2381.71 -2401.40 -2422.55 -2437.53 -2467.81 -2462.64 -2486.02 -2490.69 -2504.04 -2501.89 -2493.90 -2508.02 -2503.41 -2491.86 -2485.54 -2478.66 -2471.65 -2454.47 -2444.47 -2427.91 -2420.19 -2417.20 -2424.76 -2388.88 -2358.27 -2388.31 -2809.93 -3608.85 -4169.43 -4218.33 -4198.11 -4174.45 -4157.98 -4133.75 -4107.76 -4105.17
-3442.03 -3435.95 -3438.66 -3409.99 -3413.15 -3426.39 -3406.62 -3411.84 -3408.21 -3370.02 -3409.30 -3388.04 -3412.88 -3421.10 -3392.63 -3412.73 -3410.44 -3458.27 -3573.91 -3638.70 -3577.08 -3510.98 -3476.15 -3459.24 -3422.02 -3404.40 -3372.04 -3351.95 -3334.72 -3325.39 -3311.77 -3291.16 -3278.89 -3272.32 -3265.66 -3242.42 -3211.40 -3176.32 -3120.07 -3020.28 -2693.62 -2503.50 -2355.97 -2267.22 -2014.28 -1749.55 -1557.15 -1475.69 -1373.66 -1281.77 -1250.55 -1272.78 -1211.15 -1158.03 -1101.88 -1078.51 -1067.72 -1020.11 -1090.48 -1050.25 -713.81 -137.65 22.60 82.22 470.37 1108.48 1439.92 1064.00 632.28 534.84 518.13 623.23 692.78 623.34 520.98 628.11 564.83 356.67 203.87 214.39 243.05 162.13 158.05 127.70 115.42 76.44 66.86 37.91 -21.32 -40.60 -226.88 -320.16 -350.65 -1674.40 -2356.10 -2494.13 -2393.45 -2332.20 -2347.44 -2350.92 -2363.13 -2371.15 -2405.51 -2413.74 -2390.47 -2408.50 -2423.15 -2457.02 -2471.33 -2495.54 -2528.94 -2529.16 -2523.37 -2522.71 -2518.59 -2518.64 -2517.82 -2509.50 -2501.67 -2495.76 -2486.09 -2478.05 -2474.04 -2462.47 -2444.93 -2450.30 -2447.02 -2468.41 -2522.54 -2513.50 -2423.38 -2828.77 -3686.37 -4209.83 -4225.39 -4217.25 -4185.00 -4162.88 -4136.46 -4115.51 -4115.58
