-4922.87 -4927.09 -4927.61 -4941.87 -4960.73 -4985.27 -5008.10 -5042.32 -5074.60 -5107.26 -5129.42 -5160.75 -5181.93 -5209.92 -5228.19 -5249.29 -5267.29 -5283.41 -5302.22 -5291.84 -5227.37 -5083.25 -4377.00 -3469.25 -3411.01 -3042.48 -3298.20 -3345.27 -2588.48 -2264.53 -1960.31 -1725.12 -1270.23 -283.52 108.88 257.94 301.47 264.23 252.89 247.85 207.29 107.79 -142.30 -202.35 -240.62 -1192.79 -1525.45 -1570.43 -1737.48 -1955.99 -1928.98 -1947.04 -2020.12 -1990.48 -2313.01 -2646.74 -2734.57 -2809.11 -2905.57 -2820.35 -2822.91 -3013.12 -2731.63 -2932.52 -2666.36 -2351.68 -2340.63 -2097.73 -2068.34 -2037.14 -1805.94 -764.03 15.54 161.38 205.80 229.73 235.58 243.67 253.39 268.61 288.84 311.73 322.28 332.63 333.91 363.08 386.31 414.17 427.69 460.93 466.05 488.93 491.44 506.44 526.76 618.06 721.09 742.11 430.22 162.58 136.96 106.98 -1282.42 -3097.69 -4061.71 -4633.40 -4517.34 -4552.86 -4758.99 -5142.39 -5138.59 -5029.62 -3834.13 -3383.12 -2488.08 -1470.64 -1187.34 -960.89 -1002.50 -1233.41 -1521.31 -1831.88 -1902.62 -2048.24 -2179.82 -2197.00 -2258.13 -2269.44 -2272.08 -2276.10 -2285.68 -2305.74 -2378.29 -2458.73 -2610.96 -2918.36 -3156.66 -3522.12 -3787.82 -3911.81 -3911.83
-4892.97 -4896.31 -4898.47 -4915.23 -4931.94 -4972.07 -4991.44 -5023.89 -5067.97 -5097.89 -5144.29 -5164.87 -5191.63 -5217.81 -5235.50 -5247.34 -5268.13 -5287.52 -5302.45 -5310.24 -5294.89 -5198.42 -4855.32 -4556.25 -4459.18 -4690.85 -4590.94 -4122.40 -3132.12 -2465.27 -2136.79 -1976.65 -1534.05 -596.60 192.13 252.71 302.02 327.33 329.40 269.34 213.58 195.12 178.10 167.80 163.34 -39.31 -325.97 -315.93 -611.26 -954.12 -1243.65 -1426.72 -1873.00 -1991.43 -2077.87 -2094.08 -2136.04 -2184.95 -2112.93 -2240.19 -2199.30 -2129.07 -2193.83 -2232.36 -2264.04 -2131.66 -2079.66 -2035.38 -1901.14 -1761.78 -1377.57 -112.33 162.53 183.38 248.07 317.41 303.29 289.21 300.10 307.53 306.78 340.42 341.43 355.91 366.42 397.16 408.00 415.26 417.46 437.50 446.66 441.37 454.83 461.33 493.80 500.77 592.82 830.36 549.68 199.56 159.93 147.17 -156.88 -1522.49 -3184.88 -4341.67 -4566.31 -4499.27 -4678.78 -4950.52 -5065.52 -5199.25 -5114.82 -4735.45 -3682.11 -2999.13 -2498.79 -1474.10 -1301.02 -1238.44 -1280.56 -1389.48 -1661.55 -1918.71 -2017.10 -2111.37 -2147.66 -2233.64 -2274.40 -2282.91 -2287.71 -2325.58 -2408.60 -2548.59 -2684.25 -2898.45 -3165.75 -3377.50 -3716.10 -3869.33 -3898.15
-4867.18 -4870.11 -4875.03 -4888.80 -4909.91 -4940.57 -4972.14 -5022.55 -5069.85 -5092.85 -5134.64 -5160.78 -5187.97 -5217.95 -5234.71 -5250.88 -5263.99 -5293.74 -5300.31 -5311.88 -5318.87 -5310.40 -5268.68 -5184.96 -5198.71 -5227.68 -5072.05 -4892.18 -4267.91 -3473.73 -2699.60 -2227.33 -1343.22 -292.56 188.25 206.36 288.18 321.56 348.43 318.38 300.22 251.83 223.49 193.33 189.24 168.45 155.96 147.09 -78.41 -304.31 -253.74 -343.12 -1043.85 -1684.16 -1691.20 -1612.55 -1668.32 -1700.31 -1797.26 -1870.20 -1832.88 -1887.95 -1955.12 -1941.62 -2051.95 -2071.91 -2131.61 -2033.11 -1526.34 -1065.53 -462.94 82.21 183.19 198.36 242.86 331.76 334.31 324.92 331.47 336.08 350.87 385.07 381.70 383.17 390.84 405.09 416.85 418.06 418.13 418.30 423.32 438.98 441.83 441.62 463.45 479.08 497.37 623.20 327.35 385.53 275.96 201.19 174.27 -783.26 -1717.15 -3055.96 -4502.05 -4487.06 -4485.27 -4782.06 -4795.39 -5024.46 -5186.84 -5247.18 -4983.75 -4353.82 -3833.98 -3137.34 -2195.31 -1392.04 -1199.14 -1114.66 -1428.24 -1675.64 -1853.01 -1904.47 -2107.60 -2189.45 -2268.58 -2277.83 -2296.24 -2351.30 -2455.84 -2559.89 -2746.46 -2901.00 -3054.43 -3275.02 -3676.64 -3854.03 -3894.81
-4844.83 -4844.78 -4848.68 -4866.20 -4896.74 -4924.74 -4954.10 -4999.80 -5059.94 -5093.15 -5123.50 -5160.55 -5191.18 -5212.34 -5237.63 -5249.72 -5264.42 -5286.34 -5296.69 -5314.14 -5324.37 -5323.25 -5315.92 -5325.86 -5325.89 -5328.12 -5328.03 -5205.93 -5011.83 -4644.97 -3517.58 -2565.87 -1486.10 -338.01 188.12 209.73 269.89 292.62 323.43 355.13 345.37 289.39 262.79 234.77 214.25 195.13 180.06 179.38 161.10 150.62 143.09 63.82 -333.53 -772.61 -1171.15 -1248.08 -1226.65 -1242.82 -1382.61 -1566.31 -1532.02 -1506.09 -1592.16 -1728.17 -1808.65 -1918.61 -2093.85 -1650.12 -298.19 149.68 162.85 177.69 214.76 242.39 289.60 342.18 364.83 350.09 355.84 372.71 381.90 391.03 390.07 395.70 404.94 412.20 422.93 421.98 423.14 419.68 421.41 422.80 424.81 424.24 432.67 436.83 424.49 438.16 491.95 619.26 431.52 283.17 214.58 161.32 98.44 -1403.17 -4467.45 -4416.79 -4425.41 -4588.52 -4792.76 -5048.19 -5228.95 -5435.33 -5559.50 -5386.80 -5249.51 -4746.18 -3573.53 -2240.43 -1461.55 -1052.36 -1184.07 -1480.47 -1583.45 -1809.47 -1876.35 -2077.22 -2159.25 -2255.27 -2288.64 -2336.05 -2415.01 -2482.54 -2658.16 -2903.14 -3159.86 -3330.52 -3647.23 -3888.98 -3889.04
-4826.57 -4829.09 -4837.04 -4851.05 -4872.26 -4909.46 -4938.02 -4993.49 -5046.86 -5092.50 -5120.85 -5161.78 -5198.93 -5218.00 -5237.10 -5248.42 -5266.12 -5283.20 -5300.47 -5310.44 -5325.50 -5332.88 -5343.70 -5351.81 -5360.49 -5364.48 -5360.05 -5349.44 -5325.95 -5124.33 -3478.78 -1901.65 -1090.94 188.34 190.79 211.01 249.84 289.09 316.90 354.94 361.34 327.29 290.51 282.94 265.26 241.24 223.83 203.87 191.16 180.13 156.89 144.10 128.83 -182.08 -374.99 -635.04 -550.49 -831.16 -904.83 -1007.83 -1184.30 -1119.65 -1072.68 -1278.25 -1067.32 -1528.25 -1309.03 -666.29 -70.17 166.28 183.68 209.41 237.44 293.93 338.96 343.29 358.78 359.58 363.28 383.72 398.05 398.94 410.31 409.28 412.84 420.52 429.80 431.77 434.22 427.72 430.56 425.83 420.33 425.26 436.77 441.83 436.62 453.32 516.87 722.79 719.18 432.32 263.21 167.59 125.66 -929.06 -3264.10 -4501.81 -4368.66 -4506.10 -4850.53 -4952.45 -5109.41 -5369.26 -5565.24 -5611.44 -5562.71 -5281.98 -4511.74 -3276.48 -1578.42 -985.91 -1002.15 -1173.43 -1271.04 -1448.60 -1720.88 -1989.38 -2106.82 -2154.15 -2269.77 -2296.15 -2359.91 -2420.62 -2542.00 -2731.03 -2990.95 -3408.14 -3634.60 -3752.93 -3755.28
-4815.89 -4815.83 -4825.64 -4848.09 -4868.18 -4912.31 -4931.05 -4994.97 -5040.72 -5104.99 -5133.62 -5171.27 -5195.44 -5230.15 -5244.63 -5251.22 -5263.11 -5279.60 -5297.36 -5308.84 -5322.56 -5337.23 -5354.02 -5362.63 -5371.77 -5374.21 -5387.24 -5391.47 -5346.80 -5169.89 -3420.57 -1833.14 -568.14 180.36 202.52 246.14 275.22 293.66 326.53 348.74 358.97 356.35 342.36 316.07 300.89 293.82 265.44 221.52 202.47 194.04 158.49 155.99 144.84 137.78 129.26 -35.72 -172.33 -219.22 -503.74 -681.11 -538.47 -453.94 -564.49 -498.67 -150.69 -378.73 -516.41 150.65 175.79 189.91 196.22 234.82 278.55 298.05 325.85 335.77 351.79 370.26 378.79 395.52 403.58 410.28 420.83 424.19 433.09 434.91 442.96 446.36 448.83 442.66 441.46 434.09 430.12 445.11 447.69 446.81 453.51 473.02 502.03 662.01 698.64 529.51 271.32 161.39 16.07 -956.46 -2917.93 -4327.28 -4184.10 -4230.95 -4578.61 -4736.16 -5040.16 -5277.93 -5532.55 -5630.14 -5655.35 -5506.59 -4957.25 -3059.56 -1708.25 -899.06 -881.20 -950.58 -1163.96 -1370.52 -1583.65 -1914.82 -2065.90 -2152.48 -2253.14 -2322.38 -2358.92 -2439.18 -2638.36 -2848.22 -3093.70 -3234.31 -3510.23 -3700.66 -3700.73
-4808.46 -4808.40 -4820.34 -4843.44 -4864.46 -4905.83 -4937.42 -5004.72 -5075.82 -5100.90 -5141.95 -5184.73 -5204.16 -5235.04 -5249.81 -5252.09 -5266.89 -5282.05 -5297.07 -5307.87 -5323.23 -5341.71 -5358.43 -5369.59 -5375.72 -5381.64 -5404.64 -5428.61 -5432.58 -5207.47 -3955.44 -1497.06 149.72 172.13 216.98 238.58 276.95 306.39 319.95 346.85 360.55 379.39 360.06 363.23 361.58 396.64 347.44 284.96 240.84 212.72 173.70 174.41 165.03 154.23 129.62 124.61 123.28 51.68 -126.78 -104.18 -20.21 -21.76 61.13 145.92 149.19 177.48 190.69 180.36 202.93 204.71 243.88 259.88 280.63 295.36 332.93 341.54 363.65 376.85 386.34 400.16 407.64 419.60 429.36 436.39 446.04 444.81 457.50 459.54 463.29 460.64 452.17 442.17 437.56 450.07 450.90 451.14 457.73 476.58 518.74 543.64 747.99 729.93 484.42 208.19 31.90 -1229.59 -3180.53 -3635.15 -4129.96 -4263.61 -4431.67 -4655.15 -4946.85 -5160.00 -5468.42 -5600.51 -5660.94 -5622.84 -5075.65 -3401.42 -1852.24 -727.14 -703.57 -766.34 -1017.36 -1270.79 -1585.53 -1764.97 -1865.40 -2070.74 -2232.81 -2262.14 -2316.20 -2468.79 -2668.24 -2899.16 -3046.55 -3325.32 -3499.17 -3694.07 -3694.13
-4805.88 -4805.82 -4818.70 -4839.00 -4871.70 -4899.79 -4951.90 -4995.52 -5071.38 -5102.27 -5150.78 -5173.63 -5212.29 -5241.58 -5251.67 -5256.96 -5268.42 -5286.66 -5302.41 -5318.64 -5326.55 -5350.28 -5363.45 -5375.71 -5380.44 -5384.86 -5398.99 -5363.44 -5301.58 -3589.64 -2396.36 -378.09 166.96 200.27 242.65 265.43 280.70 310.34 331.25 345.44 363.48 385.57 392.86 391.03 411.73 425.44 419.51 314.06 255.66 227.01 201.10 195.48 180.34 176.11 159.24 146.84 139.03 127.98 72.35 140.61 88.68 137.09 156.87 174.47 168.48 187.66 228.88 211.93 227.92 238.90 256.07 265.42 278.86 302.74 331.16 342.55 358.81 372.52 383.98 400.25 408.09 423.66 436.76 447.50 454.48 459.32 470.71 472.39 474.93 479.83 469.10 457.36 456.53 452.14 452.06 451.94 456.39 483.72 522.58 574.72 709.00 750.23 639.04 334.89 222.33 -278.50 -1540.47 -3293.19 -4302.35 -4269.42 -4450.40 -4713.70 -4848.11 -5150.10 -5303.37 -5572.61 -5652.94 -5600.93 -5094.42 -3925.37 -2281.63 -777.24 -627.27 -674.96 -891.49 -1027.97 -1344.54 -1603.34 -1809.54 -2007.43 -2151.48 -2216.33 -2271.06 -2391.98 -2546.97 -2829.54 -3120.10 -3372.37 -3515.77 -3687.41 -3687.48
-4810.86 -4811.88 -4825.54 -4845.64 -4874.36 -4908.68 -4958.39 -5010.28 -5063.74 -5106.43 -5149.38 -5181.23 -5216.87 -5240.51 -5257.50 -5261.47 -5274.12 -5290.64 -5307.77 -5321.30 -5336.36 -5359.17 -5373.60 -5379.35 -5381.63 -5354.20 -5294.55 -4546.91 -3765.89 -2872.92 -936.57 -185.66 158.14 191.67 248.67 270.71 290.59 318.66 333.44 358.05 368.41 390.30 406.89 424.69 465.26 507.46 435.12 389.19 297.20 248.99 217.49 209.10 192.87 181.38 176.86 164.72 160.94 154.22 155.78 151.88 144.57 169.92 185.51 203.39 212.63 232.54 268.18 243.35 264.95 261.15 256.97 268.94 282.36 303.18 316.67 344.33 355.73 370.63 383.89 403.19 411.10 426.34 437.93 450.28 458.74 466.59 474.08 481.68 485.92 488.56 484.85 480.19 474.29 461.60 456.18 451.30 457.40 463.93 505.38 524.70 629.78 785.83 809.56 468.34 292.11 193.96 -635.78 -3471.65 -4503.77 -4496.37 -4557.11 -4692.79 -4860.40 -5086.43 -5267.96 -5536.08 -5600.51 -5580.34 -5374.90 -4104.93 -2054.08 -748.12 -584.74 -603.61 -660.03 -974.74 -1148.01 -1462.63 -1674.38 -1879.73 -1995.68 -2116.93 -2197.87 -2274.07 -2388.14 -2658.03 -2906.59 -3120.77 -3401.15 -3557.80 -3569.58
-4823.69 -4823.61 -4844.67 -4851.52 -4899.03 -4926.20 -4989.85 -5020.91 -5077.28 -5129.60 -5167.73 -5193.80 -5230.99 -5249.75 -5267.22 -5267.87 -5287.10 -5298.93 -5317.01 -5331.05 -5343.82 -5368.80 -5380.35 -5372.87 -5299.48 -5253.06 -5067.03 -4001.14 -3272.58 -1923.43 -490.68 94.56 189.99 203.05 231.90 271.67 289.89 323.76 348.29 370.36 383.42 399.85 415.63 444.01 474.03 523.61 458.37 361.18 307.03 279.68 240.88 227.21 208.69 198.89 188.95 178.15 172.90 167.01 165.70 180.03 212.58 222.01 228.40 261.44 271.09 286.91 286.07 277.46 277.42 270.91 268.98 281.92 292.07 304.30 323.41 337.32 351.50 372.09 378.57 398.70 412.33 426.72 439.74 452.42 462.21 472.45 479.39 486.81 499.87 500.68 497.09 488.82 482.13 479.63 466.32 456.47 452.03 462.99 504.15 545.54 600.04 776.81 902.01 613.67 326.29 178.65 127.63 -830.38 -3473.86 -4624.74 -4726.42 -4749.49 -4864.67 -5105.48 -5273.39 -5464.91 -5558.28 -5542.51 -5227.03 -4769.26 -2040.87 -880.40 -507.50 -519.03 -557.93 -930.07 -1149.45 -1478.37 -1710.28 -1713.04 -1903.60 -2007.90 -2101.25 -2220.84 -2356.45 -2602.84 -2794.01 -3155.13 -3398.66 -3528.74 -3528.80
-4843.98 -4843.90 -4866.95 -4880.15 -4912.58 -4952.57 -4989.51 -5036.20 -5082.64 -5144.80 -5169.74 -5207.76 -5232.91 -5256.48 -5277.63 -5283.96 -5290.04 -5317.49 -5331.42 -5348.40 -5359.56 -5367.63 -5320.51 -5303.07 -5037.55 -4556.44 -4135.58 -3401.52 -2450.18 -797.13 -7.10 171.09 189.87 215.18 248.79 275.54 297.53 316.14 341.15 367.37 384.02 403.70 423.91 451.50 491.78 521.31 443.01 392.88 313.90 284.74 262.35 238.28 224.28 208.01 196.25 189.02 185.04 179.52 200.05 211.50 238.89 261.54 281.92 295.18 298.12 298.39 281.78 278.27 278.06 277.79 277.51 290.31 294.79 310.32 318.24 327.14 343.40 367.24 378.62 393.03 415.93 438.20 443.40 453.81 466.84 477.94 485.49 495.71 502.59 511.69 516.84 508.96 500.04 491.00 474.98 464.81 457.83 469.77 511.99 520.24 563.10 682.31 866.38 773.97 434.82 242.82 130.62 -143.18 -1639.35 -4191.22 -4700.07 -4692.18 -4898.17 -5075.32 -5310.63 -5429.11 -5506.80 -5489.03 -5342.74 -3882.06 -2252.99 -907.21 -528.79 -471.11 -582.46 -762.55 -1177.11 -1321.29 -1413.82 -1637.09 -1879.81 -1947.42 -2084.04 -2198.52 -2356.63 -2460.62 -2820.02 -3101.00 -3244.77 -3343.78 -3343.70
-4871.92 -4871.84 -4892.98 -4909.67 -4946.38 -4971.55 -5012.57 -5053.75 -5109.41 -5142.36 -5172.94 -5215.63 -5238.65 -5262.54 -5289.26 -5301.06 -5323.79 -5352.06 -5348.51 -5352.81 -5352.05 -5310.75 -5216.95 -4934.10 -4174.66 -3959.97 -3036.00 -2478.80 -1029.92 85.94 160.80 178.86 203.14 240.07 256.59 288.63 328.01 334.18 347.10 376.56 398.33 409.48 436.53 484.17 511.88 535.43 450.65 389.92 340.30 289.61 273.57 246.74 236.40 222.05 215.56 205.87 205.30 214.96 224.90 251.03 275.48 300.32 310.24 306.20 293.98 288.24 280.49 278.52 277.91 277.94 283.01 288.76 296.89 305.81 316.21 330.06 350.56 361.03 377.63 392.66 412.77 426.13 442.65 457.91 471.21 480.48 496.57 500.89 508.00 528.43 529.72 531.67 515.97 513.92 483.00 472.18 464.40 457.50 483.71 518.18 562.36 616.38 895.05 916.63 389.59 200.31 143.64 125.78 -1365.32 -3900.11 -4576.78 -4603.78 -4817.88 -4930.72 -5349.69 -5435.96 -5467.43 -5430.99 -5220.08 -3888.71 -2300.41 -765.99 -466.64 -435.93 -517.07 -745.16 -974.34 -1121.71 -1272.68 -1510.94 -1813.64 -1888.49 -2006.78 -2206.35 -2340.76 -2464.27 -2589.40 -2927.78 -3091.07 -3286.31 -3286.38
-4901.32 -4901.08 -4915.17 -4947.52 -4965.64 -4990.80 -5040.40 -5079.53 -5112.38 -5162.00 -5191.19 -5225.18 -5247.51 -5268.00 -5297.92 -5320.17 -5339.45 -5351.61 -5359.04 -5298.76 -5215.82 -4979.47 -4400.18 -3845.14 -3398.67 -2726.64 -2392.65 -1610.90 -623.39 160.64 172.02 193.84 229.76 257.81 265.05 308.48 333.42 355.08 375.39 378.20 401.93 433.69 469.10 499.00 531.45 535.87 473.35 447.19 382.63 311.99 276.59 252.28 243.54 235.45 224.52 222.67 219.37 222.09 254.07 290.61 308.70 314.76 295.21 287.58 284.75 282.91 279.93 278.17 277.28 277.45 280.51 285.08 291.66 305.16 312.76 327.91 337.11 352.13 374.16 385.57 409.99 418.88 432.27 459.28 471.51 479.82 500.09 509.14 519.29 531.48 535.89 541.20 539.16 534.92 519.30 491.29 469.78 459.44 478.26 508.12 529.83 575.34 756.74 784.52 505.77 273.08 173.85 126.78 -1067.65 -2714.10 -4358.44 -4511.64 -4696.61 -4839.68 -5112.70 -5420.38 -5416.53 -5406.95 -5147.46 -3862.72 -2137.14 -673.53 -440.31 -405.15 -488.94 -643.68 -748.21 -943.99 -1323.65 -1479.83 -1602.32 -1814.31 -2003.99 -2119.81 -2244.91 -2378.06 -2577.46 -2831.55 -2965.85 -3064.84 -3064.75
-4931.74 -4931.65 -4952.15 -4975.55 -4996.69 -5040.21 -5055.28 -5099.45 -5143.48 -5185.01 -5206.09 -5231.59 -5255.07 -5278.32 -5305.51 -5314.71 -5328.43 -5323.46 -5163.61 -5117.40 -4725.63 -4287.10 -3670.63 -2720.52 -2392.82 -2098.23 -2024.89 -1421.70 -158.97 171.98 194.44 228.74 243.98 268.96 296.83 308.11 328.38 345.63 361.91 381.99 415.94 443.28 492.17 521.09 528.17 510.16 448.23 428.00 346.64 320.87 291.02 269.15 253.85 245.15 238.85 242.95 235.97 242.04 274.66 300.30 314.69 310.90 297.34 287.01 284.04 281.52 278.86 277.52 276.76 276.63 279.81 286.24 289.83 298.63 311.26 319.56 336.62 352.86 370.16 387.98 396.05 421.98 440.70 451.77 469.24 480.64 495.72 511.97 518.81 530.07 541.90 550.55 546.31 540.80 533.88 489.77 475.80 465.14 471.13 478.14 482.74 499.66 665.91 817.82 490.54 225.58 164.80 123.53 -735.05 -2901.67 -4383.96 -4434.77 -4583.50 -4843.83 -5062.45 -5308.08 -5365.06 -5332.93 -5023.92 -3900.27 -1597.98 -841.38 -415.03 -379.09 -397.09 -592.62 -785.73 -878.50 -1093.92 -1292.06 -1540.33 -1750.93 -1999.40 -2123.74 -2251.13 -2364.20 -2568.75 -2739.15 -2896.66 -3009.61 -3009.68
-4962.62 -4962.53 -4984.75 -4999.75 -5026.05 -5065.79 -5089.87 -5126.99 -5159.16 -5195.28 -5219.82 -5245.48 -5270.66 -5286.08 -5287.30 -5280.36 -5163.39 -5041.30 -4708.15 -4152.59 -3640.37 -3405.58 -2555.45 -1979.14 -1957.56 -1866.30 -1318.45 -428.76 172.57 186.48 233.54 254.57 264.46 280.76 309.79 327.28 336.25 350.99 375.52 391.85 444.67 471.10 509.12 509.67 461.62 450.79 421.13 393.54 340.88 307.03 294.70 278.17 259.27 249.52 249.44 249.18 244.69 259.61 297.53 302.82 308.32 298.95 291.73 286.26 284.27 281.39 279.23 277.18 276.52 276.34 277.91 281.95 286.19 291.94 307.20 315.55 331.88 341.11 361.95 380.57 389.22 409.63 426.11 446.25 462.49 477.77 490.93 506.98 519.28 532.38 543.89 553.19 551.48 541.71 528.86 505.42 477.76 456.31 453.90 449.76 437.74 413.31 598.27 713.62 335.81 213.19 183.42 -804.53 -2060.74 -4131.33 -4359.17 -4356.68 -4652.60 -4935.98 -5132.72 -5284.15 -5336.54 -5265.95 -4812.02 -3854.03 -1466.86 -624.16 -334.56 -339.34 -382.25 -497.24 -652.78 -705.11 -956.78 -1341.34 -1612.67 -1664.44 -1968.96 -2201.77 -2305.31 -2420.22 -2516.74 -2714.80 -2789.55 -2877.01 -2876.98
-4993.44 -4993.50 -5008.84 -5035.68 -5063.99 -5093.98 -5116.07 -5153.21 -5179.73 -5209.72 -5233.40 -5253.41 -5256.04 -5237.68 -5214.93 -4980.46 -4691.88 -4038.39 -3552.79 -3230.65 -3111.30 -2158.97 -1969.93 -1718.35 -1699.33 -1393.45 -726.28 144.97 175.40 203.67 237.52 265.71 283.01 307.20 325.86 346.50 354.77 370.72 387.68 403.16 445.64 493.09 507.67 485.30 446.65 402.72 382.72 373.55 338.90 313.91 289.56 277.89 267.85 256.35 254.34 255.79 271.76 299.05 303.73 300.22 297.10 293.37 288.85 285.63 284.10 281.91 279.33 277.15 276.50 276.32 277.77 282.63 285.27 292.38 301.17 313.72 320.45 338.47 357.06 373.84 388.28 405.58 416.64 434.94 458.83 475.81 484.66 507.59 517.87 530.68 547.93 551.12 553.65 537.83 526.09 507.17 485.40 449.93 434.74 422.26 396.83 374.26 467.69 469.68 271.96 189.28 155.26 -975.34 -2428.80 -3943.69 -4324.98 -4423.49 -4687.68 -4948.43 -5165.63 -5255.16 -5292.28 -5224.22 -4795.54 -3192.72 -1404.27 -519.62 -326.80 -317.01 -367.66 -433.38 -509.99 -675.72 -926.79 -1291.68 -1473.56 -1709.80 -2030.78 -2225.20 -2346.06 -2412.11 -2520.53 -2607.34 -2732.74 -2849.59 -2849.67
-5024.87 -5024.77 -5046.82 -5064.67 -5080.59 -5116.39 -5145.68 -5170.03 -5210.65 -5234.45 -5235.80 -5218.10 -5179.20 -4983.48 -4579.67 -4143.49 -3487.41 -3130.35 -2622.75 -2244.63 -1908.31 -1726.04 -1648.95 -1555.93 -1406.60 -1059.68 -199.24 169.66 186.89 209.03 250.28 286.70 295.66 319.30 332.97 346.87 364.60 380.40 397.64 419.19 451.21 493.25 494.87 471.44 426.57 381.33 359.95 335.66 317.95 308.52 284.39 276.16 268.54 263.09 262.23 266.52 275.74 300.92 308.49 303.18 299.73 296.47 292.15 287.90 284.86 283.05 279.50 277.37 276.54 276.56 278.13 281.60 283.56 289.62 298.48 308.77 319.27 332.99 350.43 355.41 387.47 398.75 411.52 433.39 446.22 464.02 480.91 499.03 516.74 528.06 539.06 550.39 551.83 542.49 521.05 506.97 470.57 450.41 418.44 387.34 367.49 362.76 383.69 388.69 252.44 152.45 120.22 -308.47 -1729.19 -3628.97 -4246.02 -4519.61 -4698.59 -4861.05 -5076.56 -5127.05 -5147.99 -4997.46 -4705.79 -2761.14 -1670.58 -416.69 -272.67 -276.05 -351.35 -409.81 -503.33 -693.58 -865.98 -1152.33 -1497.01 -1702.77 -2078.53 -2230.62 -2341.51 -2457.68 -2526.79 -2642.79 -2740.72 -2844.02 -2852.03
-5053.61 -5053.52 -5074.74 -5094.57 -5111.28 -5138.49 -5172.66 -5199.50 -5229.84 -5236.80 -5208.72 -5066.23 -4724.40 -4567.85 -4055.27 -3379.04 -2896.88 -2356.09 -2018.68 -1885.57 -1687.72 -1621.91 -1614.15 -1599.29 -1363.32 -443.82 64.90 165.80 209.05 223.88 261.81 296.06 318.23 330.17 346.19 359.47 372.18 394.59 404.56 426.75 459.82 501.68 466.24 438.50 409.05 381.32 343.85 321.69 304.36 290.25 280.05 271.70 269.33 266.22 266.26 271.02 277.65 294.43 302.06 307.20 304.07 298.14 292.71 288.64 286.25 283.04 280.12 277.78 276.53 276.59 277.24 280.24 284.56 290.15 295.99 304.80 317.93 329.74 346.15 356.92 373.38 390.61 404.79 423.41 434.83 452.41 465.78 490.11 513.12 528.12 535.62 547.02 553.06 550.08 513.42 502.39 477.35 457.82 428.89 391.12 339.97 317.45 304.69 286.56 247.82 151.14 122.80 69.64 -791.45 -3958.32 -4540.83 -4491.19 -4786.09 -4884.06 -4979.84 -5014.94 -5069.41 -4808.50 -4161.58 -2441.31 -696.12 -310.17 -221.77 -261.73 -321.75 -410.05 -513.73 -668.09 -872.55 -1063.28 -1385.75 -1716.90 -1950.87 -2204.91 -2334.10 -2453.19 -2590.46 -2652.17 -2794.12 -2855.48 -2855.56
-5093.15 -5093.04 -5111.85 -5123.54 -5156.25 -5178.92 -5198.42 -5217.11 -5239.76 -5236.43 -5153.21 -4875.74 -4234.03 -3508.43 -2725.45 -2560.10 -2272.28 -2136.84 -1928.54 -1784.92 -1643.22 -1573.59 -1622.04 -1609.28 -932.06 -199.13 57.86 166.73 235.35 260.51 280.39 309.13 331.43 354.40 363.83 370.27 391.66 403.94 415.71 439.61 474.01 501.76 479.39 450.07 389.34 374.31 340.05 306.01 296.45 279.67 270.06 265.35 263.40 262.51 268.52 277.13 282.58 294.65 314.68 312.79 310.61 299.11 294.06 289.10 286.13 281.89 279.69 277.43 276.14 276.35 277.33 278.16 282.38 289.47 294.30 301.57 308.48 320.94 335.46 345.41 362.83 372.05 393.60 403.08 436.86 449.05 461.99 480.12 502.61 522.96 536.15 547.10 552.65 548.81 522.91 507.13 496.99 466.20 440.89 387.72 364.28 322.99 304.01 250.82 185.13 161.14 121.01 78.97 -1284.25 -3844.18 -4448.34 -4350.18 -4722.22 -4833.39 -4945.39 -4976.91 -4960.57 -4558.12 -3444.82 -1841.90 -547.73 -202.01 -190.23 -269.42 -345.37 -446.31 -549.65 -699.05 -857.97 -1078.98 -1407.91 -1611.27 -1938.00 -2144.27 -2335.26 -2508.72 -2670.01 -2769.30 -2902.98 -2931.67 -2931.81
-5138.09 -5138.76 -5153.35 -5166.10 -5185.67 -5197.02 -5217.14 -5230.90 -5216.91 -5192.11 -4977.26 -4587.38 -3505.95 -2860.42 -2326.15 -2059.24 -2053.77 -2056.74 -1939.57 -1763.89 -1655.43 -1607.79 -1613.66 -1597.43 -641.26 84.30 156.98 176.06 233.47 272.39 289.68 311.06 333.79 369.00 390.63 399.16 407.61 417.40 429.70 450.90 479.25 479.27 460.96 415.38 361.33 336.34 319.90 303.16 288.21 267.27 260.37 255.86 253.02 263.11 270.24 284.50 293.33 308.56 334.54 319.41 318.67 314.64 301.83 294.27 287.68 281.96 278.65 276.44 276.08 275.99 276.76 277.41 281.17 286.09 291.50 295.79 301.53 315.04 326.22 338.09 346.30 362.10 386.12 402.68 424.47 442.81 452.82 474.86 496.61 511.43 532.87 549.81 551.28 548.56 533.85 519.10 509.72 457.59 442.87 400.15 378.74 357.05 320.94 253.99 201.79 150.01 116.84 32.80 -380.95 -2402.45 -4305.14 -4343.27 -4432.05 -4723.15 -4895.73 -4904.10 -4731.04 -4104.48 -2167.94 -776.44 -250.62 -155.63 -168.46 -242.75 -346.40 -512.31 -722.72 -857.49 -935.36 -1104.54 -1497.69 -1760.09 -2006.25 -2193.67 -2340.34 -2471.23 -2657.89 -2843.87 -3058.08 -3109.25 -3109.47
-5185.88 -5185.76 -5194.03 -5182.88 -5181.74 -5180.04 -5121.79 -5098.86 -5077.58 -4675.07 -4197.71 -3696.74 -2997.41 -2122.20 -1884.41 -1767.44 -1858.60 -1920.20 -1869.12 -1652.83 -1595.54 -1612.53 -1633.13 -1569.78 -848.80 110.00 143.44 171.63 222.60 252.06 287.63 311.42 328.25 361.52 395.72 420.49 430.76 440.76 455.30 479.38 472.37 412.13 378.68 370.95 338.39 307.63 286.36 273.11 267.90 262.30 249.77 246.44 248.07 253.21 272.69 282.62 284.48 308.08 350.07 349.03 342.31 330.24 311.73 295.42 288.24 282.07 279.25 276.66 275.85 274.49 274.98 276.43 280.14 282.80 287.65 294.16 301.59 311.67 320.71 333.71 341.75 356.64 377.05 392.95 406.27 433.04 450.59 467.86 494.43 506.66 529.42 548.66 553.43 550.57 541.80 526.33 506.64 474.57 450.99 390.82 373.84 339.81 292.54 252.35 204.35 150.45 127.57 23.18 -446.74 -1412.37 -3298.25 -3993.73 -4167.59 -4597.57 -4796.12 -4778.08 -4340.10 -3614.73 -1477.54 -346.85 -158.51 -103.65 -187.62 -245.22 -302.63 -504.77 -633.39 -884.61 -1028.78 -1257.64 -1680.38 -1908.65 -2102.15 -2250.96 -2353.95 -2409.04 -2652.61 -2750.20 -3157.01 -3233.71 -3233.88
-5190.91 -5190.20 -5113.87 -4931.99 -4899.89 -4896.09 -4724.87 -4349.21 -4160.83 -3764.11 -3096.34 -2377.35 -2261.48 -1945.37 -1785.34 -1743.91 -1765.56 -1748.26 -1597.42 -1293.83 -1372.00 -1342.15 -1403.21 -1370.25 -903.25 7.15 161.55 201.20 231.20 262.85 295.71 326.08 351.62 368.40 401.15 423.00 440.58 462.93 506.88 483.03 457.27 413.99 352.71 324.30 314.23 290.02 266.30 261.65 256.77 237.02 237.27 238.95 244.30 245.95 263.66 263.05 285.63 330.59 377.18 389.04 376.91 335.82 312.96 300.24 293.02 282.70 279.61 276.99 274.52 272.79 272.86 274.78 278.55 281.53 285.23 289.96 298.17 303.65 318.95 328.40 337.85 349.47 363.30 381.95 400.35 418.76 441.27 455.11 485.83 504.49 519.55 542.86 551.02 546.97 537.75 526.32 490.91 461.93 437.09 394.65 372.23 322.48 283.03 236.40 195.93 159.41 125.15 7.57 -249.68 -1435.85 -3054.17 -3733.02 -3968.50 -4416.92 -4758.90 -4759.65 -3637.04 -2526.11 -734.37 -285.88 -76.05 -106.50 -164.94 -221.43 -310.18 -489.29 -713.78 -937.86 -1089.47 -1370.80 -1771.24 -2071.02 -2213.09 -2270.10 -2382.42 -2471.44 -2628.97 -2814.81 -3168.66 -3591.18 -3591.61
-4704.96 -4705.45 -4339.45 -4275.82 -4145.43 -3776.48 -3569.93 -3135.64 -2720.97 -2394.86 -2341.25 -2079.43 -1915.06 -1841.06 -1818.92 -1810.08 -1775.29 -1641.11 -1396.14 -1106.39 -811.28 -654.59 -930.94 -1015.36 -386.19 145.04 176.09 201.12 232.87 269.72 301.52 334.11 362.87 395.25 415.12 446.29 470.52 502.74 528.68 490.55 454.27 408.12 344.65 307.02 301.29 263.62 258.11 245.22 236.27 229.08 228.31 227.83 235.38 243.88 249.22 256.00 275.02 318.04 380.41 407.16 397.41 347.89 321.77 310.53 299.86 285.49 279.99 279.54 275.20 272.50 272.16 274.05 275.57 281.11 285.31 291.59 299.19 304.32 313.61 321.59 332.94 347.69 361.06 372.99 400.50 415.69 432.74 452.09 477.17 501.72 513.96 535.85 546.82 542.52 521.87 514.17 471.54 425.41 403.28 369.02 346.19 286.20 252.43 220.11 183.54 158.92 108.35 -160.48 -749.56 -1786.58 -3023.54 -3423.41 -3914.47 -4409.01 -4633.43 -4686.35 -3481.14 -1736.21 -488.76 -173.53 -42.45 -94.74 -160.51 -226.83 -292.84 -420.06 -695.14 -953.91 -1272.15 -1617.84 -1749.35 -2002.38 -2183.16 -2350.34 -2467.82 -2586.72 -2827.83 -2994.17 -3327.35 -3635.83 -3635.93
-3267.73 -3269.70 -3240.30 -2943.14 -3001.90 -2435.17 -2380.14 -2151.76 -2113.79 -1959.31 -1868.59 -1849.72 -1845.50 -1843.16 -1841.43 -1851.16 -1822.50 -1684.98 -1311.18 -994.14 -529.67 -423.48 -436.83 -491.40 7.87 156.54 180.16 224.03 238.12 254.22 282.67 331.87 350.61 402.48 439.10 479.55 482.31 463.86 485.00 462.11 401.47 374.86 333.12 311.55 281.85 252.62 247.71 234.79 230.58 223.91 224.22 222.47 223.00 233.76 239.55 249.23 256.20 295.75 326.59 385.38 410.62 349.15 321.03 308.56 303.55 292.62 282.92 280.28 273.94 271.50 270.25 270.60 273.71 277.30 284.71 288.02 294.64 305.72 311.17 321.74 332.14 351.25 366.50 378.56 393.35 415.63 426.74 451.01 460.84 493.19 503.58 519.10 532.87 533.02 506.80 447.45 440.46 401.22 366.38 332.41 341.19 283.93 225.91 195.02 170.64 132.71 79.21 -656.83 -1271.49 -2085.85 -3013.21 -3535.79 -4384.88 -4696.88 -4731.20 -4242.45 -3063.94 -1426.07 -410.30 -53.89 -41.55 -97.90 -156.07 -204.65 -244.28 -381.64 -651.13 -996.10 -1348.16 -1664.84 -1872.22 -1954.35 -2232.66 -2408.95 -2581.25 -2724.31 -2942.58 -3285.52 -3396.28 -3655.00 -3655.11
-2092.98 -2095.03 -2147.02 -2260.73 -2113.04 -2050.84 -1961.07 -1889.88 -1854.45 -1837.81 -1836.88 -1838.25 -1848.41 -1857.47 -1863.71 -1874.67 -1869.26 -1785.63 -1590.88 -1095.59 -553.60 -228.24 -129.86 -91.96 139.35 153.19 179.98 203.99 234.36 256.17 284.18 320.36 356.95 387.66 440.68 457.91 411.74 429.21 435.28 412.44 383.08 357.94 311.23 273.23 257.93 246.63 238.82 226.97 223.53 217.98 218.85 219.74 220.98 225.48 236.76 241.08 255.25 272.65 323.26 359.74 383.32 362.69 336.26 308.20 302.98 294.26 285.54 280.23 273.66 271.18 268.08 268.38 272.56 276.42 281.85 288.13 291.77 301.89 309.29 322.78 334.94 349.96 361.99 373.88 397.89 408.19 421.63 441.56 462.35 474.90 497.01 502.87 519.76 513.72 491.35 443.54 415.53 394.39 395.86 342.12 263.08 260.84 195.70 181.55 152.20 115.67 -184.95 -956.42 -1169.32 -1680.10 -2441.06 -4169.00 -5131.79 -5099.07 -4888.79 -4376.14 -2565.79 -816.20 -146.19 -48.55 -39.56 -113.59 -165.70 -221.09 -246.14 -399.07 -640.96 -1048.71 -1386.93 -1626.47 -1835.97 -2116.28 -2343.60 -2473.66 -2632.05 -2855.14 -3226.55 -3380.84 -3538.20 -3660.27 -3660.37
-1820.02 -1820.58 -1866.18 -1878.86 -1862.11 -1852.00 -1855.46 -1856.18 -1845.05 -1842.61 -1847.73 -1856.02 -1870.33 -1877.16 -1888.35 -1901.38 -1888.54 -1837.25 -1701.16 -1060.92 -877.07 -391.76 -103.51 70.24 140.25 148.69 175.46 215.27 242.57 242.06 282.12 294.27 325.81 345.31 413.70 422.38 393.65 377.92 367.55 370.71 364.17 321.46 277.87 243.21 237.06 231.31 226.33 222.46 218.43 216.93 216.76 216.95 218.13 221.72 226.93 243.57 256.32 272.70 311.59 349.54 379.62 373.41 321.84 313.01 304.35 296.64 285.80 279.54 273.16 270.19 267.55 266.12 270.02 273.30 278.52 288.77 296.61 307.11 313.30 326.12 337.89 344.10 368.13 378.10 389.29 405.24 420.78 436.47 450.87 471.57 478.41 506.01 513.15 502.69 480.31 400.77 387.96 357.70 389.15 344.89 235.34 199.55 170.30 138.79 -130.24 -214.39 -275.22 -851.02 -1239.06 -1401.77 -2957.55 -4332.97 -5100.93 -5267.38 -5017.24 -3906.71 -1599.55 -563.04 -91.45 -36.14 -82.86 -135.50 -184.48 -229.57 -290.38 -416.56 -767.92 -1011.97 -1474.39 -1695.35 -2020.49 -2261.95 -2322.28 -2458.77 -2642.05 -2749.93 -3229.24 -3477.64 -3536.32 -3673.36 -3673.49
-1826.70 -1826.54 -1842.70 -1851.84 -1858.50 -1867.12 -1868.37 -1863.74 -1864.18 -1866.38 -1868.02 -1872.55 -1885.83 -1894.94 -1899.91 -1910.91 -1902.83 -1879.81 -1678.14 -1263.34 -684.36 -366.49 -107.29 119.60 139.84 148.37 175.73 191.16 211.81 233.56 257.74 283.43 293.80 320.70 337.82 358.66 365.10 343.61 331.08 329.95 302.42 279.11 252.13 238.30 230.99 225.16 220.24 216.70 215.42 214.51 214.75 215.30 216.97 220.25 223.92 235.12 251.23 262.82 284.20 326.73 350.86 365.03 332.99 315.90 306.19 297.06 291.89 279.15 273.61 268.56 265.61 264.66 269.20 272.12 277.29 291.01 297.46 307.23 316.77 332.09 338.57 353.08 375.77 388.75 400.87 412.65 424.37 431.94 449.14 463.53 470.69 488.91 496.51 482.74 446.12 403.15 368.53 323.83 381.88 295.19 182.51 169.08 147.83 -53.72 -897.25 -1006.20 -946.73 -1198.37 -1215.08 -1580.94 -3074.10 -3985.54 -5259.17 -5307.16 -4797.87 -3542.48 -1815.06 -415.01 -79.11 -5.02 -76.54 -129.83 -202.43 -263.73 -360.20 -479.10 -799.40 -989.47 -1322.36 -1766.66 -2033.64 -2247.41 -2373.41 -2461.42 -2622.24 -2802.21 -3050.68 -3373.09 -3549.93 -3690.13 -3690.32
-1853.63 -1853.57 -1861.49 -1874.01 -1876.51 -1882.45 -1886.18 -1896.71 -1885.71 -1886.79 -1893.31 -1893.09 -1899.78 -1904.49 -1914.11 -1920.44 -1911.09 -1813.96 -1608.82 -1250.16 -760.59 -399.60 -176.33 73.85 124.90 147.58 156.34 184.99 220.76 229.54 241.92 255.35 267.90 283.33 309.26 339.87 324.99 308.17 299.67 291.45 279.73 261.76 251.74 229.96 225.04 218.66 216.95 213.86 212.69 213.43 214.73 215.56 217.02 219.99 224.20 228.46 241.48 264.62 273.73 307.19 345.25 364.99 368.42 335.17 325.69 306.04 309.39 293.25 271.51 265.99 262.48 260.96 265.10 271.36 276.99 289.35 297.23 306.92 322.37 333.95 346.26 363.60 379.39 388.53 407.43 416.38 426.10 432.13 445.00 454.10 463.78 478.72 483.05 468.51 413.78 382.07 331.55 307.86 278.67 208.71 154.58 137.47 112.96 -256.72 -1084.52 -1236.96 -1236.74 -1242.84 -1375.14 -1730.29 -3006.02 -4539.39 -5102.61 -5270.82 -4751.10 -3118.95 -1463.48 -147.84 40.68 44.11 -62.70 -132.40 -206.77 -271.55 -423.79 -564.26 -670.76 -956.74 -1350.28 -1649.72 -1933.66 -2195.08 -2331.22 -2415.59 -2603.17 -2796.53 -2990.04 -3291.02 -3466.07 -3685.73 -3685.57
-1882.95 -1883.29 -1889.55 -1895.33 -1905.53 -1904.42 -1906.86 -1910.75 -1898.93 -1897.94 -1912.46 -1917.12 -1918.05 -1922.34 -1924.73 -1927.27 -1889.61 -1753.47 -1526.70 -1117.15 -476.04 -279.75 -148.50 -118.54 0.99 130.85 149.70 174.68 186.38 207.81 228.03 244.73 250.98 257.35 283.10 300.20 287.60 281.89 275.45 267.87 254.87 243.60 228.66 219.58 214.31 214.35 212.81 211.23 211.32 213.97 215.88 217.19 218.84 222.46 225.46 229.93 241.97 252.96 266.55 284.40 339.68 351.95 367.47 361.19 353.77 345.84 327.80 301.23 266.90 263.26 257.58 259.63 263.25 271.01 277.53 289.53 296.47 308.82 326.00 332.33 357.65 371.66 381.44 393.35 409.96 420.35 427.54 434.80 445.09 449.98 458.41 464.05 465.66 452.10 419.38 357.21 354.23 361.91 232.31 182.03 147.61 116.58 106.91 -40.17 -954.32 -1201.28 -1192.39 -1233.21 -1398.40 -1915.47 -3076.54 -4666.81 -5191.29 -5215.02 -5001.72 -3925.96 -885.86 -412.37 23.94 44.98 -53.71 -139.59 -206.76 -257.99 -368.07 -570.18 -705.74 -1019.85 -1377.16 -1547.33 -1728.49 -2052.79 -2260.30 -2459.09 -2549.00 -2710.94 -2938.53 -3200.63 -3427.36 -3699.35 -3699.35
-1903.07 -1903.03 -1908.46 -1917.50 -1922.94 -1931.18 -1936.46 -1938.23 -1940.77 -1936.08 -1929.23 -1929.38 -1929.61 -1937.29 -1943.04 -1943.73 -1890.37 -1714.27 -1241.81 -733.68 -385.69 -203.59 -181.69 -173.45 -117.48 118.91 140.04 152.95 161.45 176.56 188.34 216.09 222.74 231.28 253.18 257.18 256.69 260.35 256.07 242.05 240.03 229.09 212.71 210.25 211.50 209.30 208.82 208.97 208.88 214.11 216.67 218.96 221.43 222.58 226.24 230.34 237.06 247.06 261.36 274.02 300.31 323.34 323.49 318.35 332.19 329.51 307.37 274.89 264.75 257.98 253.47 253.53 261.84 267.52 275.97 289.69 297.11 313.38 327.18 351.47 371.76 381.78 389.91 401.50 413.84 423.88 435.34 441.90 445.13 448.08 450.45 452.92 454.58 447.70 423.68 378.50 335.40 284.47 204.22 155.13 126.12 118.17 57.17 -249.50 -1233.87 -1175.54 -1155.67 -1205.63 -1359.36 -2174.64 -3045.68 -5033.95 -5177.47 -5328.95 -5149.96 -3960.90 -2076.75 -940.90 -193.90 -41.02 -90.18 -131.20 -207.70 -260.51 -370.63 -504.25 -771.97 -1035.36 -1350.07 -1511.32 -1825.35 -2014.64 -2247.32 -2438.14 -2539.15 -2658.45 -2865.89 -3257.56 -3491.75 -3720.28 -3720.12
-1922.49 -1922.43 -1927.71 -1937.99 -1940.98 -1946.96 -1934.51 -1949.97 -1950.33 -1947.32 -1950.81 -1951.55 -1951.39 -1949.96 -1954.31 -1950.83 -1882.54 -1644.11 -1011.66 -662.43 -376.93 -196.88 -161.24 -176.37 -155.59 48.08 124.43 132.61 146.45 168.45 173.68 189.09 203.00 218.95 240.80 241.36 225.99 230.78 227.42 220.01 211.11 209.10 206.48 200.68 202.15 201.07 201.53 205.69 208.28 214.14 216.81 219.53 223.31 226.16 228.13 229.91 236.07 241.69 250.39 262.48 274.41 293.08 290.17 276.02 279.17 276.58 255.50 254.02 249.46 247.76 246.67 249.62 259.95 267.53 276.04 290.90 302.73 322.85 333.45 348.22 374.71 381.14 402.85 408.95 425.32 433.33 442.44 445.55 447.88 448.32 445.60 443.33 437.98 425.06 400.25 384.94 346.34 254.81 212.20 173.29 124.42 109.00 6.11 -730.18 -1209.53 -1131.21 -1166.65 -1196.65 -1468.75 -2413.12 -3562.15 -4902.24 -5300.23 -5341.50 -5232.48 -4496.68 -3207.99 -1644.60 -1114.28 -77.19 -138.90 -151.66 -204.60 -286.64 -363.18 -577.13 -865.16 -1163.59 -1368.67 -1594.36 -1877.40 -2095.60 -2237.80 -2396.24 -2532.51 -2740.58 -3107.60 -3508.35 -3707.89 -3815.48 -3815.23
-1940.23 -1940.17 -1948.62 -1960.85 -1962.93 -1957.08 -1923.59 -1916.67 -1938.51 -1912.74 -1935.75 -1945.74 -1951.64 -1954.25 -1961.35 -1958.41 -1867.35 -1701.39 -1132.66 -731.23 -446.56 -243.95 -177.48 -170.80 -171.49 -77.71 -18.14 127.63 135.41 147.79 160.09 169.64 192.68 200.21 204.04 209.40 212.05 212.31 212.58 205.80 191.29 188.14 179.82 187.71 192.09 191.18 194.36 199.06 206.12 214.05 216.39 222.21 225.87 227.80 230.91 232.86 236.41 240.66 243.61 248.69 254.62 257.30 260.21 256.20 254.25 246.82 251.12 240.85 238.58 239.82 242.51 247.16 255.32 264.82 277.01 288.69 298.62 319.35 333.15 357.33 377.60 390.13 408.34 411.09 429.62 445.70 454.73 451.94 454.51 449.60 437.39 426.01 414.31 399.79 379.64 352.82 291.17 233.02 214.03 170.56 121.12 105.30 -123.24 -887.37 -1203.52 -1129.65 -1153.56 -1229.41 -1398.65 -2579.67 -3909.81 -4738.93 -5323.12 -5369.01 -5362.94 -5126.97 -4529.86 -2655.57 -1621.56 -731.49 -208.96 -184.67 -229.01 -334.49 -479.34 -707.20 -1016.77 -1294.02 -1457.90 -1688.88 -1971.13 -2094.26 -2272.02 -2426.50 -2562.97 -2844.45 -3198.41 -3565.33 -3870.48 -3988.15 -3988.16
-1957.81 -1957.74 -1967.15 -1970.19 -1942.60 -1950.72 -1951.46 -1949.92 -1952.66 -1946.58 -1956.42 -1911.58 -1875.32 -1939.65 -1971.89 -1967.64 -1917.23 -1828.45 -1480.04 -1170.46 -666.70 -405.84 -253.49 -179.48 -197.12 -190.45 -13.10 58.93 110.06 140.33 143.56 160.96 175.34 180.34 185.74 181.20 190.77 189.34 194.78 182.31 178.66 174.16 169.91 170.37 181.12 183.45 188.42 194.42 204.34 210.74 217.26 223.59 226.65 229.32 233.64 236.13 237.76 246.79 258.90 251.97 239.75 239.61 248.54 243.69 228.83 227.03 230.44 231.24 228.15 230.89 238.74 244.16 250.65 265.26 272.23 286.03 299.12 316.00 329.13 356.16 381.69 391.11 409.49 415.59 441.61 453.44 465.08 467.33 461.88 443.95 427.02 389.33 379.42 364.92 350.48 282.03 240.47 232.81 210.23 160.50 132.37 47.56 -398.03 -1077.04 -1119.45 -1111.48 -1140.30 -1250.70 -1386.93 -2506.84 -3865.68 -5068.24 -5315.03 -5384.03 -5396.64 -5321.31 -5138.97 -4425.02 -2691.73 -1592.71 -411.48 -254.76 -258.30 -327.92 -591.84 -905.10 -1003.10 -1437.15 -1545.96 -1733.48 -2004.42 -2189.88 -2329.67 -2406.94 -2540.04 -2795.64 -3191.15 -3538.47 -3912.92 -4034.24 -4034.49
-1975.54 -1976.84 -1984.81 -1947.07 -1930.38 -1976.05 -1980.92 -1990.00 -2002.30 -1989.37 -1977.26 -1957.69 -1944.57 -1972.65 -1969.91 -1966.97 -1941.31 -1850.02 -1645.77 -1414.67 -1158.83 -698.98 -412.68 -217.17 -189.63 -192.86 -140.97 -101.07 -60.52 20.57 140.64 143.78 156.82 160.25 161.72 163.91 172.46 165.84 157.60 162.76 164.01 153.12 153.29 156.37 158.05 166.00 191.52 194.16 204.66 212.32 220.30 227.01 228.49 231.12 233.15 241.65 245.74 252.97 267.10 245.48 239.48 230.49 229.60 226.48 221.53 217.53 220.85 220.44 222.64 225.04 231.09 237.74 247.97 258.93 270.42 283.90 302.31 316.02 338.70 359.13 378.99 394.00 413.89 436.75 450.17 455.15 470.86 474.70 462.64 432.71 410.44 351.86 330.77 344.46 296.49 248.52 227.73 211.93 178.87 144.82 132.48 -191.00 -558.79 -960.57 -1052.21 -1085.29 -1156.20 -1278.31 -1527.60 -2608.17 -4205.55 -5005.09 -5336.65 -5387.41 -5412.15 -5409.99 -5236.83 -4873.67 -3376.10 -1675.37 -519.62 -271.57 -297.31 -394.03 -573.17 -843.83 -1046.09 -1403.37 -1697.41 -1933.15 -2072.59 -2183.31 -2306.35 -2388.50 -2493.17 -2731.22 -3123.52 -3390.63 -3768.26 -3897.00 -3897.09
-1992.24 -1992.17 -1944.64 -1994.16 -1985.17 -1994.61 -2019.56 -2014.15 -2007.28 -2012.27 -2013.28 -2001.35 -1982.59 -1974.08 -1967.24 -1976.62 -1971.96 -1960.03 -1857.53 -1783.49 -1443.13 -955.53 -598.32 -314.86 -211.95 -184.39 -206.30 -203.10 -168.06 -84.38 32.46 91.35 85.96 148.48 153.53 156.23 160.03 154.51 149.41 146.84 141.63 136.95 135.67 141.74 152.87 158.79 183.46 193.98 198.47 216.96 223.09 230.72 234.47 239.14 250.26 249.54 252.84 272.64 273.64 246.42 226.63 217.88 217.07 211.01 210.97 211.03 212.58 213.16 214.54 217.42 224.21 234.18 242.34 246.22 266.17 282.12 296.50 322.00 335.33 363.03 383.83 403.65 429.24 453.11 464.30 472.58 479.65 477.10 452.20 410.88 392.80 347.60 312.66 299.87 262.53 211.90 209.73 181.74 139.62 29.16 -213.31 -679.99 -906.05 -1007.30 -1061.95 -1085.71 -1184.38 -1357.98 -2002.30 -2967.29 -4523.08 -5119.80 -5354.45 -5388.84 -5412.74 -5434.93 -5368.55 -5065.94 -3485.96 -2202.15 -603.06 -311.08 -311.26 -443.36 -593.75 -903.73 -1277.03 -1514.30 -1826.38 -1998.44 -2110.92 -2195.43 -2337.42 -2401.53 -2514.55 -2733.81 -3066.13 -3421.75 -3633.24 -3889.83 -3889.92
-2005.73 -2006.92 -1987.38 -1988.41 -2008.21 -2028.65 -2035.52 -2022.05 -2030.33 -2015.73 -2022.67 -2017.85 -2000.19 -1998.28 -1972.59 -1935.41 -1981.96 -1977.99 -1946.51 -1822.53 -1712.79 -1318.04 -609.28 -390.95 -208.84 -177.11 -193.81 -217.40 -251.90 -183.58 -107.74 -116.56 16.54 83.28 108.90 127.17 136.41 120.74 104.19 100.08 104.12 111.41 125.78 132.70 147.22 152.53 167.84 192.94 205.04 219.25 222.93 231.88 238.39 245.28 262.24 267.57 276.56 285.34 268.34 244.55 217.64 214.32 208.78 204.30 204.21 204.52 204.17 206.73 210.39 211.48 216.30 225.48 234.80 240.05 255.96 276.53 294.41 324.80 336.88 360.76 388.48 415.97 424.98 458.59 476.37 486.95 485.37 468.80 445.43 390.39 355.85 329.32 309.97 268.05 215.78 186.95 151.60 128.90 40.78 -202.78 -561.31 -853.93 -989.27 -998.89 -1037.01 -1099.20 -1242.86 -1393.76 -1804.97 -3252.73 -4893.12 -5191.93 -5347.03 -5382.36 -5414.39 -5456.26 -5393.56 -5172.29 -3643.61 -2157.02 -746.55 -321.20 -333.65 -479.43 -734.16 -982.66 -1146.85 -1513.05 -1821.05 -2027.03 -2158.39 -2246.32 -2327.13 -2454.47 -2604.09 -2831.51 -2975.47 -3554.84 -3751.18 -3918.06 -3917.94
-2005.24 -2005.18 -2011.75 -2009.78 -2046.44 -2049.44 -2048.30 -2042.42 -2036.51 -2025.64 -2025.09 -2018.19 -2009.60 -2003.75 -1995.16 -1925.21 -1966.73 -1993.48 -1978.63 -1925.77 -1829.89 -1413.10 -918.27 -541.21 -256.90 -182.73 -178.43 -198.86 -227.52 -245.83 -272.42 -294.94 -202.22 -98.69 -17.07 -2.33 22.17 29.23 33.23 21.76 -19.79 51.13 97.57 116.47 129.32 144.25 167.25 189.67 201.59 216.34 225.53 236.15 245.02 254.72 269.56 274.56 308.34 287.06 262.21 235.30 218.11 210.96 203.90 198.07 195.43 194.18 194.51 203.24 202.24 205.71 210.34 218.82 225.04 240.12 255.36 274.46 292.55 331.85 344.89 368.20 389.55 414.16 430.88 460.54 481.44 490.22 480.27 475.04 419.60 374.57 333.20 399.45 291.88 216.03 191.90 183.99 127.71 69.19 -23.02 -524.26 -898.64 -946.61 -958.90 -1029.96 -1098.82 -1147.38 -1246.80 -1311.52 -2351.60 -3569.99 -4793.29 -5339.57 -5355.92 -5379.69 -5415.94 -5457.27 -5398.73 -5033.71 -3245.44 -1876.39 -569.61 -320.15 -380.70 -569.58 -728.48 -1015.07 -1462.34 -1611.17 -1939.70 -2124.49 -2208.63 -2287.18 -2352.09 -2459.89 -2565.87 -2816.25 -3245.21 -3671.60 -3905.66 -4170.24 -4170.33
-2017.39 -2017.27 -2027.23 -2043.95 -2049.06 -2046.49 -2045.65 -2040.35 -2036.85 -2028.97 -2027.40 -2025.54 -2021.96 -2023.11 -2005.56 -1951.56 -1960.11 -1993.78 -1977.75 -1959.67 -1768.93 -1445.71 -922.79 -482.26 -215.97 -190.92 -189.39 -219.98 -248.47 -267.64 -294.06 -316.61 -330.45 -219.83 -149.69 -115.69 -109.83 -123.84 -113.80 -118.31 -117.85 -103.55 10.57 99.38 126.64 151.83 164.70 177.41 206.14 220.81 234.26 251.21 249.37 261.53 280.61 297.94 320.72 303.20 248.97 228.13 215.97 211.60 199.11 194.62 191.56 190.60 190.42 191.56 194.16 194.09 204.71 209.38 219.56 236.17 254.95 268.23 297.40 323.43 341.30 370.70 398.58 418.01 447.46 467.25 478.37 480.72 462.44 408.89 392.73 330.70 287.12 372.88 277.61 180.87 161.10 132.06 94.27 26.23 -312.47 -946.94 -1064.05 -1020.46 -1018.16 -1047.97 -1133.58 -1193.32 -1261.59 -1613.08 -2614.33 -3677.48 -4751.59 -5280.83 -5365.44 -5380.93 -5417.81 -5431.89 -5233.15 -4792.05 -2855.42 -1749.13 -386.43 -330.93 -439.07 -683.78 -913.53 -1148.77 -1610.85 -1941.00 -2058.11 -2188.97 -2240.72 -2330.20 -2409.28 -2440.28 -2640.93 -2963.07 -3377.29 -3839.90 -4081.13 -4166.96 -4167.44
-1961.40 -1961.33 -2004.24 -2044.04 -2077.75 -2072.73 -2065.79 -2053.56 -2041.16 -2036.05 -2035.72 -2041.95 -2044.05 -2040.07 -2017.85 -2000.17 -1992.71 -1999.57 -1981.14 -1931.16 -1659.73 -1411.60 -851.09 -431.14 -270.41 -303.02 -422.66 -361.39 -374.22 -421.71 -395.36 -406.28 -462.16 -260.42 -253.62 -183.33 -167.72 -164.06 -156.49 -148.85 -136.87 -118.26 -59.60 68.72 122.72 140.17 157.96 182.88 215.51 229.08 237.74 265.24 260.92 276.23 305.78 323.19 304.22 271.42 237.66 221.47 210.50 205.97 196.83 188.90 186.09 184.65 187.37 185.86 187.40 187.20 194.30 200.51 212.85 227.90 252.73 264.51 303.89 318.42 337.71 374.55 396.93 424.32 447.12 461.05 480.78 486.60 466.28 425.02 380.63 349.91 377.60 259.53 216.66 155.90 123.54 112.30 53.19 -236.18 -740.94 -1100.56 -1089.36 -1067.10 -1057.21 -1100.60 -1143.09 -1236.44 -1343.88 -1823.75 -2861.05 -4165.36 -4831.92 -5311.90 -5367.67 -5386.60 -5413.56 -5435.69 -5320.95 -4411.68 -2680.66 -1250.83 -431.91 -347.07 -594.19 -798.79 -1197.71 -1519.09 -1873.15 -2100.45 -2152.19 -2252.52 -2271.89 -2320.98 -2415.99 -2484.88 -2635.76 -2815.12 -3269.00 -3891.47 -4168.45 -4225.93 -4226.02
-1993.34 -2005.13 -2052.47 -2064.03 -2087.45 -2094.82 -2076.22 -2062.06 -2058.31 -2055.06 -2049.65 -2050.24 -2053.79 -2043.78 -2025.70 -2001.77 -1998.76 -2011.23 -1986.44 -1900.68 -1671.23 -1255.65 -816.66 -556.81 -561.95 -587.55 -619.29 -695.93 -824.82 -766.89 -828.70 -850.32 -850.88 -704.66 -401.31 -228.12 -210.97 -204.83 -209.71 -188.25 -162.85 -141.51 -97.27 -30.49 107.63 141.05 164.47 187.89 230.95 237.90 250.20 259.86 270.07 308.50 331.13 320.07 300.05 258.81 230.50 220.32 209.60 202.71 192.79 186.65 183.58 181.69 180.63 180.77 183.38 181.73 185.98 196.60 206.81 220.10 247.81 264.42 292.66 313.42 331.92 357.01 386.35 422.08 438.43 457.08 476.44 479.83 463.65 438.93 393.24 348.50 426.37 351.53 210.35 134.08 116.96 82.64 -186.80 -874.34 -1039.82 -1121.02 -1076.27 -1091.92 -1137.87 -1129.32 -1186.57 -1270.21 -1365.63 -2037.52 -2877.65 -4545.88 -5213.55 -5348.11 -5384.73 -5394.31 -5440.21 -5433.35 -5100.24 -4725.55 -2088.81 -592.51 -362.26 -443.24 -571.49 -852.05 -1302.49 -1758.10 -1931.77 -2126.46 -2190.86 -2247.64 -2283.63 -2322.24 -2377.23 -2520.36 -2809.35 -3078.07 -3510.26 -3871.26 -4146.88 -4215.54 -4215.62
-2070.97 -2070.86 -2054.41 -2061.45 -2087.55 -2106.76 -2102.47 -2087.12 -2072.58 -2071.76 -2079.14 -2063.69 -2064.60 -2057.59 -2026.80 -1979.86 -1975.69 -2009.75 -2004.41 -1928.11 -1750.65 -1345.67 -1036.68 -892.25 -895.74 -1017.71 -1091.72 -1186.82 -1222.57 -1400.79 -1370.17 -1253.09 -1366.15 -999.01 -485.73 -288.75 -257.83 -242.79 -239.97 -229.94 -250.72 -264.97 -184.06 -85.04 69.67 145.60 166.20 192.11 221.65 235.65 257.06 278.48 302.68 329.55 337.52 301.74 268.31 248.01 225.27 215.75 205.59 197.37 190.34 185.11 180.62 177.89 175.18 177.59 175.44 172.98 182.57 191.33 196.13 211.92 232.75 248.77 278.87 302.91 326.91 347.42 378.70 397.82 428.83 441.72 448.03 462.47 458.03 421.57 384.01 351.89 320.38 243.82 203.84 117.92 111.53 61.35 -610.27 -905.71 -1071.32 -1068.42 -1103.27 -1125.82 -1179.58 -1191.65 -1274.50 -1409.34 -1808.91 -2634.05 -3698.03 -4821.44 -5287.08 -5339.04 -5390.39 -5420.52 -5452.81 -5377.09 -5088.69 -3878.74 -1623.39 -625.59 -382.88 -459.01 -697.51 -896.43 -1281.70 -1718.53 -1847.29 -2072.16 -2182.98 -2246.61 -2290.32 -2322.59 -2506.06 -2665.45 -3077.53 -3309.52 -3734.82 -3983.50 -4140.20 -4204.84 -4204.92
-2040.17 -2040.15 -2066.79 -2091.38 -2106.86 -2117.63 -2120.98 -2104.73 -2089.70 -2091.84 -2101.94 -2076.12 -2071.35 -2062.42 -2022.69 -2008.93 -2012.30 -2023.19 -2012.39 -1946.52 -1837.10 -1657.94 -1503.07 -1457.41 -1433.50 -1700.13 -1748.35 -1747.90 -1846.67 -1807.43 -1849.61 -1866.71 -1838.77 -1234.98 -725.65 -450.23 -307.41 -285.34 -308.95 -315.20 -295.00 -281.76 -213.78 -93.52 10.30 140.24 159.30 177.16 215.14 217.51 248.23 293.15 317.02 318.83 300.83 258.17 227.63 225.22 217.66 210.34 200.35 189.90 185.88 181.72 178.56 173.28 171.07 168.98 169.56 170.16 174.00 181.65 190.39 213.79 221.11 243.61 266.58 298.36 326.97 350.84 370.77 389.00 416.77 424.00 429.46 437.88 391.99 389.73 363.31 333.46 294.53 242.48 207.18 133.24 5.33 -170.94 -934.76 -1023.46 -1031.03 -1063.08 -1132.51 -1197.67 -1273.16 -1332.97 -1448.69 -1907.10 -2198.81 -3402.32 -4541.01 -5109.03 -5279.37 -5349.09 -5406.93 -5432.55 -5462.15 -5376.24 -5006.05 -3280.72 -1527.01 -588.22 -378.49 -453.08 -705.40 -1136.37 -1382.71 -1687.42 -1930.45 -2078.31 -2213.03 -2274.34 -2320.40 -2378.63 -2517.32 -2707.66 -3080.81 -3555.28 -3805.18 -4042.10 -4132.71 -4195.48 -4195.55
-2109.69 -2109.62 -2078.01 -2061.42 -2092.42 -2123.33 -2128.35 -2116.06 -2114.30 -2105.11 -2106.93 -2102.38 -2091.38 -2081.20 -2053.82 -2038.24 -2044.62 -2038.99 -2026.49 -2017.18 -1983.74 -1886.47 -1838.23 -1807.73 -1860.57 -1908.25 -1964.96 -1967.64 -2045.72 -2067.73 -2108.80 -2096.45 -2035.00 -1899.72 -1343.90 -726.95 -383.08 -329.60 -370.58 -364.21 -357.14 -299.50 -216.85 -201.66 47.53 141.06 155.34 179.44 223.45 226.60 263.06 296.10 299.15 277.35 258.97 222.87 212.27 206.48 206.36 195.16 190.82 185.07 181.68 179.28 174.24 169.84 168.33 167.00 165.36 166.76 170.60 176.90 190.03 202.60 208.72 249.93 261.93 293.38 321.71 347.11 363.40 384.98 405.42 403.56 398.76 387.33 367.35 341.19 333.77 300.71 259.44 225.17 202.03 135.15 -162.20 -625.08 -1118.37 -1047.62 -1015.02 -1089.21 -1229.96 -1508.19 -1535.75 -2023.50 -2273.54 -2546.11 -3879.24 -4350.90 -4953.29 -5226.18 -5343.46 -5375.29 -5429.26 -5455.23 -5465.30 -5366.65 -4477.54 -3664.31 -1716.28 -598.72 -414.33 -619.90 -825.17 -1270.73 -1477.06 -1744.26 -1936.50 -2107.13 -2231.56 -2292.64 -2330.58 -2440.00 -2550.36 -2686.97 -3040.28 -3434.72 -3774.30 -3999.12 -4126.86 -4186.62 -4186.69
-2113.43 -2113.37 -2104.13 -2071.01 -2066.75 -2112.53 -2134.82 -2133.12 -2129.53 -2122.27 -2122.89 -2097.93 -2083.99 -2064.74 -2087.63 -2082.88 -2067.91 -2062.95 -2060.69 -2045.84 -2057.81 -2063.61 -2030.37 -2034.08 -2048.88 -2071.97 -2080.39 -2112.00 -2118.82 -2140.22 -2157.29 -2159.67 -2140.00 -2008.74 -1466.71 -1005.69 -540.57 -447.24 -402.50 -397.52 -389.32 -309.29 -246.66 -230.02 58.80 130.12 143.30 169.10 202.63 218.94 252.84 262.43 268.39 234.88 230.55 208.45 197.85 193.95 189.59 178.87 179.96 179.10 178.41 174.03 171.49 166.57 164.03 162.15 162.30 163.69 168.49 171.85 191.09 198.52 205.80 240.54 259.58 276.11 307.45 343.87 361.92 379.14 387.51 392.99 384.06 362.96 331.71 323.30 299.23 265.64 229.68 216.26 190.86 139.72 -274.32 -712.60 -1091.48 -1047.15 -1055.79 -1193.44 -1642.68 -1908.67 -2084.14 -2632.17 -3301.23 -3963.19 -4547.88 -5077.57 -5300.53 -5396.33 -5407.93 -5429.76 -5464.03 -5469.17 -5476.30 -5428.87 -4805.65 -2646.33 -1504.18 -456.01 -511.23 -732.51 -922.15 -1396.59 -1660.45 -1861.97 -2123.43 -2214.99 -2259.42 -2297.93 -2366.21 -2460.25 -2589.96 -2776.63 -2981.83 -3339.27 -3683.53 -3983.54 -4134.59 -4181.39 -4181.46
-2132.71 -2132.64 -2139.68 -2122.93 -2111.35 -2104.72 -2123.69 -2132.69 -2122.88 -2129.51 -2118.00 -2072.50 -2076.47 -2050.70 -2103.15 -2100.68 -2092.33 -2081.91 -2076.52 -2083.85 -2079.29 -2083.97 -2086.26 -2103.09 -2100.65 -2124.44 -2134.63 -2141.44 -2152.78 -2165.12 -2176.50 -2183.56 -2168.78 -2089.30 -1661.66 -1348.52 -875.33 -551.21 -423.15 -398.89 -410.75 -307.46 -267.07 -235.22 -119.42 112.92 141.35 159.03 192.73 217.94 229.77 217.94 230.98 211.80 188.79 185.52 189.42 180.35 174.15 172.29 172.09 170.87 171.86 169.13 165.33 163.23 160.86 160.43 159.11 161.23 165.05 171.03 178.32 193.77 206.31 223.60 256.57 276.07 308.03 324.42 351.85 369.06 376.89 372.78 369.75 344.41 324.69 288.10 242.05 214.11 187.51 177.49 164.52 -32.61 -615.16 -937.15 -1143.23 -1210.73 -1439.10 -1887.15 -3028.05 -2923.96 -3428.13 -4061.35 -4637.63 -5001.19 -5144.25 -5394.98 -5401.05 -5529.27 -5596.73 -5562.43 -5464.46 -5412.79 -5349.09 -5161.69 -4133.33 -2474.60 -909.53 -491.70 -544.70 -750.44 -1033.20 -1399.35 -1748.26 -1942.63 -2179.34 -2241.77 -2266.18 -2281.45 -2336.25 -2437.96 -2563.99 -2789.04 -3047.62 -3451.50 -3735.69 -4044.69 -4143.06 -4183.64 -4183.71
-2144.02 -2143.96 -2149.71 -2154.06 -2160.10 -2135.97 -2137.10 -2130.95 -2112.84 -2127.06 -2128.81 -2093.29 -2098.24 -2133.77 -2131.60 -2123.47 -2115.84 -2108.63 -2107.24 -2100.21 -2111.75 -2116.43 -2128.38 -2135.31 -2132.01 -2146.27 -2152.14 -2160.42 -2169.98 -2174.64 -2186.42 -2192.95 -2185.03 -2152.59 -1957.64 -1658.44 -970.50 -701.50 -455.86 -401.23 -371.71 -314.64 -305.85 -285.12 -151.10 3.24 108.98 150.66 175.09 196.86 196.54 194.93 180.50 196.86 178.25 161.07 165.32 161.87 164.74 161.74 162.67 161.97 162.04 161.83 160.71 159.44 158.33 157.42 158.12 158.60 161.49 167.09 174.03 189.48 208.54 223.51 255.20 280.45 293.63 316.99 336.84 360.06 361.44 362.74 344.22 331.60 308.68 294.60 234.17 204.76 159.85 140.32 -280.05 -626.56 -1159.77 -1185.77 -1313.21 -1670.90 -2136.75 -2886.20 -3905.99 -4572.97 -4747.80 -4986.69 -5156.30 -5305.28 -5421.00 -5531.02 -5184.78 -5084.69 -5420.87 -5080.21 -5150.63 -4815.45 -4649.17 -4018.22 -3676.88 -1860.71 -681.40 -547.71 -640.72 -980.22 -1317.83 -1539.32 -1839.14 -2079.13 -2232.39 -2257.29 -2268.50 -2276.69 -2337.48 -2433.66 -2556.42 -2762.85 -3174.38 -3555.76 -3969.26 -4134.18 -4165.60 -4178.99 -4179.06
-2159.64 -2159.59 -2161.24 -2169.48 -2174.14 -2177.63 -2179.11 -2158.98 -2120.55 -2144.45 -2157.40 -2148.49 -2152.38 -2145.05 -2150.88 -2148.43 -2141.76 -2142.33 -2134.71 -2136.51 -2142.53 -2142.80 -2156.16 -2164.26 -2162.55 -2179.91 -2175.99 -2181.47 -2189.14 -2197.90 -2204.64 -2212.64 -2211.58 -2184.32 -2061.46 -1771.78 -1310.79 -718.01 -517.97 -411.43 -378.83 -312.41 -291.02 -278.87 -199.10 -5.49 134.38 135.83 153.22 166.54 172.73 168.13 149.75 158.19 145.41 146.05 148.28 151.39 150.03 147.55 150.96 150.36 153.83 159.14 163.10 158.30 157.09 156.53 156.66 157.19 160.42 165.24 175.27 190.05 202.49 225.91 242.45 272.56 288.32 319.38 339.92 349.25 352.43 349.39 339.20 323.71 287.44 304.34 203.67 172.52 122.43 120.26 -344.36 -754.84 -1297.11 -1381.06 -1861.58 -2797.12 -3466.29 -4629.97 -4906.44 -5088.30 -5284.00 -5380.18 -5499.88 -5598.56 -5630.28 -5760.41 -4782.95 -3184.86 -2311.08 -1860.13 -3180.89 -2303.06 -2080.63 -2135.61 -1484.40 -842.16 -566.23 -523.83 -723.24 -1118.04 -1383.24 -1758.95 -1987.87 -2165.14 -2234.21 -2251.86 -2266.19 -2274.97 -2341.07 -2430.50 -2697.35 -2829.43 -3136.09 -3724.69 -3934.03 -4129.48 -4169.16 -4177.05 -4177.12
-2182.02 -2183.51 -2184.50 -2183.92 -2186.28 -2190.79 -2192.64 -2178.58 -2155.93 -2169.07 -2166.23 -2165.69 -2163.43 -2166.74 -2171.49 -2180.26 -2175.73 -2184.11 -2178.13 -2178.43 -2180.31 -2175.40 -2181.76 -2184.68 -2194.43 -2193.65 -2203.06 -2201.86 -2210.63 -2220.33 -2220.44 -2225.90 -2228.65 -2221.16 -2161.38 -1884.24 -1394.49 -930.90 -564.23 -426.09 -386.97 -324.48 -282.24 -272.59 -207.83 -23.12 66.05 113.44 145.14 151.48 158.73 140.07 140.70 137.92 136.16 129.19 132.99 139.52 134.01 141.65 140.82 144.73 150.88 160.01 170.05 162.26 156.63 156.62 156.67 157.23 161.12 166.16 178.63 189.02 204.87 227.81 243.22 262.09 284.98 300.26 322.31 333.95 344.47 341.99 328.73 293.94 266.66 233.74 186.00 170.19 120.53 109.19 -401.13 -978.77 -1593.14 -1933.32 -3004.76 -3664.42 -4536.23 -4733.80 -5228.68 -5332.42 -5469.51 -5654.41 -5244.87 -4905.62 -3926.19 -3099.13 -2405.94 -456.97 -125.94 -183.51 111.67 112.31 -102.40 -928.49 -613.04 -494.06 -509.11 -662.67 -904.20 -1364.57 -1627.92 -1904.06 -2070.82 -2181.73 -2236.14 -2253.53 -2258.26 -2269.27 -2320.39 -2461.88 -2786.02 -2945.07 -3296.92 -3579.13 -3992.73 -4115.71 -4159.55 -4172.59 -4173.61
-2196.81 -2196.76 -2194.90 -2199.19 -2203.23 -2202.35 -2206.74 -2199.71 -2181.34 -2179.09 -2181.69 -2179.73 -2179.31 -2179.99 -2190.05 -2196.34 -2193.25 -2200.02 -2200.55 -2201.67 -2203.97 -2202.86 -2212.24 -2213.02 -2215.96 -2215.70 -2222.61 -2225.51 -2222.79 -2231.76 -2233.96 -2237.00 -2241.87 -2240.09 -2169.94 -1923.14 -1640.24 -1054.47 -596.68 -431.22 -394.37 -339.21 -302.23 -276.49 -223.53 -128.33 -47.80 34.93 113.66 83.24 92.55 111.62 113.27 49.84 -23.77 -43.50 -19.08 54.42 46.35 -12.92 57.20 113.34 132.06 158.46 166.59 174.09 168.38 156.71 156.73 157.48 161.35 164.43 177.32 187.91 196.44 223.24 237.31 251.73 273.58 288.69 313.16 323.48 336.94 341.77 326.52 297.51 282.69 236.96 184.51 161.43 113.83 99.83 -1109.47 -1469.18 -2289.95 -2843.95 -4172.50 -4555.74 -4844.55 -5082.20 -5329.76 -5492.88 -5628.73 -4799.06 -3242.74 -2635.95 -1585.47 -478.83 129.70 144.76 132.91 133.97 120.23 135.64 129.77 -10.81 -306.34 -546.71 -716.60 -875.38 -1287.59 -1495.99 -1838.03 -2070.31 -2150.51 -2228.52 -2245.63 -2250.27 -2251.93 -2273.93 -2313.17 -2437.54 -2780.93 -2918.69 -3314.28 -3698.94 -4008.32 -4122.90 -4165.89 -4170.25 -4170.32
-2208.65 -2208.59 -2209.04 -2211.10 -2217.42 -2215.46 -2216.89 -2211.85 -2194.28 -2194.93 -2192.33 -2192.81 -2192.85 -2193.92 -2202.07 -2214.76 -2217.40 -2218.86 -2220.20 -2225.64 -2222.40 -2228.77 -2229.59 -2231.97 -2235.79 -2234.03 -2235.51 -2239.74 -2245.32 -2244.25 -2244.82 -2247.23 -2251.22 -2253.36 -2218.36 -2031.70 -1712.83 -1343.18 -687.85 -502.84 -386.17 -353.53 -314.69 -279.23 -213.15 -154.10 -116.95 -5.00 26.15 13.43 -38.84 -85.63 -67.11 -63.40 -117.69 -138.40 -90.65 -127.62 -47.45 -77.09 -32.06 86.71 111.75 141.01 164.81 169.26 174.86 166.21 159.43 157.88 162.17 164.01 180.18 184.49 201.23 220.82 235.12 258.10 271.74 281.83 295.64 313.78 327.52 329.58 322.23 307.33 297.51 282.21 180.82 143.41 100.30 -550.50 -1421.74 -1794.27 -2297.89 -3771.62 -4604.74 -4932.07 -4953.58 -5090.77 -5278.08 -5042.70 -4102.53 -1718.90 -528.59 -121.38 131.77 175.65 175.13 170.28 174.21 181.46 182.86 173.44 143.77 50.68 -233.88 -661.37 -859.25 -1113.79 -1357.24 -1676.35 -1872.64 -2100.98 -2209.41 -2246.01 -2255.03 -2257.73 -2256.88 -2300.89 -2383.93 -2492.05 -2823.19 -3084.54 -3507.04 -3855.36 -4044.31 -4145.48 -4160.05 -4168.21 -4168.27
-2220.65 -2220.60 -2220.52 -2225.02 -2224.13 -2231.48 -2228.78 -2228.28 -2207.72 -2205.75 -2206.35 -2208.50 -2212.17 -2213.79 -2220.57 -2231.19 -2240.03 -2242.10 -2241.49 -2247.15 -2243.49 -2245.28 -2247.86 -2248.37 -2252.05 -2255.09 -2256.08 -2249.73 -2253.12 -2254.05 -2258.54 -2262.25 -2258.77 -2255.60 -2200.69 -2152.53 -1854.82 -1473.71 -891.12 -520.06 -443.67 -373.63 -347.72 -288.90 -239.98 -195.19 -171.05 -144.58 -153.55 -150.49 -170.69 -199.70 -174.67 -145.65 -168.57 -155.09 -146.50 -139.50 -99.05 -100.53 -82.00 16.48 74.60 117.73 157.47 158.47 165.82 171.82 164.36 158.71 160.03 167.08 175.78 184.76 205.81 217.76 225.79 253.87 268.01 274.63 283.50 296.45 312.86 307.74 301.65 299.11 359.95 350.62 208.17 -139.96 -642.92 -1089.80 -1424.81 -1685.45 -2400.97 -3316.59 -4167.59 -4129.93 -4181.62 -3313.40 -3480.33 -2946.71 -1346.86 123.86 155.27 160.57 171.18 184.33 198.13 212.71 209.37 204.96 187.97 172.64 153.70 131.13 -230.56 -678.15 -1009.64 -1172.15 -1490.79 -1700.52 -1941.48 -2183.72 -2239.77 -2247.62 -2256.15 -2259.07 -2260.63 -2284.22 -2381.11 -2571.42 -2815.26 -3030.04 -3457.24 -3860.60 -4048.14 -4128.50 -4148.40 -4168.27 -4168.34
-2233.16 -2234.68 -2236.51 -2236.91 -2238.82 -2239.88 -2241.74 -2231.03 -2225.12 -2218.40 -2219.96 -2223.19 -2223.71 -2223.94 -2234.53 -2246.35 -2251.83 -2251.80 -2257.46 -2257.45 -2261.82 -2263.34 -2266.53 -2272.04 -2272.23 -2272.41 -2272.04 -2271.05 -2267.01 -2268.32 -2265.74 -2266.53 -2263.94 -2257.72 -2207.91 -2114.44 -1982.02 -1555.03 -1331.28 -953.37 -562.11 -435.35 -353.09 -318.55 -276.56 -261.22 -225.61 -206.61 -221.78 -227.56 -218.91 -199.65 -190.59 -179.97 -165.32 -151.18 -128.17 -103.61 -91.26 -63.81 -50.23 -22.98 34.86 72.36 121.20 135.15 146.83 161.98 160.66 158.74 160.25 169.32 177.13 184.29 199.03 217.95 231.59 245.03 252.78 267.62 278.85 282.89 288.01 294.97 268.06 238.46 309.55 261.90 140.83 -204.14 -853.57 -1161.11 -1381.80 -1570.55 -2061.70 -2721.77 -3023.94 -3021.76 -2656.19 -2077.98 -733.51 8.06 107.35 153.77 189.06 206.00 227.73 253.83 277.59 254.75 232.59 206.31 188.55 158.69 142.02 128.30 -123.56 -902.43 -1349.85 -1484.31 -1617.15 -1810.29 -1997.02 -2159.93 -2245.10 -2256.15 -2261.57 -2262.20 -2261.98 -2282.20 -2392.48 -2471.67 -2701.74 -3094.83 -3459.01 -3832.38 -4043.20 -4138.29 -4159.67 -4171.06 -4171.12
-2245.72 -2245.67 -2250.94 -2248.50 -2253.44 -2252.91 -2256.54 -2251.54 -2246.26 -2243.91 -2252.03 -2257.56 -2256.28 -2258.65 -2258.92 -2254.84 -2259.74 -2259.97 -2264.49 -2265.89 -2267.93 -2277.67 -2284.40 -2285.72 -2281.75 -2286.47 -2286.83 -2288.51 -2282.38 -2267.81 -2267.71 -2269.87 -2261.47 -2236.21 -2157.57 -2025.97 -1890.38 -1685.29 -1267.29 -1142.45 -879.61 -756.69 -629.81 -424.73 -418.05 -328.45 -287.27 -282.38 -257.10 -248.18 -228.27 -211.96 -197.08 -186.83 -168.17 -150.83 -123.43 -92.58 -69.84 -47.41 -36.65 -30.79 -16.06 29.72 71.47 100.50 136.96 154.33 154.05 153.95 159.04 168.77 175.67 186.46 198.99 211.63 224.44 231.08 243.80 248.50 258.64 273.58 272.19 265.89 255.56 222.79 228.95 210.63 129.92 78.45 -787.99 -1456.61 -1398.91 -1424.74 -1610.13 -1753.32 -1907.11 -1813.55 -1144.84 -305.57 151.17 162.49 199.12 215.14 236.77 245.24 259.51 291.49 289.21 257.49 221.04 205.52 187.04 143.79 127.95 97.51 -363.32 -1419.64 -1582.13 -1761.09 -1939.75 -2025.73 -2141.79 -2231.19 -2240.80 -2255.58 -2257.58 -2263.04 -2263.20 -2276.11 -2327.45 -2426.76 -2686.42 -3054.79 -3482.25 -3909.10 -4112.70 -4150.08 -4169.65 -4175.84 -4175.90
-2257.21 -2258.55 -2261.32 -2263.08 -2264.19 -2265.35 -2264.80 -2268.58 -2270.75 -2271.24 -2280.67 -2279.27 -2284.57 -2281.26 -2278.14 -2266.29 -2264.24 -2265.10 -2269.29 -2273.18 -2272.98 -2282.26 -2294.24 -2303.28 -2307.87 -2300.98 -2308.62 -2303.56 -2289.10 -2277.37 -2275.24 -2273.88 -2253.68 -2205.57 -2134.50 -1982.88 -1725.46 -1435.23 -1404.81 -1201.08 -1011.05 -943.31 -750.72 -481.33 -405.26 -382.85 -308.85 -296.03 -272.98 -250.64 -236.38 -228.48 -206.72 -194.78 -182.06 -156.18 -131.14 -93.40 -60.02 -39.21 -28.79 -16.33 -9.81 14.99 46.81 84.29 129.12 136.15 140.89 148.92 159.88 166.93 174.21 182.46 193.30 203.16 207.51 223.09 233.82 244.92 247.94 259.13 259.58 251.96 245.98 213.98 192.15 140.17 118.87 68.67 -782.89 -1487.53 -1472.97 -1451.51 -1527.76 -1595.94 -1596.77 -1332.04 -241.90 148.82 189.72 215.64 238.30 252.53 267.80 281.22 274.72 253.47 229.98 219.65 184.10 179.10 165.94 133.37 115.78 96.91 -718.68 -1615.13 -1866.05 -2000.17 -2015.49 -2117.51 -2212.29 -2227.70 -2243.18 -2250.15 -2255.58 -2261.20 -2261.97 -2280.80 -2313.18 -2413.36 -2667.35 -2891.85 -3661.14 -4018.87 -4148.57 -4171.21 -4173.50 -4179.87 -4179.92
-2269.28 -2270.60 -2271.52 -2273.50 -2274.21 -2277.98 -2280.15 -2282.50 -2285.71 -2289.50 -2290.89 -2295.16 -2295.06 -2298.61 -2289.91 -2278.16 -2275.61 -2278.10 -2278.59 -2280.09 -2282.21 -2298.34 -2310.46 -2318.54 -2317.18 -2306.52 -2314.39 -2309.12 -2295.30 -2282.19 -2277.65 -2270.42 -2247.76 -2191.68 -2118.37 -1941.38 -1760.34 -1528.44 -1290.48 -1159.11 -1025.12 -875.88 -663.74 -513.40 -429.06 -340.07 -323.21 -301.06 -285.34 -268.32 -255.48 -238.93 -219.47 -211.42 -177.41 -143.49 -119.30 -96.69 -51.82 -34.32 -22.05 -9.96 -1.28 11.19 54.45 101.97 128.97 133.19 139.98 144.96 153.18 161.55 169.57 173.90 184.86 198.71 199.11 212.99 224.61 230.98 231.81 234.60 245.30 242.27 221.83 201.97 181.08 164.14 122.03 81.88 -858.49 -1361.92 -1538.28 -1511.36 -1522.74 -1498.39 -1349.84 -712.89 -105.99 198.75 257.64 272.86 288.22 298.19 264.49 250.90 224.52 225.63 192.70 178.95 147.93 139.25 128.36 111.90 103.56 87.78 -66.34 -1463.47 -1857.67 -2052.69 -2103.49 -2185.87 -2203.52 -2239.11 -2245.67 -2244.99 -2254.21 -2260.92 -2263.83 -2284.28 -2321.33 -2469.98 -2903.34 -3308.33 -3820.78 -4116.45 -4153.79 -4170.03 -4173.85 -4186.31 -4186.37
-2281.53 -2281.48 -2284.31 -2282.29 -2283.07 -2284.51 -2290.13 -2293.01 -2297.60 -2300.46 -2302.72 -2306.39 -2312.20 -2311.30 -2309.33 -2290.98 -2287.05 -2287.27 -2293.07 -2292.90 -2297.61 -2309.60 -2323.44 -2328.93 -2320.70 -2317.19 -2318.26 -2307.03 -2295.25 -2282.01 -2279.11 -2269.88 -2232.44 -2182.63 -2082.20 -1906.39 -1796.68 -1467.62 -1256.06 -1090.79 -983.73 -850.21 -732.29 -616.35 -466.39 -378.67 -342.56 -316.37 -290.54 -280.11 -263.70 -255.27 -243.57 -217.76 -177.13 -138.02 -104.14 -79.01 -43.38 -30.56 -16.93 -7.31 6.81 17.58 46.53 74.21 102.36 121.61 138.57 146.38 149.23 156.77 164.19 167.83 176.87 188.02 194.35 200.87 209.14 215.08 219.82 228.35 229.83 229.79 208.33 197.51 175.11 154.31 124.26 79.60 -308.68 -1216.69 -1492.55 -1541.22 -1521.88 -1393.12 -1094.59 -336.28 129.40 265.69 313.91 314.18 283.72 273.54 236.89 227.41 209.38 172.29 146.07 135.55 134.14 123.23 118.73 109.10 88.57 -502.29 -809.92 -1506.94 -2077.75 -2085.23 -2156.08 -2205.22 -2220.93 -2234.71 -2246.95 -2253.35 -2258.87 -2259.74 -2258.66 -2264.04 -2373.94 -2712.34 -3191.37 -3769.29 -3991.46 -4121.20 -4141.24 -4174.69 -4176.04 -4191.24 -4191.29
-2293.86 -2293.81 -2294.04 -2295.31 -2298.29 -2300.72 -2301.84 -2304.57 -2304.68 -2308.16 -2313.57 -2318.46 -2316.99 -2319.02 -2319.57 -2301.23 -2298.00 -2301.31 -2301.89 -2305.91 -2310.28 -2326.08 -2337.20 -2332.35 -2325.33 -2321.64 -2320.05 -2311.11 -2292.68 -2283.36 -2274.04 -2265.13 -2208.06 -2156.96 -2089.58 -1870.38 -1785.12 -1537.11 -1363.32 -1166.63 -949.95 -862.92 -785.97 -663.64 -541.30 -410.31 -347.87 -323.52 -296.42 -288.58 -278.76 -261.94 -240.71 -223.65 -186.71 -144.29 -103.93 -77.82 -44.46 -20.58 -7.67 2.60 18.51 26.24 36.60 47.19 74.41 110.26 130.43 142.32 147.19 152.87 161.84 165.85 170.62 174.99 186.88 191.53 192.85 202.35 203.47 206.71 205.11 194.43 196.05 178.03 171.95 145.94 121.90 97.57 -349.83 -853.65 -1464.94 -1502.20 -1464.81 -1181.41 -772.78 -35.36 107.99 284.26 308.73 298.06 276.25 246.24 214.70 205.02 174.16 145.28 132.18 127.04 122.36 117.81 114.72 95.49 -258.97 -1033.56 -1355.11 -1806.91 -2092.85 -2100.00 -2164.84 -2210.07 -2224.86 -2239.46 -2249.47 -2255.01 -2256.97 -2254.77 -2252.55 -2265.60 -2335.35 -3091.20 -3654.00 -4051.48 -4102.72 -4121.25 -4151.89 -4176.42 -4180.83 -4193.19 -4196.29
-2305.30 -2305.24 -2306.43 -2310.07 -2310.46 -2309.19 -2311.96 -2314.45 -2315.70 -2319.45 -2322.18 -2322.83 -2327.68 -2329.51 -2326.82 -2314.67 -2315.66 -2314.64 -2318.00 -2316.88 -2322.18 -2331.50 -2337.63 -2333.23 -2325.39 -2324.15 -2321.62 -2312.92 -2299.47 -2293.45 -2280.86 -2265.47 -2217.62 -2167.44 -2092.81 -1936.25 -1826.80 -1587.16 -1509.83 -1265.79 -1021.58 -886.45 -772.64 -662.83 -555.03 -434.38 -383.86 -338.90 -303.69 -291.67 -283.40 -257.65 -240.72 -204.08 -168.41 -126.71 -92.48 -61.11 -38.31 -12.59 -0.02 12.15 19.50 34.04 46.25 60.52 72.49 101.10 130.79 136.82 143.10 147.43 152.35 158.96 163.62 167.46 173.61 180.97 185.25 188.60 187.87 183.87 184.88 183.11 168.88 163.94 149.75 137.13 112.87 99.18 -183.27 -455.22 -1040.99 -1355.15 -1284.95 -888.83 -424.88 -41.75 120.37 231.41 253.19 252.04 240.74 209.60 193.27 174.45 142.38 121.98 121.64 118.38 106.03 102.11 93.95 -288.35 -865.81 -1581.89 -1791.75 -1986.62 -2051.71 -2140.46 -2175.79 -2197.16 -2219.26 -2239.40 -2246.23 -2250.71 -2253.41 -2253.92 -2252.23 -2255.35 -2350.45 -2835.85 -3784.79 -3977.25 -4102.67 -4144.68 -4171.40 -4182.70 -4184.98 -4198.12 -4198.18
-2308.82 -2308.36 -2309.19 -2310.02 -2310.16 -2311.80 -2314.94 -2313.95 -2313.50 -2315.52 -2317.35 -2319.37 -2322.62 -2325.66 -2328.33 -2326.71 -2330.08 -2329.50 -2330.18 -2336.06 -2341.21 -2345.18 -2342.90 -2335.76 -2327.15 -2325.95 -2321.63 -2310.99 -2308.72 -2302.89 -2289.09 -2275.37 -2222.48 -2173.68 -2097.12 -1947.16 -1753.43 -1625.86 -1395.28 -1228.02 -1081.13 -904.04 -721.11 -623.86 -492.74 -444.94 -388.59 -339.23 -312.07 -299.07 -288.83 -284.21 -256.70 -209.90 -179.29 -136.75 -91.36 -65.80 -30.42 -11.08 9.78 17.69 24.89 39.91 52.40 63.60 75.62 99.94 116.90 136.39 136.75 143.40 146.97 152.96 156.08 159.06 163.96 165.90 166.40 169.55 171.33 169.96 161.41 160.12 151.68 140.86 141.93 129.29 111.29 94.11 37.43 -152.61 -538.34 -957.37 -885.01 -530.05 -150.48 68.98 146.35 202.50 207.48 208.98 199.29 161.37 160.63 136.41 121.81 119.11 107.88 105.92 94.33 80.83 -205.58 -672.40 -1100.16 -1593.58 -1872.64 -2022.62 -2058.20 -2137.69 -2176.72 -2195.35 -2216.21 -2231.50 -2240.64 -2247.41 -2251.58 -2252.96 -2250.77 -2259.12 -2347.98 -2515.70 -3177.04 -3938.86 -4136.23 -4157.51 -4172.47 -4182.79 -4187.12 -4202.01 -4202.07
-2308.69 -2310.30 -2311.75 -2312.29 -2311.64 -2312.50 -2314.12 -2315.86 -2310.24 -2310.35 -2312.24 -2313.94 -2317.69 -2321.26 -2333.89 -2342.82 -2350.85 -2351.11 -2353.15 -2359.67 -2353.45 -2355.16 -2348.53 -2339.80 -2335.17 -2335.20 -2330.44 -2320.99 -2318.07 -2311.71 -2305.90 -2281.37 -2238.23 -2128.00 -2054.33 -1907.57 -1728.62 -1576.50 -1458.31 -1354.48 -1157.04 -972.01 -794.68 -603.81 -526.24 -454.43 -421.62 -372.76 -335.18 -319.92 -305.22 -299.98 -246.49 -205.27 -170.32 -127.85 -89.88 -59.03 -31.27 -11.16 4.21 15.59 25.24 36.96 52.87 57.85 76.02 88.59 110.79 129.23 135.67 135.57 140.81 145.23 146.26 154.69 156.17 155.71 152.53 157.83 158.86 152.22 151.46 136.33 137.61 133.46 125.16 108.26 95.61 74.35 58.23 -64.36 -310.44 -275.58 -372.74 -248.85 8.81 116.54 124.64 109.41 137.30 182.75 176.17 144.03 121.83 124.56 115.38 108.80 104.78 92.40 84.06 -277.60 -724.13 -1021.90 -1326.75 -1647.24 -1895.44 -1995.83 -2092.35 -2133.90 -2169.57 -2196.04 -2209.87 -2218.61 -2231.48 -2238.31 -2246.82 -2248.23 -2254.47 -2260.27 -2337.00 -2497.56 -3100.82 -3808.63 -4127.56 -4158.93 -4175.00 -4196.08 -4197.81 -4206.70 -4205.92
-2320.96 -2320.89 -2319.77 -2322.07 -2319.69 -2321.56 -2322.75 -2322.22 -2316.78 -2316.54 -2318.24 -2322.66 -2325.66 -2327.28 -2343.66 -2350.53 -2359.65 -2363.61 -2362.99 -2367.70 -2365.14 -2357.56 -2354.65 -2344.19 -2339.71 -2339.34 -2336.31 -2329.79 -2323.43 -2316.49 -2315.47 -2286.03 -2211.28 -2153.43 -2048.48 -1926.45 -1722.11 -1597.55 -1437.54 -1295.44 -1104.31 -943.24 -822.25 -678.13 -561.02 -482.36 -452.18 -403.79 -368.06 -357.73 -321.23 -291.20 -254.43 -186.69 -132.36 -112.57 -76.16 -48.45 -21.93 -11.49 0.94 10.69 24.78 34.41 46.82 53.55 63.88 82.46 102.05 113.52 123.63 133.56 135.47 137.69 137.83 144.55 143.98 146.13 143.41 138.12 138.71 130.87 131.59 130.06 129.97 109.46 105.21 96.08 75.63 65.01 37.18 -10.01 -103.08 -120.61 -114.53 1.66 107.33 92.70 25.85 -78.80 -61.22 59.90 92.30 104.68 87.04 105.40 106.69 95.71 43.24 -35.84 -187.55 -646.40 -1018.44 -1302.25 -1426.66 -1688.43 -1906.71 -1995.91 -2086.83 -2141.78 -2163.98 -2190.36 -2201.32 -2214.46 -2228.19 -2233.77 -2239.42 -2243.66 -2255.10 -2267.50 -2339.75 -2418.10 -2812.89 -3665.40 -4126.46 -4176.01 -4192.62 -4202.88 -4203.03 -4209.54 -4211.78
-2332.45 -2332.38 -2330.63 -2332.48 -2328.02 -2335.10 -2335.40 -2329.72 -2330.50 -2327.00 -2328.74 -2332.95 -2335.86 -2339.00 -2348.00 -2361.49 -2372.78 -2373.83 -2372.95 -2374.28 -2369.83 -2362.63 -2360.57 -2354.46 -2350.38 -2347.13 -2340.20 -2332.97 -2330.91 -2324.36 -2316.32 -2297.05 -2263.07 -2218.59 -2110.57 -1998.98 -1710.52 -1609.88 -1493.19 -1287.09 -1175.22 -1004.60 -836.91 -661.10 -595.27 -506.63 -482.06 -437.97 -403.24 -370.71 -317.38 -289.80 -245.17 -204.38 -108.72 -83.54 -60.17 -34.27 -23.28 -11.07 -1.03 10.94 17.83 29.19 40.71 48.32 59.04 76.78 91.39 107.17 111.46 119.92 130.70 132.03 131.79 132.80 140.40 133.97 129.51 131.87 128.50 120.90 121.23 120.89 101.89 91.85 75.54 75.88 64.51 45.97 29.04 -2.65 -39.27 -39.73 -12.95 49.86 71.10 5.05 -61.93 -127.49 -164.18 -215.32 -177.21 -134.71 -202.86 -128.23 -77.41 -167.82 -141.48 -376.18 -681.97 -1107.14 -1200.84 -1360.92 -1519.24 -1654.99 -1991.52 -2037.77 -2111.09 -2149.86 -2169.78 -2181.01 -2196.68 -2207.11 -2223.12 -2232.05 -2236.47 -2240.04 -2249.72 -2264.74 -2338.48 -2542.88 -3100.26 -3742.19 -4122.87 -4171.47 -4177.39 -4191.57 -4207.09 -4218.80 -4221.52
-2344.10 -2344.03 -2346.06 -2340.16 -2342.41 -2344.94 -2345.48 -2343.51 -2337.60 -2338.79 -2342.03 -2345.96 -2342.90 -2351.82 -2358.37 -2372.55 -2377.85 -2383.14 -2386.37 -2378.24 -2374.29 -2368.85 -2366.51 -2360.20 -2355.47 -2353.34 -2347.36 -2342.43 -2336.22 -2327.36 -2316.49 -2303.61 -2287.19 -2238.60 -2139.59 -2006.62 -1805.46 -1677.82 -1469.52 -1318.32 -1177.61 -1099.68 -921.01 -730.41 -601.84 -551.51 -499.95 -463.39 -410.81 -382.73 -323.00 -276.75 -245.35 -189.25 -140.18 -92.05 -61.52 -36.32 -20.85 -11.27 -3.60 0.69 12.13 20.18 31.62 44.35 55.22 67.81 85.44 89.65 101.22 114.77 122.76 126.13 116.76 124.92 117.95 111.08 113.48 114.17 113.51 105.89 97.13 88.60 77.48 72.61 66.76 41.19 37.44 26.68 7.36 -8.60 -23.82 16.10 38.42 26.50 -14.51 -61.42 -104.32 -145.73 -183.88 -332.34 -481.83 -500.46 -478.73 -387.04 -482.28 -547.52 -538.99 -802.94 -997.44 -1267.20 -1288.57 -1498.37 -1653.39 -1780.40 -1999.87 -2094.33 -2110.73 -2151.69 -2168.10 -2177.86 -2191.34 -2203.00 -2216.76 -2229.76 -2233.74 -2238.52 -2242.89 -2259.89 -2355.50 -2649.08 -3196.99 -3810.86 -4147.51 -4187.33 -4183.43 -4198.32 -4205.33 -4224.74 -4228.44
-2356.69 -2354.97 -2356.94 -2355.43 -2351.21 -2353.51 -2354.18 -2356.76 -2352.16 -2349.64 -2353.47 -2355.33 -2358.36 -2366.26 -2373.20 -2385.82 -2389.46 -2394.38 -2394.64 -2387.43 -2384.97 -2381.40 -2375.94 -2369.32 -2363.47 -2361.77 -2358.39 -2354.15 -2347.47 -2334.85 -2326.48 -2313.13 -2288.05 -2227.85 -2159.74 -2043.53 -1948.98 -1736.22 -1511.14 -1314.50 -1137.72 -1020.20 -878.63 -733.49 -635.09 -574.61 -544.71 -477.06 -412.95 -347.98 -314.58 -260.21 -226.28 -171.23 -141.46 -96.72 -67.13 -42.92 -24.64 -11.92 -10.50 -9.09 1.39 13.95 20.30 34.73 55.90 61.80 60.93 74.01 82.73 90.34 97.92 102.00 98.44 102.68 101.71 97.51 98.67 98.99 91.83 90.90 68.70 61.16 55.18 40.52 20.36 19.18 14.99 10.71 -11.20 -22.80 0.91 30.88 8.01 -64.23 -96.88 -113.59 -168.21 -200.58 -303.97 -369.75 -444.26 -561.36 -709.26 -743.26 -785.53 -926.66 -992.21 -1021.39 -1311.37 -1483.27 -1567.83 -1751.07 -1784.13 -1911.55 -2016.81 -2093.10 -2125.37 -2142.36 -2164.74 -2170.69 -2187.68 -2197.59 -2211.98 -2221.32 -2227.84 -2233.36 -2235.03 -2241.32 -2256.23 -2804.81 -3595.43 -4035.83 -4168.51 -4179.22 -4185.28 -4187.67 -4198.30 -4231.06 -4231.13
-2378.87 -2375.73 -2376.70 -2375.54 -2377.25 -2375.86 -2382.52 -2378.05 -2375.30 -2375.64 -2369.72 -2376.63 -2382.00 -2384.13 -2387.12 -2392.22 -2394.20 -2398.60 -2402.19 -2398.27 -2394.76 -2387.81 -2385.37 -2377.66 -2376.79 -2375.37 -2369.26 -2364.56 -2357.72 -2344.27 -2338.49 -2325.38 -2304.76 -2258.62 -2149.68 -2064.38 -1966.23 -1750.14 -1475.03 -1324.03 -1201.39 -1075.72 -932.10 -768.04 -745.36 -659.82 -564.78 -533.47 -458.70 -378.54 -310.30 -248.86 -200.51 -164.87 -124.97 -95.15 -66.96 -47.23 -20.04 -16.25 -13.91 -8.83 -0.28 2.93 9.71 22.59 36.70 45.18 49.26 63.14 69.31 64.14 68.41 73.81 76.42 78.12 66.92 74.39 73.53 73.27 59.50 59.52 38.91 35.77 36.53 25.28 9.03 3.07 -11.33 -6.44 -12.20 -15.44 -22.34 -34.55 -56.52 -178.06 -183.64 -193.93 -234.45 -269.92 -358.61 -437.89 -605.46 -843.94 -948.62 -1063.40 -1147.67 -1133.31 -1284.24 -1355.05 -1522.20 -1697.23 -1798.28 -1841.35 -1971.00 -2038.83 -2080.81 -2110.64 -2128.94 -2140.93 -2158.59 -2169.34 -2184.77 -2196.38 -2208.05 -2219.41 -2225.01 -2229.61 -2231.46 -2232.56 -2262.14 -2971.75 -3729.94 -4144.70 -4174.12 -4181.99 -4195.11 -4204.44 -4216.01 -4229.73 -4229.79
-2395.59 -2394.47 -2394.58 -2395.20 -2392.94 -2397.86 -2396.64 -2391.90 -2393.30 -2394.49 -2398.64 -2400.82 -2402.21 -2401.33 -2401.63 -2398.95 -2402.59 -2405.47 -2408.89 -2408.37 -2404.36 -2398.06 -2392.58 -2388.66 -2385.28 -2383.67 -2379.43 -2375.47 -2365.73 -2350.16 -2340.86 -2334.18 -2312.45 -2291.89 -2181.64 -2018.43 -1901.60 -1711.43 -1594.32 -1450.03 -1201.40 -1066.57 -958.84 -815.93 -757.86 -669.81 -593.47 -560.03 -528.67 -428.65 -331.47 -241.80 -223.16 -162.98 -122.45 -100.10 -76.99 -48.89 -30.41 -25.03 -17.73 -13.65 -14.36 -10.80 1.93 12.22 16.00 25.34 32.08 40.31 44.25 41.23 47.81 44.22 42.69 39.31 38.28 31.54 34.25 37.74 31.85 24.46 20.64 17.56 4.56 4.94 7.03 14.80 12.52 7.50 -0.92 -35.03 -79.17 -116.10 -220.79 -309.45 -317.73 -334.61 -346.56 -375.63 -526.77 -628.15 -735.70 -1010.58 -1105.08 -1275.59 -1392.78 -1409.20 -1588.87 -1569.32 -1695.77 -1877.23 -1952.01 -1959.38 -2002.41 -2045.47 -2085.36 -2113.18 -2127.79 -2143.22 -2154.36 -2166.32 -2180.31 -2194.52 -2202.36 -2218.12 -2223.24 -2229.26 -2231.23 -2231.02 -2271.04 -2491.99 -3499.50 -4120.34 -4155.00 -4192.55 -4203.98 -4218.73 -4223.60 -4224.92 -4224.97
-2404.94 -2404.87 -2406.57 -2405.53 -2404.65 -2406.86 -2403.56 -2402.96 -2403.64 -2403.30 -2404.65 -2407.40 -2409.64 -2412.13 -2412.85 -2409.17 -2410.53 -2412.20 -2417.66 -2416.80 -2411.76 -2407.65 -2401.63 -2403.09 -2395.17 -2391.69 -2386.49 -2381.10 -2371.77 -2357.21 -2344.28 -2337.60 -2328.94 -2271.46 -2214.50 -2043.22 -1960.13 -1839.25 -1714.35 -1528.49 -1385.67 -1167.08 -991.66 -882.78 -787.13 -695.48 -641.64 -591.08 -535.74 -411.84 -328.63 -269.84 -245.88 -178.47 -135.54 -101.86 -85.29 -53.58 -43.68 -35.65 -27.89 -21.65 -20.61 -18.34 -8.40 -4.61 0.21 4.99 10.30 10.59 22.31 25.63 32.09 33.13 26.15 24.95 23.11 15.95 11.37 6.10 7.72 6.57 13.04 15.97 24.64 46.42 60.68 49.43 47.52 15.44 -4.62 -66.41 -181.39 -358.86 -385.20 -498.73 -495.26 -572.63 -519.03 -622.88 -832.44 -929.97 -995.53 -1141.37 -1301.87 -1465.01 -1565.39 -1676.42 -1747.49 -1804.73 -1844.99 -1895.26 -1998.32 -2038.88 -2060.68 -2075.58 -2104.98 -2122.58 -2134.04 -2146.43 -2161.64 -2171.46 -2177.17 -2197.68 -2203.76 -2214.89 -2227.03 -2230.63 -2234.93 -2234.95 -2268.79 -2589.77 -3447.40 -4159.22 -4183.55 -4210.55 -4205.37 -4211.94 -4220.70 -4218.29 -4218.35
-2412.81 -2412.74 -2414.01 -2414.13 -2413.11 -2412.17 -2414.15 -2411.71 -2412.37 -2412.83 -2413.04 -2416.62 -2420.13 -2420.63 -2419.39 -2417.42 -2420.16 -2420.95 -2422.38 -2423.36 -2418.14 -2416.25 -2412.66 -2409.22 -2403.38 -2399.43 -2392.35 -2384.67 -2377.26 -2360.75 -2351.02 -2342.77 -2321.89 -2257.38 -2201.53 -2062.72 -1997.62 -1851.69 -1790.12 -1621.78 -1563.48 -1326.05 -1102.15 -912.31 -817.55 -764.85 -700.97 -646.54 -547.74 -419.95 -356.10 -307.21 -256.39 -200.31 -148.14 -124.24 -99.84 -68.89 -52.31 -41.55 -41.54 -35.36 -31.46 -26.82 -21.86 -22.50 -15.15 -10.85 -6.94 -3.26 8.76 17.69 23.62 15.94 11.44 8.92 8.21 6.94 4.73 -1.01 0.18 22.56 31.53 49.98 99.24 92.07 86.20 57.66 31.89 -10.80 -88.10 -204.61 -354.89 -484.12 -672.38 -751.13 -616.40 -731.71 -725.08 -855.54 -1087.92 -1114.69 -1355.35 -1448.84 -1447.11 -1604.39 -1768.03 -1860.70 -1883.48 -1941.75 -1962.83 -2003.98 -2031.06 -2072.86 -2087.80 -2102.08 -2121.23 -2127.65 -2141.98 -2157.31 -2172.56 -2180.85 -2188.55 -2196.57 -2205.68 -2213.50 -2226.20 -2235.51 -2240.70 -2239.61 -2277.44 -2729.48 -3557.53 -4187.63 -4201.65 -4199.75 -4198.98 -4198.15 -4209.89 -4210.18 -4209.07
-2419.84 -2419.77 -2422.05 -2422.30 -2423.22 -2422.13 -2422.56 -2420.36 -2421.16 -2420.38 -2422.27 -2422.68 -2427.39 -2427.50 -2428.58 -2427.53 -2426.17 -2430.42 -2428.64 -2427.34 -2426.12 -2422.52 -2418.70 -2417.67 -2410.26 -2403.86 -2401.46 -2395.06 -2382.93 -2371.09 -2364.43 -2353.55 -2342.07 -2284.01 -2187.76 -2121.90 -2056.61 -1996.01 -1772.99 -1710.47 -1583.42 -1342.47 -1189.15 -1027.41 -923.27 -841.69 -764.26 -674.30 -597.67 -442.26 -404.24 -334.43 -283.38 -230.07 -167.82 -138.10 -111.76 -89.62 -78.05 -60.82 -52.59 -47.49 -46.47 -42.08 -35.34 -35.34 -34.78 -25.17 -18.98 -8.75 21.43 46.46 31.20 22.50 25.11 8.91 12.58 9.03 21.23 21.75 40.39 68.46 75.69 115.80 102.87 98.64 65.71 -35.76 -54.36 -139.56 -240.29 -318.16 -467.55 -770.18 -943.37 -1057.10 -1049.95 -1003.43 -1002.53 -1190.20 -1400.16 -1631.47 -1579.75 -1716.86 -1702.33 -1732.17 -1851.39 -1934.58 -1979.51 -2011.28 -2018.51 -2057.75 -2085.64 -2097.40 -2110.05 -2117.68 -2135.81 -2141.14 -2154.60 -2166.55 -2174.62 -2189.10 -2196.14 -2210.31 -2216.66 -2220.84 -2230.99 -2241.77 -2241.94 -2239.14 -2246.21 -2513.47 -3509.25 -4176.36 -4183.97 -4202.57 -4209.14 -4207.24 -4204.41 -4195.70 -4195.75
-2425.89 -2425.53 -2426.72 -2427.70 -2428.45 -2428.50 -2429.47 -2428.18 -2425.61 -2425.32 -2427.32 -2428.36 -2430.07 -2433.14 -2433.02 -2430.41 -2431.92 -2434.53 -2434.82 -2432.58 -2432.86 -2428.06 -2427.17 -2422.88 -2418.35 -2412.93 -2408.34 -2402.16 -2394.97 -2387.64 -2376.72 -2365.33 -2343.15 -2302.86 -2264.29 -2210.15 -2112.29 -2037.59 -1898.80 -1791.83 -1606.47 -1397.25 -1222.43 -1082.02 -967.76 -884.79 -774.63 -707.50 -549.15 -507.12 -448.87 -369.64 -309.12 -242.25 -203.27 -152.81 -137.02 -108.57 -98.45 -86.48 -74.10 -66.43 -54.56 -50.71 -51.10 -50.97 -50.72 -42.85 -25.88 14.32 74.27 112.23 86.31 47.84 74.87 65.75 59.76 69.73 72.60 73.75 94.96 102.45 104.02 109.91 67.86 41.61 -47.50 -115.39 -170.97 -299.71 -428.27 -541.47 -629.91 -867.52 -1021.19 -1254.44 -1327.29 -1418.36 -1423.53 -1401.10 -1610.46 -1841.68 -1890.58 -1933.54 -1908.07 -1943.97 -1952.63 -2006.39 -2030.65 -2046.79 -2065.71 -2093.93 -2115.42 -2116.98 -2124.45 -2126.16 -2143.10 -2159.54 -2170.97 -2178.78 -2182.99 -2193.41 -2205.03 -2216.33 -2223.58 -2224.17 -2239.02 -2248.42 -2250.75 -2242.75 -2267.76 -2825.48 -3656.62 -4198.02 -4188.87 -4200.75 -4206.42 -4202.95 -4199.41 -4178.82 -4178.87
-2430.90 -2430.83 -2433.06 -2434.78 -2435.01 -2435.73 -2435.50 -2431.27 -2422.73 -2419.14 -2421.29 -2424.98 -2427.88 -2429.74 -2430.30 -2431.64 -2432.50 -2433.27 -2433.02 -2432.74 -2436.59 -2438.06 -2433.85 -2429.54 -2423.69 -2423.22 -2414.94 -2413.61 -2406.71 -2401.34 -2392.27 -2381.25 -2360.11 -2340.63 -2300.39 -2263.21 -2196.66 -2064.39 -1984.32 -1845.85 -1650.81 -1424.57 -1235.51 -1099.75 -979.39 -863.09 -731.14 -668.97 -582.06 -529.26 -479.23 -413.67 -336.91 -251.13 -201.54 -187.79 -159.73 -136.34 -125.90 -97.05 -90.59 -75.96 -70.40 -70.42 -67.22 -67.19 -60.48 -53.49 -24.90 38.57 100.35 137.92 134.89 135.28 121.26 119.77 121.40 110.81 104.82 117.69 113.62 65.72 53.39 -1.48 -49.60 -70.89 -181.29 -205.58 -261.18 -358.24 -472.80 -719.33 -741.90 -1017.98 -1253.08 -1597.94 -1659.31 -1790.67 -1716.70 -1681.20 -1798.30 -1916.13 -1991.47 -2017.33 -1991.36 -2035.43 -2035.44 -2061.92 -2073.33 -2080.84 -2087.25 -2107.86 -2124.32 -2135.41 -2141.59 -2146.19 -2160.46 -2174.81 -2181.36 -2196.50 -2197.02 -2209.19 -2213.85 -2223.20 -2230.22 -2241.12 -2250.44 -2255.68 -2263.81 -2263.50 -2306.04 -2692.56 -3972.33 -4215.12 -4194.84 -4183.83 -4194.11 -4192.65 -4175.06 -4159.21 -4159.26
-2436.13 -2436.06 -2438.04 -2438.44 -2440.57 -2440.12 -2441.45 -2435.60 -2425.01 -2417.23 -2419.53 -2421.36 -2424.81 -2426.30 -2428.71 -2430.50 -2430.91 -2429.65 -2430.19 -2431.89 -2441.69 -2446.88 -2445.63 -2442.72 -2431.67 -2426.79 -2424.38 -2419.62 -2414.37 -2408.94 -2401.02 -2396.14 -2390.25 -2379.11 -2356.19 -2295.88 -2223.12 -2164.67 -2060.29 -1889.27 -1686.46 -1385.53 -1271.79 -1111.48 -971.76 -819.99 -751.84 -661.23 -616.46 -554.12 -494.14 -450.45 -369.38 -293.36 -255.35 -230.84 -221.01 -183.92 -148.35 -133.83 -105.81 -99.93 -84.62 -88.18 -87.00 -92.14 -84.16 -73.41 -26.37 58.52 118.34 136.95 143.99 138.57 123.38 127.86 108.96 104.10 85.45 84.45 42.08 0.40 -22.15 -84.31 -128.15 -187.09 -237.38 -287.32 -350.68 -415.58 -561.70 -767.40 -902.65 -1049.74 -1525.36 -1749.21 -1869.27 -1914.44 -1968.05 -1960.87 -1956.07 -2006.00 -2026.26 -2058.40 -2068.45 -2068.73 -2087.59 -2104.10 -2117.69 -2112.90 -2112.74 -2126.01 -2144.04 -2160.41 -2176.36 -2168.07 -2176.92 -2192.92 -2204.20 -2208.04 -2212.48 -2227.32 -2227.01 -2229.67 -2239.07 -2250.69 -2259.44 -2270.70 -2275.99 -2267.41 -2265.60 -2620.60 -3708.55 -4171.01 -4220.01 -4207.27 -4203.64 -4182.72 -4162.90 -4142.58 -4137.31
-2444.51 -2444.44 -2444.95 -2443.37 -2443.78 -2446.17 -2447.47 -2438.27 -2425.43 -2422.85 -2423.99 -2425.02 -2427.35 -2429.67 -2431.58 -2430.70 -2429.01 -2427.54 -2429.79 -2439.46 -2452.80 -2463.65 -2460.11 -2453.95 -2453.79 -2437.86 -2434.20 -2428.47 -2425.73 -2422.56 -2413.26 -2408.78 -2398.50 -2395.81 -2365.30 -2333.24 -2303.83 -2247.61 -2140.48 -2004.68 -1741.52 -1427.15 -1332.11 -1148.40 -1022.90 -910.24 -798.39 -703.82 -651.05 -586.44 -523.00 -455.66 -396.88 -376.86 -298.32 -284.10 -239.93 -219.08 -185.68 -171.14 -145.88 -133.18 -129.65 -130.70 -124.18 -114.53 -110.41 -81.25 -29.45 49.35 93.35 110.21 115.43 74.47 88.97 54.02 40.84 -12.50 -13.45 -13.85 -38.16 -120.44 -143.89 -197.15 -219.56 -266.51 -356.49 -446.78 -535.39 -723.46 -703.23 -893.41 -1020.46 -1154.24 -1550.79 -1901.06 -2041.15 -2039.86 -2089.84 -2065.13 -2059.48 -2051.15 -2070.81 -2077.59 -2083.53 -2094.43 -2114.98 -2137.56 -2137.59 -2140.02 -2151.36 -2165.33 -2158.06 -2176.51 -2192.46 -2182.63 -2195.00 -2211.54 -2210.29 -2219.24 -2237.01 -2242.53 -2243.26 -2248.42 -2258.76 -2263.97 -2279.25 -2282.94 -2290.72 -2274.07 -2266.80 -2960.85 -3597.12 -4159.88 -4206.27 -4196.56 -4186.93 -4155.20 -4130.52 -4113.34 -4113.39
-2461.51 -2461.43 -2456.31 -2447.36 -2449.68 -2450.07 -2451.68 -2444.40 -2429.68 -2429.06 -2430.72 -2431.35 -2433.51 -2434.48 -2433.11 -2432.52 -2433.78 -2431.11 -2455.94 -2466.37 -2503.59 -2507.07 -2492.67 -2483.29 -2475.70 -2459.96 -2448.43 -2440.42 -2438.43 -2431.95 -2423.94 -2414.74 -2405.44 -2398.57 -2385.12 -2356.37 -2327.79 -2263.59 -2137.24 -1958.14 -1728.51 -1499.94 -1436.23 -1285.46 -1091.43 -968.34 -841.73 -737.89 -671.62 -610.97 -515.01 -501.31 -469.39 -391.32 -362.92 -334.87 -305.42 -297.39 -278.96 -223.58 -224.36 -207.26 -166.93 -172.16 -155.11 -149.66 -131.70 -104.41 -19.92 32.05 51.21 75.25 21.94 -6.73 -11.91 -24.49 -81.81 -88.19 -92.53 -139.40 -167.94 -191.85 -215.53 -272.63 -289.34 -365.28 -505.64 -570.37 -727.81 -983.62 -960.05 -1107.74 -1402.66 -1631.49 -1808.33 -1997.46 -2099.96 -2101.82 -2112.19 -2106.43 -2105.72 -2093.33 -2102.64 -2105.21 -2096.96 -2119.16 -2137.29 -2151.54 -2162.75 -2185.00 -2178.52 -2198.14 -2200.72 -2211.61 -2211.64 -2205.54 -2225.43 -2226.47 -2228.89 -2243.07 -2246.38 -2266.48 -2263.70 -2267.83 -2271.06 -2287.27 -2302.63 -2331.27 -2309.25 -2294.85 -2336.46 -2771.08 -3577.67 -4137.69 -4186.76 -4173.16 -4147.20 -4136.39 -4116.47 -4094.37 -4088.18
-2490.51 -2484.59 -2492.63 -2469.10 -2475.51 -2492.12 -2474.36 -2480.36 -2475.95 -2432.08 -2469.88 -2445.32 -2465.50 -2469.73 -2436.16 -2452.60 -2446.01 -2491.22 -2605.23 -2670.97 -2612.87 -2552.61 -2527.37 -2518.73 -2492.78 -2484.89 -2464.89 -2455.36 -2448.56 -2444.29 -2438.76 -2422.95 -2412.21 -2407.81 -2402.06 -2378.97 -2347.95 -2312.40 -2260.48 -2161.04 -1833.51 -1650.10 -1507.44 -1423.58 -1189.65 -935.93 -756.50 -681.42 -595.14 -517.57 -487.42 -537.86 -504.91 -470.42 -416.91 -413.75 -414.84 -360.02 -474.54 -415.55 -300.98 -232.69 -236.07 -232.59 -231.36 -217.65 -195.60 -159.32 -97.44 -52.26 -15.80 -58.53 -138.32 -108.86 -127.25 -159.40 -171.96 -170.55 -203.13 -204.16 -221.78 -258.69 -282.78 -342.41 -365.85 -421.66 -534.25 -682.60 -850.24 -987.10 -1302.28 -1455.84 -1638.01 -1976.88 -2113.78 -2102.28 -2108.16 -2116.57 -2129.37 -2125.49 -2125.22 -2127.59 -2154.75 -2154.98 -2127.33 -2131.93 -2144.94 -2170.55 -2182.24 -2205.88 -2232.98 -2233.83 -2228.41 -2228.27 -2227.56 -2234.10 -2237.12 -2241.66 -2248.78 -2256.34 -2267.51 -2272.88 -2293.30 -2301.30 -2304.00 -2330.79 -2336.88 -2380.87 -2446.64 -2447.96 -2366.12 -2774.33 -3632.68 -4157.48 -4173.13 -4164.12 -4132.83 -4110.38 -4080.91 -4062.16 -4062.22
-2681.13 -2661.31 -2740.67 -2672.89 -2703.81 -2758.06 -2787.17 -2807.49 -2723.01 -2586.27 -2951.25 -2667.08 -2759.72 -2723.56 -2597.38 -2649.38 -3052.82 -2897.15 -2895.99 -3033.42 -2786.90 -2632.47 -2621.07 -2551.53 -2528.60 -2502.23 -2489.36 -2473.73 -2470.32 -2458.52 -2448.31 -2434.27 -2426.00 -2418.16 -2408.61 -2391.48 -2379.66 -2384.21 -2354.68 -2236.60 -2096.90 -1911.77 -1696.57 -1538.77 -1080.08 -832.35 -692.24 -616.84 -595.73 -588.42 -651.17 -642.44 -634.56 -606.11 -572.81 -562.38 -593.64 -694.03 -604.55 -600.02 -501.94 -434.55 -420.26 -365.48 -361.54 -314.14 -246.17 -229.41 -191.43 -177.93 -225.02 -230.21 -251.89 -264.78 -218.40 -220.63 -219.36 -240.11 -262.46 -260.81 -278.36 -289.74 -351.98 -398.27 -480.07 -552.86 -695.76 -898.39 -951.76 -1288.07 -1605.31 -1858.71 -2008.82 -2160.65 -2214.50 -2150.64 -2136.68 -2135.76 -2163.27 -2174.62 -2181.00 -2191.90 -2222.42 -2245.35 -2240.23 -2198.22 -2224.13 -2240.94 -2239.75 -2250.17 -2284.16 -2280.57 -2274.40 -2271.53 -2247.67 -2257.99 -2266.10 -2268.02 -2275.26 -2277.73 -2307.22 -2298.42 -2323.69 -2336.45 -2334.50 -2374.30 -2419.84 -2534.09 -2559.62 -2698.58 -2855.93 -2928.24 -3662.94 -4142.16 -4156.53 -4143.23 -4130.01 -4080.98 -4069.14 -4036.22 -4036.28
-3966.58 -3965.57 -3896.41 -3611.51 -3691.85 -3759.03 -3717.45 -3796.70 -3873.98 -3767.00 -3893.10 -3721.56 -3675.13 -3946.66 -3815.22 -3474.42 -3768.60 -3600.62 -3416.71 -3237.51 -2938.89 -2730.62 -2692.83 -2629.33 -2582.75 -2543.65 -2525.56 -2517.99 -2510.85 -2500.33 -2465.56 -2456.50 -2437.41 -2425.68 -2424.29 -2406.86 -2404.86 -2416.14 -2375.46 -2327.32 -2164.49 -2157.92 -1898.91 -1684.51 -1069.34 -736.23 -807.09 -881.11 -885.04 -788.81 -827.09 -963.50 -860.86 -811.45 -931.22 -862.18 -994.97 -1064.67 -1106.62 -1076.12 -611.21 -664.38 -679.84 -513.72 -410.47 -388.86 -359.12 -365.04 -373.34 -327.11 -293.29 -315.65 -342.84 -324.46 -287.78 -302.66 -310.44 -320.71 -338.77 -352.79 -364.52 -362.57 -381.88 -494.01 -599.56 -831.80 -931.05 -1091.05 -1166.27 -1391.17 -1795.79 -2085.87 -2160.87 -2273.49 -2327.18 -2243.12 -2233.44 -2226.08 -2214.83 -2224.28 -2220.29 -2321.29 -2373.97 -2366.23 -2334.98 -2293.27 -2290.23 -2294.12 -2309.66 -2281.97 -2299.67 -2326.71 -2357.82 -2322.00 -2297.45 -2298.38 -2289.90 -2287.48 -2294.84 -2303.58 -2328.44 -2343.23 -2354.96 -2387.82 -2447.73 -2439.54 -2518.07 -2562.28 -2857.82 -3098.44 -3314.42 -3720.04 -4016.43 -4148.85 -4137.30 -4123.59 -4095.36 -4061.31 -4036.04 -4010.87 -4010.93
-4429.41 -4429.23 -4413.98 -4378.93 -4403.59 -4402.41 -4394.99 -4311.14 -4286.63 -4365.20 -4308.08 -4397.56 -4379.33 -4399.30 -4418.56 -4372.80 -4132.91 -3900.55 -3667.18 -3364.36 -3125.00 -2983.65 -2773.93 -2760.21 -2641.04 -2582.14 -2565.73 -2573.78 -2573.69 -2550.03 -2495.36 -2482.78 -2455.23 -2432.70 -2434.87 -2432.48 -2439.25 -2439.75 -2420.51 -2380.60 -2385.43 -2349.61 -2038.38 -1809.16 -1172.48 -1013.53 -1155.35 -1682.04 -1598.79 -1412.29 -1270.38 -1235.84 -1126.64 -1272.21 -1398.35 -1216.50 -1456.08 -1714.87 -1704.72 -1370.67 -1132.39 -951.98 -902.20 -774.69 -629.47 -569.56 -555.33 -599.37 -516.87 -528.95 -420.65 -384.41 -407.23 -416.27 -404.91 -368.86 -407.92 -391.85 -485.87 -418.11 -460.73 -534.46 -499.81 -601.06 -696.12 -971.64 -1125.41 -1482.23 -1524.19 -1722.51 -1961.32 -2204.42 -2379.36 -2440.85 -2435.62 -2384.73 -2335.57 -2345.40 -2311.79 -2286.50 -2319.89 -2446.47 -2504.98 -2566.22 -2511.76 -2551.90 -2420.88 -2436.20 -2447.43 -2376.26 -2366.42 -2413.99 -2409.27 -2366.91 -2355.16 -2352.20 -2323.29 -2313.68 -2313.70 -2332.18 -2363.92 -2403.97 -2455.75 -2501.87 -2597.72 -2635.01 -2697.09 -2735.85 -3001.42 -3249.89 -3625.24 -3844.11 -4122.72 -4117.70 -4118.25 -4097.95 -4077.87 -4030.50 -4015.06 -3986.71 -3986.77
-4458.99 -4458.92 -4455.77 -4454.51 -4455.31 -4455.80 -4457.40 -4454.40 -4445.43 -4467.21 -4462.53 -4470.83 -4472.56 -4483.96 -4480.27 -4420.73 -4399.35 -4130.68 -3772.48 -3569.38 -3236.56 -3150.42 -3024.46 -2861.79 -2748.45 -2699.30 -2649.70 -2647.47 -2627.77 -2564.81 -2541.97 -2515.68 -2500.61 -2491.12 -2461.84 -2459.64 -2458.85 -2462.85 -2477.03 -2438.83 -2444.44 -2497.10 -2480.26 -2211.77 -1740.93 -2062.20 -2664.87 -2768.24 -2846.73 -2356.10 -1870.50 -1713.11 -1767.39 -1726.31 -1891.21 -1877.17 -2338.05 -2183.90 -2055.95 -2124.79 -1593.90 -1367.33 -1149.99 -1056.73 -930.68 -929.31 -917.35 -711.59 -806.14 -662.82 -568.88 -585.15 -534.19 -538.58 -548.99 -476.79 -500.54 -549.05 -528.68 -637.09 -699.59 -680.26 -698.76 -796.18 -958.13 -1095.47 -1529.43 -1867.60 -2118.29 -2105.32 -2162.15 -2410.03 -2576.21 -2600.55 -2591.24 -2549.21 -2581.48 -2616.32 -2511.28 -2535.84 -2608.67 -2699.06 -2782.66 -2789.07 -2802.13 -2728.22 -2690.52 -2540.19 -2511.91 -2449.39 -2465.93 -2502.74 -2497.31 -2446.41 -2392.68 -2366.47 -2360.83 -2361.85 -2362.69 -2403.30 -2422.08 -2451.44 -2520.94 -2611.28 -2715.06 -2821.85 -2843.34 -2937.40 -3106.14 -3418.60 -3861.49 -3827.47 -4106.94 -4096.81 -4103.30 -4081.37 -4049.22 -4025.62 -3991.61 -3964.70 -3964.76
-4458.93 -4458.54 -4458.50 -4459.45 -4460.96 -4463.04 -4465.66 -4467.49 -4469.66 -4471.63 -4472.60 -4475.99 -4482.85 -4484.67 -4476.15 -4459.45 -4374.27 -4258.84 -3940.10 -3830.86 -3622.72 -3368.82 -3114.56 -3060.94 -2897.92 -2774.35 -2696.42 -2712.76 -2667.46 -2618.84 -2579.70 -2568.43 -2563.88 -2524.16 -2509.14 -2497.65 -2488.86 -2487.14 -2502.81 -2518.20 -2527.30 -2581.37 -2606.44 -2450.08 -2673.06 -2835.18 -3305.61 -3805.28 -3544.72 -3199.90 -2268.67 -2166.03 -2200.84 -2233.60 -2491.07 -2843.63 -3190.37 -3093.49 -2654.98 -2645.22 -2434.36 -1761.13 -1583.68 -1511.83 -1365.98 -1185.63 -1175.57 -1126.56 -1024.22 -852.14 -779.02 -640.21 -620.09 -760.98 -742.81 -638.65 -668.07 -674.20 -723.99 -771.52 -945.92 -950.11 -988.31 -987.52 -1324.08 -1263.63 -1542.76 -2174.29 -2407.96 -2331.05 -2312.94 -2578.58 -2670.86 -2734.46 -2725.04 -2736.16 -2729.33 -2873.96 -2860.22 -2840.16 -2757.39 -2947.61 -3030.43 -2945.32 -3204.05 -3065.32 -2854.40 -2737.82 -2677.51 -2684.93 -2623.72 -2572.18 -2538.95 -2514.70 -2502.29 -2420.56 -2424.11 -2429.14 -2407.46 -2440.57 -2492.43 -2539.98 -2581.01 -2759.44 -2833.15 -2998.50 -3043.51 -3302.45 -3463.82 -3731.04 -4039.24 -4122.34 -4124.00 -4118.27 -4095.55 -4068.91 -4029.17 -4001.66 -3968.26 -3945.16 -3945.22
