-300.01903 -295.38600 -290.13129 -293.89880 -290.19605 -293.25723 -292.20399 -296.79597 -289.61320 -294.58857 -285.66243 -283.26423 -286.17946 -280.38093 -284.66398 -284.51728 -286.06352 -279.71010 -283.30598 -284.54777 -279.90951 -266.20899 -242.39636 -215.87983 -180.90412 -157.61232 -123.36688 -86.59457 -48.59753 15.89244 82.36552 138.79704 316.04130 554.48429 641.07745 740.45528 763.62698 785.89338 793.43774 837.98023 903.65820 1144.20296 1208.52063 1181.12072 1196.38329 1303.62310 1395.71429 1470.17782 1482.64334 1472.34336 1375.18151 1137.31362 886.85707 721.45042 703.75031 695.79539 671.48430 683.14801 687.49813 687.62551 668.88544 657.36877 649.32916 609.06778 508.25078 391.84948 323.03316 246.02809 179.33073 149.85568 109.01623 94.95014 101.05170 104.76002 150.92861 237.78406 353.53288 521.30887 591.58704 511.24114 275.68356 219.19970 167.46155 230.47761 252.07875 313.43048 321.23484 313.61675 310.95242 316.93443 327.42598 344.29789 340.52731 276.77279 195.76899 132.07483 119.86408 105.06974 111.14346 137.80866 201.00736 345.30644 518.79287 578.91080 455.80367 295.37206 194.90023 186.71578 169.32015 153.12983 129.56951 46.59121 -87.74795 -161.73939 -230.51068 -485.88279 -861.28456 -2160.52712 -3211.72807 -3915.13597 -3993.61436 -4012.24383 -4015.87803 -4013.59807 -4024.26452 -4015.25301 -4014.96590 -4020.16358 -4019.43138 -4021.31689 -4025.64663 -4020.39061 -4024.81742 -4018.03258 -4014.19620 -4011.56246 -4021.42100 -4010.98536 -4001.13722 -3998.50118 -3992.01821 -3987.22787 -3996.82205
-291.01230 -304.88905 -294.24554 -299.95284 -290.64335 -299.90455 -292.97808 -292.42643 -298.00038 -286.29487 -297.46075 -291.18990 -282.63827 -277.68393 -285.95647 -289.44956 -287.68513 -282.51097 -272.98977 -264.01660 -267.72656 -233.46881 -218.47404 -168.88467 -65.67292 -61.03326 -25.98049 12.62464 104.38399 173.51544 314.12504 279.10190 456.85918 681.30551 722.05193 759.40360 782.65475 790.38093 809.49107 857.82727 1006.60561 1161.21642 1269.14535 1250.98740 1199.74929 1268.07829 1354.24931 1450.23227 1463.99328 1464.97743 1366.02231 1135.85600 910.08376 745.17805 698.48427 692.53601 670.64997 676.34263 684.12680 685.64660 681.08621 685.25936 677.17610 651.45390 531.73445 344.43486 245.99109 155.24897 113.44514 89.29094 77.97195 83.09080 83.78468 83.11330 86.66986 116.61497 228.15521 374.88627 395.94945 297.68365 261.88893 122.62245 107.16894 140.55265 211.46170 281.92564 247.21823 261.46505 300.69453 316.35782 313.80478 325.13531 327.73878 281.01289 200.52742 143.61517 124.10686 103.49486 100.90152 115.96456 155.48206 245.44722 423.33965 470.01709 439.61941 261.73648 184.30296 173.24836 146.68221 145.09814 136.48149 41.75122 -65.79710 -173.01897 -202.70411 -309.87749 -854.07937 -1870.81524 -2910.85741 -3894.33405 -3978.07837 -4011.94301 -4013.09243 -4017.27337 -4016.02471 -4013.38665 -4015.79183 -4019.89196 -4019.82117 -4018.06384 -4030.00754 -4028.84274 -4022.51346 -4024.14707 -4017.30813 -4013.54551 -4009.00729 -4009.37101 -4003.51566 -4000.85900 -3997.09747 -3987.83659 -3992.38722
-297.63570 -294.73851 -294.55154 -296.43729 -292.96561 -293.11436 -291.28321 -292.34876 -290.44759 -297.28161 -281.98637 -290.92703 -291.17743 -285.99523 -283.10483 -286.97734 -288.81173 -279.11605 -276.94921 -248.72451 -215.33090 -138.45386 -50.56181 14.36604 0.17111 9.57835 97.99276 213.08194 292.58790 435.00733 475.01723 543.26688 636.59716 724.50190 752.07877 773.10402 801.02021 801.03147 823.18935 926.29378 1065.31407 1246.45432 1317.92787 1277.78986 1203.42668 1198.99691 1308.97500 1370.97367 1420.50945 1377.02850 1275.49805 1012.73046 855.42957 705.83381 702.05218 675.18998 681.34852 679.71594 679.05285 683.06943 679.45346 683.05035 682.42708 637.53028 541.67322 318.31836 187.78382 106.59872 74.68215 60.62502 58.05010 45.69161 39.16511 46.12383 45.60833 76.86832 105.08605 183.81581 235.46214 190.16087 162.77444 72.43149 79.78774 96.15892 158.98590 243.85999 211.48247 313.51569 311.60928 309.49230 310.53322 317.27701 312.11609 285.80403 208.90071 165.02722 118.97359 86.76878 92.27712 88.68933 117.37579 186.16899 242.32641 381.63328 354.44504 228.91669 153.35346 136.53385 101.29260 102.74012 109.15288 28.92031 -86.12090 -163.62781 -210.26419 -293.25842 -765.13420 -1732.22641 -2994.42746 -3716.49053 -3956.11715 -4012.38883 -4017.54696 -4018.56953 -4015.94832 -4024.90801 -4021.96953 -4022.72165 -4021.12076 -4026.99056 -4022.53032 -4023.35068 -4025.59405 -4012.78498 -4022.46650 -4016.10954 -4013.37458 -4014.04453 -4005.71569 -3995.90670 -3992.48196 -3990.31733 -3994.59968
-295.33982 -294.60155 -290.21432 -289.67585 -296.66047 -288.74664 -298.74620 -294.18081 -292.39350 -289.14139 -290.07425 -295.33242 -286.99873 -282.78908 -290.46458 -290.34979 -284.97469 -279.80994 -275.22138 -230.48558 -120.71073 16.24836 126.99948 207.18875 137.64711 142.48338 205.97427 350.02962 486.67300 624.40507 661.14410 717.10271 689.74094 754.51735 768.88290 792.45823 795.87147 817.22186 875.44402 999.34385 1147.29577 1267.07456 1347.65030 1287.86638 1200.47163 1181.36840 1217.11978 1275.84729 1244.51249 1209.16750 1175.24767 926.04909 781.63615 704.46406 689.40841 672.98563 679.48325 675.65086 674.67937 687.29574 686.38098 686.77999 688.06180 593.27818 499.60484 283.28834 106.92991 99.73555 71.63900 42.88228 47.32409 41.35832 50.45879 43.13518 49.36540 54.53391 44.25274 82.34388 105.36624 83.95435 64.37721 45.79549 80.57569 75.01709 133.68150 151.10315 221.20109 300.11761 302.41505 315.26936 304.90227 307.44387 315.79470 295.28370 249.29944 165.39563 112.27374 80.60038 81.48333 82.15237 88.50735 111.20270 146.01619 222.49763 244.52188 183.01634 108.77902 97.21088 88.80296 106.99391 106.78989 6.65897 -92.37216 -160.13008 -207.85961 -303.25010 -657.22953 -1667.97650 -2695.74747 -3546.45979 -3944.66030 -3998.15482 -4015.36829 -4017.74762 -4018.68741 -4017.36336 -4015.54749 -4014.42727 -4018.66121 -4025.81144 -4017.93817 -4021.10943 -4022.05287 -4014.06108 -4018.62126 -4014.31474 -4002.89617 -4008.05149 -3999.38153 -3999.84831 -3996.09913 -3995.42406 -3992.64921
-295.88913 -293.72374 -295.25755 -297.96213 -293.35541 -292.58111 -293.37979 -286.63164 -295.40385 -297.62859 -279.03346 -287.78885 -288.15860 -292.47626 -287.31875 -290.41971 -284.87232 -268.61053 -233.69170 -149.91065 -21.93732 127.44674 289.40511 333.97068 229.92115 249.17473 326.48898 550.90502 565.76363 725.24604 733.15647 755.97197 744.93071 770.15317 782.91664 803.22115 814.75635 863.38203 978.80104 1047.91667 1182.89068 1256.61787 1282.24934 1267.21180 1193.84463 1143.44543 1110.62580 1121.58414 1039.18801 1030.86251 972.74699 848.49035 731.29831 690.19294 677.47716 673.44771 674.24625 680.61433 687.10422 687.33322 687.37549 691.83416 687.16821 629.16092 375.40980 228.02812 114.04857 72.81913 51.52964 45.96979 40.94771 39.62880 42.83319 30.97948 43.11880 43.38308 41.24592 58.51510 58.13741 54.29943 43.80919 42.19374 47.71445 58.49430 93.68494 132.27953 214.57516 260.31289 280.72775 289.13670 286.51510 287.31077 293.71471 276.01571 234.67046 179.46193 95.77141 69.79256 63.74386 52.10772 79.56959 80.85596 86.19120 138.95855 160.29536 123.63811 108.28094 96.85540 102.72875 113.29307 99.43823 26.81174 -86.33055 -161.62056 -208.00633 -276.12637 -584.76579 -1122.05088 -2465.65913 -3466.34375 -3891.22264 -4010.69731 -4024.54965 -4015.68147 -4023.48149 -4018.83339 -4020.34966 -4021.41735 -4024.84743 -4015.84565 -4023.63680 -4015.25020 -4017.51046 -4015.19773 -4017.48509 -4016.05548 -4012.14617 -4013.47634 -4001.13652 -3999.83117 -3994.63767 -3995.85914 -3991.68781
-305.26935 -296.69035 -299.23166 -299.92288 -301.68368 -291.26513 -298.75038 -291.90241 -296.37744 -290.35508 -289.46240 -287.67010 -285.54984 -293.89791 -296.48779 -297.81433 -289.81985 -261.69707 -185.60823 -51.04548 95.18043 471.77028 466.76689 399.93381 368.66470 407.75439 453.72377 602.66072 720.29292 754.83787 750.71050 760.43928 769.72561 789.32735 803.82578 809.09227 855.46017 970.14901 1048.82723 1122.94210 1174.83168 1211.51296 1232.99400 1207.04878 1181.80435 1120.24333 1076.94274 1028.69206 893.06622 855.36602 792.74661 766.20151 697.30865 678.31865 671.05861 673.51778 665.58542 690.97746 712.74297 707.01887 715.47094 732.72387 705.89018 647.67524 337.80901 241.84870 132.69091 60.72322 50.51294 47.71206 43.70479 38.01597 38.06596 37.80836 41.68826 39.61671 41.46155 44.97417 44.07592 46.47813 41.90211 43.43043 35.17217 39.06198 63.05515 88.44351 107.69131 160.10596 242.64186 257.81994 256.64919 236.90814 229.38049 223.58044 208.02060 154.69620 79.79543 62.97622 58.34279 49.91482 52.30521 60.92334 72.93242 75.91319 106.40024 108.13100 107.43716 101.34740 107.43340 128.36419 98.21622 5.13335 -96.59953 -161.66554 -208.90637 -247.82908 -325.84410 -1117.58465 -1952.99558 -3399.23894 -3769.56752 -4004.54345 -4023.10151 -4025.23301 -4019.61273 -4013.84859 -4019.81614 -4022.80133 -4023.55906 -4021.33268 -4018.64100 -4020.53734 -4018.07764 -4018.90735 -4012.02433 -4018.68286 -4010.72894 -4003.27523 -4006.96444 -4004.24604 -4001.01808 -3999.66802 -3993.24697
-294.57509 -300.26066 -296.96249 -297.48167 -301.40674 -300.52826 -295.96576 -296.75358 -302.51598 -292.71290 -297.70816 -291.11954 -286.37639 -317.86553 -326.23947 -312.31113 -290.61212 -259.68461 -143.50685 69.23122 433.78267 595.71490 588.49020 560.95070 504.11886 552.55133 606.20150 702.28456 741.09386 755.43538 752.01751 765.01724 789.45762 796.45090 818.51209 838.06717 926.56257 1063.34182 1104.49020 1147.08016 1176.31541 1189.15843 1192.37859 1178.75309 1177.97381 1130.78583 1058.55431 922.33673 793.09244 730.16107 742.33796 713.01227 688.42983 669.25260 677.60827 695.10387 698.50531 712.01594 719.42223 735.33212 789.38691 802.30109 804.50262 758.14729 459.79492 324.81014 221.90647 113.49152 61.69346 52.42525 38.94032 43.63826 45.42402 29.65780 39.63830 46.81837 43.59013 39.46431 33.90197 39.88777 43.30731 35.36286 40.44196 37.55646 48.82645 44.41593 60.76524 91.10436 137.21280 190.22548 204.40917 160.05217 147.64611 127.61099 116.17100 88.91935 56.92785 48.23099 47.37693 50.10462 47.15273 53.24246 66.91011 68.67798 96.55710 97.57923 93.99259 102.70817 118.41336 128.67192 107.36708 -9.07652 -98.08991 -170.92239 -207.87684 -239.91838 -465.41732 -984.47845 -1741.53752 -3104.60570 -3781.69196 -4003.07432 -4005.71446 -4013.28386 -4019.33652 -4022.01135 -4014.45073 -4021.87812 -4021.60666 -4022.26254 -4021.18446 -4015.11482 -4012.18031 -4014.13163 -4011.20048 -4012.26296 -4002.80794 -4009.81649 -3999.11640 -3998.69716 -3990.00554 -3992.35676 -3996.25645
-297.35333 -304.70915 -296.06354 -296.21288 -298.06739 -298.59858 -297.09048 -300.87728 -302.62517 -302.73446 -308.28902 -362.22642 -414.57656 -364.10640 -437.84081 -360.24039 -369.09203 -278.44731 -54.26334 179.67689 570.87423 656.52286 704.67930 667.25164 653.67644 655.44546 692.48426 736.07856 754.46526 762.26686 750.53631 758.89956 799.48097 803.34496 866.53161 982.83049 1049.64975 1111.64386 1145.67384 1160.56033 1156.28916 1168.24192 1169.36701 1175.25505 1172.60108 1142.74098 1075.66547 885.59391 794.03821 723.18621 719.46767 706.36365 685.01627 669.11822 688.35833 711.55856 707.73317 729.97846 763.61691 852.31257 877.75504 979.84542 943.80135 854.79576 716.27657 572.57747 389.23902 246.91062 101.40614 66.72021 45.89625 36.04428 35.94568 42.49530 41.44452 37.69332 29.97681 40.16188 34.66128 35.04105 35.02517 29.44017 26.05873 29.77117 37.90687 41.32748 44.32098 69.13015 82.14329 112.56967 120.25602 105.34031 73.61339 72.09624 75.93345 54.01380 56.97099 43.25019 52.65304 52.33305 51.80007 58.88962 61.32118 86.76383 99.40330 101.99483 109.90126 101.37855 120.23353 138.03046 73.06712 18.44104 -100.36350 -194.67170 -209.29553 -234.12145 -350.46080 -731.55984 -1654.80111 -3030.48787 -3744.70695 -3945.26671 -4009.17778 -4017.12432 -4012.53559 -4012.53346 -4018.57578 -4016.05995 -4014.65253 -4016.01972 -4017.01529 -4021.38720 -4009.43950 -4018.43497 -4018.24556 -4005.68216 -4008.57135 -4005.82780 -4004.13184 -3996.24349 -4004.06030 -3999.62176 -3996.41989
-296.80983 -301.48707 -297.84447 -291.94252 -298.06436 -301.30019 -307.10675 -311.19685 -342.72417 -389.89687 -421.12952 -459.32527 -667.97459 -774.19598 -706.94177 -666.85833 -722.65025 -537.20172 -106.03727 229.07870 569.53386 704.87437 739.34138 721.31438 731.20739 744.62030 749.23488 749.52650 758.17744 755.10463 758.98716 780.37581 792.70748 841.57348 986.30130 1017.71597 1104.46215 1152.18298 1166.36028 1167.98966 1166.45823 1165.67079 1169.74320 1168.32364 1167.07862 1136.61524 1036.25996 860.49108 772.92145 711.50671 708.16987 690.81968 675.99927 690.92927 720.62409 763.00817 752.69923 813.80981 905.65653 962.87443 1029.79526 1078.68510 1109.59995 1095.06489 946.52079 824.22574 736.19199 449.64218 219.87733 90.45634 46.97866 43.50038 39.02858 36.30783 34.70246 48.13623 37.73944 36.21742 31.01343 26.19030 42.60733 32.12346 39.94387 32.33530 38.76435 35.26203 38.64842 48.21908 33.33848 54.62175 73.99071 65.56517 51.33397 47.25584 48.96200 53.73764 50.12278 52.18406 54.72197 53.44966 60.14671 71.78238 67.84651 90.43463 91.97517 106.80624 110.60813 114.77412 118.03847 123.50627 104.97573 16.47059 -121.12074 -175.06750 -215.84700 -241.89814 -297.46317 -740.99307 -1611.46803 -2767.93712 -3720.64416 -3960.41395 -4011.27489 -4006.74463 -4016.75268 -4013.09600 -4021.39141 -4012.05337 -4020.21885 -4019.09070 -4011.12743 -4015.93846 -4016.48714 -4011.52720 -4012.46305 -4011.62846 -4002.40917 -4005.69331 -4005.03608 -4005.41188 -3994.55431 -3998.93145 -3999.14983
-311.21571 -313.62412 -306.39811 -317.51378 -324.35630 -345.12514 -409.40502 -422.41690 -505.48093 -661.96172 -866.96773 -904.32997 -1476.26037 -1900.40242 -1540.97984 -1513.33737 -1425.90600 -901.97890 -297.35601 51.42456 454.59897 646.04064 745.34441 734.21559 755.58223 755.13172 764.13491 764.28962 756.43395 756.92730 761.49102 784.59710 811.03268 923.89158 1022.45364 1108.11992 1131.22617 1159.71575 1161.40975 1165.53053 1160.48904 1170.31106 1163.40195 1169.29240 1169.71912 1130.69318 1046.24079 858.75198 768.97412 713.78685 704.71458 673.64863 683.73402 691.47232 782.64158 852.68395 890.87431 968.39931 999.08953 1065.30038 1114.68831 1154.00872 1163.41662 1148.58450 1099.52228 1036.89133 935.49130 526.38137 277.03150 143.70405 58.31514 46.53221 49.15157 46.38556 44.95402 30.30535 37.08920 37.00531 38.19815 30.30531 29.02873 31.80292 37.11290 32.21439 36.08219 31.50347 40.56833 43.89027 44.57270 34.76600 32.81059 41.75311 47.89547 36.13434 46.57029 41.42971 53.82606 58.74882 62.39242 63.65724 71.79772 65.44419 86.55747 108.66761 109.69353 112.87490 111.15538 112.96115 109.37755 116.58234 60.10777 -11.72813 -126.10773 -180.91191 -213.94009 -237.36882 -277.28781 -1103.46387 -1820.59976 -2621.73721 -3646.14272 -3972.25572 -3997.24833 -4010.56434 -4011.07053 -4010.93789 -4007.36233 -4013.41446 -4011.91428 -4009.91268 -4019.28304 -4009.11587 -4014.87435 -4005.49131 -4014.51332 -4007.36917 -4003.20127 -4010.97346 -4000.31513 -4001.97328 -4005.83091 -3998.18005 -3997.91336
-372.03267 -377.26160 -416.21365 -443.92187 -473.47778 -537.69131 -672.99198 -785.29110 -807.65485 -1307.01756 -1731.34762 -1912.99067 -2314.92829 -2740.74978 -2714.73657 -2762.97108 -2534.54303 -1864.47768 -866.88210 -139.20435 219.07813 468.32834 665.57898 707.46236 731.50148 740.62237 760.17937 765.41376 755.64863 765.99245 784.63549 794.76163 848.82964 945.03797 1067.59010 1140.09322 1152.58666 1156.73539 1159.91124 1158.93021 1162.52816 1158.66770 1166.67181 1164.97746 1159.51716 1118.01363 1035.08541 865.94412 761.40128 711.86135 696.53321 665.66001 691.30340 749.69335 895.06870 967.76191 1026.31542 1065.68023 1130.15409 1150.90833 1171.15161 1179.48646 1190.22672 1183.49739 1177.26309 1141.31323 1076.32566 714.21199 321.05224 150.98382 56.79852 50.39188 43.01551 44.30215 41.41529 36.44299 37.86433 29.96107 33.06224 43.24618 37.32011 37.17286 31.81121 35.67869 37.29702 32.17547 35.80476 32.33871 36.45858 25.48389 36.29313 42.67289 32.87161 41.10224 48.35258 50.40426 57.76977 67.56436 80.87398 88.88514 96.85703 98.78449 116.23178 115.70716 122.03914 114.56067 109.50980 108.08645 111.63702 120.67639 70.42510 0.45519 -122.48414 -180.74205 -213.57712 -244.44317 -437.70294 -886.75502 -2002.61194 -3134.44300 -3844.62528 -3973.99196 -4016.03913 -4015.72542 -4009.18815 -4010.57333 -4011.01726 -4001.61500 -4011.26526 -4008.98414 -4015.28919 -4011.74783 -4008.20123 -4003.90094 -4006.87407 -4010.02772 -4010.25274 -3997.79291 -4000.72795 -4001.36760 -4002.02793 -4003.84617 -4002.67277
-681.40732 -684.79185 -763.54139 -976.51285 -1039.38302 -1051.96600 -1265.17107 -1636.11099 -1805.50402 -2165.79275 -2708.07140 -3199.69644 -3301.43887 -3433.19261 -3664.63446 -3645.64423 -3196.83393 -2744.42929 -1707.84992 -798.00297 -128.13974 296.50709 423.15228 521.30947 623.98461 695.62016 738.53755 754.93960 754.84931 765.54727 793.56854 800.03323 879.43615 948.56171 1062.62147 1124.33973 1158.49331 1167.56996 1160.16871 1164.14451 1161.77233 1164.96642 1176.59651 1166.88256 1156.80923 1129.73174 977.98389 866.16279 718.43509 662.31268 629.90029 645.23568 703.21262 795.40790 918.26155 1055.44623 1121.46607 1143.64315 1159.30885 1176.28423 1177.32537 1183.79768 1181.23322 1186.36653 1186.35558 1174.36934 1044.15353 861.11562 377.62435 143.74506 84.58325 47.29796 36.35607 39.38446 37.59003 40.06769 32.35473 37.30868 38.97074 33.95259 36.36573 35.48266 33.29635 32.16697 23.08437 26.61760 27.55930 30.38625 32.02520 23.74874 39.80222 28.16028 38.83624 36.38581 53.16316 67.18921 80.80158 98.49424 102.85680 103.32337 114.88234 109.81638 121.54354 112.60327 115.05680 110.26717 108.93352 109.05907 110.34688 111.70287 59.40846 0.15625 -114.72340 -169.38752 -216.33264 -279.14625 -529.42761 -1210.52777 -2420.63025 -3408.67408 -3834.77217 -3985.74485 -4017.71979 -4010.49215 -4012.45470 -4012.77785 -4013.39532 -4013.42723 -4005.57458 -4004.59204 -4008.17561 -4010.01014 -4013.05287 -4010.54813 -4006.34206 -4004.40030 -4015.23816 -4010.12188 -4013.94346 -4006.11280 -4010.08613 -4009.56973 -4006.75052
-1491.80279 -1489.80387 -1687.24319 -1685.86276 -1779.70690 -2075.40343 -2268.13441 -2588.87254 -2983.82916 -3378.55395 -3338.21738 -3726.69694 -3816.05762 -3928.99091 -4032.84614 -4032.79361 -3799.63883 -3381.35609 -2688.39476 -1480.72460 -593.17121 -61.54184 92.29701 350.01700 498.84758 617.20335 717.17155 731.70108 749.05785 753.80775 790.12643 790.42223 952.86382 1032.76109 1109.62013 1141.00855 1159.82325 1165.91869 1158.63099 1163.27693 1171.71172 1157.11943 1165.55093 1168.15473 1151.30930 1079.38675 932.12690 769.17544 657.88425 623.82401 556.91200 618.59252 637.41416 744.12823 876.15604 1054.23279 1113.57274 1159.94120 1177.77724 1176.54072 1176.86934 1180.19128 1184.54783 1182.53646 1185.41033 1157.64178 1080.99486 812.08814 646.71308 326.09571 169.95211 102.16710 67.97783 83.24687 54.81331 37.54353 33.08417 36.34794 34.52553 34.00579 28.79762 32.34295 35.93941 28.18331 25.14204 26.06444 30.11913 28.01162 30.05238 40.85845 35.77144 38.80741 40.87588 47.10391 63.30140 78.65448 97.02926 110.11719 120.15615 125.79435 125.73153 126.73323 127.95982 124.31032 110.28473 108.59594 107.21165 108.26178 104.54744 106.42092 91.72461 40.41021 -116.73119 -167.44660 -215.28523 -336.38179 -685.66839 -1533.91402 -2707.25967 -3555.28122 -3917.94742 -3995.81736 -4008.50529 -4010.63381 -4006.60852 -4006.03576 -4004.20097 -4010.80681 -4015.25703 -4014.26016 -4007.41807 -4018.26595 -4004.54099 -4013.66520 -4007.73171 -4013.15506 -4009.05370 -4010.77872 -4006.07665 -4015.14129 -4009.27198 -4024.50375 -4013.62058
-2651.84455 -2656.74593 -2599.50896 -2834.18386 -2766.02665 -3225.87709 -3310.17764 -3558.10184 -3580.69827 -3794.70215 -3972.14551 -4019.92212 -4034.42904 -4074.24724 -4084.81162 -4068.92405 -3971.05255 -3665.42760 -3186.67709 -1853.24106 -1030.73875 -325.88585 -80.36974 65.09547 247.99705 370.68685 551.95508 645.59468 687.40869 760.61524 791.15535 853.00997 990.08459 1056.48085 1132.00951 1155.57446 1164.26410 1166.91994 1163.22441 1157.76183 1166.94067 1163.95990 1160.77134 1156.31131 1106.72464 1018.42988 892.97853 660.67445 561.75376 469.91345 494.53185 558.97062 563.33457 669.50015 781.64110 987.63497 1100.03913 1161.35321 1171.44168 1176.75346 1177.26202 1182.78212 1187.44025 1171.75889 1179.09371 1179.51008 1146.19939 1014.50241 787.66546 525.41302 387.08719 254.04165 154.27316 95.71391 76.93962 49.21111 48.85372 39.11881 34.33384 33.40975 29.89101 32.17057 33.13769 31.07155 28.06677 35.28639 29.77322 35.47896 33.94150 30.47028 33.26654 31.21389 43.60992 57.32312 88.61386 97.68540 114.64309 125.45704 134.19981 128.71089 135.17304 123.59359 121.97029 118.88897 115.59970 103.02944 106.04494 105.46726 104.34949 92.85446 85.64571 8.62450 -78.62764 -159.59569 -227.38116 -355.46322 -1101.83390 -2006.65165 -3071.39737 -3771.75696 -3945.82094 -3999.72870 -4008.74646 -4011.46317 -4007.42054 -4006.99884 -4012.96278 -4007.28081 -4010.62936 -4001.98826 -4012.85754 -4008.20166 -4009.84495 -4013.36878 -4011.73130 -4014.68975 -4006.96936 -4020.64856 -4012.31489 -4017.34535 -4017.00410 -4020.72494 -4019.38098
-3584.15137 -3598.73608 -3555.58641 -3436.01637 -3599.99587 -3768.74118 -3783.55247 -3901.21625 -3995.78083 -4063.38425 -4064.84214 -4082.00545 -4085.01078 -4091.17088 -4092.17764 -4096.83832 -4075.08630 -3908.29646 -3584.43512 -2499.28886 -1354.48900 -454.26382 -258.50990 -160.67310 30.46753 150.83188 347.24331 508.98934 695.52758 745.82588 803.63290 876.03598 1038.02651 1109.93767 1160.46434 1171.80824 1156.63929 1163.77523 1158.96788 1165.39413 1162.53779 1166.55932 1166.53002 1151.62181 1090.20571 978.60635 802.37602 582.66280 440.25325 411.12882 378.49842 376.56285 478.29415 541.82543 664.02045 890.98087 1077.00044 1141.56613 1152.61304 1177.72408 1178.06926 1173.81480 1179.89026 1178.07060 1183.12980 1183.09317 1173.35787 1116.66616 1001.38735 813.54280 710.56606 472.41168 350.01104 192.25931 96.47141 71.38414 35.80294 39.47691 39.59689 35.26699 36.36518 35.97440 32.17235 30.56914 28.96755 37.57143 28.08959 31.71274 35.57473 36.02410 34.47163 43.33651 51.08860 74.36485 86.77369 101.36883 120.35421 130.00710 134.06367 139.84259 148.73426 138.91681 129.77262 125.79028 100.34873 98.09360 113.51190 99.51558 104.26751 96.85742 60.00282 4.05265 -100.44623 -151.61693 -215.40841 -550.27331 -1487.75629 -2460.38278 -3371.38522 -3921.27800 -3988.12104 -3999.37819 -3997.23032 -3999.09538 -4004.78503 -4006.32590 -4013.42906 -4005.32207 -4017.21270 -4008.27661 -4018.99004 -4012.19211 -4013.02363 -4020.83043 -4012.69868 -4007.53965 -4016.65781 -4024.36336 -4018.34690 -4016.51586 -4017.34454 -4025.57805 -4018.61082
-4007.01441 -4008.80520 -3950.84352 -3941.40667 -3997.81033 -4040.38716 -4043.47566 -4081.36641 -4078.62288 -4086.37288 -4091.78682 -4095.19487 -4088.20541 -4089.21132 -4095.75979 -4087.87829 -4080.75091 -4031.98727 -3720.29965 -2881.23874 -2019.92776 -902.56974 -453.71306 -267.10713 -181.49043 -114.67268 91.39396 404.00480 567.94925 739.97387 788.94884 904.12597 1045.92273 1110.45851 1151.89221 1165.04412 1162.42986 1152.35715 1161.06378 1162.06487 1167.73256 1166.24983 1158.57492 1125.17080 1045.95211 919.15637 702.05322 542.43519 389.29581 332.40288 332.70757 345.86563 385.79663 437.59068 602.03260 747.19657 938.33534 1063.94725 1144.19399 1168.80389 1182.42601 1176.79942 1178.59938 1176.20012 1183.45186 1184.50068 1177.15299 1161.46530 1107.91463 1047.17864 933.44820 709.61929 625.55872 454.75583 230.32667 130.37316 72.53104 57.32408 38.37071 44.17251 36.42474 31.73978 39.44445 33.50638 27.49696 30.96317 31.45533 32.67982 26.39247 29.10099 29.13727 43.99764 57.61340 73.25342 97.54256 118.56649 119.09937 130.24522 139.85451 153.98052 164.13540 140.13881 124.49498 119.03596 104.55914 102.23788 97.55149 104.83426 110.14169 106.68676 79.02944 -23.72509 -80.22147 -167.70667 -252.32120 -869.90488 -1703.95854 -2885.54773 -3656.26183 -3886.25072 -3988.92819 -3998.28970 -4002.62290 -4012.46063 -4007.63167 -4012.97179 -4003.44299 -4017.25632 -4008.94954 -4013.54701 -4015.21225 -4013.39161 -4015.79959 -4020.07291 -4019.18828 -4017.19739 -4015.40053 -4017.34926 -4023.19771 -4019.98921 -4022.18694 -4025.47272 -4026.67953
-4103.91761 -4103.61104 -4087.09573 -4079.05828 -4086.20303 -4096.56608 -4095.74406 -4094.42057 -4096.08035 -4099.90530 -4089.78849 -4092.96742 -4093.86430 -4092.01807 -4090.02410 -4091.69688 -4074.39044 -4027.55213 -3649.57261 -3246.75982 -1947.65815 -963.36227 -444.66767 -282.33515 -209.61380 -202.84345 -78.13623 203.88802 411.85512 619.28103 741.64718 870.31734 1016.85147 1086.75097 1120.89533 1119.50288 1119.90656 1141.38246 1157.25127 1145.81687 1137.93004 1133.32406 1126.45590 1070.18323 979.91644 852.16676 709.50279 523.69947 391.24047 310.59040 312.91552 319.87675 329.90516 384.91912 492.17420 647.38645 825.81834 1065.86625 1152.68347 1176.72710 1176.84469 1180.09595 1172.31612 1184.40479 1176.48202 1172.13979 1176.96106 1169.16329 1168.12764 1156.79114 1111.96188 1077.55236 927.24368 598.28048 387.85080 169.87488 94.54615 69.34587 55.06201 45.73732 38.84299 42.52749 40.52818 43.49859 40.80716 26.94017 30.91426 30.28114 29.98878 43.36108 37.07195 43.50767 63.81697 90.25234 100.80749 119.72386 137.67483 144.11751 162.60072 169.21733 174.19689 166.69040 140.41549 116.97600 113.44577 96.90093 102.52515 100.47476 102.85030 101.61185 79.48829 -13.39015 -56.04284 -113.29553 -274.41385 -762.31364 -2009.93937 -3120.95199 -3612.23384 -3968.15945 -4001.63322 -4011.24856 -4003.73090 -4004.60279 -4005.73421 -4008.87165 -4009.04171 -4017.50160 -4015.93971 -4010.95534 -4008.64801 -4011.35094 -4013.06747 -4009.31584 -4016.36614 -4018.59514 -4023.55932 -4021.04374 -4020.58256 -4021.81350 -4020.06534 -4026.32288 -4031.49064
-4103.00201 -4105.85759 -4098.89571 -4108.13859 -4102.95445 -4102.49886 -4100.89369 -4098.50990 -4103.31821 -4091.78847 -4095.24963 -4093.92061 -4095.80701 -4088.98870 -4102.27186 -4094.51319 -4070.47714 -3884.94776 -3584.86865 -2889.00426 -1761.45343 -785.57796 -443.02057 -286.07546 -250.81261 -240.68557 -118.81336 25.82645 221.70680 452.42239 630.55110 829.29385 927.39367 998.44167 1064.81886 1072.00014 1076.93275 1082.47536 1094.17275 1090.52570 1073.38099 1057.54948 1058.48688 944.16624 900.41159 802.70450 675.99865 478.86985 376.15988 312.50520 316.00364 309.92249 319.46838 307.89385 348.59860 559.80079 778.41341 1023.30804 1144.51186 1166.29225 1175.79707 1175.81527 1177.37928 1179.60623 1179.40148 1182.94774 1182.15160 1181.38489 1176.96040 1177.37544 1164.38794 1126.71403 1059.74445 831.01543 464.02961 262.89886 161.53285 112.53758 89.34635 71.84788 65.86836 63.49403 58.77207 39.75460 40.81100 39.47177 39.14493 30.77892 32.97757 37.49833 38.20646 40.29546 61.59616 87.50424 105.42365 123.20628 138.11030 169.19870 194.15662 235.93274 262.32935 204.72665 144.42221 113.91170 103.09928 109.14550 100.13401 101.33544 103.77754 104.14105 88.28262 44.32455 -42.10348 -108.35007 -390.43206 -795.30171 -2134.21270 -2925.10703 -3727.50876 -3954.88433 -4001.02553 -4002.74961 -4010.17297 -4009.43094 -4004.47852 -4007.65312 -4007.52061 -4011.69634 -4016.83846 -4015.21367 -4014.17062 -4019.97157 -4014.30044 -4023.11971 -4024.21032 -4018.21596 -4026.79128 -4029.35743 -4029.37446 -4027.29756 -4031.04581 -4032.67377 -4036.31915
-4100.93796 -4098.67750 -4100.91451 -4102.56581 -4098.36976 -4106.54572 -4092.75507 -4093.07979 -4100.23105 -4097.38412 -4101.16233 -4095.16334 -4097.71506 -4095.83343 -4099.01852 -4087.28261 -4069.18566 -3762.85726 -3342.89127 -2488.01969 -1312.51813 -771.04189 -420.55583 -305.68621 -282.66253 -247.05815 -186.79584 -142.49527 29.68511 206.13304 538.68419 710.01667 837.93414 925.67555 935.18333 999.31062 973.09241 980.63493 981.43556 987.30758 974.68041 954.59457 923.04721 817.10405 748.59961 685.67603 602.92682 446.40109 361.22933 313.20320 315.73437 314.99795 322.68284 316.14182 369.03329 500.50332 688.11565 974.63537 1047.97992 1138.99922 1166.51303 1174.07056 1175.05138 1172.58382 1180.71923 1177.58506 1178.21271 1174.68600 1182.34336 1161.65654 1146.71062 1101.66103 1042.33406 848.63297 536.25988 405.67729 288.11502 229.33313 181.55593 164.11443 125.53869 190.79491 125.34462 75.91244 50.09698 40.58681 43.46574 37.59790 29.57976 36.31907 38.98885 50.19372 74.39866 103.08735 116.33851 132.10274 152.25302 182.42126 224.20635 309.74939 320.46140 253.03159 150.31735 112.92524 95.60703 97.32501 102.40505 99.81004 93.59178 106.66837 102.21641 89.86136 -1.68120 -95.51417 -196.85035 -747.17792 -1678.45033 -2724.88190 -3722.55595 -3940.19816 -3993.88061 -4012.09119 -4000.80232 -4012.50337 -4011.61714 -4011.34222 -4012.12526 -4008.66814 -4017.75755 -4020.16535 -4019.00250 -4024.05919 -4018.71181 -4018.26376 -4022.14928 -4026.37524 -4025.10462 -4021.59957 -4025.24689 -4031.89565 -4028.74348 -4033.54718 -4033.96353
-4106.35698 -4109.63208 -4097.74997 -4095.01618 -4099.88903 -4099.71479 -4099.43947 -4094.81505 -4106.96425 -4095.58747 -4101.15125 -4093.02631 -4086.55454 -4095.83487 -4095.25036 -4072.56279 -3996.42887 -3736.18479 -2772.12029 -1843.75899 -1095.46872 -453.85121 -391.53029 -297.25143 -282.98198 -279.77385 -248.97469 -191.77371 -43.80127 31.30626 318.65086 526.38668 741.57553 795.05501 839.41982 845.11821 866.58869 872.19581 889.08870 860.78712 834.71251 835.47351 773.90149 732.55411 679.06208 523.04401 455.45536 400.44329 331.89197 314.63488 312.24082 310.86809 312.14585 318.76472 371.91395 477.51710 629.32279 856.42383 1007.60503 1109.66836 1116.81647 1155.23841 1164.14902 1168.63208 1180.14811 1173.28704 1169.57022 1174.79569 1157.24141 1110.30382 1053.23428 978.76277 901.35753 731.16193 670.27277 514.84192 454.60409 381.07364 353.91388 308.30532 351.22126 368.73943 233.68235 166.42061 75.45291 44.92832 36.81010 41.84770 31.60174 37.32387 44.86552 48.32555 92.68081 108.01914 147.45842 157.52620 156.99101 167.47691 270.46328 339.56563 337.53483 222.11773 153.24220 114.80292 104.34111 98.95705 95.67147 97.69280 98.07930 102.13295 111.28796 58.60715 -12.75389 -80.56061 -203.88288 -716.17967 -1437.03524 -2736.99366 -3365.34679 -3836.57032 -3957.86948 -4001.67999 -4012.58400 -4006.27764 -4011.42655 -4013.38905 -4021.01299 -4016.32352 -4023.01477 -4017.38106 -4019.76178 -4026.86268 -4028.95312 -4020.69977 -4026.21006 -4025.31989 -4023.00781 -4033.58122 -4027.95751 -4028.52889 -4033.90551 -4038.20058 -4045.31032
-4104.66400 -4099.72979 -4102.13750 -4100.55753 -4102.59953 -4104.34917 -4105.21403 -4095.80009 -4084.34028 -4097.02320 -4100.95775 -4087.56081 -4092.75228 -4087.05460 -4094.54575 -4074.10422 -3966.99707 -3524.73841 -2534.74781 -1716.37788 -834.76810 -426.65006 -355.03035 -297.20872 -291.21683 -279.78001 -271.20490 -244.57528 -198.35185 -33.36109 173.38510 479.71788 608.47695 725.03212 758.29046 748.78358 709.27732 696.10418 730.00046 699.19490 675.04798 642.70763 628.79410 608.87504 492.55554 417.18488 356.81320 330.73667 310.38228 318.91874 321.48235 328.62875 328.69709 436.28602 467.40051 572.95458 722.93159 842.33739 949.06800 1026.83238 1078.58252 1093.80193 1138.80212 1148.14502 1163.10305 1153.10069 1129.58729 1108.05267 1112.60391 1052.18035 903.04363 819.37465 795.80415 723.06889 677.93019 642.10646 576.28490 532.70744 546.56862 566.06450 658.54928 554.06704 448.40667 246.60909 88.54610 47.02896 46.48385 41.01950 40.49103 32.69090 39.93288 62.31078 91.37772 126.56841 166.77065 200.34750 188.16794 199.07309 288.90460 328.39601 262.19906 158.65842 149.26267 113.67352 99.43797 92.98959 93.08137 93.37390 97.57437 100.89099 94.54337 86.83461 32.53128 -59.87082 -189.74256 -558.52803 -925.58412 -1870.50793 -3154.77490 -3500.60226 -3789.58476 -3994.54664 -4001.12278 -4014.38652 -4011.40450 -4017.42170 -4015.38583 -4022.15350 -4018.66964 -4019.25958 -4021.55243 -4023.90676 -4031.45770 -4027.23458 -4029.00694 -4025.08553 -4027.64726 -4024.92416 -4024.68002 -4032.16795 -4034.15085 -4044.02949 -4037.91965
-4105.95374 -4105.90208 -4101.65428 -4100.87771 -4103.35699 -4104.20616 -4097.84814 -4100.66399 -4099.52699 -4100.64411 -4094.60779 -4095.35686 -4091.73121 -4092.35618 -4096.32769 -4075.10778 -3931.76857 -3609.15298 -2509.29957 -1950.84085 -1052.37552 -685.63327 -375.87498 -317.08127 -291.96433 -274.48738 -269.49420 -262.39002 -234.03022 -131.56478 -49.08031 217.89682 514.15324 652.21590 705.73844 603.04564 495.97981 509.93949 535.36387 547.34435 554.10200 429.52187 373.44211 378.74537 404.65811 315.30830 298.14550 314.73475 331.91405 348.09439 387.77720 418.22572 459.27319 528.79889 612.31362 751.42177 835.70913 931.30138 927.71778 944.94778 968.72785 986.08795 1023.16922 1099.27898 1081.57925 1077.88620 1060.79687 1060.21639 1004.60022 939.24668 786.04080 761.12816 716.09906 690.23370 690.04583 669.13709 669.80968 657.24291 650.82182 706.73297 735.87671 686.09601 438.06008 237.84406 109.99434 57.37829 40.11397 44.75362 48.29906 42.09339 69.75751 99.68623 163.39430 218.13932 238.41964 212.34076 213.55003 206.89191 274.02509 268.18134 222.41522 162.43380 128.65352 95.01497 96.29435 90.20818 95.15037 93.38021 92.14078 98.86332 102.31342 81.58538 22.94927 -79.41484 -128.91141 -228.70354 -610.19800 -1505.26368 -2144.11904 -3094.16951 -3519.55502 -3821.72583 -3996.21000 -4014.99562 -4011.57388 -4016.38657 -4023.53992 -4017.58299 -4019.22808 -4017.23058 -4022.39867 -4028.68839 -4033.11472 -4028.54248 -4026.35741 -4030.05838 -4024.51788 -4028.18778 -4036.23399 -4024.08042 -4037.10757 -4032.05138 -4045.36581
-4098.29672 -4094.47779 -4103.64932 -4104.72397 -4101.45452 -4099.61017 -4094.48486 -4092.55004 -4104.79167 -4095.60272 -4096.13003 -4094.02686 -4099.25881 -4100.92284 -4095.08035 -4078.59132 -3993.47681 -3878.72697 -3353.58960 -2403.42366 -1512.33723 -969.16628 -461.29116 -323.99464 -313.45611 -283.28716 -284.65534 -278.71818 -264.82106 -217.15766 -104.74028 53.37264 281.27837 608.43586 571.00723 472.66871 273.21686 212.23077 293.18439 256.30757 251.96082 289.20926 256.46690 197.02664 240.70264 234.40694 239.85181 350.91811 404.46579 436.85886 491.47056 551.90652 576.25579 672.62544 793.75303 921.47600 965.91952 1021.64383 981.05863 943.92181 894.50514 864.70521 907.25580 943.53272 926.94355 893.31704 891.37167 833.84529 839.59684 780.89550 734.98729 688.82016 685.96497 677.44579 677.03965 658.45242 624.37908 609.78494 619.28001 680.26992 745.02905 608.45574 421.31556 197.47745 100.54681 57.03051 49.36453 41.77971 45.09409 58.09879 76.57323 122.84873 229.67141 314.57487 346.17410 298.76729 236.10726 214.79807 205.68338 191.21370 147.68964 148.45252 112.55834 97.49064 88.03335 89.62142 83.98772 94.73174 90.10951 90.26469 98.87763 92.98402 38.46107 -15.59279 -139.59188 -215.79985 -472.94061 -736.73712 -1405.49573 -1999.71303 -3158.22840 -3674.01759 -3961.27023 -4015.31432 -4021.68511 -4012.24585 -4018.38199 -4020.99122 -4027.01979 -4023.92752 -4020.62807 -4022.16510 -4029.48218 -4023.63686 -4025.51042 -4028.10338 -4027.90437 -4026.34951 -4028.86354 -4028.70086 -4037.32331 -4035.88498 -4037.68225
-4102.79144 -4104.10915 -4103.51351 -4105.55271 -4096.56113 -4097.33035 -4102.40315 -4102.30979 -4093.18533 -4089.24897 -4095.91383 -4096.23762 -4092.55455 -4096.41963 -4100.18778 -4091.53121 -4052.77947 -3964.68789 -3657.25568 -3271.97532 -2326.98384 -1679.65704 -1089.69819 -424.79725 -347.31855 -290.23480 -289.03676 -279.52390 -272.14840 -233.06675 -175.16619 -75.06302 182.42442 437.03047 474.16548 223.35284 100.48487 43.30347 44.40834 49.84071 104.62436 74.70783 58.55870 52.15795 98.75779 141.60290 324.14347 431.96352 494.76342 543.14294 585.86020 613.69372 679.18108 723.54617 887.92007 1025.69417 1089.78329 1087.07306 1046.47823 957.26369 881.63570 825.51577 805.89940 803.99066 824.37425 786.29358 757.43751 732.68389 731.15301 715.84215 704.68043 668.19912 661.70989 645.38385 622.09252 582.69180 558.36562 550.26826 533.55648 541.80121 550.59329 386.08849 300.61340 135.42104 66.27913 49.67640 44.22197 48.01985 52.50763 71.64116 112.82063 155.76081 273.28510 418.79011 477.53621 414.77229 236.40710 209.11253 174.65047 140.03186 130.69394 120.72214 104.39063 94.56614 90.66004 89.75484 90.44418 90.95282 90.64661 93.55094 104.99832 98.70049 67.38126 -0.93713 -88.58098 -166.16355 -208.67336 -389.16725 -933.20496 -1851.40491 -2846.40989 -3446.28441 -3916.76947 -4014.38660 -4015.82060 -4018.30341 -4022.52529 -4027.64167 -4023.67812 -4021.20806 -4028.36206 -4030.17121 -4034.29678 -4023.00438 -4022.06977 -4025.85692 -4024.99808 -4024.77320 -4022.98337 -4028.16268 -4030.32309 -4034.30481 -4027.80721
-4100.84854 -4100.28433 -4101.31185 -4097.04147 -4093.30653 -4102.53945 -4094.30035 -4101.64274 -4097.93238 -4097.63177 -4095.73529 -4096.22482 -4099.65541 -4095.05898 -4096.82677 -4096.37903 -4077.99055 -4054.68531 -3993.87492 -3778.02983 -3087.81570 -2211.86253 -1389.94813 -772.24555 -480.23530 -290.57193 -282.61521 -275.15248 -272.55890 -257.62639 -211.92079 -102.60526 -12.86603 194.48857 259.51544 77.89827 -71.40738 -165.15938 -136.27508 -110.48720 -86.73294 -18.83340 5.64772 10.30355 71.11103 178.69261 399.04687 527.33853 602.23519 637.67985 642.92199 677.03665 756.45180 859.76810 1009.59229 1104.89287 1144.94990 1148.02069 1120.39863 1061.68670 968.87462 859.30091 775.24688 740.87365 717.63151 709.28142 705.85364 698.86173 678.58959 656.41570 641.38870 632.72420 626.05624 600.65089 560.06117 498.94389 421.00465 399.48491 365.92067 390.61242 404.44037 244.91382 177.02936 83.42170 48.61376 48.27225 54.16053 67.04065 74.08646 84.31329 136.86255 247.94718 398.17669 501.73856 516.74311 386.66467 246.46170 210.42006 176.92537 110.81184 99.96550 102.71614 94.40479 85.61291 89.55383 94.67210 88.71514 90.39358 89.05674 94.36791 90.67842 78.85972 67.12020 33.71497 -52.84462 -132.06020 -198.42953 -365.23510 -634.48870 -1248.05755 -2533.00196 -3505.03170 -3878.09805 -3994.39502 -4026.62011 -4025.78324 -4021.10805 -4023.04525 -4027.33031 -4020.64316 -4031.02393 -4023.58796 -4025.49861 -4025.51542 -4021.40456 -4030.45528 -4021.01027 -4020.24708 -4018.82305 -4032.53855 -4019.71763 -4041.26313 -4038.19946
-4104.94975 -4099.20624 -4099.36565 -4104.81444 -4098.52949 -4099.47903 -4097.00257 -4093.23302 -4093.80611 -4097.05111 -4091.94300 -4097.58595 -4092.91418 -4088.65174 -4085.36886 -4093.12779 -4089.29521 -4076.93683 -4032.11346 -3809.97408 -3609.86394 -2827.19820 -1802.99199 -1013.46840 -463.89137 -306.07783 -287.21119 -289.03657 -282.03826 -276.73598 -238.85769 -162.15635 -84.46390 27.11944 36.84362 -38.62564 -153.19225 -215.66562 -204.91293 -151.54117 -108.19116 -62.08296 -44.21270 9.73868 98.72319 218.46814 431.10425 576.14427 650.14600 674.66891 684.81169 696.52726 804.68214 923.35636 1044.65180 1131.64068 1166.50488 1160.73378 1156.94434 1124.79062 1023.69582 892.06330 780.71950 722.49525 688.20024 676.80140 656.61310 642.83712 632.79578 614.18789 549.68825 532.75182 495.49820 457.89991 435.11529 385.24706 359.63776 333.14124 282.46161 258.85874 193.37435 134.89707 97.98767 69.87370 48.05079 47.31017 46.73739 66.84028 88.68561 98.13488 193.78698 333.24676 484.20082 587.07561 512.78671 394.51804 225.83855 182.68686 146.42190 109.60672 103.58563 78.98537 87.19129 91.84241 97.11205 92.13699 90.80330 84.28179 87.89464 94.05673 94.32473 93.88926 74.09966 35.24407 -29.03983 -119.46126 -188.44594 -278.92171 -626.89016 -1424.38255 -2844.44606 -3392.94345 -3872.71310 -4004.94921 -4022.07860 -4027.32660 -4026.79075 -4030.99609 -4020.61004 -4017.13204 -4032.58070 -4029.09039 -4025.43078 -4026.01867 -4022.33235 -4026.73425 -4017.70703 -4019.15490 -4023.61690 -4030.98800 -4034.52250 -4036.78952 -4036.44935
-4105.69071 -4098.05685 -4092.57838 -4099.68004 -4094.74576 -4098.19130 -4092.48080 -4094.84421 -4097.52575 -4086.16635 -4091.06567 -4100.05061 -4085.88373 -4086.76704 -4092.94238 -4086.86418 -4088.44469 -4088.62497 -4088.15771 -4014.09847 -3862.14289 -3078.61193 -2013.26832 -1169.71557 -515.79760 -348.54947 -294.96330 -280.77276 -281.32180 -275.96881 -269.88621 -242.41092 -188.23938 -144.63411 -139.66208 -180.77329 -211.03957 -248.08337 -241.91179 -233.90346 -152.69885 -101.57834 -53.98598 -20.83585 154.26839 308.27606 486.08888 579.43704 645.32269 683.50568 733.59761 772.46119 914.83731 1016.15233 1103.79007 1150.96139 1171.06427 1170.08124 1157.55538 1144.31220 1084.59740 900.46190 804.82227 718.87611 664.09715 638.23799 609.13560 563.78714 574.47215 469.00290 455.49035 410.61725 415.36041 350.54337 349.22048 323.69461 310.68820 293.01161 213.48939 183.09524 84.28534 83.30330 80.28633 55.74431 42.88694 40.91643 51.70250 54.10613 84.60735 139.78511 237.18451 436.19592 520.55463 608.32183 530.87636 338.46689 256.37528 171.74466 148.21206 120.71150 87.96860 80.40271 94.99852 87.38317 78.44250 86.74849 82.90970 84.23537 83.68701 91.55297 98.22899 86.65383 93.98084 70.78753 -2.85540 -91.63419 -158.83217 -299.29384 -682.84463 -1365.35000 -2697.75689 -3552.50053 -3918.77964 -4010.12180 -4025.67502 -4028.39525 -4026.40705 -4027.31419 -4021.37236 -4020.99141 -4026.94710 -4021.60082 -4017.11574 -4025.57862 -4020.58734 -4025.66859 -4014.79982 -4023.17878 -4018.69574 -4028.31618 -4030.19801 -4039.74409 -4037.07654
-4101.32464 -4094.89288 -4100.80252 -4098.99872 -4091.38681 -4093.33317 -4085.00775 -4099.53360 -4093.08979 -4089.99079 -4096.67224 -4092.95987 -4091.39707 -4090.34087 -4091.51225 -4087.51296 -4089.46242 -4089.71298 -4086.51543 -4052.58124 -3717.29647 -3218.52328 -2096.17335 -1189.38775 -529.00410 -342.54329 -307.90283 -301.44243 -302.48393 -346.99257 -327.44948 -330.44922 -282.98981 -269.66662 -234.15782 -243.70352 -257.53352 -273.97843 -256.56269 -260.80013 -209.52227 -152.93201 -68.16469 -25.47241 155.61959 306.95953 527.07533 627.79008 669.57597 707.49125 764.12921 832.33329 984.48979 1054.27246 1155.13170 1168.01418 1160.58095 1164.02992 1168.33430 1153.68557 1078.23961 975.09975 797.08690 695.07402 631.39357 585.14356 546.86934 460.82909 393.79353 372.35400 363.70182 370.94224 341.94606 317.21465 306.46417 298.01799 294.75406 284.43372 218.34151 159.15889 88.90684 80.27167 66.94776 54.60740 43.31537 48.97161 47.14692 51.85570 76.68410 143.34625 231.95182 461.69306 607.21793 655.91259 555.76572 410.17863 281.26852 159.85150 151.85628 114.28943 94.45481 89.06327 86.21895 84.34097 87.93921 84.19665 82.79514 79.25107 84.17307 82.80782 90.38116 98.17952 95.85248 60.35420 14.97969 -89.78442 -159.13357 -375.06455 -991.32770 -1857.76886 -2940.20143 -3637.95722 -3979.16644 -4018.41531 -4031.38702 -4036.20092 -4026.92182 -4028.21095 -4022.53882 -4029.74469 -4023.22718 -4019.00229 -4022.05636 -4014.16182 -4021.46089 -4018.64371 -4017.55472 -4019.97939 -4011.86300 -4022.76050 -4029.43239 -4033.08864 -4037.89977
-4106.78257 -4101.15826 -4097.39258 -4096.61515 -4102.37913 -4102.38412 -4096.66311 -4095.20069 -4094.76013 -4089.73996 -4096.44845 -4092.16384 -4091.50561 -4087.92198 -4090.91744 -4093.85532 -4086.74479 -4091.21192 -4077.19138 -4036.95758 -3537.80262 -3149.68606 -1991.69201 -1103.38785 -676.22119 -476.07221 -626.87408 -561.37373 -497.11449 -671.66628 -514.93018 -532.07400 -515.23446 -530.00461 -419.04260 -382.22862 -302.51255 -289.07681 -269.31100 -266.88873 -248.02240 -225.59064 -119.51210 12.68659 226.11668 466.77275 582.38445 689.19553 719.55584 818.19067 835.84031 988.72256 1053.86876 1122.86912 1157.40774 1166.28204 1170.15592 1165.86045 1159.08214 1145.28123 1073.94732 947.40291 847.60408 682.24838 624.59730 499.21716 391.27311 333.14636 326.19648 331.67578 311.14683 316.23495 294.71483 275.28687 275.91906 277.63326 271.29911 250.22678 195.72838 142.00126 88.91714 63.83879 48.89519 46.77534 55.20198 51.72707 51.24002 71.09998 83.03515 111.97199 255.85998 443.14955 598.09489 648.80511 586.76473 329.99079 227.46039 155.87984 133.71658 109.82215 94.68936 80.11165 80.26705 76.50280 86.05113 84.61843 85.35275 91.01105 89.37897 91.08847 86.67300 88.88508 94.11467 69.05485 28.33017 -60.47875 -167.16467 -521.17053 -1196.85777 -2169.42885 -3351.39358 -3830.81144 -4005.88105 -4021.49461 -4024.12796 -4022.68479 -4025.55207 -4025.58545 -4025.57012 -4023.68545 -4015.55341 -4020.89135 -4013.15231 -4019.70846 -4022.76896 -4014.74087 -4011.31548 -4013.97482 -4019.25483 -4021.74376 -4025.81427 -4026.42595 -4035.69159
-4101.49124 -4094.47392 -4088.76865 -4096.07898 -4094.46921 -4104.17796 -4094.61364 -4093.37746 -4096.64896 -4098.16066 -4100.07942 -4095.25269 -4090.37206 -4091.49075 -4089.63817 -4088.90506 -4081.69284 -4086.79654 -4068.91415 -3958.52116 -3660.71405 -2723.29336 -1814.86732 -1073.47007 -900.10120 -1086.47922 -991.90410 -973.73901 -1241.22425 -1145.35410 -1285.98574 -1315.14060 -1634.57802 -1073.36132 -836.02477 -502.89481 -317.60789 -286.19656 -274.12069 -275.11408 -254.55088 -216.98079 -146.69119 107.86157 287.41016 478.56434 656.22121 721.16350 749.58704 864.66217 925.65312 1059.30551 1131.08507 1144.04077 1163.61171 1158.44704 1157.88608 1157.60910 1142.20798 1132.82799 1047.50808 907.68494 793.05496 688.54890 550.29255 492.35251 367.01430 337.52902 327.11365 314.40768 303.60969 302.92434 277.27954 270.95744 281.77667 278.17424 264.26667 233.94399 158.74153 124.33519 71.56848 52.30510 48.11030 54.32902 47.08579 50.48697 48.22619 89.41189 104.51766 112.60801 266.11344 478.82608 581.34418 610.87540 517.85894 335.34793 217.66049 146.52599 126.38438 98.65507 93.01859 89.84363 84.43487 84.30449 89.24243 86.01393 88.20768 90.93902 78.22758 84.30367 70.19912 60.10458 68.30532 42.40151 17.57101 -61.05639 -178.51561 -579.79225 -1405.96246 -2327.30344 -3515.02547 -3944.10497 -4006.66872 -4027.90664 -4027.80253 -4029.20097 -4026.01546 -4024.97497 -4026.60083 -4020.31646 -4020.62152 -4022.08476 -4015.17756 -4011.12385 -4018.13246 -4011.22815 -4016.86927 -4017.82874 -4008.66307 -4016.07344 -4030.02926 -4037.03654 -4030.60777
-4098.58722 -4098.62072 -4097.88753 -4099.05455 -4089.48061 -4094.55157 -4097.10970 -4096.39996 -4097.42609 -4090.38080 -4088.30621 -4094.31222 -4088.57571 -4090.70794 -4087.04473 -4090.59071 -4083.30527 -4081.31237 -4080.02005 -4008.65022 -3650.39615 -3018.54501 -2120.03370 -1634.01857 -1562.43221 -1649.63573 -2047.76967 -1928.92137 -1954.75041 -2085.07268 -2363.14381 -2174.20400 -2188.38880 -1766.37013 -1206.94975 -545.24216 -402.91785 -304.01532 -281.50345 -264.56053 -247.85670 -206.80852 -152.43487 120.80718 309.01703 558.11934 685.71177 786.95658 885.74049 928.12741 1048.45140 1120.15659 1142.52240 1156.17612 1161.35567 1157.44135 1145.69624 1129.97923 1109.61108 1075.65484 987.43449 862.66285 765.68089 715.42460 489.12802 424.37904 319.31887 316.39799 320.18452 303.00807 295.52147 302.36604 276.02130 270.70123 273.33444 270.77090 251.20418 187.75762 144.30558 86.86849 75.28605 45.52896 50.58189 43.94673 47.82520 49.86005 57.65189 99.10746 109.87072 151.17877 285.41813 465.64084 574.74454 597.63015 446.61643 252.93351 146.87622 138.34393 118.97147 87.23060 84.67374 80.05792 82.44657 83.09226 81.36735 56.13913 44.42084 83.43781 55.53090 42.68991 28.79156 9.51054 13.84523 -0.65959 -7.66815 -58.48778 -145.83682 -643.00651 -1802.65449 -2778.85208 -3650.59703 -3937.23651 -4017.44734 -4028.74778 -4026.89780 -4024.49842 -4019.31623 -4017.32177 -4016.41641 -4017.41027 -4023.86240 -4019.83194 -4014.54238 -4011.71448 -4008.82932 -4014.99847 -4004.78900 -4010.73102 -4006.44165 -4021.44287 -4033.60041 -4043.13987 -4033.85731
-4095.93410 -4095.92108 -4086.58611 -4092.23396 -4102.54870 -4094.85499 -4090.86520 -4095.84964 -4096.20444 -4095.41309 -4090.39995 -4088.53509 -4085.86324 -4083.14073 -4086.20425 -4091.21743 -4084.55193 -4087.54615 -4082.53522 -4030.98558 -3786.35129 -3424.29595 -2956.92027 -2712.99449 -2673.49559 -2945.09484 -3149.21259 -3335.18104 -3312.40397 -3390.78601 -3166.78002 -3515.87196 -3114.36048 -2708.68154 -1291.95994 -940.47274 -669.04935 -356.11601 -290.80544 -275.55682 -273.55490 -234.49430 -155.46778 -1.20562 295.47998 499.84939 664.04111 813.08430 927.46222 1026.73136 1104.10589 1147.62582 1159.46198 1165.16026 1154.36279 1132.68600 1100.86931 1085.05284 1056.14296 1018.84191 962.27910 916.81695 771.61197 663.92125 509.40836 419.76166 333.38479 295.10220 275.85753 286.67059 289.51578 270.15328 263.85715 265.60978 270.53625 266.30886 234.41471 173.26722 115.06523 78.51665 60.35463 53.22672 47.66422 49.01801 49.13628 43.27672 51.10350 101.87540 133.39280 161.02706 275.56092 402.57762 538.54966 512.58035 362.06215 257.67666 147.09654 140.85504 117.39628 83.93989 84.40948 85.00577 81.62245 79.65548 88.12479 49.79346 5.97472 46.71282 26.92159 -27.14124 -62.20978 -69.52731 -88.51511 -108.42766 -97.02930 -110.81925 -260.96357 -928.67823 -1448.42892 -3166.41409 -3724.99560 -3978.49284 -4021.20461 -4030.73713 -4027.47930 -4031.05858 -4023.05246 -4023.18359 -4019.96035 -4016.72481 -4012.85658 -4010.98998 -4015.21264 -4008.04970 -4004.14600 -3999.79649 -4004.56952 -4007.74660 -4015.58177 -4016.96587 -4029.73613 -4043.22597 -4039.71102
-4099.86187 -4097.90710 -4093.75759 -4093.60899 -4096.25193 -4092.94116 -4095.52454 -4094.48094 -4094.45836 -4094.14264 -4085.79073 -4097.83789 -4092.74416 -4091.19355 -4083.09859 -4094.63665 -4093.68805 -4093.20103 -4090.27225 -4075.70311 -4005.23882 -3705.42167 -3687.39167 -3592.27674 -3444.17075 -3640.25125 -3717.35652 -3755.81319 -3763.84565 -3818.98701 -3974.09403 -3917.58241 -3627.15969 -3110.58063 -2385.43486 -1746.46971 -989.46434 -414.58607 -308.33192 -279.63834 -267.69246 -245.82435 -181.71708 -61.91447 153.10234 394.64806 539.48978 830.10406 921.99497 1034.18109 1091.15341 1146.31384 1156.04111 1158.64217 1138.01464 1110.19072 1077.12895 1041.83465 1007.48220 984.84753 941.86130 899.37762 827.95539 757.58081 604.34009 421.08249 335.25194 320.62631 271.44886 270.54836 264.24699 258.86682 260.16091 267.99190 266.44109 266.29159 205.74336 131.86828 100.23306 66.83437 50.97503 47.38942 50.85589 53.71361 54.13190 44.63327 53.42328 86.46106 131.77507 146.21523 264.10509 343.13575 408.71177 417.24079 289.70742 189.35269 133.44084 130.09521 103.21177 86.05149 58.43910 81.67096 47.54564 75.93149 56.91838 3.05880 -39.87153 -33.66362 -87.22514 -83.46439 -112.59673 -142.76070 -146.53810 -145.70176 -160.84273 -180.76838 -440.93715 -718.38150 -1980.77782 -3366.98884 -3758.44779 -3989.70205 -4026.11133 -4026.32087 -4030.98896 -4022.07809 -4019.14852 -4018.28091 -4015.43031 -4013.82778 -4007.91090 -4013.57103 -4010.08111 -4002.17975 -4005.12377 -4000.46482 -4002.99517 -4002.86844 -4012.42543 -4016.31657 -4025.64424 -4042.00454 -4037.75379
-4101.72514 -4102.41824 -4101.59773 -4094.27166 -4099.00694 -4097.93159 -4095.13009 -4093.78602 -4085.97936 -4089.25852 -4090.79970 -4095.29195 -4085.46237 -4089.15153 -4082.88618 -4090.47764 -4077.59344 -4089.91967 -4088.69375 -4079.65333 -4083.35668 -4005.21087 -3958.64795 -3921.78266 -3946.53783 -4001.99934 -4041.67777 -4061.38850 -4050.04955 -4061.83027 -4081.65253 -4065.54667 -3930.06141 -3866.88865 -3172.46240 -2196.01241 -1367.53179 -577.80823 -325.11973 -290.28678 -272.23573 -256.29497 -224.29720 -122.50934 -28.66841 225.34598 481.53027 785.00810 930.73434 1016.84110 1056.32231 1113.48064 1126.19864 1132.47714 1101.81414 1070.65213 1028.51515 961.63370 940.40715 940.37471 915.64014 887.56235 865.38526 805.69846 666.52014 531.59415 369.61239 317.68682 274.04738 276.25954 274.50907 268.44911 266.35874 266.79184 271.83778 243.03767 163.81626 123.09057 97.58278 83.14862 57.15095 49.67913 52.39171 53.88337 49.88532 53.22481 52.00263 98.56764 136.05773 166.05391 198.79002 226.40632 247.44724 299.24741 196.28890 146.97132 137.12169 130.16827 96.67578 36.43907 1.37081 14.19017 -1.90048 22.45946 -0.34128 -32.65451 -52.32632 -118.50025 -135.97947 -146.75941 -188.77452 -207.55451 -222.94008 -217.27483 -217.68144 -270.47574 -454.90496 -1010.84889 -2215.78162 -3226.02489 -3762.66706 -3985.32719 -4018.47304 -4024.87082 -4023.49336 -4021.49957 -4025.92094 -4012.79389 -4008.41139 -4013.19483 -4010.95428 -4000.44503 -4006.53712 -4002.19733 -4003.00615 -4001.62679 -4001.37313 -3999.17023 -4016.90251 -4018.67805 -4020.44581 -4043.85332 -4041.78954
-4103.96938 -4096.23069 -4093.07962 -4096.39359 -4100.38863 -4096.31746 -4093.68336 -4092.90510 -4086.12630 -4088.32771 -4093.13966 -4092.17190 -4088.17880 -4093.77213 -4093.96486 -4096.42688 -4093.87510 -4094.99204 -4097.50375 -4095.09214 -4090.08860 -4072.63740 -4073.96930 -4074.58934 -4067.68142 -4052.57105 -4076.75788 -4077.60866 -4088.31710 -4088.80587 -4095.35099 -4071.76116 -4015.58967 -3914.46703 -3498.77420 -2669.08101 -1591.70246 -821.44201 -401.40762 -288.33405 -274.35306 -262.59881 -241.80499 -183.23068 -148.14780 71.64747 327.87054 690.27929 895.03483 1000.87148 1044.22998 1063.39663 1094.17935 1095.79521 1059.24136 1004.96095 957.44097 901.74836 779.33581 834.51747 842.57304 850.73625 862.99195 833.95763 736.34291 634.43120 471.70081 352.24313 307.75023 283.06558 272.07956 262.68463 267.58634 270.93607 254.92440 231.90527 173.04692 123.04871 117.77788 79.65404 66.53397 48.81381 48.21804 44.73273 47.81656 57.20612 74.13794 105.23276 171.90063 175.20443 162.82448 163.91398 170.32298 183.89235 148.12397 122.44552 108.42834 104.14621 86.84780 20.45206 -36.28099 -24.28057 1.56053 -84.82043 -80.83260 -102.81597 -136.70144 -169.66988 -190.23054 -226.71663 -224.82410 -250.77137 -258.21367 -255.32237 -281.01534 -485.66374 -653.69662 -1476.47393 -2297.67145 -3379.14138 -3851.28673 -4006.29299 -4029.67891 -4023.66336 -4024.52046 -4018.85719 -4018.72869 -4011.60889 -4015.34247 -4003.77818 -4002.45567 -3996.77624 -4004.26369 -4004.55446 -4001.25099 -3998.60819 -3996.24726 -4004.49470 -4000.74837 -4010.61695 -4033.62935 -4052.43096 -4046.74009
-4093.67491 -4094.48448 -4102.75086 -4096.91061 -4091.04294 -4098.33596 -4098.45452 -4095.96746 -4092.13426 -4091.26305 -4093.55837 -4097.09855 -4094.41345 -4087.08755 -4089.59411 -4090.48869 -4099.15317 -4097.60829 -4087.92493 -4090.35785 -4098.58261 -4094.41553 -4087.34495 -4098.37009 -4085.98304 -4096.47011 -4104.53042 -4091.84664 -4087.63522 -4095.24518 -4091.45532 -4087.63902 -4087.85508 -4040.46454 -3812.34864 -2996.44786 -2124.05353 -1087.56593 -464.26012 -319.72375 -283.29127 -268.78483 -250.46407 -212.41127 -173.22357 -52.33808 258.19700 562.01343 805.81413 933.71044 981.38168 1011.36193 1050.00574 1007.25135 994.32582 921.21664 875.60997 608.48538 630.97621 640.50537 685.55739 797.43260 845.28932 857.86899 798.58260 727.85425 618.14126 509.03221 355.04855 324.17847 278.75110 272.97210 269.28020 276.18863 257.97826 216.07206 148.49429 133.28860 116.15769 65.56889 50.68760 52.62765 50.32819 60.73781 45.58081 61.04772 81.66836 137.46835 194.89413 203.42746 146.73876 149.87734 156.63389 149.86065 112.94370 100.40773 106.66748 85.39274 61.19327 8.24618 -36.44278 -69.71403 -73.07864 -120.41039 -153.64448 -178.54207 -188.16572 -223.34277 -255.30286 -289.41549 -268.20591 -331.31539 -369.68636 -420.16983 -656.49614 -790.11361 -1198.99985 -2269.97391 -2569.94335 -3596.54361 -3942.47507 -4014.56081 -4021.08639 -4017.38551 -4018.29991 -4018.58356 -4014.39131 -4011.20066 -4003.34382 -4006.02819 -4001.57385 -4000.34171 -4008.85437 -3998.08630 -3990.60145 -3998.13058 -3997.17368 -3996.34043 -4007.29725 -4018.78083 -4023.02554 -4043.91700 -4049.35011
-4098.71131 -4095.22898 -4092.61826 -4096.80068 -4099.12666 -4101.47350 -4102.99022 -4097.76452 -4093.42347 -4092.80065 -4094.26925 -4097.89840 -4096.24182 -4094.50509 -4094.54838 -4098.41495 -4093.55709 -4102.00818 -4098.62120 -4094.09873 -4099.96063 -4103.70651 -4096.74733 -4105.31280 -4096.93898 -4097.29705 -4105.14456 -4095.08270 -4098.89562 -4098.04077 -4093.46659 -4097.97077 -4094.52319 -4073.65940 -3946.20007 -3444.60195 -2703.13068 -1485.35587 -786.33078 -353.82986 -298.42916 -281.74107 -256.20385 -253.01404 -198.91211 -37.75150 33.96939 375.57023 807.15080 926.12815 971.90095 976.37749 987.91645 944.43144 840.24278 705.61105 577.87585 426.77474 356.61094 335.73771 530.78173 656.32120 793.61407 858.21153 886.65130 831.70897 769.43417 635.32421 548.12881 401.05067 344.92375 295.09440 285.77641 278.67026 267.90543 224.37294 158.58314 138.56106 101.83474 79.18017 55.49186 61.26216 59.13395 57.68509 53.20001 61.03278 77.63020 151.99566 217.02676 222.88781 174.11966 116.44389 99.22378 106.78245 97.84468 87.15044 67.85899 27.42152 -6.73946 -36.06197 -72.65115 -117.93787 -148.42884 -162.42888 -217.11220 -239.45692 -269.16527 -287.82315 -355.53151 -382.88946 -362.34958 -625.47472 -1029.77111 -1078.17080 -1382.64078 -1838.94650 -2330.15553 -2588.99195 -3392.69703 -3810.39644 -3977.73573 -4026.13252 -4019.09526 -4025.55438 -4018.58215 -4011.92478 -4012.95807 -4009.47463 -3997.57401 -4001.52117 -3995.42972 -3997.55094 -3997.25393 -3993.47182 -3988.48361 -3993.61035 -3997.35219 -4003.42571 -4006.25284 -4011.87039 -4029.66708 -4052.13781 -4048.62099
-4095.94613 -4098.50965 -4096.10203 -4096.92875 -4099.61037 -4103.53059 -4095.22662 -4099.91370 -4096.09284 -4094.62632 -4091.54169 -4098.48725 -4104.30386 -4093.22441 -4102.35918 -4112.25072 -4098.73057 -4111.83453 -4109.04295 -4107.19383 -4109.30559 -4113.41829 -4102.83972 -4107.83179 -4108.84189 -4105.09257 -4106.36955 -4101.74088 -4107.43886 -4107.23583 -4104.25220 -4094.20036 -4098.93594 -4089.96324 -3975.95134 -3598.64985 -3099.70449 -1805.59690 -1004.72612 -331.24786 -301.28317 -282.07920 -266.99400 -251.77607 -210.47706 -124.64888 -5.49023 373.02876 584.42294 842.63119 947.50181 923.77867 886.52391 883.74155 667.52849 465.93950 255.19304 162.26242 69.50864 137.10417 375.53058 527.04108 746.35630 848.73892 901.78144 924.19723 938.97428 879.45667 746.41409 591.36696 417.00920 352.56357 302.14318 288.86883 275.80222 240.18240 166.93770 132.46248 108.61054 83.48173 66.32312 62.64271 59.61632 53.69603 47.07449 66.53238 73.15217 125.34125 208.70257 220.93461 164.99571 97.00761 88.90718 72.59306 75.02655 77.20727 52.26357 -14.78320 -55.09021 -109.78507 -141.72817 -155.03234 -206.18443 -221.54159 -248.06608 -338.77580 -341.11051 -428.96715 -666.15935 -888.95707 -1214.93729 -1425.77856 -1869.14175 -2175.14362 -2557.96434 -2933.87878 -3046.05510 -3547.68369 -3780.96375 -3930.13792 -4010.58357 -4015.22446 -4020.00968 -4010.60081 -4015.16449 -4006.64555 -4015.44355 -4007.85066 -4014.51118 -4000.79223 -3994.04333 -3999.39988 -4001.42711 -4001.29796 -3992.81167 -3986.81119 -3998.53351 -4001.19502 -4009.33184 -4021.50511 -4034.03785 -4051.01302 -4058.79798
-4101.23050 -4099.51421 -4101.66766 -4103.31121 -4098.84967 -4097.15670 -4097.92943 -4097.37219 -4108.56780 -4104.20891 -4098.57531 -4105.21587 -4100.02689 -4099.00107 -4107.63815 -4110.43771 -4108.16139 -4106.06811 -4113.83069 -4114.30948 -4113.33178 -4112.88538 -4116.18109 -4116.32186 -4116.04829 -4115.92241 -4119.60409 -4114.42482 -4115.36196 -4115.64813 -4109.95641 -4111.90622 -4108.75447 -4101.43717 -4064.89202 -3943.69020 -3154.99842 -2083.91624 -1053.11155 -494.36819 -313.42601 -279.77400 -258.69506 -241.34369 -213.86588 -149.75826 -57.66047 223.22182 493.69326 789.74028 868.50376 779.40076 717.53414 526.18523 375.95474 291.02388 48.77488 12.70161 -21.17686 14.34194 207.63405 348.10132 653.26725 803.09620 888.00590 944.90101 986.34727 990.32164 853.16794 686.76302 552.71921 430.31707 399.19475 321.08416 292.45542 246.70700 192.64839 123.60918 107.47523 75.45436 60.94865 62.16612 63.71549 57.80386 55.98641 55.52619 78.20220 119.52307 207.03166 226.01951 167.48998 106.14587 80.93896 70.34791 77.38932 87.42572 56.96691 -2.73003 -83.98467 -133.66807 -162.50457 -240.38789 -307.14965 -351.65054 -388.77000 -554.04943 -648.58118 -969.29356 -1413.10798 -1497.97596 -2166.02231 -2712.44261 -2815.50538 -3208.58937 -3356.18070 -3470.25064 -3759.81805 -3908.10810 -3961.55943 -4008.32240 -4017.17733 -4012.14864 -4010.65987 -4009.96584 -4015.24650 -4010.77870 -4005.73710 -4001.57748 -3999.23833 -4005.06747 -4002.34985 -4001.47338 -3998.71969 -3992.00224 -3989.27817 -3997.10599 -3989.27625 -3994.94902 -4016.69732 -4026.11598 -4039.85539 -4052.21225 -4055.67500
-4106.25736 -4102.22545 -4104.51642 -4107.63351 -4104.95101 -4102.63160 -4101.91578 -4105.52164 -4106.38152 -4114.25418 -4105.46998 -4101.96723 -4104.49042 -4113.76413 -4114.89769 -4112.51533 -4109.92239 -4123.80653 -4117.53161 -4115.86805 -4122.90900 -4117.95285 -4123.55654 -4124.79022 -4122.05012 -4131.94469 -4124.08756 -4130.17123 -4129.21952 -4123.46937 -4116.74898 -4122.64779 -4119.25907 -4115.49217 -4108.84012 -3932.33346 -3573.68922 -2299.71883 -1180.31731 -612.39052 -363.25566 -306.24270 -259.29419 -222.69879 -146.02227 -78.44387 20.51788 216.84576 489.40148 626.10586 730.00867 511.82721 391.73768 285.54481 97.14275 -68.14331 -87.14873 -42.88759 -35.80651 -22.08815 135.38054 304.23144 562.94641 710.88489 845.45826 936.08843 958.55304 1001.17643 968.66166 854.67879 718.73121 600.87156 495.17745 367.08931 298.74639 268.26474 203.04942 157.77677 135.33534 91.76919 66.42379 57.30140 59.39902 56.83107 52.09491 48.15071 59.01928 106.34414 199.15189 207.61346 139.08149 82.79874 76.16956 67.11402 75.42332 73.67643 37.43998 -63.82045 -106.77732 -153.06967 -274.27670 -382.28936 -493.03240 -592.60831 -722.59161 -1109.27329 -1484.16722 -2234.58103 -2423.99312 -2871.40524 -3228.65216 -3191.21380 -3626.55029 -3485.34040 -3939.08550 -3928.85745 -3998.94817 -4004.88846 -4016.39550 -4020.96218 -4023.32125 -4016.18674 -4023.19084 -4012.28293 -4005.16050 -4004.04394 -4006.17391 -4003.38278 -4008.59104 -3994.66681 -4002.47954 -4001.22180 -3994.97795 -3990.64896 -3998.00124 -3999.50506 -3989.12484 -3998.28160 -4007.54846 -4020.93254 -4031.95997 -4063.67163 -4067.20909
-4105.18007 -4103.92115 -4110.47200 -4109.34596 -4104.05071 -4102.60049 -4101.49993 -4103.76994 -4109.90727 -4112.63385 -4113.35791 -4120.44430 -4115.58160 -4113.50078 -4119.76777 -4118.10087 -4125.74984 -4124.27793 -4120.93766 -4136.52116 -4133.64829 -4133.90203 -4136.71853 -4139.42113 -4139.80927 -4136.18941 -4140.78496 -4150.75111 -4130.09006 -4130.87764 -4133.26499 -4132.90091 -4134.41894 -4128.03788 -4119.47989 -4027.21365 -3602.56218 -2927.78316 -1838.25346 -981.68855 -460.28609 -294.09366 -252.90427 -181.97064 -68.78551 45.62654 104.86663 244.32742 434.74291 546.73329 363.22703 266.17182 132.55589 -75.04719 -144.82098 -166.30451 -116.64125 -49.29004 -37.95966 -11.89377 75.91551 155.61164 401.81020 598.67027 724.64411 862.72224 905.23105 956.28482 951.00465 907.66641 863.02693 746.37157 676.02504 486.91826 399.96903 283.37200 212.43947 174.02183 114.86535 72.91251 68.49259 66.03092 59.11032 49.59696 40.36462 42.07553 32.85586 68.07783 122.64180 147.24320 125.01679 69.68291 74.98815 64.30773 69.05617 55.53580 2.04649 -87.05293 -163.68089 -267.18001 -352.36847 -633.80613 -812.36263 -1032.90350 -1770.68282 -2261.88659 -2477.75604 -2763.93576 -3136.86390 -3519.72461 -3831.69402 -3855.46262 -3954.53021 -3965.82650 -4016.86509 -4009.34374 -4013.25968 -4021.38601 -4024.29241 -4023.60308 -4015.98227 -4014.11959 -4006.60072 -4013.29182 -4005.37085 -4007.49616 -4005.08164 -3999.46363 -3999.57330 -4004.06670 -4005.51666 -3997.27935 -3998.43612 -4003.00181 -3995.59014 -3996.94336 -3993.98942 -3994.26390 -4006.52059 -4024.80250 -4047.22734 -4067.94281 -4062.53857
-4100.18236 -4107.66543 -4111.20153 -4112.81671 -4110.31570 -4117.28688 -4119.54689 -4110.38625 -4114.06018 -4122.40671 -4115.54904 -4127.45368 -4121.34110 -4131.72363 -4119.32728 -4133.04609 -4126.06691 -4132.37097 -4134.19550 -4138.00357 -4140.09551 -4136.06469 -4140.29288 -4136.34429 -4143.65053 -4149.37044 -4145.47962 -4149.18471 -4146.67205 -4145.32584 -4142.41117 -4137.77560 -4134.65371 -4141.40653 -4131.76806 -4073.83524 -3869.40410 -3116.12385 -2098.47706 -1466.90759 -683.11946 -363.95917 -225.18960 -119.79549 -13.49164 110.60395 169.16784 241.11279 316.24637 277.57348 161.38221 89.88326 -139.38366 -188.66297 -223.53788 -216.08238 -155.92457 -94.16123 -57.06206 -3.19114 44.93134 134.07626 265.27912 407.25460 619.03020 741.29658 850.20296 888.34843 905.85039 898.51023 882.69147 813.42006 733.44044 617.53330 456.58016 285.40697 216.26214 137.98514 113.91746 85.18732 69.94654 72.49056 65.74214 41.65109 29.26532 30.55068 16.80072 12.10012 59.77601 77.62814 71.15524 62.68565 67.98123 55.94649 53.93614 16.56032 -41.32617 -149.67892 -232.91626 -349.32338 -737.99969 -1207.13867 -1757.25708 -2231.51115 -2796.52474 -3082.33833 -3547.68838 -3757.06917 -3837.97736 -3928.56711 -3958.96616 -4009.18872 -4020.35192 -4019.27791 -4025.96273 -4026.40421 -4019.18250 -4023.33630 -4019.96935 -4009.43951 -4014.84768 -4014.15444 -4010.02447 -4009.35265 -4004.27703 -4003.18174 -4004.20536 -4010.57250 -4008.62651 -4006.07176 -4007.73552 -4006.67248 -4011.49874 -4005.51643 -4003.96856 -4014.31185 -4010.13979 -4016.38980 -4014.91078 -4031.11974 -4047.34547 -4066.19975 -4059.98537
-4107.51132 -4106.59078 -4104.80248 -4113.21687 -4119.83717 -4119.65240 -4122.13563 -4120.55562 -4125.40839 -4115.19442 -4123.92616 -4122.88785 -4124.60680 -4137.32584 -4130.20877 -4133.68105 -4140.69746 -4141.51927 -4140.17522 -4146.50241 -4148.03021 -4151.69556 -4148.44316 -4151.05914 -4152.08409 -4156.57221 -4158.30986 -4156.48047 -4155.89398 -4151.37008 -4154.01416 -4152.52448 -4152.53007 -4139.18503 -4144.79537 -4112.79900 -3989.08331 -3523.50638 -2802.95476 -1750.08690 -1152.34365 -537.55968 -320.88206 -197.29684 -73.53907 97.19229 129.51830 170.32516 148.64990 130.35555 24.17985 -143.74719 -195.48969 -255.25209 -265.22662 -249.93395 -200.46760 -123.49649 -53.02682 -9.35950 55.59844 98.50702 159.18721 274.11207 498.37090 583.14729 675.89104 770.20931 842.06140 872.84706 845.57653 815.03212 780.39231 667.12224 493.36183 314.49124 205.74388 131.66386 121.52882 88.96311 89.97909 80.62302 63.18519 50.05549 19.53490 14.40645 4.34654 1.01747 20.03443 36.11176 37.03853 42.84375 47.03223 59.67523 30.52286 -27.70374 -73.39013 -185.65149 -332.71376 -467.57634 -1275.04555 -2121.31280 -2819.04214 -3003.16272 -3512.26723 -3835.76139 -3948.81909 -3943.96412 -3995.46445 -4035.78438 -4035.48537 -4034.19482 -4025.67541 -4023.45158 -4028.58468 -4022.45316 -4012.65697 -4017.64848 -4014.18377 -4010.89486 -4008.48751 -4003.65303 -4003.03664 -4005.70826 -4010.07107 -4004.95238 -4009.95789 -4011.26400 -4011.33665 -4020.62549 -4025.72560 -4019.53163 -4007.01687 -4017.80908 -4032.22098 -4014.54512 -4025.52581 -4027.66116 -4029.89660 -4036.45556 -4047.86801 -4068.41588 -4066.22304
-4122.50424 -4108.14332 -4115.04884 -4115.26949 -4122.19209 -4125.48390 -4126.39677 -4124.35661 -4137.02696 -4129.97867 -4133.46437 -4135.96321 -4141.41331 -4139.42568 -4143.12245 -4142.84553 -4147.10328 -4153.29217 -4151.57445 -4145.81511 -4152.05880 -4152.20604 -4149.38822 -4158.64650 -4160.67953 -4152.77340 -4162.56159 -4158.97916 -4156.67473 -4154.73332 -4159.07440 -4162.85749 -4156.69893 -4146.12685 -4151.42880 -4134.99856 -4080.23883 -3843.56793 -3500.51171 -2192.42551 -1543.85346 -915.00498 -638.24785 -342.33838 -271.39617 -119.23082 -34.48041 65.95868 56.80429 -56.68768 -111.22585 -225.05950 -255.94660 -276.27263 -274.34735 -266.30237 -213.88418 -174.39471 -91.29084 -31.80938 30.46143 65.73868 95.65193 160.31483 238.79379 464.39110 452.84642 629.15951 679.87500 752.89611 786.97653 765.02592 731.02026 625.62090 432.40723 255.63874 175.51840 135.07054 107.16457 94.32429 99.79250 89.52858 64.42211 50.78030 24.18749 2.85727 -15.81939 -16.48563 -13.99083 -19.51477 -15.42382 -3.18154 23.00492 39.43187 13.67100 -45.19525 -133.78703 -257.02332 -558.01439 -1209.61482 -2199.22983 -2957.29533 -3653.07853 -3756.26199 -3977.23024 -4020.96067 -4032.98196 -4026.26557 -4040.99787 -4039.74802 -4020.75616 -4031.83740 -4028.69769 -4024.65003 -4025.21840 -4009.17439 -4011.11130 -4012.39136 -4011.54701 -4014.36867 -4011.83063 -4007.49103 -4003.88779 -4005.54331 -4015.32810 -4010.73601 -4010.92628 -4020.71488 -4033.04672 -4032.88887 -4040.07645 -4050.26551 -4042.47388 -4042.63579 -4040.14689 -4033.25034 -4027.86790 -4032.56366 -4028.37676 -4039.32152 -4044.08522 -4056.85909 -4057.79935
-4119.33010 -4113.30658 -4121.59262 -4121.72037 -4130.85247 -4127.02131 -4132.17289 -4137.53031 -4141.20269 -4137.45509 -4140.39919 -4142.42339 -4139.71454 -4148.75283 -4155.76832 -4150.68036 -4156.05106 -4159.90065 -4159.95713 -4152.21199 -4162.19512 -4160.01461 -4159.56927 -4154.31329 -4158.88283 -4160.41726 -4156.22958 -4161.68532 -4159.39885 -4156.94115 -4160.91226 -4162.48833 -4159.89215 -4159.89487 -4160.37367 -4157.14416 -4142.77360 -4047.53587 -3602.44632 -3321.24832 -2355.51812 -1973.64347 -1201.45789 -1092.26504 -1003.44603 -471.41010 -292.45933 -139.11525 -77.77834 -142.47269 -202.83820 -274.84765 -296.30685 -286.18610 -272.11888 -278.48938 -248.10060 -181.20170 -127.75519 -85.65194 -10.67877 26.68386 67.58926 122.10671 131.76398 177.81205 272.09534 444.13659 469.07610 539.09459 578.19668 597.67612 495.44555 471.68861 373.49267 224.00367 151.53603 110.26867 100.98649 93.79919 96.22405 92.55797 81.07477 56.41223 26.79097 4.18886 -0.58227 -8.45805 -14.02973 -33.70650 -33.12932 -17.80812 -19.05937 -30.99962 -27.38451 -97.20159 -169.45569 -441.49775 -889.23919 -1945.51908 -2912.11786 -3302.03524 -3693.29750 -3845.79486 -3952.87523 -3981.56238 -4034.46299 -4034.25222 -4026.27477 -4020.51361 -4030.72218 -4023.23425 -4026.87125 -4020.40196 -4020.80925 -4017.68244 -4015.74252 -4015.21931 -4006.08006 -4005.52823 -3999.18771 -4014.34785 -4009.16909 -4007.46884 -4018.51581 -4022.34899 -4019.76235 -4035.43917 -4042.49243 -4050.74439 -4060.25713 -4059.45478 -4074.98766 -4078.90761 -4067.34777 -4064.31883 -4055.03529 -4040.73877 -4039.44172 -4041.94005 -4039.97267 -4046.93479 -4047.43765
-4118.86411 -4122.60434 -4126.94914 -4134.10376 -4138.63399 -4136.46910 -4136.05688 -4140.78675 -4137.89704 -4147.57372 -4150.52243 -4145.41670 -4150.78532 -4156.21327 -4156.32163 -4161.39253 -4165.64989 -4161.37208 -4160.60034 -4159.06548 -4160.63379 -4165.01500 -4168.35622 -4170.73279 -4163.67994 -4165.53914 -4164.21597 -4155.75287 -4159.99434 -4166.42298 -4160.01551 -4160.37299 -4154.79130 -4154.98556 -4153.94286 -4155.10620 -4145.01803 -4087.50349 -3941.27231 -3745.66478 -3479.17039 -3109.69889 -2383.28609 -2230.21166 -1593.98335 -1073.83807 -529.08330 -323.35263 -294.29483 -247.65524 -266.64170 -300.03675 -312.14028 -300.68069 -288.32872 -292.60688 -258.33979 -230.00521 -171.76087 -129.79621 -104.97474 -53.45757 5.47862 39.71312 59.91812 118.00519 186.44371 243.07982 262.59631 301.72197 326.44055 307.55305 263.11132 221.63300 204.80871 164.77776 124.74615 111.62362 92.55693 97.90667 98.27689 95.03928 85.75251 61.22099 33.60654 6.91432 4.62430 1.56418 -8.42484 -32.15220 -38.70744 -60.11804 -56.04219 -75.47796 -115.02475 -175.35151 -326.67471 -859.30088 -1621.74609 -2468.47902 -3220.02023 -3559.60170 -3730.31035 -3841.59880 -3922.36407 -3999.75334 -4020.46588 -4042.66197 -4028.90555 -4023.17794 -4022.39888 -4020.63563 -4017.11818 -4011.22497 -4020.70961 -4015.56256 -4014.08141 -4007.15275 -4008.08191 -3999.53209 -4004.37073 -4008.76902 -4014.54738 -4019.45761 -4027.44575 -4030.09687 -4032.88939 -4055.12700 -4056.58453 -4071.34073 -4083.28154 -4091.02603 -4095.04839 -4095.46967 -4099.24761 -4083.22574 -4070.56804 -4048.80760 -4047.77805 -4037.90086 -4031.04142 -4038.83983 -4044.35216
-4132.14907 -4130.60341 -4134.08892 -4140.38985 -4144.38795 -4144.58387 -4149.94637 -4152.89899 -4154.85361 -4163.22394 -4162.39585 -4163.58996 -4163.15034 -4166.68650 -4167.13767 -4164.37912 -4169.50681 -4173.12010 -4170.41616 -4163.92949 -4163.99426 -4166.95210 -4165.36287 -4168.07947 -4164.35263 -4165.24401 -4165.29215 -4163.59108 -4163.12784 -4169.52620 -4163.17411 -4166.38262 -4158.57838 -4166.14142 -4163.64206 -4153.58450 -4154.14229 -4150.20309 -4121.96047 -4078.73089 -3904.17230 -3804.98654 -3479.49818 -3141.58573 -2726.77309 -2002.29849 -1110.20712 -657.86956 -485.77638 -481.82639 -386.31362 -323.54881 -325.00895 -311.69808 -302.39535 -298.86976 -283.36813 -266.46344 -245.74719 -215.56299 -141.04342 -105.94103 -64.41234 17.25979 23.74888 100.80608 135.61964 139.04536 167.35080 173.09790 178.30739 178.12120 151.17537 137.06038 131.21227 112.94916 116.29857 106.94751 97.14348 100.19516 94.91523 94.64658 74.30532 47.48740 22.58484 11.28228 9.32373 16.40828 -4.19701 -35.33687 -43.35260 -88.12192 -106.55696 -127.38773 -160.61958 -249.18041 -461.05336 -1008.74599 -1980.08832 -2681.29960 -3295.21928 -3548.46282 -3724.63444 -3884.77807 -3964.22427 -4017.13738 -4022.31799 -4029.77968 -4022.21933 -4023.04417 -4018.07871 -4017.71594 -4016.90555 -4006.98402 -4013.82890 -4014.42551 -4007.62509 -4008.42614 -4006.26776 -4005.56776 -4008.66430 -4012.35580 -4020.40372 -4029.18830 -4026.04024 -4041.52715 -4060.12223 -4086.95222 -4079.26385 -4099.39534 -4101.89930 -4122.55544 -4127.48177 -4115.10430 -4114.37282 -4101.32061 -4083.86390 -4054.80802 -4041.32463 -4017.04213 -4015.87680 -4021.67374 -4017.09661
-4137.59262 -4138.27654 -4132.28446 -4144.73290 -4152.69677 -4156.87384 -4164.12655 -4165.37822 -4175.08324 -4178.20351 -4178.09601 -4182.14565 -4174.10105 -4181.95265 -4187.02103 -4183.89377 -4183.78413 -4180.59079 -4178.53753 -4179.73682 -4175.56705 -4182.06922 -4179.23635 -4176.16854 -4180.25349 -4172.78553 -4183.67901 -4172.36100 -4176.24170 -4178.17404 -4177.48660 -4175.57959 -4168.49389 -4169.97558 -4165.80651 -4172.73554 -4161.51932 -4163.29538 -4165.45845 -4164.28189 -4081.77869 -4073.73953 -3912.66928 -3801.84201 -3495.43273 -2311.28648 -2048.83303 -1357.28974 -841.05480 -811.70609 -505.82569 -392.72948 -365.25733 -367.89370 -332.10794 -327.93743 -325.25808 -316.73660 -313.86882 -276.02947 -209.38521 -157.41945 -121.24291 -41.03327 42.36545 81.97253 112.63622 121.00993 137.33446 136.23871 131.87424 115.52315 117.09195 115.54245 117.69371 109.82981 99.03113 93.40845 93.90613 97.82178 97.52191 88.70066 73.32575 33.55188 18.07746 -4.46501 6.03008 10.78072 1.81106 -28.80957 -56.80763 -85.45006 -122.22277 -174.27951 -232.01994 -308.16189 -835.50639 -1371.76268 -2319.62608 -2783.59867 -3405.81960 -3651.08659 -3925.21804 -3983.45524 -4010.32655 -4024.25290 -4030.43143 -4030.62193 -4024.17208 -4013.49425 -4014.97715 -4007.92748 -4009.90788 -4001.14193 -4020.79847 -4004.38115 -4012.89522 -4005.53166 -4010.37805 -4014.99661 -4022.11143 -4023.61345 -4028.02665 -4039.88670 -4052.29251 -4069.75283 -4090.17681 -4100.81859 -4116.56326 -4143.02724 -4141.45324 -4152.29158 -4151.06584 -4143.83794 -4126.13166 -4115.82324 -4084.03234 -4059.05619 -4034.84747 -4015.07312 -3997.94598 -3991.70957 -3993.09688
-4142.76509 -4147.67443 -4157.62197 -4168.96239 -4173.36196 -4174.66135 -4180.96341 -4192.18603 -4186.98449 -4205.74969 -4198.70232 -4213.14537 -4203.71698 -4204.66070 -4211.80575 -4204.44690 -4204.40682 -4203.71078 -4201.20545 -4211.82749 -4209.54778 -4206.22519 -4202.74761 -4196.00078 -4199.13852 -4201.79042 -4204.73957 -4189.09946 -4196.75123 -4192.94403 -4194.65204 -4184.35612 -4188.40031 -4192.19229 -4179.89699 -4187.81872 -4188.45972 -4190.67009 -4185.94960 -4179.24842 -4173.75559 -4155.68074 -4177.46550 -4133.14042 -3810.74251 -3346.88145 -3015.55680 -2097.38713 -1742.54891 -1375.95257 -1091.52463 -501.74555 -624.22393 -587.22727 -475.49220 -519.31968 -480.82044 -606.93193 -439.72101 -338.41818 -300.69592 -219.84969 -153.26356 -42.79449 23.06923 76.81997 90.72429 102.64948 110.49416 109.71174 108.36254 105.54450 108.53831 101.62549 102.42922 100.41473 91.50399 94.75544 92.26072 82.77623 77.42960 68.54479 60.42558 29.17459 4.93744 -16.16201 -12.93393 2.78156 -3.40405 -20.88591 -67.94790 -129.91843 -156.02499 -170.33687 -309.26348 -520.83074 -1062.30564 -1644.22312 -2447.98468 -3104.43684 -3569.24099 -3878.86173 -3994.03391 -4015.47109 -4026.60140 -4023.14025 -4017.11685 -4020.39471 -4018.35321 -4010.76336 -4011.11701 -4005.86671 -4009.13972 -4002.53208 -4003.08379 -4017.89276 -4014.47851 -4017.32241 -4011.69489 -4026.71551 -4026.44077 -4037.34187 -4033.18932 -4058.93300 -4072.38485 -4090.69502 -4105.45463 -4122.99859 -4150.06117 -4151.81913 -4174.38241 -4167.17247 -4169.44769 -4155.57330 -4138.15180 -4112.14439 -4082.14455 -4050.88428 -4023.30243 -3988.33439 -3974.24383 -3964.46845 -3966.53201
-4162.66311 -4160.02105 -4169.24380 -4175.88524 -4190.63834 -4198.43412 -4215.25643 -4235.38657 -4228.56313 -4248.14405 -4248.60607 -4231.66996 -4243.67557 -4238.73068 -4224.14062 -4235.83995 -4227.40891 -4242.59266 -4232.85402 -4233.36291 -4228.03086 -4229.97968 -4235.57146 -4230.66978 -4236.91456 -4247.70005 -4231.92066 -4233.80076 -4228.68321 -4226.21579 -4226.38581 -4220.25444 -4222.20888 -4222.36859 -4217.27993 -4214.78969 -4220.48120 -4211.22887 -4222.68304 -4223.28196 -4214.52824 -4199.67346 -4202.20204 -4160.34039 -4141.89058 -3822.51390 -3642.46231 -3335.26572 -2876.55061 -2284.55226 -1824.92349 -1346.26900 -1191.93510 -1236.68503 -945.33063 -786.33105 -1095.47472 -1004.80279 -1022.21379 -737.31337 -478.89922 -316.37315 -198.90129 -109.33567 1.90859 54.88393 75.73474 101.81761 99.55955 94.41585 100.44315 99.10010 95.74117 92.05450 83.70465 91.25501 83.53385 84.61873 83.45879 75.30096 71.41691 58.82531 39.29702 28.41193 -2.25915 -16.09406 -16.81266 -10.62819 -5.66159 -28.65309 -80.35695 -144.13168 -155.33256 -222.05174 -322.28871 -671.26012 -1344.85251 -1890.45698 -2977.12990 -3476.85139 -3862.83607 -3993.77011 -4011.68746 -4026.62778 -4022.23429 -4026.47328 -4021.44389 -4010.65684 -4010.25806 -3997.78769 -4005.66749 -3997.38130 -4011.17317 -4003.55913 -4005.44967 -4010.07058 -4013.74629 -4016.45000 -4023.52883 -4026.76131 -4041.64765 -4048.01927 -4066.82867 -4085.96234 -4107.99277 -4116.86591 -4136.20850 -4157.27584 -4177.39348 -4181.14819 -4191.96391 -4192.19076 -4176.58620 -4169.73787 -4133.78841 -4102.08570 -4081.02095 -4033.44186 -3999.72562 -3966.46279 -3944.45801 -3928.61630 -3928.95489
-4182.88451 -4179.14449 -4199.22119 -4221.38336 -4218.49695 -4235.61136 -4252.26435 -4265.54706 -4269.68934 -4272.85405 -4285.61126 -4271.08321 -4284.86350 -4282.53206 -4283.60588 -4273.78676 -4276.35673 -4268.93836 -4271.05413 -4271.08682 -4269.51017 -4288.73994 -4276.33429 -4277.71579 -4288.53126 -4283.39881 -4284.60623 -4275.27308 -4297.58624 -4269.48832 -4276.53123 -4265.19120 -4270.36656 -4287.63984 -4263.88649 -4259.05569 -4256.48939 -4260.15040 -4245.34021 -4256.11881 -4245.27358 -4253.38728 -4232.99162 -4231.30427 -4192.50551 -4147.39226 -4120.12118 -3941.58011 -3607.93937 -3191.58051 -2840.13570 -2752.73869 -2609.91800 -2440.83669 -2013.23824 -2368.21324 -2305.77044 -2378.28852 -1718.52970 -1304.00384 -773.70611 -683.27533 -496.06141 -200.62260 -113.72542 1.85353 49.17371 100.02811 90.12477 96.96216 87.78322 90.98258 92.28127 81.35585 81.32655 77.40969 73.61096 57.21438 59.98591 48.68745 50.39756 31.82295 20.66973 17.74761 -12.21163 -29.27787 -25.13231 -23.41500 -14.25487 -39.73182 -93.54047 -144.85678 -178.89642 -217.60473 -257.75382 -467.93915 -1203.38430 -2423.47730 -3261.64636 -3624.21292 -3930.00895 -4007.63321 -4026.75106 -4026.69357 -4017.81538 -4019.73695 -4013.52632 -4005.39226 -4002.60831 -4001.92920 -4000.45785 -3999.76609 -4004.37860 -4003.48357 -4007.87754 -4017.92087 -4017.64068 -4020.93473 -4036.39250 -4040.53958 -4049.86706 -4071.70767 -4082.38653 -4102.56003 -4122.69290 -4145.29020 -4164.88143 -4178.45006 -4191.44778 -4204.23890 -4193.21023 -4191.36434 -4187.67377 -4156.34793 -4123.28620 -4084.50783 -4051.88791 -4006.77993 -3974.48573 -3946.87676 -3909.92488 -3895.17015 -3892.37255
-4211.06809 -4208.46705 -4235.16546 -4232.49345 -4265.68454 -4280.46789 -4280.45188 -4293.72833 -4297.36207 -4318.20733 -4340.92188 -4338.65595 -4348.41067 -4356.47385 -4373.07553 -4346.88703 -4346.85211 -4333.31414 -4333.95211 -4312.76691 -4335.44071 -4322.16225 -4348.84433 -4349.22439 -4341.14041 -4342.16213 -4331.96774 -4344.14666 -4347.72505 -4337.73968 -4330.03927 -4345.76487 -4327.61859 -4315.57395 -4319.56462 -4315.19402 -4303.62116 -4303.11686 -4331.80638 -4303.04991 -4286.53502 -4300.19134 -4285.92266 -4273.70854 -4265.71377 -4248.41403 -4211.32049 -4188.81965 -4139.35889 -3865.24782 -3715.98216 -3566.73662 -3426.66388 -3319.89377 -2758.35317 -3070.16855 -3184.15110 -3135.24422 -2828.60069 -2705.37117 -1828.40254 -1388.80478 -1220.36581 -499.84942 -180.79498 -70.66162 40.81051 62.70484 100.32859 89.15286 84.40482 92.30619 88.69834 70.70241 64.46443 61.14735 50.71468 47.42766 59.65253 32.70513 27.16314 -1.89701 -3.54073 -21.84737 -23.39453 -38.44622 -37.42888 -35.28317 -30.21108 -66.39005 -110.48971 -143.30769 -164.03184 -107.35544 -134.51081 -285.13500 -1273.53728 -2377.10833 -3364.26047 -3680.47887 -3916.45884 -4005.92510 -4024.87875 -4025.25367 -4018.55271 -4013.31326 -4008.61629 -4008.22570 -4000.16728 -4000.30034 -4000.70151 -3996.02420 -4000.66016 -4004.59486 -4010.64615 -4012.79385 -4022.53540 -4030.03166 -4038.81796 -4064.54648 -4084.94855 -4088.59792 -4106.88593 -4134.05759 -4152.48028 -4157.51981 -4183.77429 -4195.60327 -4201.66367 -4203.75360 -4197.27970 -4185.02300 -4148.60993 -4126.66869 -4095.90614 -4057.66834 -4030.92271 -3962.47126 -3934.03100 -3910.80029 -3889.81319 -3864.16311 -3870.42924
-4246.16315 -4254.54084 -4275.94525 -4275.89788 -4328.38232 -4335.97374 -4349.70591 -4364.67227 -4373.64057 -4380.83315 -4393.95393 -4379.93836 -4383.71771 -4393.27458 -4388.78685 -4399.65538 -4403.82418 -4373.01505 -4405.11294 -4408.46758 -4386.14819 -4384.99174 -4399.41696 -4394.41020 -4401.41927 -4410.85812 -4390.71238 -4405.54066 -4381.79157 -4412.99287 -4388.08916 -4393.55613 -4393.54084 -4385.19341 -4389.23985 -4383.14933 -4397.93593 -4390.96255 -4362.35776 -4359.76564 -4353.93626 -4358.66681 -4368.65625 -4334.21189 -4313.59644 -4294.76900 -4263.53436 -4244.77930 -4213.35873 -4204.84517 -4118.88990 -4057.66792 -4036.76669 -4009.47922 -4068.21009 -4011.54248 -3927.35940 -3885.47580 -3769.94219 -3239.34330 -2824.12783 -2475.66729 -2078.28655 -1153.06243 -418.84802 -171.83741 -8.56632 59.95381 94.81834 87.65848 76.79577 71.92080 61.26079 60.10076 49.76805 41.65316 28.50449 26.88022 -1.43004 2.77838 -9.22332 -20.86846 -23.36185 -39.58123 -39.48315 -50.01851 -59.47768 -47.58564 -30.77130 8.23227 -4.81168 -5.99961 10.99691 187.81879 183.81210 -128.12333 -1132.40103 -2227.94994 -3106.84115 -3474.94865 -3792.55726 -3964.80100 -4016.48545 -4018.44928 -4017.26448 -3999.78875 -4004.88627 -3998.54779 -3996.16479 -3992.40484 -3992.52654 -4001.59871 -4004.43709 -3996.77212 -4016.23512 -4018.10675 -4037.99163 -4048.19579 -4069.16233 -4075.23927 -4082.25860 -4123.86904 -4138.97507 -4165.24203 -4176.70800 -4188.83650 -4208.00543 -4199.71535 -4200.49752 -4190.36123 -4178.33976 -4153.39450 -4115.44294 -4099.70328 -4060.07046 -4014.21187 -3975.87072 -3931.09871 -3906.28123 -3878.07791 -3854.55066 -3850.57062 -3835.93831
-4292.56605 -4289.00233 -4316.46248 -4337.10991 -4364.15986 -4372.14192 -4399.03897 -4414.06176 -4422.23923 -4445.21494 -4463.91031 -4469.25729 -4456.79518 -4471.32569 -4461.44737 -4465.82301 -4467.44009 -4448.45121 -4451.68289 -4446.38826 -4449.25395 -4456.76281 -4438.80252 -4441.28487 -4432.82731 -4451.63436 -4449.11420 -4446.53650 -4453.95047 -4429.89842 -4454.51339 -4447.31299 -4443.38701 -4435.68690 -4442.07128 -4431.75741 -4424.95981 -4439.16547 -4431.44785 -4431.51789 -4428.84373 -4400.45860 -4396.25092 -4377.10032 -4381.41279 -4343.43323 -4330.34597 -4307.94518 -4271.74570 -4251.99571 -4239.47825 -4202.54871 -4192.93202 -4159.15817 -4151.08790 -4116.81747 -4135.93536 -4097.74978 -4058.70208 -3874.02664 -3607.87559 -3382.95085 -2747.89142 -1762.63064 -648.42686 -326.30316 -72.63803 13.04578 50.36700 70.98727 62.58436 54.15760 52.64039 37.79101 24.08784 11.61425 3.06816 -20.65217 -29.80339 -28.06052 -43.39688 -43.84311 -52.21843 -68.27764 -62.08643 -60.64158 -61.40679 -39.35281 7.72858 108.20711 250.42940 392.02797 369.65055 442.82391 183.63345 -423.63955 -1084.49244 -2179.54450 -2739.17500 -3244.52132 -3711.47271 -3915.60548 -4006.25676 -4014.27168 -4013.24767 -4009.37196 -4004.04327 -3994.93947 -3988.64129 -3987.99092 -3992.02427 -4004.38320 -4004.98875 -4017.51026 -4023.88894 -4030.19887 -4047.65096 -4062.48567 -4080.80129 -4107.17904 -4122.91840 -4147.77865 -4161.78403 -4177.61165 -4199.52703 -4198.80337 -4201.54951 -4203.27370 -4184.74037 -4180.65755 -4141.73856 -4126.92099 -4088.97473 -4043.05879 -4018.15147 -3976.13076 -3953.42135 -3922.58854 -3865.27601 -3846.18231 -3847.04654 -3827.35352 -3834.64854
-4342.33466 -4346.83865 -4357.22627 -4395.91068 -4424.15363 -4440.43532 -4452.06217 -4478.29778 -4478.78717 -4496.02807 -4499.73668 -4503.68902 -4499.03400 -4491.97880 -4503.74039 -4502.03796 -4492.86462 -4487.90485 -4493.41051 -4487.14707 -4484.34485 -4485.23132 -4475.31778 -4479.79400 -4479.09757 -4475.33608 -4475.08858 -4468.42001 -4464.67340 -4468.39858 -4466.75365 -4465.16496 -4469.70807 -4478.14433 -4479.14820 -4474.16816 -4471.03961 -4466.77795 -4466.50534 -4470.93239 -4466.91036 -4451.68287 -4446.46013 -4427.65173 -4408.22757 -4398.56547 -4373.59612 -4355.43593 -4333.69699 -4306.66754 -4279.37102 -4244.64753 -4238.94012 -4219.04705 -4207.79737 -4196.90674 -4183.80222 -4161.98356 -4147.80802 -4073.91627 -3995.53931 -3845.36834 -3340.59588 -2307.93403 -1176.42652 -404.33524 -134.71160 -29.26619 36.02031 47.48401 44.30863 36.72366 17.46548 -4.83247 -4.55531 -13.82277 -38.77047 -51.88553 -50.59309 -67.32403 -81.36711 -78.80334 -76.46168 -73.55561 -68.84889 -79.27339 -62.46631 -6.32693 169.28816 494.03387 644.49722 660.79049 729.48423 299.51374 -297.50284 -771.36251 -1388.78865 -2243.40540 -2674.49245 -3414.03580 -3814.84067 -3955.24958 -4013.63281 -4016.88408 -4015.90942 -4005.40760 -3997.60543 -3999.10017 -3991.62897 -3997.48969 -3992.96820 -4006.16800 -4006.53768 -4014.90533 -4026.81397 -4040.04418 -4058.24185 -4090.12451 -4107.97566 -4120.75437 -4146.28443 -4178.20783 -4183.67956 -4196.98789 -4200.37988 -4206.91382 -4189.49893 -4179.63215 -4150.53731 -4139.08013 -4106.70402 -4077.67097 -4045.34870 -3992.94482 -3965.94670 -3939.54125 -3899.34144 -3869.29709 -3846.27259 -3841.35073 -3829.13886 -3829.36753 -3822.85964
-4399.08875 -4401.70956 -4415.27107 -4451.07269 -4464.58200 -4476.99799 -4512.08784 -4514.95777 -4516.72245 -4530.22862 -4525.23835 -4523.74768 -4519.36808 -4509.49855 -4509.36063 -4508.04280 -4510.10747 -4504.35665 -4501.13060 -4501.60654 -4495.84551 -4495.45985 -4493.82883 -4481.30398 -4485.64625 -4483.08746 -4477.76178 -4473.14942 -4475.08639 -4471.72821 -4470.77261 -4470.39750 -4476.73413 -4471.22768 -4483.03218 -4482.33194 -4483.16831 -4488.72693 -4489.65144 -4484.75743 -4475.05238 -4473.28526 -4458.95151 -4441.75173 -4432.95261 -4421.64352 -4396.93285 -4368.34038 -4352.02389 -4323.78507 -4285.25230 -4227.08272 -4214.45387 -4175.75855 -4146.70860 -4159.40362 -4167.40045 -4185.49789 -4172.30130 -4136.39811 -4097.32906 -3917.97475 -3605.85034 -2493.65798 -1532.59476 -592.45331 -291.00808 -84.87267 -8.70261 15.44653 13.44949 -12.88624 -14.46758 -36.12272 -27.92409 -42.93146 -67.92919 -76.26885 -73.05160 -94.03495 -94.50887 -85.84957 -83.68212 -56.76430 -16.14466 -35.51938 -20.39367 71.85190 3.58453 402.92879 438.84418 531.90066 147.13935 -630.04957 -1149.92530 -1869.33542 -2474.17166 -2882.48047 -3605.28767 -3662.92029 -3890.30976 -4021.49340 -4028.19630 -4032.54842 -4015.48510 -4010.11208 -3997.88256 -3999.92268 -3992.05410 -3990.35076 -4000.11487 -4002.46819 -4009.81926 -4023.99692 -4039.20008 -4055.04912 -4085.39535 -4109.18878 -4125.03263 -4131.16601 -4171.92280 -4189.19773 -4201.10068 -4203.52375 -4199.28889 -4191.16996 -4189.90729 -4153.69002 -4137.79676 -4096.69472 -4081.20252 -4053.82738 -3989.66476 -3958.52240 -3931.13489 -3902.82041 -3880.56341 -3860.17509 -3835.47522 -3832.42701 -3826.19677 -3830.35024 -3828.28056
-4446.05777 -4441.14690 -4458.32896 -4475.52404 -4495.13396 -4508.87837 -4518.79120 -4528.78135 -4520.37868 -4523.69900 -4527.35287 -4517.56599 -4514.46962 -4513.73802 -4506.75466 -4501.20023 -4494.54249 -4489.15790 -4489.67799 -4486.13835 -4481.23677 -4483.09700 -4461.50997 -4464.24293 -4460.60815 -4459.79020 -4447.43555 -4456.60406 -4449.51174 -4454.71084 -4468.04616 -4454.76194 -4455.65463 -4471.38083 -4463.14225 -4459.16991 -4457.09077 -4461.24464 -4469.57371 -4460.86169 -4455.50306 -4455.12648 -4442.98103 -4436.76743 -4434.74868 -4408.59548 -4390.01191 -4374.20850 -4334.15582 -4293.11998 -4118.36914 -4035.71335 -3891.44238 -3737.24108 -3694.44906 -3803.49881 -4033.13780 -4135.68501 -4174.47115 -4155.68821 -4098.96674 -3949.08373 -3617.40469 -2750.41358 -1785.52183 -872.47264 -267.45587 -210.56680 -115.55882 -49.58941 -55.34112 -70.40574 -117.37793 -98.95311 -54.58581 -69.38678 -88.59547 -90.89776 -90.49372 -89.29518 -92.28310 -17.48199 119.07892 105.59967 93.14483 -100.57084 -70.36052 -366.91635 -685.72144 -620.65948 -207.74961 -960.72663 -1396.89326 -2090.14242 -2188.78547 -2771.99001 -3123.25739 -3443.27063 -3842.13234 -3982.40234 -4026.54893 -4040.27260 -4039.53568 -4038.98390 -4031.00669 -4019.27607 -4007.34078 -3997.53286 -3998.30129 -3996.98527 -4006.56801 -4011.75837 -4026.79987 -4038.74678 -4060.46841 -4078.35388 -4106.21662 -4119.20373 -4150.25277 -4184.31412 -4201.98541 -4204.50297 -4213.52699 -4201.59906 -4200.65285 -4172.70699 -4149.32512 -4123.44569 -4075.88952 -4042.76044 -4008.06020 -3973.70105 -3945.80462 -3921.16387 -3888.49790 -3864.05443 -3847.09945 -3847.10648 -3835.25252 -3829.64763 -3838.03936 -3837.79922 -3838.73945
-4474.47806 -4478.52745 -4487.66556 -4506.43367 -4509.74435 -4512.40336 -4505.47805 -4520.47100 -4508.95316 -4507.12578 -4500.87983 -4496.55776 -4485.43641 -4493.67955 -4484.82123 -4456.01937 -4463.04114 -4459.65385 -4441.68243 -4437.07530 -4428.35217 -4436.45267 -4435.14301 -4392.85772 -4415.03959 -4396.21642 -4421.63501 -4396.07425 -4392.28338 -4386.36614 -4383.46855 -4391.00563 -4396.16541 -4386.39587 -4409.95433 -4432.09538 -4416.73405 -4433.41270 -4420.86879 -4425.89511 -4437.34463 -4406.93197 -4410.01526 -4407.51063 -4381.63879 -4387.48853 -4369.38837 -4370.12967 -4240.52682 -3973.77367 -3660.17122 -3414.17812 -3229.26950 -3226.85533 -2986.33601 -3396.34844 -3705.12406 -4017.75091 -4121.44561 -4043.57401 -3919.13513 -3676.03409 -3504.91529 -2700.74541 -1901.41982 -600.99138 -329.48453 -253.21307 -171.64683 -117.15728 -100.98817 -160.02774 -175.44393 -116.71266 -76.53976 -61.39174 -17.76254 -26.80320 -38.58074 0.54746 17.29364 172.64630 272.51240 295.54105 273.90133 -567.79976 -1312.62873 -1604.52329 -1708.97033 -2064.90784 -1862.87117 -2459.24240 -2378.53302 -2858.21240 -3118.86758 -3555.65937 -3735.85656 -3955.84581 -4042.04478 -4053.79805 -4061.37058 -4062.70514 -4063.68918 -4054.65862 -4045.42429 -4022.21448 -4009.44175 -4002.48906 -4002.39489 -4009.35062 -4013.00273 -4019.68634 -4034.59778 -4038.23147 -4081.77006 -4101.53189 -4133.40561 -4150.21458 -4184.03002 -4192.34837 -4209.06178 -4218.43354 -4205.90240 -4200.45266 -4166.98934 -4130.64249 -4118.79686 -4075.14839 -4036.74090 -4007.79247 -3953.54351 -3947.44782 -3900.34614 -3883.78335 -3865.28770 -3843.93908 -3848.50582 -3842.34794 -3832.66928 -3840.21899 -3852.53733 -3851.77883 -3855.30056
-4491.40115 -4489.75240 -4494.45018 -4497.49635 -4510.04247 -4496.49050 -4491.30720 -4486.28708 -4465.65464 -4449.21146 -4439.67248 -4441.63265 -4401.61570 -4435.96624 -4408.80084 -4407.77399 -4385.57820 -4382.32304 -4380.80234 -4354.61202 -4358.52390 -4380.56615 -4350.18496 -4346.22971 -4347.58034 -4314.17228 -4309.97837 -4322.46325 -4299.03874 -4310.28293 -4312.06090 -4346.10615 -4331.52259 -4318.07697 -4334.18864 -4334.70621 -4352.09621 -4332.40453 -4353.20753 -4330.23596 -4329.71764 -4356.75925 -4349.36723 -4332.28919 -4328.52291 -4319.39916 -4318.03459 -4293.39239 -4078.59879 -3553.77910 -2950.27574 -2341.35129 -1737.64387 -1827.98813 -1803.84582 -2602.09932 -3224.99592 -3885.22900 -3850.28563 -3587.27306 -3373.31652 -3148.10689 -3147.65971 -2368.70409 -1565.53758 -813.70901 -333.36308 -236.93147 -158.12749 -203.37106 -278.87943 -353.77790 -209.47305 -83.28862 68.36922 71.29252 127.16369 190.05143 182.14853 178.76297 368.46898 365.28864 221.56415 66.56751 -435.04671 -1513.18164 -2411.56712 -2916.27071 -3146.74063 -3351.95931 -3011.84770 -3061.66414 -3141.12379 -3235.39246 -3506.37208 -3800.97764 -3938.24313 -4007.25854 -4077.25358 -4093.24854 -4097.29700 -4086.89724 -4080.28969 -4064.74570 -4051.30534 -4037.66121 -4031.46261 -4024.50520 -4018.27773 -4015.26951 -4023.67959 -4043.95129 -4060.30374 -4073.44544 -4107.13466 -4133.66150 -4152.12244 -4178.86034 -4200.22395 -4209.73265 -4215.26790 -4209.52791 -4209.67038 -4180.84008 -4139.59557 -4103.18800 -4066.61554 -4015.89968 -3989.47784 -3949.78580 -3937.13965 -3891.37321 -3866.69567 -3860.37016 -3856.26409 -3844.22309 -3846.67096 -3845.79271 -3856.10993 -3858.98587 -3867.88287 -3874.57136 -3883.90668
-4487.30940 -4485.54709 -4480.68414 -4472.85260 -4459.77483 -4454.03769 -4436.61274 -4421.22639 -4398.05322 -4395.23010 -4373.35496 -4340.65471 -4343.30190 -4319.82783 -4316.44725 -4297.21568 -4305.15157 -4294.45957 -4281.03294 -4285.64438 -4270.96260 -4283.87455 -4268.38709 -4252.85058 -4228.01628 -4210.56652 -4213.28037 -4224.03603 -4226.57331 -4195.45142 -4199.37795 -4201.18456 -4227.88230 -4228.47662 -4252.05382 -4247.82145 -4276.43286 -4244.07381 -4247.33574 -4278.29849 -4298.68056 -4288.22915 -4260.48181 -4280.47062 -4245.63835 -4234.74255 -4229.58993 -4145.46598 -3862.25090 -3078.88750 -2130.81105 -1480.33487 -1012.70150 -964.41558 -1108.05828 -1978.49805 -2276.15123 -3264.35942 -3280.58292 -2641.00044 -2281.93859 -1837.80042 -1639.50045 -1377.83944 -1144.85551 -377.10668 -263.25228 -138.05881 -74.27458 -269.59477 -438.40244 -821.70556 -663.77591 -353.44463 60.86747 173.10876 245.96608 398.64500 224.03125 30.29428 125.64601 2.78968 -159.88545 -213.27687 -1660.51269 -2373.92024 -3130.01839 -3526.49246 -3583.78818 -3489.41839 -3446.18233 -3450.58468 -3468.50902 -3494.95240 -3863.91106 -3995.57877 -4065.01244 -4098.52018 -4105.78466 -4118.84365 -4109.69206 -4117.29498 -4094.41831 -4087.50346 -4068.17297 -4053.64116 -4043.40851 -4038.28294 -4025.90405 -4023.70533 -4042.74905 -4060.21286 -4078.48371 -4109.36853 -4130.11607 -4151.90621 -4178.55252 -4193.66695 -4216.32775 -4222.36295 -4212.40936 -4201.48992 -4185.85356 -4142.40901 -4125.49627 -4081.55347 -4035.04333 -3979.99828 -3964.75895 -3896.62464 -3885.57042 -3865.71263 -3850.85320 -3847.83795 -3853.10757 -3844.50539 -3852.09842 -3857.72359 -3863.99343 -3882.88164 -3893.07536 -3900.65227 -3901.35166
