-4840.76652 -4844.74905 -4883.56746 -4888.63648 -4864.18337 -4899.85067 -4873.66771 -4905.19181 -4940.80215 -4970.28083 -4975.04682 -4973.68423 -4970.12299 -4966.99588 -4961.69995 -4961.78136 -4941.67339 -4828.57452 -4573.19374 -3356.23910 -1911.95437 -1076.07339 -947.91171 -813.32052 -662.31237 -545.63447 -451.76907 -394.36598 -374.00584 -344.47240 -276.27043 -239.41009 -158.71390 -126.46471 -80.34357 -51.87535 -3.60259 39.10082 52.02742 51.12931 55.53136 74.82118 66.59087 72.35576 78.10722 83.11367 97.02651 113.79485 119.94591 133.26164 129.97281 146.49214 156.73831 169.30303 174.17628 192.80148 220.86303 237.41989 268.36919 340.08013 359.33078 372.74116 360.24364 333.87273 333.07430 341.18331 333.32287 326.90505 328.35547 314.12026 324.02512 331.55215 339.62039 356.63855 370.21535 382.66843 414.03224 418.80974 439.84854 462.81600 503.27666 530.85396 558.08276 586.32150 597.45330 626.55917 644.70415 646.01013 656.20441 649.10988 649.62040 603.35223 594.05551 552.76810 535.01928 529.17964 490.61784 432.90166 404.02056 348.64663 313.11180 266.70315 226.42166 164.09836 147.98940 105.23077 60.16156 -12.44402 -57.45176 -143.20080 -251.58314 -454.52678 -1908.27057 -3297.82218 -4410.00807 -4730.10688 -4282.88096 -3080.25625 -1425.61388 -158.30385 -129.34293 -224.31602 -365.37334 -1585.66548 -2127.29527 -2601.21101 -2901.05590 -3084.56654 -3203.41587 -3228.98791 -3237.99225 -3239.89735 -3253.32856 -3259.92181 -3266.72393 -3277.59607 -3277.99501 -3284.40235 -3288.03500 -3298.89139 -3305.40926 -3317.99522 -3314.34055
-4934.38548 -4930.93281 -4933.71108 -4933.38906 -4945.71249 -4961.61706 -4966.97416 -4985.72445 -4981.73453 -4989.45286 -4989.11577 -4993.35783 -4987.95600 -4979.01644 -4980.41866 -4971.78092 -4962.70613 -4934.35292 -4712.58399 -3632.90630 -2237.55161 -1117.02513 -992.44278 -852.05627 -665.05367 -587.29497 -497.89162 -412.77223 -401.01823 -346.90694 -318.19656 -253.76834 -184.87553 -158.62357 -110.62549 -84.38285 -46.25901 -28.94735 -11.03335 13.62218 28.91993 31.96296 25.18850 58.51116 63.46177 56.99293 71.49732 87.80306 108.99371 108.79455 127.54357 130.10087 142.03506 152.68259 169.97119 180.92730 204.23535 239.91443 278.10563 300.32975 379.58536 374.98816 369.05173 367.23852 364.92745 346.81643 329.55590 342.62219 338.79837 329.15412 326.02369 335.65256 335.54188 350.08455 369.58111 376.36032 410.59674 418.77911 451.05774 475.57836 501.27454 518.67052 543.77563 572.83390 590.85461 608.54363 635.53391 633.54997 638.90532 631.67788 627.27556 600.64786 578.87088 558.62909 516.55189 476.78021 443.23258 419.77197 395.02244 364.74649 304.10452 251.48526 207.64376 149.61117 104.27160 43.22049 15.52529 -34.80211 -67.76918 -111.86429 -210.64982 -842.99678 -2002.42034 -4316.30834 -4835.00320 -4752.44808 -4260.57191 -2463.38086 -383.35934 -155.40799 -106.00833 -190.94750 -577.62445 -1419.36484 -1836.32929 -2480.08650 -2908.32321 -3152.31119 -3210.26366 -3229.81704 -3243.10897 -3242.05782 -3246.15356 -3260.91811 -3256.28985 -3262.86778 -3276.60688 -3283.73195 -3299.46632 -3303.66569 -3311.61254 -3314.12788 -3306.69025
-4997.37906 -4996.59568 -4984.86833 -4993.11261 -4993.25499 -5000.34856 -4998.43603 -4992.91118 -4995.20449 -5005.50171 -4995.66222 -5001.37839 -4999.68597 -4999.32252 -4988.44594 -4981.49861 -4969.82578 -4933.24061 -4685.42551 -4204.75806 -2177.18865 -1270.52725 -984.94557 -831.16804 -665.91658 -642.63463 -546.70504 -456.12063 -408.97371 -367.17718 -319.58293 -278.58990 -207.67006 -187.12994 -166.01650 -115.05974 -78.49255 -40.25261 -40.94015 -38.36482 -29.09313 -11.30094 -1.42746 32.70486 30.70957 45.28470 64.48887 65.59392 93.36064 106.01116 112.97649 130.94787 123.82749 142.48874 155.76069 188.92377 205.50455 228.92364 262.85564 298.58979 347.02387 392.97681 388.17678 375.77893 367.15537 359.22660 360.99609 347.67226 340.74721 335.78388 334.13878 336.06215 335.68775 354.95001 360.92778 384.48279 416.71255 421.91408 450.59838 465.92259 492.84010 513.73253 540.59824 560.16014 594.45924 601.57639 611.88995 621.99802 614.41557 615.74411 580.02284 572.30752 544.35399 522.82969 498.53065 448.99688 419.14801 400.31999 367.45208 338.51011 281.50998 241.91459 191.59004 138.83766 118.81927 81.41016 27.28592 -16.07015 -45.65081 -131.06212 -216.91127 -995.38466 -2227.93792 -3825.00683 -4769.41374 -4816.55998 -3872.29683 -1891.62907 -712.87020 -104.55545 -84.89679 -137.66025 -271.13336 -815.35933 -1639.82644 -2326.04512 -2707.26490 -3154.10017 -3228.06126 -3234.27572 -3228.17850 -3240.31533 -3253.41064 -3253.72561 -3269.71177 -3269.34344 -3279.12870 -3281.90796 -3294.03820 -3297.59851 -3304.77774 -3312.31021 -3314.13296
-5000.81872 -5003.17492 -4999.92103 -5007.69597 -5007.89685 -5010.12625 -5011.92814 -5010.19628 -4997.69396 -5009.19499 -4999.15408 -5005.23254 -5009.35149 -5007.42506 -4994.47352 -4996.15827 -4977.55276 -4834.32469 -4614.86317 -3795.80982 -2244.27795 -1263.71846 -1019.05794 -857.05925 -767.76455 -733.88036 -565.74216 -506.26160 -425.05047 -394.16061 -362.15570 -295.01830 -240.56736 -214.70798 -171.05094 -137.38995 -117.14154 -92.19383 -59.80397 -40.30375 -45.44495 -30.05893 -4.47451 10.73469 15.72577 24.29770 34.33408 59.66397 73.04483 76.16586 105.53287 115.52526 125.28155 132.51540 162.29988 175.98916 200.29118 219.06533 256.47679 290.75566 349.21384 383.59979 404.45532 399.86092 404.51003 403.91912 396.93554 378.35215 337.78720 342.86588 329.17698 346.89665 340.46836 351.43426 358.61518 374.11023 395.88723 408.98512 435.72416 461.65040 484.99268 508.10831 540.47846 554.08638 579.73833 580.61670 590.58502 596.11666 595.43807 587.83187 567.56568 565.29018 529.21607 500.47905 450.86005 430.22857 402.78167 378.36034 332.47625 291.55191 249.55968 225.42548 169.09725 130.95575 117.84160 68.00760 30.50704 -29.95344 -61.81215 -146.69605 -284.02556 -831.55421 -3034.31481 -4761.19956 -4950.77455 -4792.25914 -3634.40559 -2301.48165 -367.00814 -103.66222 -86.46949 -144.69046 -444.82991 -1118.07743 -1697.25739 -2137.88875 -2800.26276 -3162.24867 -3209.58821 -3228.36442 -3223.91940 -3249.40464 -3257.31604 -3262.79855 -3271.33749 -3266.51529 -3273.53009 -3286.92391 -3295.81520 -3294.52460 -3305.09517 -3315.81266 -3317.92225
-5014.55320 -5010.88972 -5014.57691 -5017.53507 -5019.24514 -5012.76978 -5011.84155 -5017.90920 -5013.99457 -5013.39872 -5015.41505 -5028.06170 -5015.24096 -5017.43196 -5009.89811 -4998.62598 -4960.70857 -4688.42253 -4323.90770 -3406.39244 -1807.46432 -1270.66687 -1020.91903 -928.09940 -874.55783 -741.77746 -625.26875 -569.05242 -461.36614 -430.91032 -351.45074 -313.27071 -289.04456 -234.59813 -199.29565 -150.78401 -139.88168 -101.52263 -91.90253 -72.30324 -65.14530 -42.20416 -41.52564 -11.57268 3.61803 20.01766 26.91683 45.79834 50.74926 77.14774 85.75587 100.67489 117.83551 128.82420 158.63797 171.16785 181.03912 227.89725 241.84097 288.90508 322.75917 389.30186 410.56596 456.93802 442.09775 436.46155 418.75777 401.18778 369.18313 347.34092 345.96697 337.66084 331.68513 344.17211 363.50831 382.50554 385.50556 405.05520 422.62643 454.53753 480.36187 496.60727 528.85920 552.00048 562.96733 570.58616 575.81612 577.10476 577.66571 563.67430 549.14676 518.07228 501.22617 459.93706 431.45577 405.20703 380.55678 347.70680 316.71487 273.58129 259.65940 217.60118 156.17751 116.46047 68.46996 38.44653 10.29607 -47.52779 -85.11263 -155.12493 -270.31479 -936.34253 -2475.84336 -4509.81655 -4833.97504 -4733.72666 -4038.03182 -2718.82092 -402.62641 -106.39346 -98.62525 -161.00836 -390.83879 -970.76100 -1907.58309 -2319.08124 -3018.56282 -3164.39817 -3194.63680 -3218.54191 -3221.86230 -3237.55337 -3243.80112 -3250.24190 -3257.75413 -3270.44857 -3283.19999 -3284.23388 -3290.23301 -3295.18247 -3304.36283 -3309.94395 -3310.48766
-5022.91776 -5033.37008 -5026.02698 -5032.18894 -5034.22507 -5031.17261 -5037.84608 -5024.57596 -5034.99563 -5031.58324 -5036.50883 -5021.89678 -5017.83875 -5029.73278 -5018.29434 -5003.01087 -4915.18465 -4663.92377 -3744.05294 -2820.32352 -1787.37648 -1242.86690 -1079.45090 -988.68297 -928.32261 -826.66003 -742.79004 -606.20820 -511.52444 -484.57441 -397.04037 -371.90723 -316.17569 -286.50840 -213.19251 -191.13646 -155.23461 -133.41191 -114.29470 -99.92218 -89.47741 -56.89249 -42.85662 -38.20596 -41.84332 5.07896 8.78548 22.69860 43.42032 51.32873 74.11417 85.80785 120.27809 121.37356 156.38421 176.39257 180.18162 208.58078 248.17646 276.55157 282.97725 351.22631 402.42917 436.72239 437.37963 425.05484 416.92112 419.06923 392.57876 363.64481 346.62376 329.97705 335.05352 355.04975 349.25377 370.51324 384.36716 408.36354 421.78760 442.68421 463.53054 496.81163 508.46773 538.65524 551.85421 560.84251 564.74603 572.71423 551.48111 534.31727 526.25472 475.21505 467.13174 443.62248 407.54310 387.10280 375.39116 323.12839 281.77753 262.40653 217.60374 188.93116 139.79122 103.25598 54.36844 0.01714 -17.80030 -39.54924 -116.86066 -153.47218 -313.82600 -1144.39163 -2345.98550 -3791.67177 -4939.51697 -4802.17910 -4357.03885 -2743.80521 -1244.72605 -267.11327 -144.86295 -181.93954 -506.82353 -1355.24216 -2170.24978 -2814.59517 -3167.00282 -3195.30448 -3195.49297 -3217.22143 -3216.76356 -3251.07729 -3251.78213 -3255.86885 -3257.31604 -3265.22126 -3279.24263 -3287.63032 -3293.79784 -3311.77156 -3297.30800 -3315.02069 -3315.69428
-5037.63077 -5032.90880 -5037.09225 -5042.68136 -5036.24617 -5035.82174 -5036.72436 -5035.33377 -5043.80764 -5038.73332 -5037.98185 -5031.18962 -5030.52566 -5023.20653 -5029.34755 -4994.03467 -4893.30441 -4470.59564 -3508.48457 -2688.18740 -1696.70362 -1308.36811 -1201.01001 -1039.72743 -958.16170 -839.78067 -786.64017 -746.59959 -593.46419 -496.78608 -458.22123 -397.59966 -357.07672 -307.06012 -246.36224 -194.10798 -181.35117 -163.99519 -133.09136 -117.78079 -104.64206 -88.25153 -63.98998 -44.48095 -42.38551 -17.41252 -3.59740 14.43363 33.43070 44.97128 60.57692 75.08584 98.62900 124.86701 139.14441 149.09150 177.85005 217.31094 211.34756 262.66928 291.59607 319.48823 377.12400 408.39049 405.49674 407.95289 389.77468 394.13004 382.58172 348.37319 330.56612 329.00154 326.47586 346.55100 346.97533 359.01092 378.26115 389.36240 415.30822 421.57436 445.13641 481.12139 499.24921 518.64628 532.53826 546.80725 543.70018 535.46083 525.58432 521.12295 508.62554 467.60867 441.92209 407.75623 377.56333 333.55975 324.81920 299.93933 254.95182 245.63133 200.92939 159.70786 139.43294 83.63256 55.54693 -30.34211 -52.93652 -80.87898 -151.97649 -168.21635 -456.91650 -1035.78823 -2397.43913 -4416.17263 -5015.56937 -4881.57547 -4723.68575 -3987.42974 -1707.30376 -1005.52428 -413.02506 -271.92458 -988.61242 -1413.20391 -2248.98561 -2895.98510 -3169.33106 -3210.26579 -3215.42698 -3217.00080 -3229.07522 -3236.57697 -3252.22114 -3262.65318 -3265.96954 -3267.70511 -3272.67762 -3283.33307 -3295.45713 -3303.18790 -3303.47087 -3318.78808 -3321.56058
-5045.95120 -5055.60259 -5044.46909 -5046.14654 -5050.30777 -5049.32612 -5042.01967 -5046.02436 -5045.79934 -5039.99406 -5036.23298 -5039.90123 -5039.27877 -5034.55191 -5042.29207 -5013.94729 -4868.00865 -4547.48192 -3463.20364 -2898.39641 -1863.29649 -1480.47164 -1233.82701 -1092.22327 -936.24208 -886.71335 -841.31715 -797.05887 -731.31889 -641.94852 -551.55623 -481.32172 -343.51394 -308.60852 -262.07491 -243.29716 -209.73661 -189.42283 -158.27776 -134.59731 -114.70036 -103.22509 -98.29110 -70.35388 -48.09702 -22.99496 -8.69230 8.90564 17.68375 35.32977 54.36738 78.49580 86.00670 111.91804 133.09149 149.68542 167.49525 191.88542 219.29159 259.63501 284.66195 305.40825 318.21089 358.30781 349.52519 344.49833 360.36296 367.20465 347.11353 330.88441 323.88443 319.09741 325.34009 328.08550 332.46849 354.33207 369.18845 382.75938 404.61793 427.87121 439.97167 477.22787 494.15011 508.72948 526.16576 530.87924 515.26042 511.73857 494.73328 493.68293 454.20316 442.73378 401.71133 379.54163 369.45544 323.91717 319.64154 299.50022 245.78997 224.26321 185.24004 140.43205 95.69326 66.06986 9.15689 -22.67806 -57.41286 -123.38399 -162.47244 -295.80651 -577.19717 -1876.91418 -3507.34942 -4956.22587 -4986.90698 -4924.51309 -4849.92209 -4447.86620 -3902.71092 -2093.87076 -1217.11564 -948.81890 -1223.46175 -2147.42503 -2590.27478 -3080.32166 -3203.39443 -3204.86819 -3223.30877 -3239.42400 -3239.38228 -3244.15763 -3258.92619 -3259.76786 -3271.31461 -3266.79477 -3274.08899 -3291.06388 -3298.05743 -3299.33632 -3308.40073 -3318.20423 -3315.18848
-5049.22735 -5049.21279 -5054.96285 -5056.86033 -5064.44604 -5059.34408 -5049.50488 -5064.59825 -5055.89273 -5053.31489 -5054.03238 -5048.52956 -5051.15790 -5043.60061 -5051.74745 -5027.72399 -4949.38024 -4815.82908 -4297.95005 -3362.16983 -2273.22638 -1716.42418 -1393.21475 -1104.28620 -993.12001 -917.59325 -871.97621 -865.89243 -807.60628 -728.02791 -616.37141 -505.58193 -401.82177 -329.10253 -308.80943 -276.36932 -235.48188 -200.38630 -184.96517 -153.44818 -132.71036 -118.79043 -95.74679 -74.53890 -64.50350 -49.52319 -34.26605 -17.55050 9.84623 28.67837 58.35577 63.57980 80.62322 108.26878 126.53665 143.76505 174.43827 201.97269 225.59541 278.85650 277.00968 274.72510 302.73845 315.82739 322.37842 311.97586 308.25282 330.79147 328.97727 312.01029 313.71071 312.74804 311.71227 316.02316 332.33029 342.48293 352.78697 377.57491 400.66537 408.01819 437.45733 468.72259 477.04348 485.03947 500.09162 500.29484 519.91382 491.29112 479.94443 472.25984 444.10187 418.28761 382.05573 350.92119 329.37938 310.07774 274.61394 241.67313 231.87069 190.78154 167.39906 144.90916 98.77014 58.64818 -2.94716 -27.33363 -93.76909 -177.91174 -268.20923 -461.14620 -1055.19171 -1841.43414 -4051.46127 -4780.99201 -4906.44089 -4918.81938 -4918.98573 -4887.01620 -4608.91291 -3780.63831 -2375.21751 -1741.10773 -1901.31578 -2468.37852 -2958.13127 -3128.47780 -3193.28692 -3211.64409 -3228.93802 -3250.40449 -3242.00197 -3252.61319 -3258.86977 -3259.91535 -3264.46600 -3269.72706 -3277.40356 -3285.99252 -3284.41043 -3300.19134 -3308.75276 -3317.82685 -3320.12223
-5062.24142 -5069.90762 -5058.95125 -5060.19827 -5058.67238 -5065.41806 -5067.27814 -5066.61358 -5058.15979 -5063.29699 -5058.64626 -5060.18979 -5067.29271 -5054.68047 -5055.84471 -5047.88970 -5008.72288 -4902.85771 -4606.83396 -4214.28332 -3243.16138 -2678.31935 -2105.52265 -1197.25261 -1080.91371 -955.39695 -883.89736 -883.25704 -888.65715 -837.24820 -756.58505 -599.97971 -448.91132 -365.35995 -341.74370 -323.17593 -277.86188 -239.06290 -200.13163 -173.33414 -157.40932 -141.89261 -127.49183 -96.95815 -79.00773 -60.79505 -47.17722 -19.70871 4.59847 16.02677 37.50988 54.58901 81.77407 100.72974 123.62080 149.27451 164.60735 204.27765 251.27559 270.22495 260.37667 269.03132 270.90422 290.25305 295.71572 297.56451 294.35719 288.29852 294.30363 304.93748 298.34352 298.72888 300.59237 311.17813 327.09654 335.39251 353.55955 370.05870 392.88776 413.61816 427.76598 441.71632 461.63511 475.64889 489.45911 491.30115 496.02660 481.55888 463.24007 444.30554 417.09367 396.89766 376.27900 327.77424 296.48327 281.64249 236.41075 208.74929 190.01203 175.45098 126.03087 92.20737 49.86116 48.10366 -9.74467 -50.58921 -99.82457 -194.73551 -474.74247 -706.84240 -1229.26922 -1946.06180 -4015.17347 -4678.19354 -4834.57974 -4904.52584 -4947.81449 -4984.18369 -4843.39653 -4066.29273 -3147.77908 -2762.97831 -2383.10256 -2671.47754 -3023.73264 -3180.94879 -3204.00017 -3208.73931 -3225.13469 -3239.40183 -3243.94843 -3248.80460 -3256.91592 -3261.55913 -3265.23926 -3274.21058 -3276.72779 -3289.84349 -3299.31506 -3304.73894 -3304.56253 -3320.98751 -3317.62971
-5070.26865 -5070.27897 -5074.39875 -5070.48762 -5075.28575 -5063.97444 -5073.11743 -5068.48769 -5066.44035 -5064.44720 -5054.34952 -5062.34072 -5052.63860 -5056.72180 -5061.40029 -5065.87436 -5032.62847 -5009.46447 -4952.13303 -4733.14311 -4060.93192 -3188.43115 -2390.02063 -1677.12212 -1257.28242 -999.02192 -962.97413 -947.71357 -910.26033 -882.15590 -833.98730 -672.05124 -613.60401 -448.27752 -363.51980 -335.55311 -301.26513 -245.62167 -213.22179 -184.79922 -181.07696 -163.70296 -153.01619 -121.54884 -101.17024 -75.16143 -62.53733 -15.08932 -12.12946 9.41856 32.87757 47.97323 79.40682 81.42409 121.15447 150.76899 174.39760 216.22158 257.41360 258.32545 252.35716 259.07424 257.24621 254.11779 271.97703 270.87551 267.51066 289.26480 271.72533 278.02936 279.42665 286.64005 297.93195 307.60332 310.76598 325.56305 340.48836 363.07718 378.86593 398.13021 418.88173 439.86994 438.72162 467.14011 484.49341 477.22708 474.86025 472.57829 443.21890 431.19381 400.99954 356.05272 332.92420 303.20070 278.43284 247.84757 211.10822 201.28693 177.82226 129.26712 99.76721 73.92115 9.78670 -8.22429 -35.53002 -85.82940 -156.52920 -221.34977 -561.16096 -858.86953 -1536.63895 -2768.50205 -4512.58237 -4635.36309 -4793.72437 -4880.98253 -4951.71912 -5008.06924 -4963.31998 -4659.04599 -3892.03394 -3022.93916 -3091.47652 -3093.07184 -3109.54099 -3185.93379 -3213.96398 -3229.87448 -3231.39291 -3242.25564 -3251.20884 -3248.71813 -3259.16586 -3266.24392 -3267.02853 -3273.76247 -3271.92783 -3282.04088 -3290.01508 -3304.23626 -3309.47927 -3315.32616 -3320.78254
-5079.56214 -5074.35322 -5082.94863 -5079.25522 -5082.54170 -5081.18787 -5081.21192 -5070.36746 -5069.16244 -5076.76843 -5067.96395 -5069.87621 -5069.96038 -5065.49196 -5066.82375 -5063.01753 -5054.49953 -5044.51866 -4986.39300 -4763.94113 -4571.82096 -3796.85664 -2771.94494 -1922.86857 -1214.73190 -1065.43985 -1013.06465 -1022.77700 -997.96004 -943.08796 -869.76123 -770.82910 -735.88160 -556.78980 -418.27130 -370.62835 -339.79528 -268.47935 -258.82389 -211.20807 -194.39092 -183.96939 -175.80565 -141.47916 -104.84914 -81.84432 -65.47102 -35.84591 -13.71343 9.52026 28.86849 34.73098 69.91693 84.79564 116.31502 169.83721 187.86246 224.64580 272.73183 273.03534 255.32014 244.23002 241.69374 243.26105 253.12782 244.70432 255.70948 254.34153 269.10467 268.52724 273.21947 275.19547 273.63923 291.64603 307.29612 308.69586 346.40283 351.31960 359.05693 381.32904 406.81980 415.89099 431.98432 436.29497 441.34212 444.77222 457.62504 432.06672 432.82025 444.70178 416.81197 358.39803 282.06826 260.27813 240.51324 209.72044 156.15366 146.89397 136.55371 126.71841 92.61022 44.78823 -5.16683 -34.29731 -52.50939 -97.54465 -155.94907 -326.70683 -817.06753 -1006.98871 -1534.09687 -3261.29270 -4543.23147 -4735.10244 -4790.01893 -4857.55060 -4957.03752 -5021.99790 -4982.47454 -4723.45721 -4027.51297 -3709.47741 -3346.09617 -3226.47732 -3185.30086 -3194.27625 -3202.33097 -3221.13313 -3230.16013 -3241.02604 -3246.09438 -3254.79131 -3256.08381 -3261.40115 -3264.28714 -3265.42206 -3270.47410 -3288.66166 -3295.87249 -3298.56318 -3310.85729 -3320.82670 -3314.32331
-5079.08355 -5086.14726 -5084.03661 -5093.63468 -5091.55604 -5084.61577 -5081.96290 -5083.20105 -5084.81506 -5085.32434 -5079.80116 -5080.77100 -5073.75983 -5068.58567 -5073.42450 -5067.86538 -5069.35110 -5064.79627 -5058.09455 -4973.53437 -4830.33599 -4077.68539 -2975.46600 -2011.06633 -1352.19253 -1200.15940 -1149.60949 -1110.25472 -1083.57681 -1017.99269 -1012.92333 -921.12568 -800.49469 -714.03111 -572.30926 -472.82339 -358.03489 -334.75357 -289.82029 -241.38639 -227.47542 -209.91252 -178.06983 -169.15659 -133.03537 -115.99335 -77.02039 -66.41577 -24.53150 -8.58414 14.98443 45.13995 73.68817 95.77373 128.44022 171.74804 191.82992 249.87903 260.21845 249.66375 234.06736 226.01460 219.39182 229.08137 229.12703 226.40501 231.37970 243.42642 259.95386 248.13540 261.84939 271.21952 273.56952 279.33855 298.43438 313.85965 334.06776 338.97121 351.02383 361.81295 379.18695 397.53285 415.65951 426.04524 446.44156 417.18126 419.10855 409.86547 415.78589 495.13063 541.34180 405.54682 229.31824 238.85077 211.91317 165.57300 139.10292 108.09895 101.10585 82.79887 51.78648 14.96945 -26.45653 -65.30980 -111.14663 -140.71579 -219.49645 -418.27531 -744.26501 -1288.65510 -1977.80463 -3498.63060 -4313.90518 -4746.27068 -4820.49013 -4860.24504 -4937.88236 -5021.31327 -4952.21394 -4690.50570 -3863.28383 -3770.55853 -3449.11146 -3231.91452 -3187.40675 -3200.44849 -3206.43088 -3226.04893 -3231.28476 -3243.66850 -3250.78682 -3251.76248 -3253.33996 -3263.36422 -3272.47278 -3268.90557 -3281.60312 -3295.76221 -3300.44342 -3302.90563 -3310.72462 -3320.27183 -3316.86752
-5092.52329 -5087.49254 -5092.56571 -5089.49694 -5097.76659 -5091.45935 -5097.17555 -5095.85819 -5089.74857 -5088.30353 -5089.57106 -5080.41117 -5086.12446 -5081.02361 -5077.66255 -5084.84272 -5071.80454 -5073.00947 -5068.63675 -5027.29794 -4713.04986 -4207.06594 -3068.91712 -2093.89782 -1404.81758 -1320.74667 -1254.44749 -1209.37432 -1209.51517 -1342.81245 -1275.92196 -1049.21118 -925.55031 -837.07703 -701.11264 -564.03206 -419.04375 -405.54530 -301.96770 -303.44152 -254.75368 -230.78416 -204.38762 -187.21670 -149.10210 -122.26427 -102.98710 -74.44541 -52.73392 -19.69559 14.33575 24.72393 59.29469 93.66834 120.36388 157.19503 212.40710 253.90570 241.27821 229.04164 186.47988 193.84455 204.87821 202.20065 212.29032 221.39438 232.83223 211.85794 224.29838 238.61476 247.53206 264.94650 261.17697 273.59881 285.19171 286.32855 303.18169 326.65664 337.01217 343.81026 352.79518 376.05961 385.47443 401.81476 396.87811 382.70055 368.32241 378.51681 377.59503 464.40136 474.77704 311.87740 224.72011 203.45221 189.77926 139.25759 113.46970 59.91205 48.63852 38.45767 2.16987 -34.34324 -53.65813 -89.36520 -121.28716 -207.37296 -279.01093 -488.72201 -843.71379 -1175.29854 -1791.74913 -2988.10015 -4144.35703 -4516.16227 -4801.47245 -4851.54984 -4926.51775 -4975.90844 -4780.29641 -4308.95541 -3617.58340 -3576.15099 -3299.52434 -3198.73365 -3168.26386 -3186.57634 -3202.96209 -3222.99639 -3235.21773 -3244.82937 -3246.69717 -3260.04112 -3257.93109 -3262.85714 -3272.22089 -3271.09240 -3285.51164 -3293.23646 -3290.40867 -3306.99047 -3311.05962 -3321.05844 -3322.95778
-5099.68182 -5098.93685 -5102.74978 -5095.41230 -5104.90303 -5102.78517 -5098.71735 -5090.50814 -5099.57376 -5087.49301 -5087.87017 -5091.44755 -5093.23945 -5093.47762 -5084.23180 -5082.65708 -5086.84833 -5076.00968 -5054.34890 -5024.49955 -4509.97240 -4122.01588 -2971.29126 -2081.85348 -1656.78914 -1457.27274 -1559.64183 -1469.13300 -1406.62259 -1661.16697 -1423.99991 -1272.78051 -1028.92778 -953.16700 -856.03373 -786.57270 -634.92586 -512.79093 -413.44019 -330.05444 -299.26728 -280.01555 -236.58178 -211.66627 -165.23524 -145.74477 -120.61223 -93.24264 -73.21134 -41.90434 11.67660 43.70354 65.41841 89.28577 129.59064 173.38467 210.10012 232.37877 207.32199 188.70095 166.31804 174.68571 193.47358 195.21338 195.44878 191.63757 195.05958 205.63378 215.19419 230.73213 233.35814 239.37457 243.24751 249.32334 268.07587 283.34844 286.28316 316.39046 318.80563 325.28291 353.57448 365.87260 363.75814 354.76394 356.50678 331.55197 316.61925 346.98125 362.83188 335.67105 330.97485 219.01092 209.78801 161.79688 165.16995 117.14144 88.58629 48.71313 31.94712 -3.15887 -44.27049 -66.77206 -115.19341 -133.55110 -177.82325 -284.03253 -420.76325 -658.67126 -1031.97768 -1324.43132 -2184.82236 -3132.26343 -4219.89940 -4587.51620 -4756.33818 -4861.76016 -4906.13436 -4938.33615 -4642.39385 -4024.11079 -3412.84992 -3423.42610 -3232.14075 -3157.88393 -3146.50072 -3177.34795 -3195.99963 -3227.63172 -3239.50185 -3248.45097 -3261.72414 -3258.25579 -3267.68474 -3265.15873 -3271.00716 -3280.70690 -3284.55021 -3286.17918 -3289.46258 -3299.40248 -3324.27073 -3321.94768 -3320.12028
-5106.06654 -5110.83238 -5107.86304 -5104.83764 -5111.76125 -5106.80707 -5098.01592 -5105.56941 -5104.29433 -5104.79548 -5098.26901 -5103.92843 -5090.89253 -5090.56565 -5088.33683 -5091.71506 -5082.66761 -5077.90496 -5066.90685 -4936.86516 -4645.10769 -3706.22959 -2789.17167 -2044.53812 -1868.88834 -2054.64701 -1932.14930 -1891.09092 -2179.91323 -2171.61121 -2324.95730 -1716.56373 -1455.83836 -1049.07606 -977.40306 -852.83826 -720.76609 -640.79155 -491.09035 -454.59707 -403.82358 -298.29014 -272.29526 -206.38534 -180.15514 -154.41648 -130.73029 -98.15892 -83.67559 -54.17484 -20.72169 35.34111 55.89680 99.55879 141.41236 166.51944 174.56649 179.58920 174.25455 161.27659 157.04959 172.07590 161.22584 167.68621 180.21388 178.11127 189.94391 201.15281 209.97251 210.35153 211.87239 216.79794 237.97494 236.99054 237.05784 267.16647 265.50416 290.43173 297.51399 299.47124 325.02141 340.53241 350.66988 354.03985 342.23115 319.12658 295.99769 325.27851 328.66275 430.09042 369.42557 171.49494 160.16959 152.45511 129.06006 107.35016 67.64219 35.62329 3.83756 -31.01851 -58.36355 -110.18134 -141.36864 -175.69411 -339.68010 -381.89333 -700.64208 -810.51676 -1083.88022 -1393.40884 -2539.47906 -3736.72890 -4364.97505 -4731.02681 -4821.79273 -4854.79641 -4910.68728 -4920.22226 -4555.43763 -3892.22111 -3477.61419 -3228.31717 -3155.24338 -3145.33542 -3160.08088 -3173.37089 -3213.54433 -3230.68514 -3246.56637 -3249.72321 -3263.65314 -3259.35182 -3264.70198 -3269.48280 -3281.54601 -3271.50655 -3285.00652 -3291.03965 -3291.92838 -3291.78603 -3316.73619 -3335.99419 -3329.52849
-5113.24542 -5116.58808 -5120.14171 -5115.21948 -5111.89387 -5108.33197 -5103.83153 -5117.89650 -5116.97169 -5113.20887 -5105.73959 -5108.64915 -5099.88058 -5098.81057 -5097.97625 -5095.92339 -5090.60178 -5081.05919 -5073.59579 -5005.77354 -4645.63691 -3993.90460 -3103.70660 -2608.54891 -2548.63067 -2618.46987 -3011.86220 -2872.07842 -2895.11256 -3131.35592 -3559.16230 -3026.60770 -1913.08577 -1430.96756 -1074.84265 -927.22410 -864.24056 -812.89562 -708.46084 -680.49234 -562.14993 -473.43621 -369.71267 -256.56442 -219.06755 -163.40555 -142.49058 -119.14462 -74.12836 -42.73860 -13.47350 11.07171 64.33536 101.70107 151.14923 150.29219 124.48505 125.62004 132.02995 139.65844 128.93239 138.71935 141.66894 133.69673 150.46381 160.73656 173.87678 179.99961 203.97068 203.77338 209.41104 214.80826 223.75010 222.94758 242.75576 246.17230 258.08553 267.48814 272.68095 292.40913 302.23171 325.18911 336.55638 335.78855 335.71392 314.39399 267.97923 276.70387 386.78212 453.60858 302.97172 144.80142 127.57000 132.25212 107.67635 50.42585 21.65426 0.18552 -24.44316 -65.50774 -119.25412 -203.56883 -216.77467 -356.74252 -554.64154 -576.65772 -859.59321 -1126.43884 -1316.83549 -1945.64021 -2763.09624 -3781.54870 -4483.31384 -4735.11624 -4839.92916 -4885.04926 -4931.72058 -4885.50450 -4255.43635 -3778.59315 -3815.05543 -3359.69102 -3158.61869 -3124.72941 -3147.36500 -3172.97198 -3209.32660 -3232.31105 -3241.62908 -3254.68971 -3262.80691 -3257.49135 -3266.66675 -3270.88831 -3272.54924 -3271.29326 -3288.65024 -3288.81725 -3291.12476 -3308.16817 -3310.22322 -3327.83853 -3330.94587
-5122.46244 -5121.18092 -5122.22536 -5128.87351 -5120.71157 -5124.01694 -5122.43543 -5119.72886 -5110.68586 -5113.65620 -5111.99860 -5113.05261 -5111.10006 -5107.17516 -5104.08936 -5100.80691 -5099.48176 -5092.67738 -5084.77440 -5031.33491 -4781.39893 -4419.86690 -3943.62534 -3697.03202 -3652.76909 -3914.96262 -4108.01416 -4290.71557 -4271.92150 -4426.39622 -4355.67271 -4472.78187 -2872.20152 -1930.97577 -1193.70503 -1128.97309 -1059.73895 -917.66368 -848.11263 -814.96350 -791.05360 -580.93372 -396.07449 -291.09807 -243.79258 -192.17812 -164.13648 -139.66256 -120.36888 -86.65511 -34.51006 -2.36842 54.97784 96.00506 104.43399 81.38925 78.13369 83.66391 80.81683 86.73014 115.12042 111.38186 123.37797 122.01546 131.54829 135.51843 155.35350 166.65148 154.95789 185.63489 194.55024 183.90568 203.79718 212.45643 229.80684 225.02705 233.36108 253.05755 257.19427 274.35499 291.57246 302.17771 303.29732 315.94871 307.29863 283.51025 270.27009 289.78753 421.44861 399.80547 182.08344 151.88331 117.91635 86.95692 61.85226 47.53432 -20.31630 -31.13382 -55.30416 -109.86164 -152.50606 -234.52771 -355.46750 -710.81788 -822.58874 -774.58003 -1073.05843 -1465.20671 -1876.17711 -3038.44222 -4023.34343 -4104.09345 -4539.26423 -4712.84226 -4858.10969 -4918.47161 -4963.74838 -4814.87119 -4493.27381 -3650.28561 -3882.78744 -3294.97393 -3157.79009 -3123.90822 -3154.59089 -3186.12351 -3207.28059 -3238.08829 -3250.59454 -3254.47795 -3264.77240 -3269.02361 -3263.53926 -3268.32013 -3271.50570 -3280.25263 -3282.40990 -3283.02960 -3287.86385 -3299.76551 -3304.81051 -3323.97297 -3325.40595
-5125.16584 -5134.80609 -5133.61897 -5133.01133 -5127.52582 -5134.82777 -5126.11824 -5120.21547 -5121.93209 -5125.80376 -5124.11669 -5122.85695 -5117.70039 -5121.45804 -5116.54152 -5101.99551 -5112.41110 -5103.50808 -5097.50197 -5082.84941 -5009.78201 -4705.74273 -4680.99517 -4582.14259 -4426.98936 -4623.07896 -4683.63723 -4717.25213 -4729.19162 -4857.19744 -5037.62704 -4838.39221 -3767.75593 -2279.36860 -1677.57104 -1394.01287 -1158.18134 -994.87392 -934.13316 -887.34545 -784.67143 -644.91695 -399.15219 -332.05199 -264.28402 -216.85134 -196.40982 -137.16400 -126.40588 -100.03476 -53.68162 -15.16824 17.51628 51.29737 55.10317 36.86402 44.80804 60.79602 55.76002 74.19266 88.09016 78.73342 106.06616 107.88599 104.24837 123.67639 140.81148 148.38992 154.52096 172.86690 179.14198 183.20474 190.95670 201.68947 204.46189 203.09884 219.14250 229.71667 244.91964 268.83595 282.14459 287.66464 286.45489 296.83602 280.75945 280.89098 246.60378 228.75446 305.93790 275.24268 131.76519 131.44614 93.01352 61.76196 22.57972 -7.37978 -22.41796 -55.06343 -123.78717 -123.57550 -214.18181 -432.87211 -653.27191 -944.21717 -989.93933 -1216.95628 -1521.69587 -1876.32653 -3770.10176 -3938.00735 -4651.23745 -4573.07346 -4426.55664 -4635.22950 -4794.83377 -4792.63157 -4948.83907 -4901.23080 -4444.49442 -4019.33065 -3814.47355 -3229.24599 -3093.53263 -3120.49271 -3162.68195 -3200.65082 -3222.56015 -3241.98192 -3255.56868 -3253.56391 -3264.66294 -3273.53075 -3269.45187 -3271.63010 -3269.74008 -3273.03751 -3284.22921 -3287.44401 -3298.37861 -3303.06612 -3310.57645 -3326.28574 -3325.80263
-5138.51203 -5137.14258 -5144.38764 -5136.43159 -5132.73871 -5129.70788 -5135.96278 -5128.07861 -5128.44166 -5134.27206 -5119.45690 -5122.72940 -5119.08782 -5115.72741 -5117.10051 -5112.63968 -5110.43217 -5110.96749 -5106.28684 -5094.50168 -5098.81501 -5014.79595 -4962.81861 -4914.75124 -4939.00108 -4986.49500 -5014.14457 -5027.36627 -5021.42938 -5073.81516 -5102.00693 -5060.67417 -4249.67370 -3810.40666 -2404.69216 -1578.00121 -1336.05148 -1098.91939 -999.82652 -943.87221 -800.77177 -706.23672 -491.87187 -412.87383 -348.13564 -233.95073 -207.19488 -154.13814 -138.53109 -114.19253 -75.90914 -48.13739 -36.48194 -12.25864 7.67030 11.20010 6.38972 17.37134 31.65650 50.98872 44.42729 66.92707 57.36190 83.72791 90.28578 102.12068 125.42572 133.30630 154.28300 159.85379 170.70937 182.72956 182.66881 185.86209 185.04649 179.00155 207.93170 211.00928 236.47142 244.40642 256.80917 269.11692 274.45089 276.81314 263.18774 262.85225 240.50783 261.01472 188.12978 153.52097 121.08422 100.58829 57.97041 33.71144 -4.89804 -30.55088 -65.26089 -86.42992 -144.40521 -219.55745 -379.50161 -722.26964 -999.45865 -1338.43492 -1324.22694 -1946.95140 -2420.95516 -3657.35481 -4542.54190 -4685.87218 -4998.80230 -5003.41814 -4802.76999 -4522.42003 -4645.92694 -4771.28509 -4954.32148 -4866.10151 -4819.01263 -4629.62574 -3708.12276 -3171.56632 -3093.04415 -3116.97202 -3145.14993 -3206.29120 -3216.97667 -3241.16982 -3261.43464 -3252.70698 -3261.52315 -3267.31006 -3269.20944 -3268.51700 -3271.43637 -3279.62382 -3280.01123 -3281.45422 -3291.20322 -3303.10586 -3310.26576 -3333.37173 -3334.39995
-5143.44349 -5139.19579 -5137.37087 -5136.89014 -5139.66986 -5138.98567 -5140.16119 -5143.43076 -5133.30927 -5129.54630 -5132.81285 -5129.92096 -5131.32026 -5128.14186 -5125.71827 -5132.98863 -5125.69824 -5116.22659 -5117.67183 -5108.04773 -5104.33694 -5079.87112 -5086.45336 -5080.06059 -5075.54890 -5044.70280 -5066.41453 -5057.78482 -5061.03447 -5071.43149 -5083.29150 -5068.56617 -4698.66805 -4156.46787 -3073.69835 -2072.61394 -1482.57879 -1277.85712 -1132.88984 -987.90741 -877.06970 -784.84938 -643.29300 -482.05243 -406.91697 -280.67690 -233.93819 -174.75724 -147.48421 -129.42255 -90.19901 -68.08892 -42.86783 -41.70623 -28.94392 -15.71742 5.24058 3.29525 1.16461 21.72450 13.28999 22.28677 45.21982 69.56989 78.38610 88.32891 101.71587 131.84066 131.23860 140.41285 153.47032 167.20129 169.18877 174.07400 170.25170 168.82173 175.94050 200.20557 196.44596 233.42482 240.29902 259.48809 262.15045 262.56065 262.48302 245.15458 271.07087 329.34068 202.63302 87.50650 94.35529 80.08544 21.51065 17.41887 -29.78964 -68.35649 -107.64791 -146.16932 -199.73689 -357.31862 -637.91099 -1574.05111 -1892.78561 -1862.33102 -3041.22541 -3051.15031 -4114.49198 -4819.96228 -4961.04759 -5219.62526 -5295.45607 -5204.70457 -5154.62624 -4722.92750 -4682.48507 -4773.21187 -4960.32047 -5035.28337 -4942.01627 -4418.77000 -3498.30373 -3130.47277 -3096.04052 -3114.91403 -3182.56491 -3210.47256 -3219.09857 -3252.48726 -3259.78836 -3257.31195 -3263.56014 -3268.36561 -3264.09277 -3276.24742 -3278.06624 -3277.06780 -3283.14532 -3283.83850 -3281.39782 -3297.71663 -3311.90966 -3333.39215 -3333.76657
-5147.80368 -5152.04177 -5145.17162 -5151.78779 -5144.77926 -5141.96420 -5143.13520 -5141.49016 -5144.60135 -5143.61831 -5140.65822 -5140.22940 -5130.78541 -5138.04991 -5139.02621 -5123.80809 -5132.81926 -5134.24173 -5123.34069 -5123.54188 -5117.72546 -5105.24875 -5105.92842 -5104.16530 -5098.15681 -5097.74786 -5084.07110 -5075.78906 -5061.61088 -5077.16884 -5086.18656 -5093.58734 -5099.66926 -5113.49208 -3985.05441 -2975.55184 -2214.56232 -1439.15497 -1183.59335 -1015.71648 -912.59677 -837.12673 -702.72943 -587.22046 -429.74314 -334.68820 -255.95108 -197.09516 -172.07657 -160.94768 -133.58293 -101.67709 -83.25847 -77.08087 -38.79999 -33.58377 -20.65986 -19.42340 -13.30209 -1.15072 -2.29331 15.18371 28.03457 42.67752 63.02782 76.03446 91.91266 99.69169 130.35969 136.88959 144.09436 149.17489 157.28509 149.31375 151.88132 157.68760 158.39911 178.17646 190.74276 209.49459 212.00959 226.77270 236.00065 232.37612 237.20287 225.58518 227.11339 244.16433 186.70369 80.39257 45.99176 60.58710 -3.91042 -58.25981 -83.34199 -105.40590 -120.68145 -201.29688 -459.96778 -1207.69846 -1678.02320 -2928.81783 -2837.83201 -3755.23975 -4714.48387 -4647.91595 -4691.41870 -5131.07467 -5341.87425 -5447.83453 -4203.83833 -4762.38860 -5258.39021 -4997.17689 -4246.52888 -4307.04690 -4348.94877 -4614.24729 -5090.37427 -3825.02695 -3236.05400 -3110.57198 -3102.33625 -3153.42204 -3187.25135 -3217.50648 -3229.01112 -3254.27517 -3254.49173 -3270.07967 -3261.81719 -3260.95331 -3263.09601 -3268.25030 -3278.58309 -3273.89344 -3276.98977 -3282.23184 -3283.12829 -3292.68133 -3310.60873 -3332.71617 -3336.97570
-5157.22326 -5159.66818 -5145.28843 -5146.72203 -5158.89474 -5166.08012 -5153.94963 -5159.65922 -5146.03937 -5148.41685 -5151.98154 -5148.61108 -5149.87528 -5143.67038 -5141.26909 -5144.28153 -5147.17318 -5140.11049 -5132.58631 -5132.30227 -5127.18241 -5116.59422 -5109.17377 -5118.16642 -5106.29834 -5097.61643 -5099.24358 -5079.80632 -5073.40466 -5076.75303 -5086.39013 -5096.96920 -5106.69806 -5125.95461 -5081.95288 -4483.23236 -3689.92791 -2175.84920 -1344.23616 -1010.19952 -912.21168 -853.42862 -807.59046 -724.70950 -483.58623 -375.17441 -318.63623 -263.58645 -185.71368 -174.79689 -166.06209 -121.59745 -117.92531 -91.12963 -81.96241 -67.74369 -57.81603 -60.33503 -36.04992 -25.06992 -21.73959 -10.40904 10.36142 15.21533 33.01447 67.92962 70.67139 96.17995 127.01574 133.23887 124.26741 126.17410 131.65275 140.45467 147.11535 144.98196 150.85398 158.91239 162.13329 186.59971 208.71846 212.77485 213.51072 209.04975 215.59637 201.03914 199.98398 166.06888 87.45242 77.89549 41.75206 -0.28782 -29.12371 -75.54884 -116.32867 -132.44900 -214.32498 -534.88539 -1182.16300 -2295.34181 -3422.28399 -4021.56747 -4649.05307 -4912.08288 -5201.78912 -5261.50107 -5472.43217 -5571.76288 -5442.86481 -5520.42524 -3649.03458 -2470.28316 -2325.73407 -2709.41559 -2624.54459 -2581.86763 -3046.80169 -3728.90623 -3936.49331 -3335.20306 -3097.40629 -3089.55148 -3110.41252 -3149.29326 -3195.93600 -3224.83883 -3236.18688 -3250.65474 -3256.43975 -3257.55103 -3277.03808 -3266.71513 -3272.00530 -3271.43218 -3271.32251 -3274.11898 -3263.60508 -3277.64937 -3287.53214 -3296.65324 -3313.45718 -3340.40583 -3340.91851
-5161.16226 -5166.25781 -5167.57576 -5159.88959 -5165.24829 -5165.09182 -5162.49359 -5162.74662 -5152.94416 -5162.60356 -5157.78822 -5155.48916 -5158.38674 -5151.52025 -5146.50816 -5152.64521 -5151.50827 -5144.06984 -5151.09237 -5146.68851 -5135.66665 -5138.09279 -5136.35689 -5131.24054 -5120.12096 -5111.61237 -5106.65506 -5094.32879 -5089.89239 -5075.79234 -5079.26778 -5082.46565 -5091.07714 -5101.02256 -5035.04834 -4750.14749 -4294.40777 -2572.69946 -1499.85812 -1008.80984 -929.62326 -881.96351 -848.92455 -779.56425 -619.22046 -398.61780 -304.14330 -282.37419 -262.32958 -197.84525 -176.98611 -162.37662 -149.16751 -124.58814 -101.08806 -96.09061 -88.60339 -73.75739 -58.49924 -44.87786 -27.41434 -20.05909 -13.46681 -2.57382 19.74579 32.17414 69.37903 86.67929 117.50047 125.34581 120.89045 128.50025 111.31605 115.54843 118.94681 133.45707 142.81688 143.33303 143.25629 168.19489 192.85333 204.71071 205.98037 208.08893 190.86616 176.18250 162.13915 161.40654 87.78764 33.91941 29.08411 -38.45141 -57.03744 -151.86517 -187.00795 -204.43602 -802.57979 -967.56346 -1683.71687 -3872.42973 -4914.68111 -5205.95504 -5125.38697 -5294.71493 -5361.76418 -5673.16459 -5778.51155 -4791.73422 -3682.06755 -2098.03999 -327.03632 -383.73477 -482.65456 -558.35842 -750.39703 -594.23303 -2031.57546 -2925.24812 -3123.32284 -3073.82634 -3054.44207 -3072.35431 -3121.51445 -3171.15809 -3203.74261 -3227.97576 -3249.81531 -3259.05193 -3268.70132 -3269.76481 -3266.12213 -3266.31041 -3268.86427 -3264.10957 -3274.99546 -3268.93130 -3264.07865 -3280.34922 -3290.67392 -3292.05023 -3315.27541 -3337.20182 -3333.50620
-5172.30842 -5172.06416 -5168.58316 -5181.63184 -5165.87487 -5176.59499 -5171.55986 -5170.50237 -5179.53046 -5161.42708 -5168.34218 -5172.96120 -5165.87085 -5167.72819 -5166.16257 -5168.44990 -5160.63884 -5158.37558 -5163.82195 -5150.10280 -5155.98355 -5158.43544 -5143.66108 -5138.75997 -5138.46739 -5130.49217 -5132.41253 -5121.06725 -5106.27369 -5097.17635 -5081.36929 -5077.42910 -5082.36651 -5074.33778 -5042.80763 -4936.50660 -4254.57051 -2990.77346 -1572.53742 -1151.88018 -941.48959 -877.67327 -837.57699 -824.39215 -769.67635 -530.55940 -370.53491 -315.34939 -292.92132 -228.78069 -201.11789 -206.94773 -181.59571 -158.99328 -134.31857 -105.95185 -112.21136 -91.90583 -79.38525 -75.13503 -74.24900 -63.90259 -39.71456 -16.70189 3.31759 11.01234 41.28338 71.76811 101.13019 125.23673 114.56063 104.16883 95.45378 106.76374 103.76453 107.69705 119.64646 127.20166 127.76835 139.50105 143.87536 159.81871 170.95500 180.55129 166.43238 161.73430 144.76866 113.33886 29.87600 -5.69348 -0.78367 -63.31412 -131.70310 -204.19738 -395.77363 -758.32011 -1510.67770 -2527.40637 -3624.28089 -5401.71869 -5381.40773 -5486.92819 -5564.25567 -5635.76899 -5750.96878 -4390.41898 -2521.05643 -683.74411 -344.03425 -242.92826 -230.57644 -104.96022 -109.02745 -100.74110 -114.43403 -117.83068 -1527.35800 -2880.46230 -3062.32059 -3060.39457 -3047.89681 -3054.83731 -3124.64184 -3182.32464 -3213.33016 -3239.92370 -3253.20250 -3265.84166 -3268.64464 -3283.58887 -3272.94442 -3272.94987 -3267.62226 -3271.90404 -3273.08823 -3276.18882 -3271.61387 -3276.70738 -3282.34586 -3295.24366 -3319.17750 -3336.53041 -3343.40444
-5179.86268 -5175.54276 -5174.90984 -5176.32314 -5175.35847 -5179.65281 -5186.20182 -5184.20927 -5180.61899 -5187.10022 -5191.38480 -5180.01108 -5176.63249 -5173.90328 -5181.19770 -5168.70749 -5186.79081 -5177.06045 -5172.50806 -5174.86711 -5172.75151 -5165.51451 -5166.93946 -5159.84116 -5157.06282 -5153.63176 -5145.35556 -5139.58395 -5136.23865 -5125.57981 -5101.84450 -5101.13397 -5088.51473 -5071.70673 -5061.86061 -4896.86980 -4569.69464 -3095.92624 -1592.64636 -1219.24187 -1045.93545 -968.55018 -862.17808 -820.71130 -820.24903 -673.24050 -530.56283 -399.28564 -359.22962 -314.93794 -252.78711 -249.25056 -214.67415 -177.09717 -179.10772 -170.08699 -153.95386 -112.78334 -111.06549 -92.71418 -96.53079 -73.55142 -66.88265 -44.96521 -8.73176 -0.50053 7.34394 29.19062 49.46088 96.32876 92.27228 74.50451 84.28119 86.43609 87.37687 85.18495 92.97747 100.67845 114.89328 120.00512 128.55206 150.80589 162.61931 158.66337 153.64122 129.56573 138.46375 135.47014 65.05515 -7.42588 -36.45867 -92.47893 -124.12921 -212.23654 -543.73499 -1775.30520 -1974.90660 -2906.87011 -3889.02066 -4732.88003 -4917.22572 -5220.42674 -4786.30559 -4188.31475 -2928.21281 -1108.15229 -372.18996 -163.29381 -161.91940 -111.03648 -91.24282 -79.07597 -76.21845 -91.94642 -92.27028 -115.25478 -1625.32963 -2611.89987 -3061.44029 -3051.35609 -3053.78505 -3097.02873 -3143.70490 -3190.37303 -3234.57509 -3252.91884 -3253.69412 -3270.16413 -3275.05598 -3266.58773 -3282.25527 -3271.90725 -3274.44439 -3276.27154 -3280.80116 -3281.32683 -3276.28933 -3273.48433 -3289.15350 -3296.10781 -3312.09702 -3341.54800 -3338.52956
-5193.73252 -5188.97668 -5186.48530 -5183.76799 -5200.18318 -5191.41094 -5193.66797 -5196.76248 -5189.75392 -5192.35154 -5184.29641 -5179.33872 -5194.95122 -5189.04594 -5194.20316 -5191.51533 -5187.21030 -5196.34472 -5192.31867 -5193.20862 -5193.89698 -5183.49340 -5190.07819 -5181.41763 -5164.31638 -5173.35406 -5168.52675 -5159.13157 -5151.81230 -5136.55562 -5124.97879 -5114.29490 -5114.64241 -5088.66673 -5062.14514 -4987.74391 -4585.10462 -3939.11600 -2758.74090 -1741.92299 -1200.38151 -1030.50936 -931.46793 -855.30387 -801.68418 -760.62157 -591.58783 -529.16685 -435.62338 -393.66893 -345.30370 -305.57021 -277.98470 -288.79816 -212.03962 -181.82912 -161.49606 -142.44246 -149.90101 -133.57970 -115.29404 -108.94913 -86.48681 -71.59635 -64.75585 -33.35179 -10.42482 8.83164 13.05444 54.23388 73.49752 59.53188 50.52747 57.52666 54.50144 69.72353 73.56398 75.10378 95.57094 108.40904 113.20740 121.59441 130.03338 129.28684 135.58372 119.34386 97.35230 133.63734 95.43454 -22.10149 -87.06070 -134.78818 -252.07166 -461.20289 -692.35523 -1160.02609 -1374.38833 -2196.38848 -2882.97699 -3565.19918 -3750.19246 -3053.93869 -2051.59575 -663.35639 -242.54701 -151.30110 -140.24070 -141.81928 -123.13225 -78.06556 -43.29638 -56.25132 -60.75942 -76.42473 -94.55333 -126.09372 -1608.84833 -2762.96132 -3072.12542 -3076.17227 -3076.31128 -3111.65264 -3158.68898 -3214.16430 -3235.04724 -3254.84123 -3278.47362 -3274.07484 -3281.48522 -3281.70136 -3286.39495 -3282.51692 -3285.53508 -3286.75909 -3280.61803 -3286.67496 -3280.36444 -3286.71693 -3283.50218 -3302.19244 -3315.95441 -3338.12260 -3337.57125
-5201.90176 -5198.24317 -5195.27612 -5194.84128 -5202.80259 -5197.97894 -5194.62735 -5185.41084 -5196.84209 -5198.77355 -5201.70682 -5210.24672 -5209.79310 -5206.23566 -5209.73788 -5211.17493 -5211.72421 -5208.59176 -5203.53436 -5204.72839 -5206.88837 -5196.65851 -5197.09700 -5196.14241 -5196.82474 -5188.48066 -5183.89861 -5176.95611 -5176.24280 -5160.45118 -5150.55523 -5144.12619 -5128.70164 -5115.74721 -5100.79517 -5037.33803 -4832.80996 -4101.44450 -3105.98816 -2405.29415 -1568.18380 -1187.00170 -1043.16277 -912.12869 -856.95574 -780.13894 -687.00541 -601.16438 -573.56304 -561.68968 -537.23222 -405.63724 -401.63653 -368.94118 -267.63671 -233.43480 -216.41332 -197.51372 -186.40155 -173.06839 -155.06576 -126.74044 -108.95737 -99.61481 -66.26797 -60.83932 -42.03053 -6.35852 5.58187 16.34889 62.67558 37.37615 30.69561 35.77720 36.38619 46.16972 59.98099 60.21725 69.67459 83.09510 100.98327 113.50643 120.77738 118.99303 113.39450 86.85928 58.10128 67.27690 100.11101 -3.76411 -119.68997 -167.13813 -255.55507 -433.45017 -559.58451 -867.79720 -891.99310 -1164.24947 -1776.07706 -1659.20281 -868.22726 -181.10910 -139.31972 -116.39905 -106.50755 -114.99002 -77.73997 -66.10477 -77.69833 -56.89563 -51.57072 -55.36237 -65.44217 -72.44949 -114.44775 -551.42999 -1829.94234 -3045.70791 -3120.24484 -3081.71475 -3109.02892 -3131.98784 -3184.75279 -3232.50460 -3254.67060 -3277.80609 -3287.51913 -3288.18830 -3284.70403 -3293.27505 -3299.06750 -3290.98467 -3291.93183 -3290.68586 -3296.40502 -3293.84825 -3287.29038 -3295.42766 -3287.23857 -3311.52868 -3318.73933 -3337.21298 -3342.91925
-5205.33324 -5213.01970 -5209.27830 -5212.29357 -5205.30982 -5216.36272 -5215.19188 -5219.33007 -5221.19521 -5218.10249 -5221.69860 -5222.18743 -5222.08276 -5218.55030 -5216.01697 -5220.94688 -5219.46745 -5220.24364 -5228.28066 -5224.73375 -5221.10060 -5220.63245 -5214.39744 -5214.15314 -5212.25693 -5215.05082 -5205.95642 -5199.06806 -5185.75013 -5177.68689 -5176.50827 -5166.43924 -5143.16101 -5138.39570 -5138.13398 -5084.86528 -4951.19906 -4470.72105 -3765.70163 -2723.40178 -2087.60759 -1428.32952 -1166.38962 -1014.22718 -963.90699 -786.73674 -765.66682 -766.65513 -746.52474 -712.81139 -705.18887 -657.98476 -591.29784 -502.19828 -353.56477 -288.87687 -251.49317 -262.13778 -225.23121 -206.78793 -168.40082 -166.22176 -136.79225 -130.44737 -92.30304 -79.17068 -81.21501 -54.99201 -27.89367 -0.77735 5.04733 8.58004 18.83830 17.78155 24.29776 18.51889 31.82463 42.83695 54.33887 72.95679 76.59028 80.50134 93.10467 94.77543 78.47160 60.76229 14.10781 16.43430 20.62680 -46.26965 -122.68287 -189.94127 -256.73367 -332.02926 -403.79922 -485.78288 -604.94889 -714.24964 -690.08115 -484.65333 -194.93384 -143.11677 -78.19474 -76.01176 -45.93583 -29.90786 -36.59550 -54.64307 -64.29371 -57.19113 -53.25199 -73.46266 -89.28706 -99.01959 -135.70336 -156.77747 -1900.89170 -2991.03977 -3141.76591 -3105.91747 -3121.89049 -3157.11420 -3210.39927 -3248.29752 -3263.49917 -3286.90567 -3295.49824 -3294.65246 -3310.82522 -3311.40682 -3297.12911 -3314.88813 -3292.40180 -3317.46377 -3303.54023 -3301.19465 -3301.68459 -3290.97039 -3301.33950 -3311.88204 -3324.53353 -3345.65446 -3346.69413
-5217.62839 -5225.11919 -5216.56486 -5218.05869 -5224.71419 -5226.59782 -5233.54714 -5214.97884 -5229.88321 -5229.83484 -5239.49929 -5237.56673 -5238.73131 -5237.30984 -5235.42117 -5238.80116 -5244.84913 -5244.59704 -5240.63510 -5243.02511 -5237.91264 -5230.00075 -5230.53235 -5227.80043 -5242.32658 -5224.62831 -5212.76601 -5221.70591 -5203.41756 -5214.98900 -5187.60799 -5179.94868 -5179.66607 -5170.07276 -5148.98617 -5120.36459 -5061.42045 -4802.74957 -4455.33897 -3149.39116 -2488.97068 -1859.61398 -1585.37271 -1142.69892 -1086.38861 -944.44663 -891.14905 -836.18063 -822.59034 -829.64862 -812.61624 -813.22098 -757.35054 -556.70869 -520.79261 -414.06894 -409.92433 -459.32839 -391.78892 -280.30418 -201.18165 -170.62483 -171.19509 -149.31420 -138.09044 -110.20655 -105.91961 -74.96997 -61.43315 -40.58502 -14.59337 -14.31513 -18.51899 -6.34291 13.00323 15.22837 13.67331 26.79597 31.88857 53.04261 55.35818 65.01741 78.93567 83.34202 80.56299 61.50654 33.86847 -15.19711 -39.11682 -72.38190 -142.51942 -185.02023 -253.22166 -281.67947 -328.93907 -368.70887 -370.20755 -332.88628 -279.75925 -186.18602 -75.40393 -5.21791 37.58295 6.71101 38.43999 6.83711 -13.77590 -37.08269 -54.33828 -57.29883 -81.13753 -90.57499 -114.02236 -150.00347 -192.63953 -910.84318 -2943.74331 -3037.44700 -3117.86568 -3101.23625 -3130.74471 -3179.82771 -3216.08283 -3253.66023 -3276.61996 -3286.07922 -3312.10529 -3315.89253 -3314.16562 -3326.13144 -3327.64839 -3337.63473 -3333.86488 -3325.43970 -3331.70537 -3321.91713 -3317.25433 -3325.67719 -3321.44800 -3328.61898 -3332.15950 -3350.92029 -3347.28202
-5226.40748 -5225.81042 -5229.05156 -5232.57139 -5232.21656 -5236.71828 -5243.05151 -5242.09674 -5242.92425 -5245.97951 -5249.40211 -5247.91936 -5251.12420 -5248.91448 -5250.34105 -5257.69178 -5253.84495 -5262.88217 -5258.72655 -5255.69625 -5252.61912 -5252.56315 -5247.76298 -5241.71523 -5249.11747 -5241.45843 -5237.42071 -5231.41916 -5228.69025 -5216.91909 -5214.22260 -5204.15330 -5197.35865 -5178.12287 -5174.77286 -5143.69260 -5119.96792 -5015.89924 -4568.06200 -4267.75308 -3307.22250 -2911.96972 -2133.79129 -1948.80064 -1833.90165 -1266.36973 -1100.56736 -969.04490 -888.03773 -920.48260 -940.33005 -936.66732 -821.83295 -718.65344 -613.27275 -626.61683 -624.80601 -559.27050 -505.12725 -353.21287 -242.90295 -206.46866 -201.04718 -166.28857 -165.19093 -150.54106 -131.82960 -108.08561 -100.86680 -77.69475 -45.38536 -40.94725 -30.92957 -20.35740 -11.89713 -3.73820 3.92651 19.44579 28.19479 24.72248 35.29495 52.07533 52.57229 55.27973 45.66243 34.98795 19.85015 -23.50715 -36.66968 -114.34163 -133.80199 -176.79044 -170.28742 -214.54590 -286.56255 -267.02489 -235.07438 -205.52812 -143.89998 -74.27110 15.98392 71.69198 145.07974 155.31797 110.39895 78.12897 6.86457 -50.85574 -54.49433 -78.18467 -114.12873 -570.01297 -183.87004 -802.84497 -1345.76495 -3192.94300 -3196.96766 -3153.98898 -3081.04685 -3087.78486 -3133.84538 -3178.13138 -3237.45965 -3280.41131 -3291.84359 -3319.45638 -3329.71463 -3332.61983 -3329.80378 -3342.12920 -3344.12781 -3356.47357 -3348.33366 -3358.86683 -3353.31011 -3352.41901 -3336.85604 -3329.22429 -3327.83794 -3334.03420 -3338.60617 -3343.59860 -3347.65762
-5239.52261 -5242.40724 -5242.52119 -5247.64299 -5250.04895 -5246.42518 -5253.05798 -5256.26288 -5262.75786 -5266.29030 -5267.45400 -5267.61682 -5271.64202 -5266.11754 -5282.34936 -5268.18672 -5277.41158 -5274.83746 -5266.42770 -5270.94705 -5277.82357 -5263.36597 -5270.10144 -5269.93604 -5261.10014 -5263.60051 -5255.01977 -5253.64964 -5247.11060 -5231.90641 -5238.99554 -5224.60375 -5216.06175 -5207.25374 -5194.15383 -5186.49953 -5167.71101 -5065.72770 -4906.30996 -4712.16008 -4429.80804 -4046.95079 -3311.47092 -3153.99770 -2479.14800 -1909.92097 -1367.88674 -1157.85744 -1089.20729 -1072.46047 -1059.50121 -1004.69897 -908.74146 -800.47642 -736.80231 -693.32876 -676.39865 -661.87686 -550.07318 -484.83525 -426.35103 -326.30885 -277.46916 -257.45269 -210.86236 -174.91472 -152.62520 -131.43028 -105.60421 -74.87865 -70.26413 -48.77326 -42.93349 -35.57874 -30.83314 -16.22197 -3.03149 13.37590 9.51653 26.50868 23.08699 34.00038 32.87033 46.17031 43.73712 22.25132 10.81209 -14.50793 -29.65375 -62.46009 -102.24713 -106.45810 -122.18440 -178.51385 -179.18966 -190.04595 -158.18820 -75.00398 16.77799 135.70565 215.93245 356.43720 322.97359 217.04807 149.22380 49.58948 -2.93691 -51.37250 -83.92794 -117.89190 -141.99095 -1237.79483 -1958.42770 -3015.11772 -3142.43739 -3183.04155 -3132.63100 -3056.12309 -3074.42567 -3093.08260 -3151.37406 -3193.51850 -3249.71527 -3286.94400 -3319.77202 -3331.59941 -3335.64595 -3355.33798 -3357.57197 -3376.56458 -3380.86822 -3377.42563 -3387.58056 -3387.09497 -3386.03578 -3366.42869 -3360.72061 -3340.71017 -3344.45654 -3350.17495 -3345.16628 -3350.83825 -3353.73230
-5254.76745 -5251.88310 -5256.64391 -5256.91385 -5275.84369 -5279.35387 -5261.85627 -5268.95866 -5285.70849 -5282.61391 -5287.66649 -5289.53210 -5291.79696 -5300.14103 -5289.29757 -5290.33426 -5294.40608 -5292.58277 -5302.13737 -5297.08907 -5295.61998 -5300.25942 -5296.82582 -5290.08083 -5284.07918 -5285.23004 -5264.17150 -5261.64783 -5263.38534 -5252.97382 -5250.58212 -5247.84039 -5233.29864 -5229.20347 -5210.78151 -5181.78035 -5171.58739 -5125.61600 -5071.26364 -5073.37579 -4894.88004 -4753.99045 -4414.28918 -4061.39016 -3624.00890 -2899.79908 -1968.18229 -1524.13098 -1358.59909 -1346.54140 -1212.90468 -1111.24072 -964.35782 -852.23460 -778.25908 -777.71556 -701.21052 -675.32368 -628.90243 -631.65873 -485.96757 -392.56402 -334.21147 -309.58696 -279.97118 -225.64086 -175.15548 -161.67124 -128.01703 -101.88450 -89.22641 -64.42813 -55.82616 -40.15669 -32.81740 -11.64035 3.01343 0.47446 13.14873 5.42631 13.11341 15.82549 14.27589 25.69350 14.81135 -1.18168 -8.55849 -11.53629 -17.45397 -53.11887 -70.62830 -70.71259 -56.05291 -113.40499 -106.84817 -83.16015 -78.91069 -31.98469 181.21138 362.83978 375.75991 596.12928 388.58609 184.98876 83.62445 -8.42353 -25.18628 -71.02190 -109.05500 -148.48172 -812.17768 -2401.86411 -3155.50417 -3279.85916 -3110.57703 -3042.92874 -2986.86474 -3015.09016 -3052.86310 -3117.88570 -3180.75269 -3204.44364 -3281.86946 -3317.91532 -3333.61089 -3351.12670 -3366.68790 -3389.72669 -3377.53187 -3395.92845 -3408.92358 -3428.34817 -3435.89591 -3417.70020 -3414.74983 -3398.11968 -3379.22765 -3364.27378 -3371.42396 -3358.32684 -3350.53592 -3349.68536 -3343.09286
-5269.32815 -5268.03937 -5270.70821 -5275.53656 -5286.94737 -5292.92759 -5316.48522 -5293.73941 -5311.04536 -5306.81963 -5311.95485 -5320.04846 -5314.36254 -5315.74280 -5330.39342 -5325.15972 -5322.74432 -5320.45179 -5340.28777 -5325.54527 -5311.90270 -5322.69030 -5334.14627 -5304.11131 -5305.96496 -5301.63088 -5305.95564 -5285.57198 -5284.49987 -5274.12635 -5271.13308 -5259.55110 -5262.57155 -5241.24186 -5212.52851 -5191.20713 -5165.17929 -5159.77693 -5102.53059 -5075.65686 -5034.54615 -4972.71427 -4834.83899 -4752.04008 -4421.72548 -3196.68716 -2930.15969 -2241.93258 -1748.39040 -1586.06432 -1249.72247 -1136.69491 -1040.08139 -968.00413 -886.01661 -839.19967 -758.83496 -726.29521 -710.84986 -693.86077 -584.84330 -489.55333 -438.47729 -433.02567 -366.34360 -290.83016 -223.98514 -195.96544 -158.52770 -110.89700 -100.90968 -88.55008 -74.90903 -47.17924 -23.33466 -16.64611 -1.16102 5.12146 1.90646 9.56782 6.42614 10.41271 -4.60316 -0.85369 -8.78511 -17.71183 -21.83891 -21.33448 -19.06365 -13.86304 -33.40552 -48.25300 -42.90652 -36.18635 -43.97485 -49.93918 11.66564 102.77389 403.77827 640.15880 510.02792 446.67547 135.08966 72.18631 17.59530 -44.75667 -66.56371 -85.83560 -121.09647 -209.22706 -1101.25757 -2776.80592 -3098.02368 -3058.76349 -2985.44128 -2933.17717 -2962.72140 -2989.34797 -3098.13439 -3131.81365 -3217.12120 -3251.60405 -3314.83086 -3335.66653 -3362.29528 -3377.52515 -3404.67548 -3418.97793 -3433.60405 -3448.52813 -3448.04304 -3461.76560 -3462.22217 -3463.00410 -3435.33410 -3426.38579 -3412.49432 -3400.27909 -3371.57166 -3362.08290 -3353.80153 -3357.16364 -3350.57108
-5280.57275 -5285.06665 -5295.54085 -5301.40474 -5311.47227 -5316.35864 -5329.02380 -5334.17614 -5336.42892 -5345.25392 -5343.46069 -5371.74033 -5358.58160 -5366.55307 -5357.41310 -5357.47342 -5358.69066 -5352.26965 -5358.85559 -5359.45275 -5379.06640 -5357.01757 -5357.93519 -5354.26509 -5348.79539 -5343.16222 -5355.88905 -5334.17627 -5337.73642 -5312.22529 -5306.50594 -5299.53677 -5290.54515 -5290.71872 -5243.09141 -5229.00321 -5179.37309 -5179.12762 -5134.69427 -5090.24695 -5072.25903 -5015.60534 -4992.85003 -4945.95859 -4735.20485 -4276.73429 -3925.95681 -2984.78262 -2540.27418 -1953.65827 -1651.81802 -1181.79953 -1204.55432 -1150.62544 -990.76864 -969.71862 -856.06872 -824.67994 -782.70866 -805.06963 -744.36542 -649.73473 -636.28396 -545.19989 -416.84953 -326.62631 -268.46061 -239.45751 -201.40858 -149.48080 -116.82931 -101.37064 -67.28341 -66.18562 -30.44713 -16.67486 -1.43797 5.20147 11.43390 7.16018 4.93841 2.98923 2.52378 -16.45234 -18.47320 -11.07100 -13.21828 -2.71015 -6.70560 -4.39716 -13.64909 -20.59629 -27.06539 -15.36680 2.12508 -10.60612 173.54016 353.09850 528.19839 713.59245 508.85651 234.81640 61.32580 -21.16484 -51.27725 -115.07932 -127.17015 -139.31893 -194.88933 -1041.60434 -2752.83165 -3017.89592 -3004.80391 -2959.17197 -2914.77888 -2929.08484 -2978.61475 -3033.94603 -3114.63716 -3194.15206 -3230.48158 -3286.34278 -3330.59066 -3363.49142 -3394.42537 -3412.11418 -3428.45499 -3450.98611 -3467.09859 -3473.53393 -3489.18434 -3499.18396 -3488.66954 -3488.80538 -3465.23685 -3447.07829 -3428.45624 -3417.40553 -3382.77290 -3361.81450 -3360.02200 -3355.26117 -3360.62093
-5306.78845 -5301.78564 -5311.96430 -5335.72162 -5339.08242 -5349.69027 -5363.79534 -5380.90397 -5386.37652 -5402.60664 -5417.50728 -5403.78114 -5405.80143 -5410.35807 -5386.65986 -5405.10624 -5401.36267 -5415.54534 -5413.72331 -5399.33298 -5396.39530 -5400.88943 -5402.10986 -5401.77976 -5409.66597 -5413.59326 -5397.35922 -5389.73927 -5373.35661 -5374.34742 -5366.49207 -5344.04702 -5353.09995 -5298.83476 -5296.39260 -5257.36506 -5249.08455 -5222.31355 -5215.38400 -5163.43015 -5136.77035 -5071.38927 -5044.48954 -5011.05465 -5014.76773 -4727.43385 -4530.46302 -4276.64443 -3769.12191 -2955.17123 -2369.08255 -1898.58789 -1684.02264 -1568.53176 -1253.42907 -1095.03675 -1006.44332 -1026.95066 -1406.21335 -1337.61415 -1202.83649 -905.10035 -731.23151 -595.45048 -417.72134 -363.33420 -324.92508 -293.58565 -237.68809 -200.53325 -136.26457 -117.00946 -89.99058 -68.76861 -38.01958 -20.40373 -6.84115 6.09084 6.78739 8.51357 6.42409 -0.24603 -9.03030 -16.51651 -10.58252 -2.68121 15.49389 18.00287 32.13931 38.17517 37.21547 24.73565 31.82350 15.90840 14.76596 121.01108 241.36040 480.92074 564.09245 469.62996 190.37285 44.91788 7.95408 -31.47200 -115.12987 -154.05992 -156.28193 -176.44024 -738.72563 -1922.67357 -3240.80346 -2995.24018 -2968.93338 -2908.90901 -2920.37249 -2954.41255 -3027.61975 -3064.58380 -3157.81566 -3198.05419 -3286.32930 -3329.15156 -3369.20008 -3410.28445 -3426.80258 -3450.18362 -3471.20389 -3484.86566 -3496.02337 -3519.84229 -3518.93004 -3522.17193 -3512.12325 -3507.64621 -3487.26256 -3464.25210 -3437.79178 -3408.19912 -3398.63849 -3371.99368 -3369.20511 -3352.51160 -3352.21177
-5331.26504 -5343.28341 -5349.30224 -5363.54224 -5375.41376 -5384.48860 -5421.44839 -5431.50448 -5434.00528 -5450.80308 -5460.70739 -5447.56462 -5456.88336 -5453.30966 -5456.47183 -5454.01292 -5459.37183 -5467.54657 -5461.54336 -5457.96839 -5462.83916 -5480.75529 -5462.25705 -5465.40077 -5479.06948 -5472.68102 -5458.70273 -5447.13684 -5465.87990 -5430.73171 -5436.33507 -5404.48400 -5388.07249 -5394.32744 -5356.94015 -5326.41375 -5309.69696 -5298.93411 -5239.64778 -5206.07044 -5163.25387 -5141.56711 -5103.82923 -5088.35989 -5035.70591 -4976.72700 -4906.37676 -4828.15319 -4543.44932 -4095.13319 -3722.08992 -3690.51232 -3296.18802 -2782.71887 -2174.99635 -2849.17063 -2548.80143 -3019.71261 -2386.01284 -2079.79570 -1715.82254 -1252.63743 -903.16503 -613.94498 -468.76780 -392.27303 -383.94411 -320.07531 -267.75365 -228.05264 -186.66670 -130.71672 -97.40744 -68.24078 -37.86569 -21.29710 -12.07782 -2.15570 1.06014 -13.22761 -0.26020 -18.65309 -22.13362 -5.08776 27.21818 40.47878 58.87182 67.64751 64.66235 74.10624 109.31568 127.94548 121.54831 91.13955 182.41875 299.47468 350.21084 698.86910 649.13139 359.37577 120.70257 30.79152 -72.75179 -101.01313 -159.97421 -309.89726 -424.86897 -689.18206 -1709.78638 -2928.44602 -3158.31038 -3002.91016 -2947.43728 -2918.93566 -2937.09448 -2979.25665 -3055.05747 -3103.01877 -3170.64050 -3223.79861 -3289.35814 -3353.92213 -3381.03741 -3434.34597 -3460.35227 -3482.22149 -3502.65180 -3512.03888 -3527.80839 -3536.91279 -3541.69355 -3537.90067 -3527.28067 -3522.28526 -3493.81754 -3480.19679 -3463.74952 -3422.63715 -3394.22598 -3374.94038 -3357.92207 -3346.93707 -3345.06098
-5378.22537 -5374.96250 -5394.37391 -5406.99638 -5431.36964 -5453.95107 -5459.51879 -5468.90211 -5474.44843 -5512.33306 -5522.56259 -5530.06175 -5533.46380 -5556.01218 -5570.88946 -5552.90949 -5542.00062 -5546.22072 -5536.03454 -5521.76729 -5539.92805 -5529.91781 -5552.55136 -5559.58114 -5550.25681 -5536.67053 -5524.72792 -5532.21580 -5531.25625 -5521.49822 -5504.08180 -5505.86471 -5459.86893 -5427.98316 -5421.25526 -5399.98154 -5364.68211 -5338.81800 -5335.06648 -5270.66583 -5215.63466 -5215.24717 -5171.65386 -5137.87062 -5094.02231 -5029.28058 -4975.14542 -4948.89664 -4903.21191 -4738.08282 -4658.72842 -4526.17258 -4237.68418 -4173.83966 -3431.84764 -3846.34116 -3771.85239 -3626.76815 -3579.23660 -3062.81838 -2084.25233 -1542.15225 -1018.81403 -632.31380 -519.98989 -428.22695 -437.39911 -389.35370 -273.46698 -228.67505 -193.01741 -152.31893 -79.98866 -62.93873 -41.87605 -28.17338 -22.31042 -17.75985 -11.16430 -8.47345 -21.01616 -26.16033 -13.17131 11.02230 25.67863 39.03359 83.59383 109.08956 104.57472 121.95360 147.78180 167.03952 247.91853 397.99910 434.85878 575.48095 773.52794 976.34327 629.34330 315.57982 55.19878 -67.64002 -122.58740 -173.17857 -290.78019 -394.88173 -1335.44270 -1305.31010 -2548.74641 -2900.99246 -3063.83134 -2966.27051 -2931.39378 -2935.12757 -2983.26714 -3011.30861 -3082.47858 -3148.69491 -3201.50177 -3296.04896 -3338.54868 -3388.22447 -3425.83701 -3464.50674 -3483.10628 -3521.57052 -3535.86018 -3550.78174 -3557.25555 -3559.55747 -3563.54677 -3558.00579 -3540.11921 -3511.10742 -3499.16508 -3470.34985 -3458.63883 -3413.97507 -3395.44347 -3374.62427 -3350.65095 -3343.42071 -3347.17220
-5430.47830 -5414.30588 -5459.63669 -5459.47842 -5509.01949 -5528.97348 -5544.14316 -5576.25646 -5572.05381 -5591.51764 -5607.06966 -5590.58180 -5588.78085 -5613.62796 -5610.28783 -5620.02093 -5627.10213 -5596.77410 -5633.05303 -5647.67423 -5612.40794 -5598.55640 -5625.96871 -5617.94618 -5625.84864 -5627.92753 -5590.81401 -5601.57300 -5581.20481 -5615.85556 -5591.03921 -5570.19771 -5550.87682 -5515.63189 -5516.29154 -5482.50125 -5488.41775 -5452.94611 -5383.23443 -5342.31433 -5312.87135 -5289.99732 -5287.44151 -5213.04843 -5146.26221 -5097.57736 -5002.67597 -4984.07484 -4908.06195 -4881.60381 -4817.62344 -4774.09297 -4751.88703 -4734.62215 -4711.93647 -4616.32013 -4518.10021 -4259.43502 -3805.67393 -2950.49878 -2298.08579 -1626.54339 -1169.42927 -812.09465 -600.21896 -487.15195 -414.23925 -364.20588 -295.78736 -260.74369 -206.00680 -135.27048 -87.14657 -47.73918 -42.26388 -31.56418 -29.71273 -26.23448 -18.35311 -23.36369 -21.94898 -21.82248 5.60230 27.99767 47.93191 77.91960 98.08617 120.74749 114.52385 359.71622 343.64944 372.49883 404.46900 916.05818 1068.90946 1368.57681 1224.40152 993.04028 784.38464 484.11716 151.84675 -71.45584 -172.48988 -303.12318 -714.60369 -1275.41833 -2362.21933 -2846.90185 -3369.70239 -3091.73534 -2999.05234 -2946.63213 -2959.08945 -2968.94618 -2998.12932 -3027.38154 -3120.25384 -3174.49914 -3256.49353 -3331.71875 -3350.62204 -3447.53875 -3471.46591 -3513.71464 -3525.46166 -3554.55329 -3563.12855 -3570.75763 -3566.00940 -3573.72070 -3566.09072 -3548.24511 -3526.22500 -3516.29035 -3481.57027 -3465.78233 -3441.91062 -3406.91218 -3384.53934 -3368.19602 -3352.82012 -3343.16778 -3335.35585
-5480.99404 -5483.20911 -5503.66618 -5533.47730 -5569.07912 -5577.32282 -5605.47913 -5629.47954 -5645.43795 -5678.86031 -5696.41274 -5713.98528 -5700.10867 -5711.11121 -5695.35417 -5699.07455 -5715.94728 -5691.74772 -5707.22355 -5701.65544 -5692.46583 -5705.58095 -5697.91284 -5678.50453 -5663.34461 -5692.39777 -5706.59922 -5676.87386 -5684.75063 -5660.84297 -5657.82451 -5640.16124 -5613.96343 -5600.66116 -5592.88350 -5551.60670 -5523.81930 -5521.47144 -5481.41399 -5465.42349 -5427.65242 -5371.31249 -5344.37609 -5274.26476 -5266.15335 -5157.71066 -5112.25333 -5058.45853 -4977.84973 -4916.86005 -4868.72853 -4823.44053 -4791.44190 -4755.29796 -4740.44159 -4678.16278 -4644.54749 -4373.94714 -4041.45472 -3323.71616 -2268.84879 -1829.69950 -1412.69238 -1017.30338 -674.61916 -567.60910 -424.55622 -357.11437 -304.07945 -236.20767 -206.88735 -128.68969 -82.42264 -49.92854 -26.30126 -26.66732 -15.25177 -6.37773 -15.62106 0.99068 -11.43043 6.50925 24.08162 57.97669 86.71998 96.33895 182.89402 289.04222 352.10409 686.29811 870.65471 1043.68468 966.12577 1271.48846 1444.81138 1738.73014 1738.30072 1315.62490 1023.59311 622.69407 137.29050 -75.12436 -431.57768 -515.89476 -957.44220 -2440.00468 -3069.30402 -3447.26970 -3193.22194 -3023.59122 -2972.31705 -2960.90103 -2992.30303 -3000.40137 -3045.76030 -3081.59563 -3141.39413 -3228.88862 -3285.86633 -3379.85296 -3420.27482 -3469.27001 -3503.99130 -3534.77232 -3554.66527 -3561.35453 -3584.86395 -3580.57495 -3581.40277 -3564.95401 -3554.15221 -3534.63547 -3518.02453 -3493.43061 -3479.68904 -3445.26455 -3422.84013 -3407.97277 -3369.19873 -3352.83423 -3348.45450 -3323.78720 -3333.02641
-5546.02885 -5545.94186 -5571.16346 -5615.95604 -5640.94582 -5671.25186 -5698.27626 -5733.76965 -5737.87031 -5765.97413 -5768.40944 -5777.17386 -5786.10273 -5786.38122 -5791.06348 -5778.68279 -5775.18475 -5779.36713 -5766.81448 -5784.20210 -5772.63642 -5772.01199 -5769.08967 -5766.15755 -5763.53648 -5770.83939 -5775.42634 -5747.87283 -5749.46943 -5752.60657 -5730.00369 -5692.94395 -5702.12308 -5683.22441 -5668.75948 -5641.89593 -5613.14283 -5598.03833 -5571.90051 -5543.26096 -5499.35824 -5488.58099 -5430.55636 -5382.30981 -5327.02761 -5306.94072 -5213.64459 -5143.49636 -5076.10941 -5025.38686 -4937.94873 -4859.88124 -4839.84620 -4782.20237 -4758.70776 -4730.84294 -4677.96793 -4509.66721 -4121.25721 -3269.77693 -2548.82847 -2163.63219 -1616.47998 -1046.50359 -783.75987 -590.95336 -487.28946 -367.45638 -317.80120 -274.31854 -172.21554 -112.18876 -60.17428 -27.42027 -28.51266 -17.49658 20.26330 25.49007 13.00372 20.20574 26.84515 45.84897 57.50789 73.35063 100.35969 155.68105 265.44035 530.45013 656.30920 1084.40919 1595.07307 1673.88435 1778.61156 1578.39932 1396.34358 1654.99699 1525.65702 968.37945 761.95861 116.18812 -439.24882 -720.56949 -793.97984 -1488.82747 -1743.71385 -3399.53927 -3456.91670 -3296.14079 -3113.19017 -2990.50294 -2981.08095 -2989.77207 -3018.87090 -3041.52031 -3093.91864 -3135.66998 -3173.99624 -3291.75014 -3357.86383 -3404.17354 -3462.19076 -3514.03521 -3546.88194 -3564.09701 -3568.73225 -3585.33182 -3585.80669 -3583.89258 -3570.03607 -3560.48618 -3543.51067 -3522.66880 -3498.09330 -3470.85395 -3455.05145 -3421.72408 -3410.86587 -3384.99464 -3364.51987 -3343.60219 -3330.52692 -3327.62702 -3319.62775
-5611.21932 -5618.10965 -5635.80814 -5687.47922 -5700.71768 -5733.68533 -5788.85941 -5803.57795 -5809.41141 -5834.95313 -5856.94417 -5850.57353 -5839.44786 -5847.94942 -5847.03618 -5841.42172 -5844.37839 -5835.65224 -5847.38610 -5848.28893 -5828.42714 -5807.06354 -5808.79489 -5811.07425 -5811.57259 -5812.89337 -5797.33941 -5809.58254 -5798.26667 -5795.45607 -5779.98603 -5772.30202 -5749.64923 -5728.91480 -5738.40931 -5702.28187 -5699.72439 -5641.30053 -5639.59910 -5606.39971 -5565.50377 -5526.96970 -5488.27165 -5456.86558 -5400.37495 -5360.44444 -5279.81350 -5207.20409 -5132.97292 -5071.90008 -5000.74771 -4915.96577 -4838.84870 -4782.70542 -4738.11817 -4705.04736 -4605.26886 -4431.55451 -4115.86142 -3134.67221 -2627.23342 -1978.04980 -1591.89643 -1127.69620 -906.35940 -690.13688 -569.67544 -373.24878 -333.50933 -258.50468 -197.85097 -107.61679 -38.23945 -32.14906 -2.96913 24.72391 33.55910 30.26661 27.82043 47.15449 28.99706 83.87241 73.22621 154.10059 297.17728 358.91883 474.92044 892.95032 1301.27532 1554.33441 1753.28987 1716.71826 1329.46784 1289.53067 1050.29804 716.41080 772.13856 463.01349 -80.24981 -258.39479 -1548.23813 -3225.64849 -3780.36364 -3158.16109 -3348.81470 -3391.45771 -3320.98410 -3185.82021 -2999.27036 -3000.60824 -3012.93032 -3036.53347 -3055.64652 -3103.94104 -3141.36247 -3199.88059 -3265.43938 -3338.66518 -3388.62893 -3437.21470 -3494.56157 -3539.56601 -3561.32356 -3575.78521 -3587.76883 -3588.69976 -3585.86823 -3580.28635 -3564.78155 -3539.24482 -3518.54721 -3510.96766 -3473.91413 -3449.19421 -3427.96130 -3412.12009 -3399.33889 -3373.98464 -3347.76358 -3323.63112 -3322.77294 -3313.02704 -3312.00019
-5684.83218 -5680.45664 -5710.81791 -5756.02295 -5781.01257 -5819.74516 -5828.02384 -5865.51374 -5864.17564 -5899.25872 -5885.54668 -5898.97142 -5904.00750 -5904.39386 -5890.00232 -5888.69055 -5895.30211 -5887.25034 -5882.10954 -5873.84121 -5866.12774 -5862.42018 -5862.14991 -5853.00612 -5850.52948 -5851.96630 -5839.45332 -5834.44498 -5825.82629 -5808.92901 -5789.30013 -5799.93233 -5778.49223 -5757.93825 -5763.84449 -5747.83554 -5730.52359 -5709.52081 -5683.37549 -5659.05913 -5635.72045 -5599.31054 -5578.30047 -5519.66139 -5484.58242 -5422.80379 -5353.83357 -5256.61524 -5170.94425 -5104.66973 -5010.08215 -4932.96639 -4830.01054 -4691.47186 -4537.40749 -4515.34616 -4542.13021 -4426.17228 -3999.27186 -3329.99414 -2993.44646 -2138.31522 -1698.50508 -1362.08778 -1092.03204 -810.28168 -566.79851 -464.89859 -360.25846 -291.03622 -194.61927 -103.55967 -21.67621 0.36668 43.55647 52.86904 61.69506 63.52183 119.63782 123.02034 87.70288 355.42432 724.43298 511.21310 581.89634 786.21913 1026.18206 1207.89083 1404.34508 1491.80775 1546.11123 1079.89942 711.84073 796.27957 769.27081 208.29784 250.47828 136.39640 -623.50372 -840.36154 -2701.89540 -3859.71562 -3838.59209 -3607.42758 -3430.74454 -3328.10456 -3158.91216 -3039.19342 -3019.30140 -3021.02826 -3058.48651 -3079.68296 -3110.54294 -3141.25402 -3178.59175 -3233.49550 -3307.67555 -3380.51886 -3435.37493 -3500.79522 -3545.14319 -3555.82754 -3590.55177 -3588.31253 -3590.06160 -3591.54318 -3575.82431 -3553.41884 -3535.39273 -3517.56369 -3496.27618 -3470.19330 -3453.35410 -3432.99626 -3411.23260 -3383.29639 -3373.73961 -3353.66597 -3337.29519 -3320.85492 -3320.78552 -3298.95312 -3302.12487
-5752.12426 -5754.53598 -5781.23817 -5801.35623 -5842.51511 -5866.16546 -5912.72567 -5898.26052 -5926.93460 -5924.03808 -5941.18391 -5932.93715 -5935.84088 -5930.56037 -5922.52307 -5915.62319 -5908.58320 -5909.58888 -5900.67943 -5894.50423 -5888.21039 -5879.06408 -5875.03712 -5865.50998 -5858.08818 -5856.88257 -5848.80298 -5837.43759 -5830.89685 -5819.60474 -5809.70073 -5809.03904 -5809.77266 -5787.86986 -5778.74487 -5769.36682 -5751.67373 -5735.45661 -5722.19857 -5706.09676 -5657.91553 -5636.16422 -5603.55239 -5548.01960 -5515.06016 -5436.39949 -5395.94864 -5319.84870 -5243.99957 -5026.48653 -4765.82256 -4449.09668 -4240.62180 -4253.73736 -4002.00184 -4359.72745 -4482.18815 -4443.17203 -4209.53386 -3967.96633 -3178.00605 -2917.88873 -1629.60273 -1241.32791 -1035.93536 -739.47067 -677.05713 -543.50108 -360.11738 -245.16591 -216.30629 -41.91101 -11.80664 43.25771 178.95321 246.58581 319.83750 274.23063 276.58006 437.82355 388.88301 674.55002 955.15782 1099.76919 1043.90801 814.40293 736.77241 915.87734 1063.87414 852.02416 848.13507 666.26974 484.29297 437.12403 309.76930 -16.62325 -163.25360 -413.58383 -1352.59232 -1872.25067 -2923.46336 -3688.56756 -3564.95097 -3392.65486 -3202.73640 -3180.21627 -3088.47405 -3050.11158 -3046.70886 -3074.94970 -3110.22760 -3138.62165 -3149.78560 -3177.58199 -3248.79206 -3302.42192 -3358.69414 -3401.13337 -3471.92521 -3515.19699 -3552.39037 -3578.19479 -3589.93152 -3599.59231 -3584.57384 -3567.11782 -3565.98761 -3529.58219 -3513.72114 -3500.77022 -3465.67944 -3452.07801 -3420.73178 -3401.61978 -3395.73124 -3363.82877 -3354.97843 -3338.84143 -3332.73081 -3316.30473 -3299.51547 -3298.96063 -3298.66907
-5810.79297 -5805.74958 -5830.51024 -5851.40571 -5871.15492 -5899.94148 -5929.29428 -5929.14138 -5952.91833 -5948.90190 -5929.90386 -5945.31443 -5932.03557 -5926.12428 -5924.33788 -5927.37078 -5921.51401 -5914.04543 -5913.37776 -5890.96038 -5883.23745 -5887.22213 -5881.99401 -5864.01130 -5857.17618 -5848.12797 -5839.07913 -5830.42830 -5824.95217 -5809.85186 -5800.75556 -5809.77133 -5802.66291 -5790.63336 -5773.97543 -5768.85457 -5759.24348 -5749.77332 -5733.66404 -5717.97969 -5701.87892 -5650.06284 -5619.75822 -5585.93395 -5533.95399 -5501.10155 -5445.46210 -5384.67856 -5317.40608 -4752.96467 -4117.63920 -3452.92349 -2783.95876 -2832.43292 -2786.76522 -3634.12290 -4190.16762 -4239.06285 -4218.74981 -3919.52599 -3708.04913 -3210.65923 -1955.90854 -1385.25897 -1000.21397 -909.77211 -685.98413 -467.14307 -290.33176 -170.26206 -112.76406 119.17478 363.38070 442.67721 605.31029 670.40896 739.21181 870.12382 811.75954 920.98681 1107.33170 908.32731 944.00555 996.04294 773.53357 508.58229 328.90108 470.05198 470.94534 513.86727 473.40950 438.80234 311.18897 148.30755 28.99045 -802.16601 -1520.96898 -1075.22252 -1803.22969 -3099.89867 -3525.53585 -3487.62459 -3395.70848 -3229.38422 -3180.43190 -3144.37473 -3085.48163 -3064.74123 -3067.55534 -3093.93631 -3149.77289 -3199.86085 -3206.58517 -3223.25956 -3287.62648 -3341.31084 -3393.55137 -3446.82355 -3500.12026 -3532.51918 -3566.88602 -3587.88880 -3598.08608 -3593.75409 -3571.71469 -3556.99841 -3537.61950 -3504.16779 -3486.11216 -3453.94923 -3447.09256 -3415.72025 -3394.23694 -3381.01086 -3361.02737 -3349.79411 -3347.23247 -3327.45609 -3317.26221 -3310.14850 -3306.09124 -3297.46946 -3290.81121
-5848.12448 -5852.40142 -5874.57795 -5891.94528 -5921.10197 -5933.29155 -5938.22897 -5944.41445 -5946.49807 -5944.17853 -5943.39968 -5929.27875 -5933.15150 -5914.61792 -5913.45083 -5902.97559 -5911.52350 -5905.79449 -5899.66943 -5890.75765 -5875.59694 -5863.59933 -5862.88916 -5852.01179 -5839.17178 -5826.73221 -5825.24461 -5819.06710 -5811.96425 -5788.14853 -5782.15378 -5778.63818 -5781.37821 -5779.84867 -5783.02710 -5771.89190 -5756.79732 -5748.95904 -5747.30782 -5719.71861 -5695.16066 -5664.56948 -5633.55418 -5610.75419 -5573.90012 -5538.47400 -5477.47605 -5382.30091 -5181.30603 -4374.18650 -3340.37897 -2645.34371 -2116.42702 -2016.87528 -2105.25186 -2970.59333 -3276.82460 -4013.66229 -4201.15554 -3832.06997 -3496.86618 -3029.17714 -2145.37672 -1700.91814 -1195.13123 -929.51996 -874.81320 -572.96348 -339.81408 -109.12702 -39.26302 102.46819 470.69450 923.60669 1166.12647 1209.97721 1319.89093 1535.08945 1393.63439 1251.53458 1196.13898 816.11323 660.72514 694.42109 283.18245 285.31404 157.37493 272.60531 225.71960 357.24996 163.24153 40.88363 7.14906 -0.26478 -1303.25795 -2759.28111 -2950.84318 -2535.84967 -2885.20229 -3322.14978 -3545.50149 -3491.96518 -3320.57837 -3231.38012 -3180.49878 -3135.31574 -3113.78487 -3095.48503 -3105.35291 -3119.94731 -3194.83183 -3229.22298 -3259.93938 -3289.61115 -3345.92849 -3370.94328 -3429.47015 -3466.82256 -3529.45723 -3557.00347 -3587.93108 -3588.74557 -3586.13305 -3564.09915 -3562.16997 -3545.55702 -3513.63167 -3482.06209 -3464.74088 -3427.80428 -3417.95044 -3400.88113 -3378.22014 -3365.14209 -3344.50833 -3339.40048 -3316.34432 -3313.41497 -3311.59714 -3296.68418 -3289.10294 -3292.37312 -3281.40010
-5892.75318 -5871.39594 -5899.93150 -5912.05644 -5926.59117 -5944.16991 -5943.32947 -5934.79335 -5933.71149 -5934.74183 -5927.13561 -5924.60827 -5917.30176 -5916.94774 -5902.12050 -5890.37832 -5896.82937 -5877.30649 -5880.13611 -5856.50991 -5864.18534 -5835.40079 -5844.57701 -5824.81188 -5815.47133 -5808.44391 -5801.01515 -5782.80141 -5781.74192 -5770.67681 -5766.84125 -5766.05162 -5759.01328 -5767.77622 -5765.73686 -5758.18456 -5752.74934 -5749.82868 -5739.98079 -5722.08380 -5692.48975 -5648.79277 -5645.16778 -5634.32799 -5607.31195 -5550.59551 -5471.88328 -5327.62101 -4709.20323 -3840.04258 -2733.40907 -2166.57865 -1682.57760 -1599.55384 -1764.27366 -2175.11639 -3085.03981 -3051.93317 -3187.44246 -2636.49490 -2237.44099 -1916.58699 -1841.82768 -1197.09100 -943.83620 -965.92482 -849.35775 -660.14097 -278.13157 -27.03684 63.34363 256.22495 625.88941 852.90413 1066.37267 1118.67439 1082.08882 1252.29383 925.32204 899.62985 637.44945 366.76060 260.58151 145.96835 109.14737 185.63501 63.48517 160.44778 76.73087 105.82103 -248.50613 -370.72240 -879.77435 -950.12087 -1383.00174 -2511.00774 -3434.05858 -3288.21613 -3547.58808 -3583.48746 -3559.98040 -3466.91632 -3348.02020 -3236.24807 -3200.38591 -3173.45505 -3136.11661 -3121.29912 -3136.33909 -3181.62713 -3247.19830 -3291.24280 -3291.06718 -3307.72989 -3364.87157 -3413.69908 -3456.74670 -3526.98577 -3551.34649 -3578.18252 -3580.12468 -3578.02650 -3580.43175 -3560.44562 -3544.83022 -3521.30448 -3490.92727 -3451.02184 -3446.46360 -3412.63198 -3397.58041 -3378.01473 -3356.63476 -3344.33010 -3325.61783 -3323.26071 -3315.05983 -3306.78926 -3305.74692 -3294.17521 -3290.79783 -3285.18579 -3288.67646
-5906.67580 -5897.72332 -5915.64417 -5922.19731 -5929.72942 -5945.02281 -5946.74012 -5936.47737 -5926.63207 -5922.58967 -5914.36695 -5902.93038 -5904.50556 -5889.57124 -5879.74482 -5888.68705 -5875.47074 -5868.16486 -5851.26454 -5843.68934 -5839.57693 -5816.45230 -5806.09460 -5791.58353 -5789.73502 -5771.51350 -5760.55181 -5747.98828 -5738.49394 -5736.87505 -5729.60084 -5727.09149 -5734.57538 -5741.01333 -5737.73651 -5737.16123 -5736.60906 -5729.20239 -5732.03660 -5716.84965 -5669.29224 -5647.04968 -5648.66577 -5623.06669 -5564.29234 -5479.38613 -5335.87373 -4970.12057 -4249.64284 -3186.37607 -2497.50406 -1747.00866 -1610.19706 -1520.13804 -1568.48569 -1782.43527 -1962.99751 -2129.49221 -2068.23308 -1872.67427 -1472.68976 -1302.02170 -1069.26753 -872.01912 -823.43720 -751.45694 -728.32415 -537.69499 -266.81750 -67.42067 -49.49531 11.87156 235.86640 431.63650 302.29092 559.03291 358.31506 388.73626 499.94036 397.05651 96.45718 189.83516 120.52232 108.15764 18.37196 65.73568 43.97024 37.31350 31.64484 -193.96013 -509.97936 -639.19015 -1723.95659 -2255.11578 -1799.72812 -3287.01304 -3575.06407 -3627.79898 -3622.08560 -3600.31798 -3529.19598 -3437.53899 -3325.57141 -3259.75387 -3215.88329 -3197.56295 -3164.07795 -3149.04447 -3183.75928 -3194.08063 -3267.65263 -3330.66178 -3334.98349 -3359.94131 -3411.59560 -3432.65442 -3493.14111 -3544.29808 -3566.61070 -3580.65867 -3584.98618 -3574.16287 -3567.42997 -3550.96751 -3526.11288 -3486.67884 -3465.99113 -3424.14170 -3410.70182 -3389.75852 -3371.27124 -3348.08471 -3340.55192 -3331.38383 -3318.67050 -3311.79040 -3306.57739 -3299.52485 -3301.32732 -3295.50134 -3288.19492 -3288.83884 -3292.73170
-5908.78185 -5913.74365 -5918.02435 -5918.72781 -5935.40058 -5933.17533 -5927.68772 -5910.49621 -5916.19397 -5901.17430 -5893.21042 -5899.35732 -5874.75768 -5864.94639 -5864.06046 -5855.66639 -5842.60558 -5836.54892 -5818.04467 -5809.26673 -5802.26097 -5792.22087 -5769.95408 -5775.95877 -5755.97532 -5739.17920 -5728.16388 -5717.39803 -5706.94449 -5699.51619 -5703.83293 -5707.31395 -5714.61643 -5720.11123 -5716.14558 -5720.77077 -5717.78805 -5726.90354 -5718.07908 -5703.48021 -5670.79436 -5641.47568 -5623.61085 -5592.21237 -5394.45973 -5087.17377 -4834.42372 -3960.26122 -3460.42276 -2495.56894 -1977.77979 -1690.13453 -1539.33966 -1476.98866 -1446.59036 -1497.32100 -1555.86413 -1492.69263 -1407.79289 -1206.38406 -1010.44274 -941.04076 -904.91068 -698.03772 -555.09760 -447.54511 -386.75686 -371.08902 -225.77065 -165.66627 -140.65589 -71.78430 -25.12337 -5.92009 56.65626 59.20310 90.24177 79.59677 104.36364 -6.19272 -39.72749 53.72040 97.03297 66.60485 -25.32456 -118.96003 -124.60653 -159.76235 -993.80150 -2108.96526 -3308.86369 -2544.06596 -2316.20596 -3099.08414 -2754.14784 -3559.65836 -3628.64426 -3627.97940 -3594.45765 -3553.12317 -3502.27407 -3409.17514 -3324.24293 -3278.34286 -3233.75090 -3202.83580 -3185.44149 -3197.41571 -3205.89254 -3262.18914 -3345.78926 -3375.19737 -3371.70348 -3398.02539 -3431.44274 -3474.88261 -3511.04650 -3548.60620 -3571.72768 -3580.53050 -3587.71422 -3558.07041 -3539.20764 -3530.11621 -3504.86617 -3467.80140 -3444.54814 -3421.01006 -3379.66917 -3383.89714 -3354.32293 -3337.57504 -3328.67877 -3327.49794 -3315.59856 -3309.66509 -3306.65605 -3292.81343 -3292.03847 -3299.29273 -3287.86710 -3287.67171 -3286.79399
-5909.11897 -5906.01879 -5917.84400 -5922.10861 -5908.79550 -5915.47638 -5911.44454 -5901.70980 -5894.41788 -5886.81719 -5878.28476 -5868.57660 -5863.12851 -5851.26466 -5842.11434 -5833.69210 -5824.97156 -5808.84773 -5797.59726 -5786.50912 -5784.68119 -5755.44696 -5744.03279 -5747.13246 -5724.38914 -5712.00823 -5697.22913 -5698.13837 -5682.89431 -5679.08064 -5674.05736 -5663.88192 -5686.50936 -5692.48669 -5694.08783 -5706.54282 -5707.88977 -5714.79954 -5710.47974 -5707.81874 -5690.02721 -5646.59988 -5608.34352 -5514.35387 -4655.61845 -4284.07437 -3637.39153 -2978.42808 -2383.90974 -2000.49545 -1697.91815 -1596.06300 -1484.68768 -1412.92127 -1398.42655 -1400.14083 -1388.92544 -1350.33642 -1219.19012 -1092.37909 -1005.08221 -924.23583 -786.77620 -505.23343 -344.81702 -245.84678 -92.91136 -71.14850 -161.46646 -230.60767 -292.33706 -140.42168 -121.55985 -88.80860 -35.28077 -51.18473 -30.87029 4.21613 -64.91623 -172.86884 -105.47657 -175.54332 4.26858 -117.34869 -427.22952 -438.71084 -429.17276 -1251.04360 -2237.10331 -3167.34514 -3953.77231 -3480.23665 -3514.26261 -3555.28803 -3551.41451 -3548.11961 -3617.72181 -3603.26836 -3580.18409 -3525.94296 -3485.53567 -3403.31737 -3339.13105 -3288.29680 -3245.16179 -3215.44171 -3212.94162 -3231.87691 -3265.08443 -3322.72288 -3409.76415 -3441.44248 -3423.57655 -3431.61633 -3456.67225 -3495.58368 -3521.55371 -3542.57831 -3560.38342 -3565.12476 -3563.41780 -3537.33597 -3531.62182 -3513.72582 -3467.40376 -3436.05719 -3416.08302 -3393.36958 -3371.43356 -3352.97589 -3333.30631 -3325.13606 -3320.49144 -3309.13293 -3300.42185 -3301.92216 -3298.43737 -3286.80704 -3292.95276 -3298.44814 -3299.34626 -3306.88176 -3295.98738
-5901.50370 -5896.75249 -5904.65584 -5896.23766 -5899.06842 -5896.28738 -5894.19815 -5878.87247 -5873.81827 -5878.06900 -5852.98180 -5854.16132 -5836.25579 -5821.98175 -5810.91842 -5801.40549 -5793.77287 -5783.93681 -5766.46390 -5756.86411 -5737.19355 -5747.83381 -5740.92726 -5707.56416 -5695.74166 -5686.09326 -5678.89500 -5655.64815 -5652.93519 -5649.74654 -5645.65751 -5636.99012 -5649.92365 -5659.75520 -5672.69953 -5686.38420 -5697.73341 -5709.45301 -5708.16876 -5707.30066 -5701.85110 -5688.42092 -5512.01529 -5181.63441 -3886.56255 -3471.00989 -3088.63865 -2340.10782 -1941.90015 -1779.36268 -1583.78044 -1487.07330 -1385.57927 -1430.07320 -1401.54078 -1548.65107 -1494.64585 -1299.81866 -1121.65715 -1088.10332 -1021.06055 -979.29444 -905.89146 -461.92811 -211.57032 -80.90145 290.65480 425.93491 137.59474 -161.92679 -346.38932 -296.04129 -265.32960 -193.55474 -183.17378 -56.58998 -50.92482 -227.88873 -317.86679 -341.45802 -571.83122 -1279.38540 -813.45737 -1488.35848 -2584.62532 -2610.29723 -2767.86259 -3365.71391 -3761.46859 -3838.79448 -4028.94211 -3836.35983 -3837.74317 -3801.18010 -3719.20368 -3679.04405 -3616.22488 -3616.07084 -3573.27603 -3519.62700 -3458.71686 -3416.94642 -3339.00339 -3295.18826 -3263.41596 -3232.95184 -3233.69387 -3252.39337 -3302.17697 -3385.65289 -3451.20071 -3457.83187 -3452.17990 -3471.79419 -3480.29788 -3508.24933 -3522.95436 -3541.27517 -3561.25161 -3546.53731 -3543.21551 -3530.09978 -3507.61610 -3480.64164 -3444.25347 -3431.86780 -3405.47904 -3378.69783 -3364.52501 -3349.65932 -3322.11718 -3318.52605 -3309.78114 -3313.41683 -3302.65951 -3300.49775 -3305.41168 -3293.00132 -3297.05984 -3298.79771 -3300.32595 -3299.44956 -3302.42320
-5884.75221 -5883.10761 -5893.18575 -5878.69560 -5877.78304 -5883.76511 -5867.61176 -5860.97885 -5862.64985 -5847.70246 -5842.24886 -5827.64709 -5814.21601 -5809.06168 -5794.42992 -5783.70371 -5771.94912 -5756.84606 -5753.88751 -5740.84215 -5741.53347 -5728.65054 -5703.05139 -5685.96648 -5671.11257 -5656.40290 -5643.10971 -5631.40313 -5620.87594 -5613.19361 -5624.91568 -5630.55008 -5629.79654 -5653.35055 -5659.13372 -5682.36475 -5698.24470 -5699.84491 -5721.17568 -5714.66762 -5715.79887 -5706.43550 -5228.82730 -4595.32029 -3671.04347 -2623.57255 -2097.27799 -1862.66780 -1716.62267 -1624.02470 -1464.79052 -1416.69989 -1471.24304 -1611.33731 -1997.42267 -2012.65856 -1739.81921 -1355.57253 -1139.74735 -1135.95930 -1080.50799 -1130.07416 -1043.28315 -266.01401 -58.45377 263.78995 640.28067 734.41687 452.13424 -216.83995 -751.16686 -821.35142 -898.92594 -959.43309 -818.29354 -486.02829 -411.43975 -592.11548 -895.46249 -1649.13061 -1825.50879 -1965.58546 -2506.65731 -2824.70222 -3785.43841 -4015.67211 -3941.36507 -3975.21381 -4105.54675 -4013.74124 -3946.65710 -3866.51575 -3851.62664 -3781.05801 -3726.39050 -3691.15998 -3627.40810 -3622.93169 -3574.49270 -3509.39281 -3438.25501 -3410.67152 -3340.90060 -3302.03629 -3272.38194 -3252.98329 -3280.18637 -3291.24494 -3374.79280 -3432.19358 -3505.20124 -3502.33966 -3485.56830 -3489.74889 -3486.74336 -3505.58972 -3521.84175 -3536.91898 -3543.27498 -3532.34705 -3537.15617 -3512.00429 -3482.99143 -3470.58381 -3440.44313 -3404.54347 -3381.70622 -3365.11723 -3345.46844 -3332.83255 -3324.50539 -3314.78248 -3308.92694 -3300.68561 -3300.46496 -3294.90196 -3299.90892 -3300.15136 -3293.23466 -3303.14901 -3306.62794 -3301.66073 -3302.06598
-5867.57551 -5878.64468 -5868.98510 -5870.60034 -5867.60393 -5860.96330 -5856.91256 -5847.98503 -5844.35327 -5827.97019 -5823.37227 -5816.44339 -5796.27634 -5798.74042 -5785.69918 -5768.66195 -5759.69863 -5746.22255 -5732.21545 -5724.42740 -5713.89161 -5701.36716 -5695.52506 -5680.32282 -5662.02120 -5654.42877 -5636.52978 -5613.24861 -5600.19127 -5592.33793 -5590.20633 -5592.60256 -5607.34178 -5626.18554 -5646.20942 -5662.40221 -5670.91312 -5715.01251 -5716.45126 -5730.15032 -5726.37943 -5613.95280 -4982.29383 -4249.15538 -3039.50163 -2184.50280 -1962.48699 -1776.44285 -1757.49421 -1652.06830 -1519.05558 -1387.02781 -1725.54166 -2204.28138 -2873.80491 -2932.62265 -2630.07772 -1656.37168 -1370.34545 -1409.66673 -1706.62975 -1529.97609 -1613.10948 -728.28715 56.11724 560.06559 715.84540 603.02494 327.02292 -579.97620 -1381.88692 -1482.59621 -1850.17527 -1954.17734 -2239.73719 -1601.20820 -1288.79384 -2268.46540 -3160.14474 -3777.97975 -3485.84746 -4181.91726 -4135.44302 -4291.73587 -4271.44186 -4203.59165 -4168.47757 -4104.42458 -4026.63989 -3936.21040 -3856.54607 -3804.87119 -3766.13092 -3727.83160 -3705.64731 -3671.85177 -3654.77013 -3612.78188 -3552.91999 -3500.14613 -3445.55517 -3391.32191 -3354.51974 -3299.88360 -3284.59435 -3298.19327 -3313.43455 -3358.05207 -3400.37718 -3493.62336 -3566.73926 -3550.81703 -3526.84883 -3504.26450 -3518.18618 -3511.10207 -3517.14384 -3525.67835 -3537.74119 -3524.89563 -3520.64057 -3493.52772 -3473.55743 -3446.68568 -3424.58052 -3390.58440 -3368.63847 -3355.38355 -3329.60596 -3329.60687 -3311.47504 -3309.62934 -3301.46906 -3302.05091 -3307.41908 -3294.90998 -3301.38179 -3299.75119 -3300.48539 -3305.17442 -3303.57937 -3314.65473 -3309.88138
-5857.69837 -5850.34199 -5853.27482 -5849.84039 -5849.03240 -5848.34971 -5842.21277 -5833.15613 -5833.94717 -5821.40610 -5810.24957 -5797.48071 -5784.57454 -5773.69771 -5766.83591 -5758.84422 -5741.92999 -5742.07049 -5724.95482 -5720.71125 -5715.61842 -5699.87333 -5682.30670 -5663.70283 -5654.11810 -5631.80331 -5612.67657 -5604.50901 -5575.14173 -5567.71387 -5574.38982 -5569.67362 -5589.25805 -5598.86607 -5631.69875 -5654.18535 -5668.23479 -5711.40298 -5716.69288 -5730.89007 -5711.86253 -5510.59340 -4851.49181 -3764.61783 -2477.85806 -2019.48606 -1817.63204 -2068.91015 -2189.01678 -1926.94427 -1630.16585 -1764.71655 -2350.13352 -3173.15151 -3862.04468 -3815.93586 -3174.55323 -2270.51020 -2095.80527 -2346.06168 -2589.42461 -3362.73703 -2789.90412 -2731.78199 -1752.03637 366.08989 378.33603 -61.35717 -1494.08010 -1972.32386 -2077.15030 -2082.23510 -2098.79396 -2398.62950 -2724.04141 -2852.83324 -3359.34370 -3781.91778 -3759.22675 -4283.87795 -4292.52065 -4200.10108 -4255.89226 -4163.01412 -4108.92253 -4002.53388 -3971.48144 -3935.99516 -3914.22015 -3850.66972 -3813.88195 -3775.80793 -3743.16679 -3733.28461 -3712.36958 -3682.67203 -3656.54229 -3615.50945 -3557.62504 -3504.23552 -3448.49455 -3395.41289 -3344.56426 -3327.52110 -3315.07910 -3316.47491 -3338.86008 -3391.95436 -3441.88522 -3564.95065 -3617.74457 -3600.38526 -3548.02746 -3531.66779 -3527.77958 -3516.16315 -3518.51518 -3515.42524 -3512.26788 -3510.02753 -3499.30161 -3487.11691 -3467.94893 -3428.18382 -3397.08649 -3386.67882 -3358.82118 -3344.81306 -3331.31178 -3322.82018 -3314.48397 -3305.46916 -3301.91638 -3303.34339 -3302.80112 -3291.24683 -3309.87778 -3315.85834 -3306.24586 -3322.57113 -3319.02842 -3322.67280 -3314.93781
-5845.13124 -5833.56627 -5839.57556 -5836.45336 -5831.99843 -5829.53091 -5830.67074 -5822.56470 -5817.19536 -5813.00503 -5802.59057 -5787.36099 -5791.03604 -5772.49220 -5757.97481 -5743.58682 -5740.36126 -5737.02432 -5716.57777 -5700.88352 -5700.80961 -5689.93159 -5665.90630 -5657.97933 -5639.02279 -5621.41016 -5601.07004 -5594.31786 -5582.10099 -5558.05457 -5561.97733 -5560.33846 -5566.80546 -5583.42600 -5610.34288 -5622.13923 -5661.96603 -5697.19175 -5710.90555 -5724.40782 -5675.60014 -5191.48575 -4876.81330 -3149.78572 -2340.08412 -2157.45454 -2471.52170 -2807.28837 -3163.25696 -2959.91346 -2223.01997 -1962.54510 -2542.60029 -3349.51116 -4362.30023 -4380.85756 -3982.05500 -3403.72528 -3326.84599 -3712.50406 -3968.20861 -4179.98788 -4293.41149 -4071.57613 -3404.50853 -2404.95832 -2359.63812 -1902.56753 -2863.37461 -2857.96492 -3181.58440 -2756.27862 -2922.33323 -3335.51607 -3505.90480 -3829.86291 -4100.21690 -4233.79437 -4256.60143 -4234.73194 -4222.59136 -4189.44470 -4118.17357 -4090.06324 -4016.20983 -3993.42684 -3947.34544 -3911.12425 -3882.83917 -3862.45856 -3836.50018 -3793.21611 -3772.38234 -3740.61356 -3728.89409 -3708.19233 -3656.94278 -3604.86006 -3544.92832 -3486.95317 -3450.06790 -3397.78392 -3364.02741 -3334.98392 -3339.56536 -3362.61751 -3396.44983 -3445.93292 -3531.13052 -3602.66490 -3644.11659 -3627.87122 -3576.42549 -3540.16196 -3529.30932 -3506.22075 -3500.93042 -3504.81410 -3500.00631 -3493.81984 -3477.64216 -3465.41057 -3451.06330 -3417.64894 -3389.41317 -3376.11777 -3352.40798 -3341.76814 -3331.73011 -3319.74268 -3311.78601 -3306.53338 -3305.39294 -3301.29948 -3304.74683 -3304.77906 -3299.11796 -3311.36739 -3317.66110 -3322.36339 -3320.92063 -3322.02269 -3328.02582
-5822.77846 -5826.55168 -5827.44516 -5831.74044 -5820.72554 -5818.24052 -5821.87384 -5821.25119 -5806.30797 -5798.40325 -5799.93529 -5776.16570 -5781.51349 -5761.90234 -5746.62468 -5737.98300 -5730.97727 -5715.34996 -5711.72430 -5703.83655 -5694.57548 -5680.60420 -5662.19779 -5648.33906 -5637.78906 -5617.90198 -5597.48496 -5582.06468 -5556.25057 -5551.35710 -5542.91890 -5551.98862 -5547.24399 -5553.52265 -5592.30817 -5612.56480 -5636.60381 -5675.98221 -5698.70799 -5717.03334 -5604.75261 -5057.36480 -4468.39817 -3240.21411 -2752.64921 -3008.05036 -3473.71262 -3899.34199 -4049.07868 -4063.98436 -3024.55042 -2328.66830 -2688.16215 -3398.23761 -4520.45315 -4779.19166 -4672.33983 -4474.32316 -4442.90512 -4568.58531 -4681.69144 -4772.30490 -4763.04817 -4611.17907 -4618.33454 -4314.81175 -4232.76317 -4484.41656 -4415.82086 -4118.05271 -3872.91752 -4196.80385 -4018.73020 -3916.42498 -4008.79640 -4222.00060 -4250.34209 -4280.54869 -4257.71867 -4220.46148 -4183.47721 -4135.31520 -4116.07149 -4064.07118 -4016.23051 -3989.03334 -3954.74491 -3921.34740 -3902.37889 -3888.51262 -3854.96817 -3804.21798 -3789.73986 -3767.52507 -3745.85055 -3711.61637 -3652.85021 -3592.24089 -3543.26595 -3497.40534 -3451.00233 -3403.97809 -3367.41012 -3355.97204 -3358.62006 -3383.62491 -3426.86758 -3481.58443 -3576.58325 -3610.31917 -3669.35713 -3624.80398 -3592.35978 -3537.83715 -3510.36394 -3495.74986 -3483.61064 -3480.12257 -3488.62641 -3468.62747 -3449.87683 -3454.13192 -3434.75370 -3402.99556 -3374.01801 -3357.21123 -3338.98820 -3331.82045 -3324.91382 -3307.56878 -3310.77482 -3310.03611 -3308.74437 -3304.25372 -3304.11655 -3306.59703 -3310.43502 -3319.71778 -3321.36621 -3326.18495 -3335.86101 -3334.98010 -3320.36768
-5817.23511 -5819.66094 -5820.66769 -5808.20356 -5819.51516 -5808.10481 -5812.39623 -5807.02670 -5802.06316 -5799.73683 -5800.19283 -5777.40895 -5771.12745 -5759.14525 -5748.34939 -5737.67485 -5722.18070 -5704.95873 -5705.34767 -5689.63925 -5680.27486 -5676.85559 -5654.70343 -5643.33158 -5628.87436 -5604.75895 -5573.97093 -5564.96207 -5548.19336 -5546.23693 -5533.22295 -5533.63266 -5536.14812 -5550.78432 -5562.71117 -5593.02330 -5639.80136 -5639.65715 -5677.15393 -5695.98443 -5561.40108 -5274.87770 -4369.07795 -3643.76421 -3374.39536 -4080.63946 -4466.06542 -4798.97848 -4983.67888 -4612.92173 -4410.39057 -3428.94458 -3131.64374 -3685.45352 -4267.27380 -4733.15243 -4783.40431 -4806.85078 -4833.60880 -4881.59844 -4856.79032 -4839.72910 -4788.31564 -4766.97768 -4710.57866 -4683.52506 -4627.51407 -4570.51227 -4521.98900 -4440.66197 -4322.34222 -4334.12261 -4235.05092 -4296.05441 -4286.37043 -4294.76057 -4296.18179 -4276.22169 -4243.04692 -4203.08738 -4170.85776 -4141.25772 -4101.24461 -4056.44630 -4016.97279 -3998.45942 -3954.83309 -3921.65747 -3905.67383 -3885.84056 -3859.42148 -3838.82486 -3799.72961 -3779.62521 -3730.73746 -3675.30207 -3638.31085 -3598.88141 -3535.73893 -3492.25112 -3453.19081 -3419.34288 -3381.40016 -3380.51250 -3393.79577 -3425.85454 -3447.41409 -3531.99279 -3594.48759 -3667.57885 -3679.62981 -3632.11105 -3593.56392 -3522.67461 -3495.75208 -3479.37910 -3460.86715 -3459.08037 -3466.50596 -3455.77324 -3454.82228 -3450.06814 -3405.63085 -3386.94708 -3365.74924 -3345.15534 -3340.21125 -3325.43103 -3318.99876 -3319.39229 -3309.74093 -3306.95795 -3314.85209 -3317.86492 -3314.34237 -3319.99394 -3316.39100 -3315.47448 -3327.71626 -3324.42251 -3336.70562 -3347.89234 -3342.01664
-5807.81218 -5807.72199 -5806.47549 -5804.41944 -5806.64298 -5805.81149 -5802.48476 -5809.18501 -5799.04535 -5791.30442 -5784.00390 -5773.71831 -5753.98937 -5747.86650 -5737.81742 -5723.15979 -5709.52757 -5710.30606 -5686.98043 -5677.58318 -5675.84777 -5656.08605 -5639.81326 -5635.12867 -5622.58747 -5606.86814 -5580.11681 -5573.95877 -5546.14232 -5530.28706 -5522.31148 -5519.39839 -5514.65953 -5533.48788 -5530.45063 -5562.65618 -5605.37616 -5629.75753 -5644.05574 -5666.06850 -5622.42086 -5326.71866 -4755.06030 -4265.39331 -4442.66347 -4664.83807 -5182.78541 -5334.95846 -5257.55907 -5167.37437 -4589.95382 -4056.25937 -3611.92121 -3838.03374 -4043.83196 -4651.11388 -4827.47483 -4883.65850 -4861.70159 -4840.72039 -4842.84188 -4848.62335 -4795.57800 -4766.22310 -4716.58661 -4673.44094 -4645.74055 -4566.46757 -4521.71167 -4470.36592 -4425.76464 -4392.16656 -4362.17367 -4338.27119 -4328.87409 -4307.05668 -4287.31215 -4255.78613 -4231.40036 -4201.43838 -4157.02568 -4129.73064 -4102.02200 -4071.53039 -4029.84259 -3999.04344 -3958.89858 -3931.70014 -3906.21101 -3880.59245 -3852.62362 -3842.27431 -3810.72469 -3766.15039 -3729.09335 -3667.59559 -3629.54234 -3598.30742 -3544.72922 -3510.09460 -3460.90317 -3444.63941 -3415.88730 -3407.67950 -3421.00121 -3436.52717 -3502.48326 -3554.65060 -3617.11413 -3686.29130 -3692.48501 -3635.28936 -3578.41659 -3515.79465 -3477.30772 -3454.28093 -3440.66566 -3441.84048 -3457.46685 -3443.88968 -3448.40521 -3433.21267 -3396.72114 -3363.13055 -3350.63951 -3348.87198 -3336.80224 -3327.24245 -3320.69478 -3312.95762 -3319.27302 -3312.98541 -3316.71111 -3315.33736 -3317.96602 -3321.82984 -3322.39626 -3329.11593 -3334.03694 -3333.01163 -3342.87439 -3346.86750 -3348.23844
