-4072.70399 -4072.60399 -4088.67420 -4060.60158 -4085.05177 -4032.77011 -4012.26181 -4003.24070 -3989.45641 -3974.84445 -3981.46497 -3963.68789 -3977.58717 -3976.87288 -3984.04581 -3998.74382 -3994.09237 -4001.71148 -3990.05406 -3988.42169 -3990.33122 -3988.88764 -3978.64470 -4115.68477 -4331.34524 -4027.46884 -4330.03920 -5011.42451 -5322.82873 -5524.94342 -5373.07006 -4897.01363 -4591.77125 -3952.98470 -3348.60479 -2958.97252 -2505.15295 -2383.27916 -2425.28534 -2397.07146 -2520.12779 -2536.53341 -2822.69214 -3282.07411 -3693.87664 -4245.14413 -4689.57034 -5080.43000 -5412.65220 -5422.69268 -5399.66339 -5624.18988 -5592.66842 -5611.20917 -5602.46564 -5579.23877 -5557.97124 -5544.20543 -5489.91785 -5485.44242 -5474.50495 -5455.36825 -5440.07310 -5378.22964 -5369.34961 -5212.14066 -4994.63412 -5045.19633 -4740.56685 -4781.53588 -4937.57600 -5057.00987 -4432.98435 -4045.12061 -4026.13489 -1766.16710 -754.36703 -436.42069 -125.35599 -76.71689 -10.17720 38.64463 41.40912 64.40648 112.70275 144.57728 124.59136 196.25273 207.28040 205.36823 242.37098 240.53401 248.73115 276.34576 209.32450 218.67757 119.64369 75.43694 -7.45887 -106.98531 -131.24538 -208.53949 -795.59358 -2426.78691 -3271.33399 -3229.46389 -2750.68801 -2697.51801 -2217.62719 -2238.29943 -2619.50996 -3917.16335 -5468.76335 -6077.24830 -6839.23587 -7379.57127 -7940.85939 -8256.03105 -8092.16987 -7708.99031 -7232.12965 -5414.23901 -3862.70197 -3320.44898 -3240.14280 -3287.25354 -3338.95224 -3367.39419 -3383.44897 -3396.26758 -3407.13687 -3429.65029 -3450.58893 -3470.86002 -3485.95609 -3505.61937 -3520.91562 -3530.27982 -3539.94514 -3545.67097 -3549.29262 -3552.39099 -3552.49099
-4244.60954 -4244.50954 -4226.23982 -4196.82919 -4194.05495 -4169.43522 -4093.72769 -4087.52529 -4089.35512 -4077.20297 -4048.91751 -4017.32979 -4018.87450 -4057.94871 -4051.23557 -4081.37481 -4093.18957 -4113.45142 -4071.98322 -4093.79610 -4045.18558 -4019.27488 -3986.80271 -3527.32623 -3253.60440 -3123.58353 -3637.66219 -3715.66818 -4102.12087 -4506.36481 -4499.09950 -3841.54584 -3125.25665 -2506.37236 -2248.47916 -2138.81755 -1871.18560 -1910.67362 -2000.49147 -1994.97990 -2033.63427 -2038.51576 -2256.41454 -2634.75944 -2959.11791 -3354.50756 -3924.76291 -4424.94613 -4943.35654 -4908.88870 -5049.01527 -5288.54016 -5249.29408 -5386.31537 -5445.60304 -5608.45332 -5526.65752 -5524.61157 -5528.85901 -5472.37237 -5472.13578 -5435.93365 -5364.46189 -5232.99027 -5054.39806 -4994.74297 -4650.85003 -4793.83360 -4438.61928 -4359.80323 -4593.78460 -4792.41488 -2948.09136 -1970.51713 -1375.38264 -671.09351 -408.81876 -128.67280 -58.08308 -32.23451 3.40402 43.25638 70.79394 91.83551 113.64697 156.03122 146.32601 206.20342 252.64218 252.15207 283.98369 274.78111 295.87996 277.27656 247.36113 191.85775 179.32505 131.64301 43.57318 -52.17187 -101.18513 -176.17366 -552.43660 -1929.43568 -2854.05215 -3989.24437 -3562.07003 -3378.12448 -2829.27450 -2601.58561 -2927.06421 -4382.00047 -5398.07751 -5659.16671 -6141.42858 -6697.39518 -7329.60118 -7759.65489 -7731.82198 -7078.28390 -6125.09665 -5680.62949 -4083.62402 -3379.08306 -3243.60108 -3277.26284 -3329.21240 -3353.80181 -3373.76400 -3385.26502 -3403.12113 -3413.64199 -3432.99232 -3455.08176 -3474.87651 -3490.31452 -3507.69743 -3522.95192 -3530.81538 -3539.11533 -3540.57259 -3543.81816 -3543.91816
-4472.27951 -4472.17951 -4397.67868 -4401.49829 -4333.14406 -4315.89408 -4275.34331 -4286.84888 -4216.53463 -4227.80024 -4179.74845 -4130.45263 -4213.72405 -4187.87413 -4223.59113 -4195.72697 -4193.48102 -4237.33493 -4238.50547 -4216.05409 -4124.53549 -4039.86693 -3809.75195 -3211.49133 -2598.59275 -2349.80568 -2574.05895 -2820.65853 -3021.38883 -3361.83543 -3594.59092 -3559.84885 -2742.58382 -2254.73494 -1928.08261 -1612.94452 -1305.83687 -1239.38788 -1298.92753 -1098.97550 -1149.72094 -1424.84814 -2241.40121 -2315.92867 -2276.51599 -2530.43814 -2905.68459 -3345.02561 -3807.55077 -3872.81450 -4488.75689 -4359.96894 -4640.65136 -4695.19104 -4997.91792 -5327.16952 -5298.16864 -5324.45220 -5402.62416 -5389.09596 -5401.39228 -5343.94849 -4942.13608 -4810.68612 -4633.35927 -4420.41718 -4388.38638 -4187.08866 -3804.05221 -3631.20130 -3706.27888 -3109.20610 -2415.69708 -721.91978 -306.95445 -245.77914 -117.81818 -82.31086 -17.96447 48.12835 64.60695 89.39493 110.26110 146.57873 176.99584 176.45839 200.05453 225.89663 277.84673 288.57979 340.05681 351.61841 317.57592 233.25354 155.49941 104.88720 100.58528 54.70141 29.26726 -24.76674 -77.70297 -138.68650 -242.35417 -794.00732 -2064.25484 -3459.93204 -3340.08958 -3938.55936 -3855.53631 -3574.41978 -3448.20286 -4387.90581 -4572.42295 -4854.77625 -5383.77874 -5708.46189 -6167.83138 -6654.31007 -6732.61100 -5785.20606 -5276.27993 -4854.20937 -4215.34995 -3452.89649 -3241.00541 -3251.19654 -3316.89620 -3343.32387 -3361.50420 -3371.66163 -3390.58634 -3404.87307 -3428.51337 -3444.62837 -3458.39572 -3482.43090 -3498.02774 -3509.69341 -3520.36748 -3526.12990 -3532.49201 -3535.44391 -3535.54391
-4653.23864 -4653.13864 -4594.96339 -4553.43903 -4559.86266 -4476.56437 -4499.41546 -4398.71026 -4390.33217 -4381.85038 -4359.05044 -4311.90792 -4316.71767 -4371.17298 -4342.38648 -4347.59987 -4477.86156 -4397.66556 -4423.09131 -4382.29357 -4302.41794 -4053.77109 -3733.45881 -2955.34523 -2291.58829 -2195.82977 -2230.79426 -2346.62009 -2353.30102 -2523.33938 -2756.23224 -2639.90153 -2413.27302 -1876.00496 -1495.64703 -997.34031 -570.44590 -561.34037 -623.14984 -615.45787 -554.43717 -1050.64725 -1457.77143 -1532.51690 -1654.58423 -1920.44275 -2059.91033 -2322.30884 -2839.09422 -2849.28803 -3367.92056 -3477.91762 -3647.18336 -4011.50003 -4046.76426 -4665.49702 -5031.59455 -5056.30063 -4871.25711 -4959.55667 -4936.37902 -4972.01544 -4549.50873 -4017.30348 -4144.97088 -3948.87233 -3616.58281 -3754.84894 -3190.65698 -2639.47054 -1856.89635 -1166.55850 -715.41114 -465.42534 -118.56149 -105.27031 -68.33248 -2.80568 35.80316 61.78995 112.69526 136.95245 174.89788 165.70703 184.80359 206.00415 218.91552 265.41835 309.70245 314.04100 356.51019 386.72804 315.71600 230.47820 177.82296 142.52208 155.41025 116.36258 59.24623 -4.78710 -56.93560 -103.18159 -201.13545 -332.63393 -751.19646 -1264.98287 -2116.21299 -3971.00936 -4012.85276 -3978.99268 -3918.54596 -3912.25391 -3978.22245 -4364.39245 -4435.21877 -4360.42182 -4633.69462 -5943.02021 -5414.90321 -4694.39345 -4499.60551 -4275.69358 -3944.70867 -3616.72495 -3252.83747 -3233.73446 -3304.57787 -3332.41723 -3350.61905 -3361.58299 -3378.70278 -3389.35376 -3415.39627 -3432.93891 -3451.95330 -3465.08752 -3484.90775 -3497.30697 -3508.69083 -3518.01107 -3525.13781 -3527.27099 -3527.37099
-4733.10219 -4733.00219 -4716.75756 -4694.78525 -4715.31993 -4672.22005 -4651.07993 -4616.04038 -4630.17426 -4505.73093 -4571.67936 -4546.84333 -4557.87444 -4562.42998 -4571.80677 -4621.54459 -4579.21599 -4640.88920 -4660.26855 -4595.00432 -4449.28893 -4308.86213 -3761.33093 -2933.17760 -2402.22267 -2272.07281 -2267.83925 -2295.11378 -2269.16924 -2235.15357 -2390.91633 -2321.61105 -1923.05289 -1536.68508 -844.81821 -522.56077 -320.56155 -308.20566 -320.75457 -308.61155 -287.20012 -304.65472 -461.87406 -671.58772 -912.98565 -1169.32110 -1335.23279 -1849.69044 -1902.10222 -2080.65862 -2666.07027 -2716.93329 -2636.85283 -2564.65365 -3310.91365 -3534.73917 -4107.34141 -4236.75665 -4320.24306 -4495.69063 -4382.73834 -3927.99343 -3622.06382 -3437.13119 -3452.36562 -3247.17653 -2916.69984 -3193.75245 -2561.25322 -1291.27641 -713.60038 -461.52828 -176.20596 -127.58183 -90.43191 -74.62898 -24.30761 36.77348 69.44851 97.75734 129.19019 177.22804 211.90462 214.59696 238.39287 245.42267 268.36557 298.33961 328.81471 372.89339 379.63876 383.80046 327.70378 259.30709 244.45420 246.45828 215.07759 175.75833 109.17650 86.72427 -17.60080 -94.83087 -150.13786 -228.21942 -276.90840 -704.08017 -1391.93998 -3190.76497 -4119.56537 -4228.28661 -4150.32227 -4242.39598 -4278.30657 -4212.90190 -3941.30050 -3774.00012 -3927.28380 -4290.84599 -3560.52639 -3719.89906 -3911.24926 -3760.33140 -3830.05753 -3718.42375 -3349.02308 -3240.68466 -3275.46183 -3309.88502 -3331.38046 -3348.85391 -3366.29275 -3378.92004 -3398.99795 -3416.68820 -3433.38626 -3449.25059 -3468.94829 -3488.59726 -3498.35227 -3508.35570 -3514.31777 -3519.14626 -3519.24626
-4756.46571 -4756.36571 -4754.87341 -4752.76589 -4753.70338 -4737.84879 -4721.85489 -4714.74284 -4722.36203 -4710.48612 -4673.48131 -4717.54409 -4698.96949 -4716.36404 -4728.50375 -4705.23660 -4735.96713 -4744.87016 -4738.18469 -4683.09269 -4612.93891 -4481.28613 -4068.95635 -3381.38156 -2890.24565 -2704.92093 -2784.83907 -2849.26964 -2341.74448 -2342.08499 -2397.26833 -2302.10012 -1889.81023 -945.87523 -564.85923 -395.64134 -297.66553 -280.05438 -267.19056 -249.92902 -242.77512 -210.79853 -221.91596 -240.82639 -223.56499 -307.78446 -413.53047 -624.03609 -569.36525 -698.72097 -1614.29543 -1592.57027 -1646.73785 -1907.68460 -2971.87124 -2860.89538 -2981.47324 -3038.63785 -3009.16252 -3135.77889 -3361.14688 -3395.85517 -3103.39787 -2773.20935 -2676.09954 -2298.63079 -2122.40224 -1904.12401 -1317.64621 -588.25414 -194.50070 -138.06301 -104.60832 -105.43902 -54.67182 48.56619 99.42091 73.89600 147.55522 156.58008 151.63776 178.23131 239.00560 272.92227 262.53660 304.59286 315.41653 325.34799 363.24942 393.78878 419.94072 386.92443 334.48023 310.79106 308.76313 294.62404 259.21583 209.66192 136.66634 103.06514 44.42061 -13.02056 -45.77543 -142.68611 -226.17098 -461.21249 -991.41805 -3409.21210 -4154.73547 -4258.54692 -4163.31327 -4341.09422 -4594.55200 -4342.40111 -3949.73874 -3812.31778 -3672.81082 -2893.14170 -2683.09606 -3024.81898 -3277.86989 -3413.39180 -3659.51667 -3652.79049 -3438.58560 -3282.36374 -3257.60576 -3305.55448 -3325.41850 -3334.91507 -3354.40758 -3370.26771 -3389.64855 -3405.57150 -3419.76570 -3437.18180 -3457.01670 -3477.29832 -3487.69213 -3493.80192 -3505.51495 -3510.73897 -3510.83897
-4762.13385 -4762.03385 -4763.48107 -4767.53607 -4768.70301 -4768.08078 -4769.30043 -4773.61289 -4771.65372 -4759.61421 -4765.85132 -4762.90067 -4766.68248 -4767.36512 -4773.36449 -4773.91326 -4772.73774 -4771.41527 -4774.01208 -4773.85413 -4714.07274 -4643.27681 -4483.77746 -3957.54717 -3630.69303 -3381.61783 -3623.86612 -3623.52572 -3315.75441 -2884.14332 -2736.91978 -2226.19812 -1744.88126 -959.89787 -533.35294 -311.36912 -277.23977 -237.11562 -211.86834 -209.20542 -181.66105 -169.11606 -176.23406 -191.88575 -184.08376 -228.58312 -327.18802 -251.68760 -181.61547 -216.61641 -514.26239 -569.87624 -1005.18694 -1400.02203 -1381.62444 -1903.16514 -2088.38997 -2402.98317 -2188.89314 -2243.44810 -2396.63327 -2724.18604 -2700.21378 -2655.45613 -2246.08661 -1706.38284 -777.39439 -426.94698 -340.74681 -159.60174 -109.71979 -97.46392 -37.63027 -37.99731 20.93672 160.71515 288.92201 159.48183 113.53853 183.61622 213.07187 249.31491 258.02034 287.07602 308.30963 343.21068 369.49627 375.73962 395.12057 416.51361 432.00241 392.89159 349.62917 359.29608 334.74572 287.15301 188.76989 159.51743 115.33120 95.54165 20.79240 -7.50240 -24.39656 -99.96190 -160.00273 -327.68516 -905.86805 -2406.13956 -4151.93175 -4256.23605 -4193.14394 -4291.98052 -4570.55572 -4636.82123 -4330.43000 -4008.59791 -3396.13359 -2719.50941 -2507.25602 -2410.38437 -2486.01434 -3090.38166 -3416.98817 -3471.94901 -3419.86195 -3298.69786 -3263.37717 -3278.71504 -3304.13844 -3327.50317 -3343.67243 -3353.17447 -3378.20403 -3396.73245 -3411.38872 -3430.31561 -3443.87099 -3464.08758 -3477.61378 -3488.16816 -3495.99904 -3502.12040 -3502.22040
-4768.66740 -4768.56740 -4769.88102 -4773.05381 -4775.09864 -4776.55148 -4777.51222 -4778.63186 -4778.98778 -4779.53244 -4780.24786 -4780.27790 -4778.50182 -4779.12318 -4777.36775 -4779.28028 -4779.29871 -4775.48214 -4778.42477 -4775.99115 -4774.92387 -4764.67469 -4652.86408 -4358.11103 -4226.64863 -4277.33428 -4389.96951 -4403.87555 -4105.46757 -3508.91373 -2267.53649 -1922.48115 -1172.37960 -620.82813 -454.30506 -291.91242 -253.89706 -203.30772 -184.73882 -171.21259 -145.57104 -139.09137 -140.49231 -132.17805 -149.15604 -139.33364 -149.57991 -145.57466 -141.84379 -142.70080 -159.44612 -147.85477 -149.19749 -693.19335 -938.54549 -941.33873 -1215.04670 -1667.58780 -1641.61317 -1731.15527 -1989.71959 -1893.91272 -2220.58748 -1599.56820 -1490.79570 -646.28991 -258.36326 -207.29468 -122.38404 -82.39788 -87.02152 -56.93922 -5.64727 17.10138 42.30362 189.14878 288.07996 344.21307 120.70031 174.70969 247.38560 268.47461 288.40767 328.77829 353.69822 369.95827 402.13733 405.61460 415.44992 452.78379 456.47530 432.81962 385.07258 378.46509 318.17493 254.00119 224.21996 232.47060 214.41006 170.60692 21.30331 -7.74705 -9.89880 -26.96277 -85.87240 -196.20936 -722.21370 -1429.47600 -3636.43045 -4407.46814 -4272.95711 -4171.14841 -4287.88144 -4386.90277 -4660.68665 -4523.10151 -4005.87969 -3721.63034 -2962.80415 -2551.71867 -2377.04558 -2601.76775 -2844.58948 -3032.53620 -3405.12281 -3359.72381 -3285.00016 -3287.86811 -3298.70420 -3318.53655 -3332.52587 -3351.45781 -3362.40865 -3379.44860 -3401.45410 -3421.84939 -3434.72036 -3449.03622 -3459.00367 -3475.06466 -3488.39563 -3493.35073 -3493.45073
-4776.70089 -4776.60089 -4777.49244 -4780.72880 -4783.56133 -4785.00844 -4786.04953 -4786.88445 -4786.27926 -4786.46697 -4787.23308 -4787.59929 -4786.85766 -4786.88714 -4787.57031 -4786.61002 -4784.42424 -4784.80261 -4784.53433 -4785.07407 -4784.26397 -4778.43926 -4761.88635 -4729.10234 -4665.40516 -4688.97110 -4805.63730 -4875.51787 -4500.22509 -4312.54644 -1612.36932 -1327.13968 -600.55878 -448.74927 -307.37273 -263.77962 -218.66721 -188.91780 -159.71648 -123.49921 -112.66178 -112.51619 -105.36483 -102.29432 -109.83279 -126.91206 -127.94898 -128.06548 -128.43731 -125.61323 -111.19158 -120.12533 -114.25779 -125.66565 -160.67217 -185.99731 -545.62020 -711.38122 -793.88168 -834.12146 -1232.14212 -1408.43418 -1042.91761 -838.45405 -459.09061 -177.29521 -145.75601 -119.78863 -71.47790 -34.47533 -27.49242 -20.65744 38.25026 93.45034 174.66869 146.01068 354.58487 497.17795 338.03976 200.40774 221.66021 246.06934 346.15093 364.85996 382.82159 399.47784 424.37758 443.80045 470.61573 495.26859 499.65745 472.68320 414.66465 354.69191 291.37221 283.29324 272.43816 218.24596 179.23201 123.14899 86.52460 107.96662 58.80630 18.69343 -87.77792 -156.18170 -179.38730 -922.54050 -1709.34245 -3473.73706 -4132.67727 -4059.34890 -4064.68634 -4164.53657 -4531.04152 -4632.62365 -4699.12197 -4179.98982 -4041.07619 -3407.43609 -2828.73148 -2384.79703 -2438.71494 -2773.27738 -3311.09828 -3358.60955 -3313.87199 -3292.92201 -3294.90789 -3305.64014 -3327.63808 -3336.14911 -3352.59630 -3372.35878 -3385.83416 -3405.70614 -3421.79543 -3442.29032 -3453.98908 -3471.17998 -3478.94614 -3484.17850 -3484.27850
-4784.95296 -4784.85296 -4786.74426 -4787.35268 -4788.04621 -4792.20556 -4791.03514 -4792.46655 -4794.86257 -4794.44518 -4795.41255 -4793.68425 -4791.96896 -4792.68649 -4792.61261 -4793.11397 -4792.44080 -4792.10578 -4791.97504 -4791.38662 -4789.89522 -4788.41259 -4777.17325 -4757.11263 -4741.50533 -4751.30915 -4975.65163 -5068.36049 -4410.42510 -2961.32518 -1408.46832 -690.34813 -465.72971 -323.36749 -269.42146 -232.32376 -195.39269 -157.93333 -135.25310 -113.43789 -85.07453 -82.81541 -69.75050 -55.69866 -48.00891 -60.47249 -70.84450 -69.72415 -76.17582 -69.56215 -57.90669 -61.28718 -81.67514 -95.35322 -109.84251 -141.63376 -151.70920 -200.90724 -223.23587 -244.09542 -258.14263 -447.09332 -412.81954 -324.40806 -103.19135 -93.58059 -78.10314 -40.31221 -57.52558 -13.05169 22.71198 10.87154 155.59976 211.52406 228.91566 201.95971 347.11586 485.49085 560.04209 305.64928 248.39476 268.67522 340.73668 373.99444 414.41342 434.49429 452.43166 483.95097 503.68011 524.26848 517.69689 481.73853 422.79259 364.49983 322.85677 322.95312 249.64530 236.26753 190.30421 188.08834 186.92938 120.39566 35.00521 -34.77701 -22.55446 -80.04658 -109.87049 -175.25047 -773.79514 -1147.27488 -4040.44471 -4045.05462 -4018.83682 -4041.54155 -4610.61461 -4859.65417 -4835.47118 -4705.76150 -4634.52871 -4187.82858 -3672.08185 -2753.90194 -2321.64956 -2661.81742 -3141.32830 -3312.53492 -3318.80741 -3293.36496 -3292.38595 -3300.71063 -3311.21382 -3323.58072 -3343.41666 -3356.80434 -3381.22136 -3396.61584 -3411.39743 -3429.64362 -3444.56438 -3454.75238 -3463.58636 -3474.54981 -3474.64981
-4793.16353 -4793.06353 -4793.77683 -4796.16260 -4797.65408 -4798.29350 -4799.79963 -4802.32665 -4800.66552 -4801.19318 -4799.72593 -4801.09635 -4801.36757 -4799.64135 -4800.41177 -4799.58976 -4798.92737 -4799.05552 -4797.94945 -4796.50417 -4796.44773 -4792.95784 -4778.56798 -4766.29872 -4762.29491 -4825.43568 -5043.59124 -5096.11870 -2924.95664 -2002.22014 -1271.86097 -538.14721 -364.93666 -301.12433 -246.12660 -206.54636 -157.81976 -133.91468 -100.00088 -80.58915 -64.85554 -50.36805 -36.07118 -31.21171 -15.29892 -33.18512 -12.97422 -34.59775 -42.99395 -42.65013 -46.22864 -44.62212 -42.45974 -51.55508 -70.37563 -93.16654 -94.87604 -109.88497 -149.21728 -153.15509 -138.10922 -161.72124 -138.15386 -107.42839 -91.08327 -70.05165 -61.64878 -1.61205 8.71167 24.62817 63.17325 58.81826 176.48887 232.03903 241.02062 231.70185 333.89095 558.74137 572.31430 417.62880 295.09680 337.56014 368.29033 390.16380 428.88582 443.86545 465.77579 488.87120 531.11278 549.36937 534.32303 481.44165 445.73208 392.55814 340.51551 323.96696 308.04270 262.25438 230.07629 245.33717 200.17986 91.25823 30.78725 28.04534 47.62290 14.33848 -46.85722 -102.55389 -178.18242 -548.04680 -2709.97429 -3593.82537 -3744.07066 -3930.15452 -4402.19046 -4678.02124 -4863.77389 -4845.53134 -4786.49719 -4655.07484 -3987.55281 -2836.73344 -2246.03411 -2458.73153 -3101.34674 -3309.09184 -3309.93442 -3298.38708 -3296.20286 -3298.99984 -3306.06094 -3319.47083 -3333.56689 -3348.21200 -3369.85544 -3385.36403 -3398.30142 -3420.03782 -3434.35553 -3445.99605 -3457.80942 -3464.42422 -3464.52422
-4801.27765 -4801.17765 -4803.04960 -4804.81227 -4806.68442 -4808.45817 -4804.88495 -4809.44874 -4807.50525 -4811.76995 -4807.82603 -4807.87240 -4808.92779 -4807.51528 -4807.39033 -4806.97350 -4806.15614 -4804.93721 -4803.42567 -4804.50322 -4801.39425 -4795.28993 -4782.91467 -4762.72246 -4765.01795 -4795.48825 -5034.90458 -4989.07941 -3044.97628 -1578.57852 -1136.59895 -478.53283 -333.00877 -264.95172 -219.08299 -187.71592 -162.40776 -120.67808 -84.87924 -58.39410 -52.52757 -29.55662 -16.86979 7.46033 12.25848 8.64785 9.06158 -4.25647 -11.24832 -5.00639 -3.33135 -11.65482 -21.48036 -34.18441 -46.93006 -52.68651 -69.26964 -68.54629 -81.77061 -96.30726 -94.60112 -108.45530 -95.82224 -75.48528 -60.46057 -48.98845 -39.22014 -13.96122 56.52969 52.55658 144.07248 159.91195 161.97156 233.06295 270.69790 281.46404 417.42726 626.95625 652.65928 445.19855 375.40399 371.05210 410.49418 453.64694 460.19238 479.58169 506.02224 526.85318 545.09436 556.37934 542.60204 493.25395 468.82439 411.92445 369.36304 358.97598 353.47712 291.01550 291.35869 263.91997 213.43903 169.97104 173.29445 128.44142 73.13352 39.57979 12.45853 -38.38235 -246.11276 -557.58117 -2353.34417 -3355.40844 -3640.49768 -3889.11206 -4326.58906 -4626.34297 -4873.60069 -4861.67246 -4831.16913 -4714.88413 -4175.45408 -2741.44156 -2120.66299 -2213.59096 -2817.65274 -3162.00865 -3275.15572 -3297.69976 -3298.83336 -3301.47468 -3303.06037 -3317.21574 -3326.25393 -3345.65732 -3358.97321 -3382.53041 -3392.72206 -3410.21757 -3425.05083 -3435.75746 -3445.13700 -3454.24804 -3454.34804
-4809.43994 -4809.33994 -4810.78209 -4814.44923 -4812.99771 -4813.79306 -4815.46269 -4816.55957 -4817.16882 -4817.08347 -4816.68886 -4816.39221 -4816.59384 -4814.87703 -4814.91777 -4815.80988 -4814.79069 -4812.42756 -4812.45760 -4808.73871 -4804.73889 -4797.96077 -4780.62096 -4765.39240 -4771.80344 -4863.57311 -5018.87153 -4916.46322 -4453.77045 -1316.96847 -996.78806 -507.47970 -317.47799 -271.83286 -214.58993 -179.16608 -138.92326 -96.45088 -65.41107 -40.33484 -13.07235 0.49972 24.28595 45.79070 67.77614 95.32541 82.89481 49.32910 38.25405 30.90459 26.35402 17.39992 5.33633 4.03071 -20.14036 -22.49339 -34.28723 -36.78759 -51.21700 -65.50306 -65.44243 -63.61631 -42.30153 -43.02123 -17.72922 5.88761 3.20180 18.50369 102.42091 124.49013 147.36255 184.84037 198.11744 240.20308 279.24785 367.23966 409.51807 561.87895 610.52021 561.30815 440.48208 388.36070 430.63717 471.64397 490.05622 510.67356 509.67155 556.99992 571.69075 573.21770 552.81413 534.42272 495.82443 455.94928 422.51905 404.35300 360.75563 334.96595 309.98018 263.88919 212.39520 197.27251 183.73462 141.58461 83.42351 50.92058 17.01674 -60.62862 -148.39137 -394.50904 -1420.60290 -3449.75018 -3909.90221 -4164.50576 -4240.31747 -4599.58947 -4856.00413 -4838.29851 -4809.45369 -4732.78270 -4138.56523 -2845.11704 -1917.02717 -1534.91606 -2274.66473 -2652.60473 -3190.75246 -3293.40205 -3296.58916 -3299.80323 -3300.68459 -3304.97537 -3323.63164 -3334.67759 -3353.11832 -3367.36439 -3383.25468 -3399.04137 -3415.71606 -3422.10342 -3436.06706 -3444.15521 -3444.25521
-4817.66221 -4817.56221 -4819.55735 -4819.94307 -4821.63250 -4822.06223 -4823.17443 -4823.76669 -4824.43851 -4823.15791 -4823.65133 -4824.04402 -4822.82533 -4822.12517 -4822.00759 -4821.13721 -4820.39101 -4820.97404 -4818.72700 -4815.46938 -4810.48770 -4800.72930 -4788.98055 -4773.74689 -4794.40193 -4939.70213 -4990.09978 -4922.85203 -2126.61458 -875.92455 -541.81516 -404.13851 -298.13253 -253.75062 -181.26881 -137.19712 -130.29939 -92.99620 -56.17236 -22.14704 20.30720 26.52585 51.23733 73.07597 97.01318 138.73204 215.03558 144.45852 85.92496 66.39510 29.60840 25.85728 30.55333 20.99315 18.20399 2.80707 2.33195 -5.01771 -3.47876 -11.22029 -26.81481 -22.51195 10.61671 4.11339 20.36079 36.39402 27.79823 65.59779 106.75934 155.32085 192.04022 199.41870 246.34209 269.59477 290.74468 353.41472 380.64224 491.53332 541.89545 505.46182 453.80466 449.33005 470.06401 501.13738 546.61506 555.39560 554.16340 576.58213 602.69622 601.06121 569.09730 537.23770 506.09977 505.23637 463.57144 419.87172 366.95353 333.70083 322.65300 286.55047 255.13965 232.74005 189.40966 139.96643 92.77135 21.06291 -8.87073 -44.65976 -151.08079 -305.30102 -642.48549 -3142.43076 -4080.03153 -4199.41515 -4309.32944 -4484.49158 -4709.22767 -4802.78652 -4791.63737 -4738.31487 -4181.52804 -3390.20926 -1378.96396 -1112.86692 -1687.48877 -2324.49050 -3042.15984 -3283.51680 -3293.66876 -3293.75709 -3297.28898 -3304.03790 -3316.21210 -3327.23214 -3343.23908 -3363.14082 -3374.66667 -3388.53302 -3407.76895 -3417.87651 -3426.00083 -3433.49850 -3433.59850
-4825.88797 -4825.78797 -4826.46384 -4827.31063 -4828.42261 -4830.02032 -4829.77790 -4832.20171 -4832.33618 -4830.11719 -4829.71839 -4829.66740 -4829.34277 -4828.23700 -4830.19308 -4829.67584 -4828.97654 -4825.00937 -4823.26279 -4819.48705 -4816.64259 -4810.17199 -4803.69165 -4822.58645 -4862.39772 -5045.31509 -4788.13924 -3452.61739 -1519.89989 -720.43649 -431.32083 -339.98676 -296.56655 -247.72515 -188.43125 -138.95424 -98.99967 -77.02760 -37.97526 -9.34969 9.01148 43.67797 76.19000 109.85580 179.32264 248.76595 366.14663 206.87758 134.32299 95.17558 73.04089 53.03944 54.42455 35.73001 32.20912 25.45216 25.80300 22.78175 19.76205 5.00179 2.38691 11.15199 31.41822 40.69628 50.36063 76.08314 82.16910 100.63612 132.67911 166.05561 193.55654 223.59137 244.86994 282.33467 313.75263 351.71754 392.92997 430.56555 467.67817 494.58467 491.92535 464.36442 494.91345 527.04396 555.40532 558.98477 607.43153 618.50003 637.79810 635.54396 625.95861 583.25045 540.37330 520.67371 497.83289 421.19949 394.62257 395.42870 355.46319 317.77278 287.25885 254.06867 219.33814 189.90757 130.85243 41.20714 23.09679 -50.55383 -120.02451 -220.61904 -970.25268 -2683.66822 -4183.13778 -4289.23095 -4346.84752 -4521.72136 -4704.78542 -4768.35020 -4762.85299 -4716.93733 -4265.81875 -3398.30078 -1310.89601 -1161.68267 -1376.74859 -2094.96892 -2738.20547 -3242.11338 -3279.14843 -3291.65958 -3296.42966 -3302.77053 -3307.47538 -3317.06497 -3339.38661 -3350.98857 -3361.73362 -3379.59666 -3394.29703 -3405.07378 -3416.91077 -3422.52751 -3422.62751
-4834.21979 -4834.11979 -4834.96821 -4836.56048 -4838.38402 -4839.84560 -4839.71018 -4838.57890 -4839.05328 -4839.29534 -4838.20451 -4839.02074 -4838.84926 -4838.56026 -4838.32597 -4835.15165 -4838.33811 -4833.83110 -4829.94252 -4827.79557 -4830.58922 -4835.62828 -4850.89613 -4861.92049 -5019.32116 -4890.26024 -4010.55473 -1979.29609 -1235.89671 -676.10047 -389.64927 -341.22205 -273.32822 -237.92105 -170.23544 -142.36329 -107.99660 -61.43617 -37.18146 -25.07490 16.23350 61.11308 86.42070 119.92764 182.63485 233.48868 350.11765 233.60003 151.68068 111.32018 110.28494 82.82641 81.72794 63.33521 54.06441 45.63318 42.93447 39.49787 35.20120 38.34054 34.61172 54.22344 56.70011 65.10419 96.78787 90.25935 109.27440 131.77967 158.01729 186.34561 204.35619 230.56343 273.41843 292.59662 330.87406 371.75759 404.49061 444.32377 487.85151 514.51616 527.14307 508.87276 535.78027 557.79289 579.52753 600.63486 641.50595 653.87919 666.73625 668.07387 647.45500 595.03736 557.24348 535.68669 497.11715 464.47626 430.13269 430.63788 384.53391 334.20127 304.06258 272.41526 254.35963 218.30716 156.23415 93.80559 39.71696 -54.62203 -105.90872 -162.27861 -564.09056 -2625.63744 -3966.56500 -4384.94071 -4334.60437 -4534.60257 -4724.17187 -4753.25138 -4744.52264 -4684.27910 -4467.57194 -3581.15720 -1526.50384 -1078.36796 -1334.97173 -1778.46748 -2319.99852 -3128.56313 -3274.60257 -3287.89564 -3289.53397 -3295.31673 -3304.16606 -3312.89409 -3324.34964 -3342.76379 -3356.43953 -3372.94779 -3383.48545 -3395.22451 -3403.73858 -3411.44982 -3411.54982
-4842.71202 -4842.61202 -4844.60989 -4843.91248 -4845.48218 -4844.54729 -4847.38970 -4847.54066 -4847.94693 -4848.56609 -4847.50553 -4845.70409 -4845.88737 -4844.27481 -4846.08986 -4845.50463 -4843.50499 -4839.35281 -4838.56421 -4841.38207 -4852.36168 -4888.67939 -4620.71683 -4706.73944 -4934.88727 -4711.90117 -3481.68543 -1622.09467 -931.43352 -411.94875 -365.43535 -333.52558 -263.73170 -209.78230 -174.73547 -124.43610 -92.49506 -57.00962 -38.56285 -4.39395 21.35067 54.27166 93.58659 152.78504 201.66606 254.33353 313.40727 229.30382 194.79477 156.72686 131.28601 101.88237 105.03554 74.34650 68.32391 59.83417 58.90898 53.08992 53.75803 73.26702 78.40009 81.15911 97.74413 101.18992 121.60080 124.92086 130.65125 148.94130 174.34595 192.67590 228.13017 242.90993 291.37545 306.48430 346.27268 379.79385 408.78220 467.15387 494.37451 523.03213 548.99957 560.62797 581.68286 581.67394 615.16474 634.82079 665.15943 684.13410 687.83191 684.76635 661.92982 616.80966 587.20824 546.81567 512.09285 489.05992 462.03459 432.18909 400.07257 327.18532 310.99391 256.62448 211.11720 164.47356 99.69644 56.40916 11.08238 -23.50089 -66.32299 -178.10290 -455.15575 -1639.83029 -4222.53824 -4434.21917 -4504.37236 -4601.31363 -4717.89324 -4721.06110 -4706.10693 -4637.42143 -4272.60523 -3286.22752 -1497.62174 -946.60988 -1022.07523 -1460.52818 -2232.22250 -3045.89685 -3280.34314 -3276.82544 -3274.95611 -3291.00907 -3300.97042 -3312.17239 -3320.11479 -3334.86961 -3349.64825 -3355.64026 -3375.14852 -3384.44623 -3393.29627 -3400.23105 -3400.33105
-4851.18219 -4851.08219 -4851.98466 -4854.29579 -4854.03586 -4854.53490 -4854.91101 -4854.15730 -4854.70346 -4857.34382 -4854.04785 -4856.40689 -4854.09039 -4856.16541 -4852.73911 -4854.40770 -4851.81353 -4849.91869 -4847.57158 -4852.78274 -4868.16869 -4931.84413 -4185.13213 -3793.52962 -3071.73217 -3681.82956 -2864.03375 -1278.90047 -499.20862 -391.27110 -334.66992 -303.67279 -233.34285 -176.91222 -150.24959 -113.61576 -71.28629 -52.82112 -27.91858 0.07533 27.61480 43.31524 91.60079 150.63765 232.23938 284.70767 328.46259 248.26669 207.87382 177.35167 151.56760 129.22961 116.38982 98.77488 81.97572 78.96962 74.12680 77.54439 85.88965 91.53334 103.25136 112.16422 120.58891 134.30271 130.56669 148.73308 161.01537 171.67320 182.77949 207.55516 233.28362 264.24064 283.66812 317.15083 351.53971 377.34518 425.86639 475.01700 491.61345 525.40171 549.64995 572.78544 583.30425 594.95493 637.62023 642.97970 686.41403 709.19161 708.96863 711.29265 699.28946 627.33675 611.60634 586.37991 522.44238 481.88763 469.78949 406.45611 371.26562 334.21259 276.64941 242.04131 176.42572 132.36697 119.75146 118.04865 44.63611 -19.47384 -63.94302 -160.35761 -274.42318 -1429.20196 -3638.29539 -4465.85514 -4445.11307 -4596.31285 -4704.36472 -4681.15876 -4661.43342 -4618.06461 -4179.80747 -3433.74485 -1427.07638 -931.85616 -1106.78600 -1431.20368 -2231.37162 -2988.79892 -3183.99520 -3270.42155 -3274.84351 -3294.29782 -3298.10520 -3303.21669 -3312.51359 -3329.25046 -3338.76541 -3350.97789 -3362.66523 -3372.29657 -3379.38984 -3388.78124 -3388.88124
-4859.65337 -4859.55337 -4860.14809 -4861.83302 -4862.57302 -4861.50655 -4863.87224 -4866.44240 -4860.56123 -4861.52086 -4864.73413 -4864.80909 -4864.61947 -4863.22606 -4864.46801 -4861.32362 -4856.67230 -4852.57068 -4847.97348 -4807.03346 -4756.81220 -4580.64259 -3449.13061 -2319.10174 -2410.36692 -2868.52131 -2404.92373 -1423.91014 -461.34280 -386.38677 -315.42489 -264.83961 -224.20947 -174.21051 -144.58990 -111.66053 -71.05267 -44.53208 -16.55142 13.39313 39.90422 65.70472 113.61125 150.54097 242.49216 328.63853 343.93541 301.24675 256.83367 186.97156 168.49921 135.28087 126.11496 109.78014 104.85752 97.49755 100.39057 93.71357 107.22854 115.23431 116.46418 124.94403 149.72952 162.20495 150.75774 170.05659 181.57900 184.90978 209.90946 237.54112 237.36903 260.22500 289.01262 316.35478 345.14703 389.68462 419.13995 461.58779 481.96723 515.75216 536.55878 558.11524 581.83985 597.51590 631.94344 652.24068 683.36247 727.57909 733.27940 733.01116 701.37394 653.88389 622.78766 584.39891 533.97263 518.81131 476.22399 427.05717 388.93345 350.59452 286.28712 263.52850 248.38241 210.37836 198.44391 140.67978 46.88250 -1.19543 -34.11158 -97.06621 -225.77712 -1332.39117 -3448.02135 -3900.16354 -4350.67292 -4524.47604 -4573.05850 -4628.48578 -4637.01858 -4597.59158 -4172.70742 -2744.65842 -1637.04463 -848.97602 -938.07999 -1059.91250 -1807.95775 -2470.77629 -3075.32073 -3242.91845 -3275.13950 -3288.07330 -3288.38157 -3297.77317 -3310.17737 -3318.12877 -3333.86418 -3343.46162 -3352.92097 -3365.37652 -3370.29059 -3377.59142 -3377.69142
-4868.13845 -4868.03845 -4868.69874 -4871.48667 -4871.36851 -4871.75416 -4869.90893 -4871.08869 -4874.03203 -4873.31340 -4873.16049 -4871.73177 -4873.06844 -4875.31925 -4870.64766 -4863.04119 -4841.24411 -4801.55105 -4774.53151 -4574.34567 -4337.37986 -3923.16448 -3449.46482 -2155.23982 -1932.76078 -2053.47434 -2012.04342 -1269.00446 -442.46290 -359.91979 -315.46657 -233.10409 -205.45861 -167.92361 -131.38269 -98.21421 -61.38077 -26.10671 -14.78670 6.58242 49.90019 83.16894 127.90624 163.43408 267.14233 313.63656 320.45403 276.23975 240.29772 195.35310 174.66277 152.36541 145.32496 125.70493 117.16558 113.42933 113.29070 118.22904 124.57983 140.99049 146.36315 170.85661 173.45971 170.99925 170.93803 186.23154 196.14028 197.25407 222.28640 240.97939 255.86648 284.03993 306.85169 323.42671 343.23289 392.08803 407.74035 454.26541 481.89255 494.27934 536.07576 548.70607 578.59001 614.89889 642.43254 658.82051 702.43913 727.81566 744.45946 743.31976 715.36538 670.13359 636.71774 595.86988 564.22428 515.57035 463.54560 429.49109 410.61816 346.34817 319.62921 311.30398 288.51352 249.26844 163.48739 107.33901 65.48342 57.65860 -24.36128 -110.58705 -168.43328 -690.61880 -2002.51965 -3223.48863 -4033.19825 -4186.83260 -4436.73065 -4539.50059 -4551.86697 -4489.76558 -4064.56434 -3235.50430 -1505.89905 -705.17570 -687.48230 -898.39241 -1140.91643 -2194.91391 -2807.96740 -3060.25682 -3266.95084 -3279.58031 -3282.71725 -3293.48756 -3303.45586 -3309.13384 -3323.73373 -3336.35719 -3344.63089 -3353.60010 -3359.79804 -3366.91474 -3367.01474
-4876.48309 -4876.38309 -4877.84011 -4877.16213 -4876.88119 -4879.17988 -4881.11832 -4878.75143 -4879.85767 -4881.47869 -4883.52894 -4883.51676 -4881.89924 -4877.05548 -4861.11607 -4843.35866 -4759.14182 -4641.48988 -4382.41643 -3917.17660 -3558.07913 -3367.85539 -2702.71279 -2222.79146 -1824.32487 -1486.30340 -1223.43612 -485.02057 -453.64208 -322.48906 -266.47484 -239.05533 -195.31970 -144.73252 -116.18863 -73.81553 -42.45730 -22.22558 -6.68035 27.60972 104.13016 144.02731 195.94715 220.46577 277.54609 301.78147 279.21122 261.65095 232.39336 199.56659 184.10955 167.18335 153.03580 135.83626 126.02481 131.25050 133.76780 138.17371 147.14667 154.92620 164.11068 181.42738 187.67072 188.58335 191.40109 203.25998 207.29904 228.84536 243.98745 250.82565 269.19145 275.99728 299.56061 326.71867 345.32817 388.03810 415.39353 449.91070 465.76476 494.03516 527.54292 540.35942 576.28781 603.88978 643.58498 666.56112 707.34344 726.60775 747.16210 738.23574 697.10933 659.29408 633.32678 601.34611 565.38022 529.80253 474.01191 455.63220 404.31926 357.26154 324.73234 316.40301 272.37530 239.80232 193.43580 115.71297 90.74014 31.37589 -13.36380 -56.27389 -197.06437 -453.01544 -1606.03524 -3448.62217 -3994.20388 -4137.44148 -4385.17632 -4515.43658 -4498.40042 -4416.20061 -4073.34087 -2870.33831 -1247.56913 -738.46681 -693.32247 -1003.13061 -1437.52799 -1870.52437 -2533.64893 -2972.81521 -3247.45355 -3276.66163 -3280.54272 -3288.31701 -3296.30685 -3307.61516 -3315.30103 -3328.72943 -3336.10040 -3347.48933 -3350.96103 -3356.88278 -3356.98278
-4884.91490 -4884.81490 -4885.10377 -4887.21109 -4888.32096 -4889.41407 -4888.80562 -4890.83853 -4890.23458 -4891.48706 -4892.89410 -4887.50898 -4876.48081 -4847.54356 -4813.69632 -4527.57271 -4510.84864 -4165.62096 -3607.94220 -3188.43440 -2913.82122 -2143.87146 -2019.15672 -1865.51609 -1581.39405 -1099.59462 -699.62727 -455.50154 -400.62966 -342.09855 -253.82502 -223.08633 -175.62494 -139.53812 -86.11620 -66.51807 -41.70710 -11.07139 8.45553 51.99385 99.47378 143.37574 200.99077 267.64464 305.66003 293.34121 263.45255 246.21953 222.34157 203.63501 187.69271 173.54975 159.96803 146.57512 142.74006 140.41651 139.93168 158.27888 176.32277 178.24311 182.35064 195.15906 206.39709 209.46589 210.50821 215.52953 226.16964 240.46000 250.63763 263.35689 270.59917 282.37254 303.55386 330.96174 349.18070 374.89933 410.57450 424.23075 463.62093 510.16459 522.27875 560.60137 589.57054 592.52456 637.60766 668.22498 699.88422 738.10140 756.15577 745.48065 727.47347 668.81996 637.01705 602.89394 572.85183 532.78551 500.74884 471.68365 411.94627 389.51447 353.74520 321.39632 264.56902 241.68088 193.32251 142.76292 94.96378 30.06567 -26.69704 -87.58262 -169.98453 -324.39611 -758.12279 -2917.56181 -3932.49565 -4043.60266 -4150.84136 -4419.80980 -4449.63432 -4314.45910 -4107.59546 -2633.38892 -1268.01149 -739.52822 -975.83609 -1167.31722 -1731.65591 -2191.41661 -2708.45834 -3084.57422 -3238.86848 -3271.87776 -3276.92277 -3285.59224 -3292.82433 -3301.98301 -3308.15090 -3317.53185 -3328.62490 -3335.02367 -3342.24629 -3347.72497 -3347.82497
-4894.43998 -4894.33998 -4896.01822 -4894.70957 -4895.82322 -4898.12351 -4901.42548 -4903.47314 -4908.47855 -4906.54097 -4898.19503 -4871.43462 -4827.92583 -4679.65148 -4519.68402 -4251.38942 -3786.59504 -3465.16422 -3024.30209 -2523.96156 -2166.23231 -2088.76070 -1968.89923 -1667.60023 -1432.62335 -846.56118 -554.04924 -397.79725 -366.49434 -315.03251 -260.50747 -199.79667 -164.02879 -134.31310 -82.26531 -68.05792 -36.45442 2.63763 22.17191 60.95682 95.58680 156.78547 185.16331 236.46484 287.87444 262.79901 246.55827 231.43133 213.71934 204.83726 190.73673 180.57450 165.25670 157.43442 156.45133 163.37438 161.15127 174.40511 180.54477 193.13509 206.03861 214.77510 219.85666 221.61129 227.27369 225.87775 234.59544 244.72923 254.24165 266.95190 282.51972 293.03609 315.24597 329.57194 357.71792 382.59716 404.74474 428.73399 468.35085 505.21565 516.55955 557.30798 587.52338 601.71270 643.01851 667.40746 694.31929 736.11390 754.95067 753.35573 737.96807 681.55001 652.51620 618.08123 589.43941 537.13833 502.61212 476.11830 438.43928 399.80211 350.92379 324.61164 285.40809 224.17886 197.41866 147.46555 97.11640 58.73749 -0.83864 -54.68668 -114.17278 -252.96513 -1040.27291 -3277.26833 -3955.87269 -4015.92392 -4142.15776 -4297.67843 -4318.13642 -4183.12023 -3605.65194 -2187.09073 -1173.81871 -782.60988 -912.84418 -1548.10715 -1892.94119 -2261.10699 -2748.27407 -3089.83929 -3227.04917 -3267.29186 -3275.57436 -3281.40297 -3286.00824 -3296.83727 -3305.88862 -3313.61369 -3321.14531 -3328.47355 -3335.42442 -3339.67845 -3339.77845
-4906.76366 -4906.66366 -4908.54789 -4908.72120 -4907.71721 -4909.80955 -4914.19861 -4918.34446 -4922.76364 -4910.37787 -4893.06310 -4825.27598 -4617.49767 -4561.52556 -4212.50337 -3734.75653 -3457.69046 -3107.16167 -2563.14955 -2311.91708 -2060.69673 -1982.13527 -1867.64682 -1882.31835 -1521.99335 -905.68641 -628.23052 -379.73981 -330.65425 -276.85095 -240.62100 -189.45942 -146.85699 -108.96560 -79.42008 -52.70073 -20.83888 3.99683 42.64664 90.27037 124.74397 168.57518 216.08843 266.62236 273.91876 253.12844 241.65213 220.76246 212.60409 204.48528 194.59880 182.51970 168.51894 168.86325 173.49444 174.21624 179.85290 180.78478 194.08485 215.63536 220.58281 237.49858 235.84049 237.22173 241.12079 240.88493 241.32878 259.61014 269.20898 275.14443 291.47784 301.61498 316.97027 347.16409 367.54093 384.12285 399.53718 440.34643 465.44982 488.91880 516.48534 556.20077 577.91890 605.75575 639.19081 667.86324 704.90609 735.75243 748.28622 751.89925 721.58339 685.56369 657.00191 616.66344 589.55374 543.39591 511.12797 448.79136 423.44542 369.91536 337.96267 310.11335 265.66728 209.11219 185.89960 166.68726 109.81326 71.32104 20.76597 -42.54059 -156.18467 -455.79598 -1546.76032 -3384.14209 -3934.71839 -4028.17183 -4148.64056 -4187.56272 -4265.37347 -4069.15599 -3426.24730 -1593.50577 -788.65621 -698.01249 -1049.51315 -1752.19095 -2124.57623 -2627.78271 -2983.97453 -3178.37502 -3241.82084 -3263.65139 -3271.03942 -3276.08844 -3283.66545 -3293.29490 -3301.31782 -3306.72667 -3314.69971 -3321.90010 -3327.02536 -3332.63261 -3332.73261
-4924.00645 -4923.90645 -4923.23920 -4922.52193 -4929.35909 -4927.84902 -4931.50557 -4936.03608 -4956.67321 -4946.70072 -4901.54445 -4791.30311 -4488.16418 -4134.42656 -3661.85071 -3512.24524 -3300.44067 -3113.29414 -2592.65261 -2284.91278 -2074.71572 -1947.64946 -1925.91934 -1876.00527 -1421.64727 -719.81821 -523.68815 -386.00935 -326.38830 -274.25604 -224.10279 -154.15992 -133.69393 -107.74884 -54.80242 -39.44887 -9.25212 24.92951 78.79378 126.50430 149.69335 209.06818 249.90243 284.06056 262.45138 248.99944 239.75489 215.91787 203.54312 192.93756 188.88465 182.74024 177.41206 180.01583 182.57279 186.61003 187.85318 196.93928 216.19197 221.93467 238.41339 248.82335 251.74984 256.84026 253.25265 252.66859 257.03965 272.15578 275.97577 284.76939 291.77665 301.35384 318.90653 345.29592 360.74537 382.70000 397.90366 432.70857 467.99160 488.75872 507.92517 558.90231 582.51923 612.10832 632.74077 672.55031 703.87082 730.24834 740.12746 745.93979 712.90257 684.20802 652.80857 618.75182 591.31574 550.85455 510.16553 450.55607 427.99997 348.64113 308.16675 276.02884 230.53805 190.98408 146.34709 103.83465 80.92767 30.11155 10.33196 -65.46079 -114.43758 -211.49358 -1608.93025 -2561.88506 -3955.62880 -4063.44194 -4117.38600 -4163.20080 -4071.34969 -3948.02507 -2528.73987 -923.91103 -607.66975 -643.70900 -1154.06518 -1808.75075 -2487.43256 -2824.73227 -3001.60432 -3192.74507 -3252.00251 -3262.07461 -3267.13627 -3271.32321 -3281.32663 -3289.58436 -3296.08681 -3302.75446 -3310.28065 -3313.41218 -3321.10597 -3326.55847 -3326.65847
-4944.99703 -4944.89703 -4945.84093 -4945.23042 -4949.26179 -4955.01338 -5002.21300 -5012.25451 -5035.28318 -5045.15642 -4974.95686 -4857.77765 -4535.89800 -4250.62308 -3819.19346 -3699.47596 -3557.33654 -3251.78295 -2638.77502 -2293.68760 -2064.99218 -1970.92719 -1889.23981 -1506.68497 -1199.65759 -568.52079 -471.94282 -397.14592 -330.67289 -280.67949 -214.56467 -158.79630 -134.36613 -89.41505 -67.37185 -29.93907 0.20060 46.01195 88.63340 146.85663 212.18323 252.66624 279.42497 244.30285 222.08543 213.83397 208.23377 201.64371 195.89135 185.72708 183.98345 181.63225 181.90392 185.10887 189.60834 195.89779 204.81095 219.22806 228.21140 240.79910 253.46579 260.70013 265.45350 267.32087 267.62721 270.57616 274.47497 279.91693 285.08726 290.29698 299.40000 311.50781 326.61210 346.21445 359.76468 386.19625 401.10669 427.01039 459.66737 484.33065 502.55991 547.66478 572.10743 613.46257 630.97078 652.73968 700.01041 718.40982 742.75442 741.46102 722.64912 682.36453 637.44762 607.55279 583.96501 547.45399 489.71559 448.17767 433.62988 414.79840 374.79993 282.24854 244.64784 205.87291 165.13057 102.17736 75.23745 -4.79317 -18.49384 -93.23228 -162.21899 -235.30137 -1500.14467 -2541.89485 -3928.59379 -4045.74680 -4084.03196 -4065.67748 -3998.89332 -3553.24302 -1847.87598 -481.42185 -358.67281 -736.36399 -1377.54262 -1844.16067 -2421.37927 -2908.04488 -3171.62143 -3223.64404 -3249.46329 -3259.40310 -3262.39586 -3267.88897 -3276.18599 -3284.02136 -3291.07303 -3296.94957 -3306.08217 -3311.25185 -3316.03553 -3321.53084 -3321.63084
-5003.09742 -5002.99742 -5017.74651 -5018.84530 -5025.53195 -5048.09140 -5085.96456 -5117.63124 -5144.39440 -5146.89326 -5052.27867 -4877.99535 -4678.36122 -4380.04819 -4189.60706 -4169.82820 -4042.08987 -3726.82484 -2787.61147 -2115.64168 -1979.44815 -1821.04167 -1762.30003 -1506.06725 -827.60476 -532.80929 -454.90523 -388.03592 -328.14315 -279.26803 -218.46809 -175.90086 -139.29649 -102.79151 -54.34601 -4.83130 21.14630 66.72319 130.17179 175.12936 225.62568 230.19428 252.44582 215.60837 197.03908 189.54302 181.82261 179.30798 179.58289 180.33867 180.90520 179.69050 183.30897 190.31210 198.26790 206.97031 221.88910 232.85474 262.95097 271.07739 273.65522 276.77267 281.16633 282.77108 283.38870 281.50949 281.65628 284.38631 292.84263 296.21195 308.12145 315.81955 330.91013 350.32342 364.19483 381.19628 401.60191 429.91910 460.84171 480.26249 521.83777 541.51986 567.04456 591.11244 631.57569 653.16032 692.42159 707.54074 726.04544 720.58200 710.92816 674.23995 655.16783 618.55051 589.75718 551.43001 516.00960 469.75411 404.65052 386.53195 345.15362 299.47692 246.63041 209.83136 170.65294 110.03264 61.41997 4.18116 -26.79487 -92.73975 -174.32723 -304.89286 -1210.91626 -2935.78990 -4039.74506 -4101.26096 -4059.67245 -3963.34101 -3688.43669 -2525.05906 -570.50224 -318.88842 -520.08882 -813.19227 -1961.87436 -2323.80294 -2655.57572 -3079.85432 -3176.21472 -3228.76394 -3247.23367 -3255.70145 -3258.38188 -3266.57799 -3273.32750 -3282.31214 -3287.58200 -3291.97747 -3300.62623 -3304.64827 -3313.12241 -3317.64665 -3317.74665
-5179.69162 -5179.59162 -5159.55181 -5147.09256 -5148.30880 -5151.55961 -5154.29132 -5097.61180 -5079.76501 -5062.14715 -4932.62256 -4776.77340 -4752.36766 -4632.64029 -4660.85592 -4623.97655 -4367.18683 -4132.49897 -3150.16900 -2152.10886 -1718.15824 -1679.55281 -1427.80131 -974.75047 -627.08174 -541.59614 -425.59224 -391.68305 -351.35734 -285.61592 -233.47226 -192.67622 -144.62794 -119.04511 -53.70221 8.27824 71.15029 123.40477 156.60383 200.27668 183.96691 171.54545 189.58871 189.70086 180.47082 180.89435 170.51173 160.34456 159.22319 161.99192 163.43453 169.63288 178.21165 187.40964 197.98174 218.22826 234.14066 261.94654 290.27907 303.91435 305.64162 295.76360 298.30699 299.82013 292.71240 293.43995 290.03131 293.22636 298.57842 302.19689 315.34957 322.65154 334.52652 351.13171 370.71099 387.49246 405.55204 422.19723 446.06286 479.89243 512.19118 540.33472 569.18397 583.42835 613.92881 647.33474 673.66686 688.47344 700.55944 708.31064 695.60761 671.77933 655.89291 624.55008 589.27607 550.24281 521.57854 463.20645 429.64614 335.78513 292.34804 293.95973 236.10710 177.89969 139.47858 80.87304 37.76807 5.89284 -35.62211 -127.34330 -300.55204 -386.11570 -1211.84713 -3293.53152 -4046.58410 -4085.92251 -4069.96694 -3910.13553 -3133.42435 -1535.01557 -489.20884 -231.15402 -654.16933 -1261.68909 -1953.95451 -2476.32381 -2770.26935 -3105.91625 -3241.47631 -3246.27907 -3247.41536 -3251.01719 -3256.04053 -3262.56264 -3271.04447 -3278.02364 -3283.23270 -3290.28629 -3297.66293 -3302.83251 -3309.20586 -3314.66796 -3314.76796
-5323.25770 -5323.15770 -5187.63826 -5130.82629 -5100.19165 -5038.69807 -4978.61833 -4925.99601 -4885.31419 -4889.15273 -4881.38902 -4874.03905 -4848.62531 -4868.70096 -4900.92114 -4895.97021 -4737.00803 -4466.11526 -3757.05531 -2405.51233 -1394.77378 -1363.02489 -1244.36494 -895.33072 -626.54519 -502.40790 -423.30888 -384.41489 -356.26369 -307.31230 -249.88690 -213.37903 -134.31902 -106.16181 -49.13515 24.83993 89.64722 154.05945 160.67664 148.60302 134.32677 142.86614 143.57505 155.62162 152.29007 137.81766 135.65939 146.57668 144.93613 151.77726 154.43137 163.57660 168.72302 181.66401 195.17356 210.90056 246.32580 293.85391 314.81189 334.39328 330.26685 326.45822 313.52005 312.23196 312.64135 308.87339 299.31153 302.38512 306.93470 308.43365 314.94342 324.57095 342.02979 358.43609 373.52404 387.02862 410.45097 432.19624 449.52576 477.43635 502.44644 539.47007 564.24106 594.64868 613.23278 631.93686 672.62423 673.58909 682.00553 687.22679 677.40233 658.76685 642.88207 607.93436 565.61747 519.79484 501.86233 421.85860 398.01644 339.29519 291.10815 272.65444 235.25535 176.72143 153.66006 109.79204 51.47822 10.40074 -49.54017 -176.69907 -265.62278 -743.52655 -1982.95857 -3185.83389 -4073.37285 -4081.75979 -4064.65001 -3868.33432 -2786.78043 -1020.57344 -215.02756 -231.18790 -564.92141 -1285.02422 -1923.43554 -2549.50038 -2789.58503 -3081.49116 -3233.85356 -3235.29263 -3241.86022 -3248.06747 -3251.86566 -3260.13077 -3268.24795 -3274.38981 -3282.11405 -3286.87277 -3294.11130 -3298.67321 -3305.88808 -3312.60002 -3312.70002
-5029.52437 -5029.42437 -5013.94717 -4939.75242 -4937.84188 -4865.98983 -4845.33321 -4850.34463 -4854.37385 -4897.62637 -4931.10021 -4942.68082 -4939.90788 -4952.20241 -4946.07179 -4931.27134 -4861.23018 -4631.05656 -4129.65107 -2761.67651 -1792.35834 -1262.64276 -1082.15868 -808.11865 -645.03979 -525.92593 -428.03012 -383.62074 -362.37604 -310.41886 -264.17128 -208.33941 -150.19780 -122.33843 -62.36979 -20.43612 51.03954 101.53947 78.67800 94.37520 92.40082 104.16618 106.39670 96.90780 96.65066 106.56096 116.46871 124.50221 130.82304 131.89364 148.05544 161.44621 164.79372 176.82107 188.34594 202.51970 227.76905 267.96833 310.60630 336.99898 345.62268 349.71660 332.83749 322.70896 324.33668 323.60914 316.72579 314.60487 313.35876 313.85757 318.34745 326.93323 341.58075 359.25549 369.70271 389.95354 404.80523 425.02055 448.20320 468.09304 499.78766 532.23666 568.04112 590.68875 609.83626 632.93731 648.35721 667.04366 672.74104 664.24336 649.44166 650.04725 615.33775 588.23364 555.68661 530.63403 490.85477 426.95618 391.12710 338.53866 298.65101 266.36436 237.22386 189.76964 160.90336 110.06512 65.70502 25.47168 -39.38153 -170.81966 -273.23083 -1118.29472 -1685.55431 -3250.91023 -4267.85718 -4236.11286 -4018.60989 -3502.65289 -2202.48325 -379.37692 -182.75209 -235.35245 -666.79931 -1581.73756 -2128.04399 -2750.19442 -2898.81388 -3060.69639 -3195.59559 -3237.00888 -3238.80582 -3245.26006 -3251.59357 -3256.63249 -3264.49201 -3271.83378 -3278.47789 -3284.82614 -3292.03065 -3298.52257 -3305.27624 -3311.35844 -3311.45844
-4837.98513 -4837.88513 -4877.39365 -4880.31706 -4872.96412 -4890.64647 -4877.91232 -4905.36761 -4938.72156 -4967.91491 -4965.53382 -4973.17984 -4970.10669 -4966.58971 -4960.46484 -4957.99800 -4939.74229 -4825.86900 -4572.59648 -3355.89095 -1917.63700 -1065.46960 -948.17926 -810.07869 -655.88924 -546.76967 -446.45462 -397.87527 -370.91836 -342.35321 -279.94507 -240.24717 -153.03668 -134.10251 -83.22831 -42.59845 -1.15219 36.06628 45.85824 51.72828 55.03230 76.36555 69.09579 73.94984 78.03650 87.73628 99.12583 110.73731 120.06862 128.02484 138.26660 152.47707 160.45902 167.58565 177.46087 195.95761 220.08910 235.20491 269.88702 332.27136 362.44662 372.44976 353.55945 342.46043 336.65341 332.27907 328.63124 326.84607 323.96522 320.84031 325.51500 330.89409 341.25444 355.67155 371.15104 386.57000 409.57679 420.43141 443.24784 460.63934 506.05935 532.93404 555.49539 584.01996 599.06182 626.07397 640.54337 643.39038 650.40091 649.22610 644.37594 604.17899 587.92508 554.32089 531.91735 526.31073 491.72479 432.58950 405.63111 349.20564 310.20266 264.91371 224.15693 168.10664 142.29620 103.15961 57.69501 -9.54054 -52.77982 -143.17775 -247.67377 -449.79532 -1906.47876 -3289.76012 -4398.42825 -4724.09135 -4281.06974 -3085.35814 -1419.85956 -159.87640 -128.76978 -225.77286 -367.72276 -1588.55730 -2137.30820 -2597.25703 -2901.31588 -3083.11223 -3204.39291 -3232.18820 -3238.85900 -3242.62684 -3249.57839 -3256.17311 -3264.62329 -3270.54164 -3277.33090 -3283.49475 -3291.54399 -3296.63842 -3303.61931 -3310.88836 -3310.98836
-4932.99195 -4932.89195 -4932.21163 -4928.99416 -4948.65151 -4963.29384 -4963.99790 -4982.65364 -4981.86216 -4982.59737 -4983.58516 -4985.41904 -4984.62262 -4978.53434 -4979.39081 -4976.30357 -4967.45237 -4928.01226 -4717.84938 -3633.03486 -2237.40938 -1120.01785 -989.29758 -850.06023 -669.30375 -585.41172 -489.84875 -409.80110 -390.63529 -342.15727 -308.96085 -254.58923 -182.22599 -160.55083 -111.24514 -87.13967 -34.94662 -27.19233 -7.87452 3.57373 30.43889 37.02215 31.19463 55.26955 59.09294 61.10562 71.22524 93.33667 107.70118 114.35165 127.96273 136.91320 144.27856 153.86273 173.25697 185.21174 211.76687 242.69014 279.00279 305.35860 375.38786 384.47517 372.38908 363.39094 359.06986 350.94265 340.18062 339.60434 331.28734 328.21093 329.01725 332.41864 336.72832 353.91772 367.23807 381.19772 411.42264 428.81855 454.64152 465.30557 505.90842 526.19826 545.40217 576.19222 594.12700 612.06741 633.83923 634.02037 635.60054 631.16641 638.21294 600.32445 581.98697 550.43697 514.66515 470.48361 433.98176 417.31070 388.44835 355.47198 297.85785 255.25689 210.09621 147.66731 102.54754 45.16506 14.50597 -37.47673 -71.62436 -100.99953 -205.29583 -838.35505 -2005.96315 -4321.78366 -4834.95697 -4756.80828 -4259.79287 -2465.66694 -382.33022 -154.66832 -109.57472 -188.78446 -576.95019 -1426.69729 -1841.95411 -2476.94008 -2901.84070 -3149.49301 -3204.09942 -3230.30268 -3237.71988 -3241.99853 -3249.05450 -3256.67328 -3262.00615 -3268.61471 -3277.29205 -3281.16479 -3291.05205 -3296.92258 -3302.81364 -3311.00472 -3311.10472
-4990.62814 -4990.52814 -4989.04517 -4987.94845 -4992.22224 -4997.01757 -4995.77630 -4993.75694 -4996.67978 -4996.72683 -4995.11159 -4994.99027 -4996.91339 -4994.36386 -4989.13706 -4985.45194 -4969.37489 -4937.71807 -4693.40506 -4196.02411 -2179.62194 -1266.57078 -980.84478 -833.60696 -671.12392 -645.03918 -548.69811 -451.10345 -403.77107 -364.91659 -324.23521 -271.47994 -202.01667 -189.93492 -163.64711 -118.28507 -76.42160 -45.44403 -35.48453 -28.18146 -24.12060 -13.62032 6.37463 31.07082 34.06053 44.21875 58.27636 72.97724 90.22106 109.03167 112.56771 122.86321 126.03464 147.98824 160.20354 182.46074 207.84394 226.90354 262.58197 291.54053 349.46955 392.08149 391.84640 380.65537 368.80082 364.43627 359.38635 348.20185 336.83544 337.59523 334.72271 335.52611 338.50838 355.53802 364.98075 378.26817 410.63162 424.86026 449.94800 468.78133 491.22954 514.48891 538.08644 558.05137 594.13730 603.10906 611.69727 621.34862 610.93882 613.90695 588.43909 573.14140 555.42485 520.72686 495.79664 450.44554 420.07268 400.65208 367.76551 329.76190 282.20278 246.41849 196.60093 137.90370 115.36396 83.77191 29.56694 -26.84447 -55.46544 -127.19071 -213.85509 -1002.31782 -2224.13320 -3811.62511 -4770.56603 -4816.58217 -3864.02594 -1892.05418 -712.39804 -112.34253 -87.27345 -138.84416 -267.69149 -814.44573 -1635.77424 -2324.65571 -2715.42523 -3157.48688 -3222.96329 -3229.42779 -3234.59258 -3242.96345 -3248.51828 -3256.09522 -3262.65300 -3268.22990 -3275.54802 -3281.91710 -3289.71911 -3296.50986 -3302.58727 -3311.52318 -3311.62318
-5000.57338 -5000.47338 -5001.95257 -5005.58942 -5005.17059 -5005.48910 -5005.39060 -5006.13770 -5007.73235 -5007.88093 -5008.02348 -5006.31584 -5006.50457 -5005.34436 -4998.36067 -4994.61567 -4971.97238 -4829.49045 -4609.87641 -3799.63976 -2238.45736 -1256.98962 -1020.62165 -853.00105 -773.71665 -732.65355 -569.06211 -503.55688 -425.97084 -390.18823 -356.48824 -290.99307 -238.84740 -210.51722 -168.91544 -131.44203 -114.62861 -88.97701 -54.82124 -45.40867 -39.43506 -32.53838 -4.92005 15.96026 19.96682 22.75523 40.68454 58.24939 67.91535 84.33842 103.98953 112.76964 122.17724 135.32528 155.06895 179.33335 199.36210 224.26365 258.08597 290.01847 345.40502 394.41202 404.92527 405.61946 402.70180 406.84927 391.00677 373.96749 350.47990 344.60649 338.34723 334.72259 339.14545 351.33863 364.78148 373.36837 396.99088 413.68492 430.52314 463.04563 486.27160 506.07961 540.96304 554.30199 572.14572 585.35870 590.06487 592.46979 598.26422 590.91675 564.23347 557.44165 537.07340 495.09646 457.22639 431.26502 400.85483 374.19716 335.71911 299.46905 248.29892 218.50965 167.53427 133.70372 111.12291 64.80558 25.54291 -35.08703 -58.83610 -148.45691 -284.94313 -837.51978 -3031.73010 -4755.12057 -4943.10640 -4791.75959 -3635.07009 -2295.42937 -363.80723 -98.76756 -90.57648 -140.56302 -442.15822 -1118.20683 -1700.40901 -2140.73336 -2796.63113 -3161.62061 -3209.69042 -3228.56559 -3225.74071 -3241.15702 -3248.21197 -3258.17164 -3262.15884 -3267.01575 -3276.60684 -3282.91854 -3290.19568 -3297.67551 -3303.14016 -3312.30581 -3312.40581
-5014.99782 -5014.89782 -5016.48184 -5016.47479 -5019.65550 -5017.58118 -5016.34529 -5018.40300 -5014.19529 -5013.73831 -5015.86306 -5019.15224 -5015.88205 -5012.82142 -5007.08092 -4995.54252 -4968.13677 -4689.27625 -4325.49432 -3404.48464 -1797.78492 -1273.19058 -1019.77812 -934.54262 -871.17057 -738.90559 -623.36940 -573.53472 -460.16507 -432.17222 -349.26617 -309.11141 -282.93226 -232.74744 -196.56209 -150.61628 -135.88118 -109.63198 -93.14300 -69.95972 -64.71378 -38.40542 -32.46656 -15.51489 -5.88457 16.30509 26.34160 46.18469 51.49675 74.63542 85.55837 95.96261 117.76548 132.63426 157.93852 172.97531 184.92103 222.37442 241.71618 293.22696 321.35672 389.62095 413.81506 457.00359 435.49996 433.08624 420.25133 402.34968 370.92807 353.19162 343.03936 335.27091 337.21406 349.14479 364.79814 375.29050 388.52577 406.64236 423.13803 454.14599 476.19706 491.67172 523.41915 546.67716 557.83098 571.84530 575.58468 579.78207 572.03047 560.93294 546.16907 518.81843 494.41028 457.84045 431.16331 401.92974 377.57201 349.08965 317.78638 277.84431 255.61853 214.93540 151.68224 119.79280 65.62904 45.19529 12.24135 -47.08407 -84.97796 -155.02297 -268.19983 -934.08493 -2476.64717 -4509.02161 -4827.27288 -4729.59068 -4038.89045 -2715.51918 -404.11455 -103.80280 -99.24105 -165.16968 -384.97428 -964.88774 -1902.99610 -2318.04097 -3014.33330 -3164.27893 -3187.33437 -3223.42957 -3221.80728 -3234.67295 -3245.00370 -3253.26727 -3260.89538 -3269.99254 -3274.90778 -3281.60533 -3291.17323 -3298.04195 -3303.68647 -3313.15112 -3313.25112
-5027.88296 -5027.78296 -5027.81542 -5028.60884 -5029.79602 -5030.77219 -5031.67421 -5027.86928 -5032.62659 -5029.98928 -5025.39418 -5025.59584 -5021.65440 -5020.99144 -5018.14164 -4994.66101 -4914.72760 -4663.65640 -3741.85746 -2815.11471 -1786.91388 -1237.26613 -1074.55996 -984.20636 -934.02508 -833.65479 -740.27982 -607.84622 -512.96998 -479.59878 -392.82836 -371.26024 -319.10087 -283.83139 -216.16594 -186.40266 -149.62937 -130.85055 -111.36816 -91.54977 -88.43843 -63.22370 -42.66446 -37.94479 -32.84894 -0.37794 9.79474 20.44196 40.54354 55.03224 74.78443 85.28710 117.97066 123.24878 147.99929 166.76448 178.31420 211.38936 241.78659 278.96535 287.91075 345.80455 398.33052 434.19794 439.03003 427.13806 418.50563 418.04890 387.82357 368.58620 346.96623 337.33015 335.77528 349.98054 354.67791 365.43949 384.30519 404.21197 420.70409 439.89144 467.17928 491.04473 509.29002 531.37493 551.00359 560.71384 565.08278 569.40730 551.69933 533.68477 523.88753 478.71919 463.03747 439.99344 398.37225 381.34738 373.19574 325.99444 283.10962 262.09181 221.56730 183.84858 146.97976 107.88041 49.71908 -5.55563 -18.55322 -44.10937 -112.39149 -146.40799 -313.37094 -1135.60158 -2343.22458 -3787.98132 -4941.43231 -4799.73956 -4355.67067 -2742.33590 -1248.34064 -263.06585 -144.61057 -175.13006 -514.28534 -1350.17499 -2167.09879 -2814.68606 -3167.90416 -3188.16723 -3194.83694 -3219.30124 -3216.81219 -3238.07921 -3248.80948 -3254.20452 -3262.80623 -3269.95400 -3274.76702 -3282.53272 -3290.30715 -3297.19964 -3303.96790 -3314.21333 -3314.31333
-5037.87318 -5037.77318 -5037.34762 -5039.09446 -5038.16020 -5038.37685 -5037.73616 -5037.03661 -5036.66419 -5035.30983 -5034.79995 -5032.01970 -5030.45539 -5028.47033 -5024.32544 -5001.26996 -4887.36425 -4463.66786 -3502.21753 -2692.02177 -1688.27323 -1311.15285 -1191.45476 -1038.75931 -953.92913 -837.68565 -797.56455 -732.02338 -593.03464 -497.25676 -446.96817 -396.73357 -349.87962 -304.53192 -253.87278 -195.39887 -184.00189 -160.40928 -131.53702 -114.91641 -103.77191 -84.88974 -60.91289 -44.25465 -40.45237 -21.04257 0.38334 15.58501 32.53268 40.31330 60.37729 73.46121 97.94545 121.58814 142.68475 153.98474 184.10693 211.41604 216.92740 258.26239 289.38254 320.19116 375.70410 400.59211 407.75403 402.86284 391.07951 394.59576 378.41995 348.91524 332.36155 328.24320 333.97183 342.49868 350.08361 358.64185 377.05786 395.58987 415.07490 428.73654 445.73510 487.74450 497.61640 518.73849 535.07914 538.97722 536.69881 535.81976 526.84363 524.14954 508.56466 465.32443 440.27090 404.65150 379.40216 338.96853 337.92838 296.97968 252.42126 242.60341 205.15482 152.78078 140.84918 90.28736 51.87057 -22.66044 -56.91385 -80.56265 -152.50075 -163.16820 -455.94851 -1036.68436 -2400.86750 -4410.09351 -5017.06713 -4887.00611 -4723.03257 -3982.44138 -1711.79521 -1002.49185 -412.18844 -260.37225 -993.31050 -1414.78703 -2242.34468 -2895.62185 -3170.07708 -3200.23348 -3212.11243 -3221.89019 -3227.08832 -3236.08119 -3252.95634 -3257.59904 -3263.80386 -3268.90251 -3275.41997 -3284.00499 -3291.41665 -3297.90028 -3305.16033 -3315.22822 -3315.32822
-5046.36657 -5046.26657 -5046.26976 -5045.70791 -5046.75331 -5045.56688 -5047.27113 -5045.78072 -5044.99345 -5044.41933 -5040.99376 -5041.64304 -5037.75784 -5036.11178 -5034.31401 -5008.39578 -4859.53981 -4545.89408 -3464.86987 -2895.84293 -1862.02947 -1478.84447 -1227.15676 -1088.72359 -946.75848 -883.33884 -838.31189 -793.59616 -726.04476 -642.81858 -553.56667 -477.16983 -344.02097 -304.06897 -264.60576 -242.87561 -212.63308 -183.58731 -162.39286 -134.88980 -111.35691 -103.88669 -93.33914 -67.95577 -50.65296 -29.47097 -12.43548 5.93808 20.62426 38.59671 54.46327 74.01554 89.55615 113.71280 132.07174 151.52607 170.76969 195.39703 220.47656 257.82724 281.89658 298.92054 320.77420 356.38443 350.59904 345.12850 356.70344 371.52882 343.57098 329.46430 321.26118 322.11608 326.09852 328.51396 338.35135 352.50006 365.85902 384.60052 407.42029 427.99712 442.05037 469.74846 493.86122 506.61636 522.70298 524.87648 522.14974 511.92943 503.44063 497.13619 456.55148 438.93131 407.79995 374.53241 365.73250 330.95596 313.51575 295.72171 249.67061 217.55560 183.53372 137.62077 99.64713 65.19860 17.05213 -18.71192 -58.26068 -120.83000 -162.87862 -294.08413 -578.56322 -1868.74305 -3499.23281 -4952.51197 -4991.28681 -4927.87129 -4846.39315 -4447.00714 -3904.46021 -2090.37359 -1209.51996 -947.44066 -1219.38156 -2146.80265 -2588.69466 -3078.64239 -3191.02292 -3204.61324 -3223.48043 -3232.61369 -3240.12261 -3245.47655 -3252.08932 -3256.70374 -3264.23571 -3269.95912 -3277.41663 -3285.06276 -3291.37381 -3297.07619 -3306.27792 -3316.21317 -3316.31317
-5054.35760 -5054.25760 -5054.81024 -5053.28326 -5056.05037 -5054.38439 -5053.71134 -5052.95850 -5050.40925 -5050.36236 -5049.99385 -5048.67526 -5046.09008 -5044.31013 -5041.76811 -5027.63231 -4935.69146 -4817.33562 -4292.48113 -3360.89441 -2272.48295 -1712.59587 -1393.68001 -1097.97232 -992.80752 -910.26491 -871.73275 -858.20966 -800.78047 -721.91384 -616.44087 -505.33744 -402.09070 -318.63097 -309.74573 -280.60961 -239.35897 -205.53945 -178.65018 -152.07862 -135.04223 -118.64631 -97.86806 -83.60216 -64.42610 -47.26736 -26.18374 -11.81428 10.43772 22.04649 48.25325 59.79079 79.20628 108.44207 130.41144 148.81437 177.08502 201.00704 228.98310 272.62459 272.98229 273.86794 297.92805 326.03581 323.96621 311.35577 315.04065 328.78945 329.98234 314.57938 309.34400 311.81579 314.10350 318.81100 335.26342 345.59364 357.67969 377.63799 397.24501 413.32423 437.35547 461.78844 476.37138 487.00857 503.47202 510.03222 512.43538 488.33835 480.96926 466.00070 445.70253 421.25512 382.17678 346.88660 330.97256 308.27474 280.59532 243.74882 228.67125 193.16381 166.76814 141.62082 98.02676 57.49703 -1.21147 -23.62412 -91.14731 -182.10932 -262.68024 -455.80332 -1055.07070 -1837.10422 -4042.68131 -4772.24517 -4906.69226 -4912.24552 -4911.19287 -4886.49007 -4606.84744 -3776.24720 -2373.90133 -1744.06783 -1904.79931 -2468.39659 -2952.27069 -3130.48974 -3186.74241 -3207.46903 -3226.50570 -3234.94280 -3241.77620 -3248.30750 -3251.75271 -3258.02857 -3265.37181 -3269.49367 -3277.27994 -3284.00151 -3291.56407 -3298.50846 -3307.85165 -3317.00530 -3317.10530
-5062.20663 -5062.10663 -5062.77708 -5062.25379 -5061.83096 -5060.66838 -5060.21362 -5059.29418 -5062.59419 -5056.71422 -5055.39417 -5054.76851 -5053.52901 -5052.19859 -5048.01267 -5045.75762 -5004.57932 -4908.57538 -4602.40498 -4219.30509 -3244.15790 -2677.19336 -2101.93624 -1198.45276 -1079.62645 -952.48146 -881.60542 -879.28065 -878.28146 -832.51818 -757.51952 -603.44800 -448.01267 -362.45699 -335.96631 -322.56729 -273.12921 -231.63600 -196.56585 -171.07275 -157.60904 -142.02545 -120.66564 -100.82847 -77.45680 -63.12989 -43.46993 -17.89552 -0.75596 22.86071 37.44350 51.58430 82.02717 97.67359 121.01244 148.78479 166.49823 206.51001 250.62551 270.83245 263.39143 266.72424 269.57243 284.14242 294.87591 296.13831 289.06389 295.64411 299.14100 303.32728 299.24699 299.67197 304.12079 309.85653 321.82881 334.97258 352.80360 367.30031 391.10450 408.20167 425.77380 445.80740 463.95915 478.36267 487.72636 492.28093 492.99005 484.06530 462.93547 448.81793 421.94401 399.35194 372.56457 328.57052 300.84306 285.71971 237.23772 211.85658 195.93877 172.95962 126.13653 93.54939 51.28368 44.68381 -10.60530 -47.99658 -96.18991 -194.57292 -477.58447 -700.41532 -1225.18871 -1944.55401 -4022.00637 -4676.32463 -4829.68506 -4899.74434 -4951.20316 -4980.23619 -4835.81573 -4063.91407 -3141.27578 -2758.42166 -2387.09368 -2665.68258 -3020.69104 -3181.43633 -3194.49462 -3212.80501 -3224.90554 -3235.15023 -3242.53403 -3249.68330 -3253.72852 -3258.67216 -3265.55640 -3270.44854 -3276.32014 -3284.16439 -3292.81402 -3298.57950 -3308.30962 -3317.96493 -3318.06493
-5069.91576 -5069.81576 -5069.99990 -5070.28968 -5070.75047 -5069.32300 -5068.97184 -5067.29808 -5067.11564 -5065.42296 -5063.23399 -5063.58672 -5058.00118 -5057.71211 -5056.53291 -5052.44313 -5035.85950 -5007.47641 -4952.42849 -4731.53950 -4060.77046 -3189.27615 -2386.61603 -1684.90480 -1256.13684 -991.08323 -957.69180 -944.06441 -907.68139 -884.55654 -833.07187 -670.48122 -608.45726 -447.05190 -368.17880 -336.18504 -302.70590 -251.77465 -213.33735 -193.48615 -179.04088 -160.40157 -145.80434 -122.59991 -92.90664 -73.53835 -59.60704 -23.32543 -5.12168 8.32190 28.89022 44.30996 77.59133 88.39956 114.32476 155.04113 177.36533 209.91457 252.18819 251.58892 253.20369 254.43003 255.60790 259.69790 265.22530 269.50491 270.82831 279.76284 280.65725 277.69066 283.82504 292.69143 294.55001 304.30512 310.79386 327.19874 347.82118 363.45353 376.89384 399.56074 420.89706 435.42969 442.24406 462.55615 473.64902 479.96606 482.80235 469.84946 440.30878 433.11702 392.89282 356.88573 340.14394 308.09707 271.83429 247.82036 204.13700 204.18480 180.79531 125.18466 98.66902 69.38656 10.34144 -1.02066 -27.20444 -86.54892 -156.86892 -225.43484 -560.71762 -861.95008 -1536.28829 -2764.05575 -4512.46882 -4630.59500 -4792.73473 -4871.98149 -4955.45823 -5008.12328 -4958.51150 -4655.92888 -3895.48970 -3027.17680 -3091.97480 -3083.73867 -3108.94106 -3186.61871 -3208.50377 -3219.65712 -3231.18750 -3238.40686 -3243.22738 -3250.87848 -3255.38544 -3260.91611 -3267.89953 -3271.51508 -3277.46415 -3283.70592 -3291.21842 -3298.98259 -3306.62375 -3318.96124 -3319.06124
-5077.49017 -5077.39017 -5077.51405 -5077.12279 -5076.24960 -5075.27519 -5075.91409 -5075.29224 -5073.42987 -5073.05234 -5072.24776 -5068.86116 -5067.92732 -5066.43284 -5064.37573 -5059.70558 -5052.05131 -5040.79067 -4985.13263 -4765.75657 -4565.42930 -3798.96076 -2772.60559 -1914.24440 -1209.01425 -1066.23999 -1017.35022 -1015.93451 -1005.50840 -940.21050 -869.88118 -766.35843 -731.59547 -552.86192 -416.47767 -366.07770 -328.44628 -270.39130 -260.40289 -212.23530 -192.57062 -186.84464 -174.31785 -146.31427 -104.65600 -80.79196 -70.13691 -35.78136 -18.29616 6.11359 26.27036 37.83171 76.62267 88.86354 118.13353 165.32739 185.06765 226.89068 268.22481 271.72959 252.51237 243.36788 244.66167 246.56278 249.75557 251.30519 259.33587 266.12322 268.66151 268.98912 268.00587 276.12709 281.07788 294.34417 302.18601 316.08478 340.99959 351.51167 361.95221 380.83584 404.12133 415.06623 434.61604 434.22161 449.85944 451.13378 456.35018 438.75844 435.39312 443.63326 418.83431 358.49077 282.55624 254.65098 236.86828 207.94496 152.48000 145.88034 136.29526 123.43686 89.36826 40.21579 -7.56092 -33.54755 -61.31936 -104.06969 -157.14071 -325.04589 -813.80054 -1005.38960 -1529.69429 -3262.93349 -4541.91874 -4739.00234 -4795.23252 -4851.91124 -4960.90995 -5014.62506 -4977.02259 -4723.33816 -4028.06113 -3703.48123 -3347.54427 -3217.49208 -3184.93172 -3193.94105 -3211.80773 -3221.95561 -3231.55747 -3240.08411 -3246.72189 -3252.25798 -3256.46999 -3262.00551 -3267.28202 -3273.12558 -3277.36308 -3284.98787 -3288.86106 -3299.07026 -3307.94726 -3319.78613 -3319.88613
-5084.91181 -5084.81181 -5084.35827 -5085.59568 -5085.87808 -5084.19728 -5082.71347 -5082.50886 -5081.32210 -5079.86678 -5077.21195 -5077.46771 -5075.28685 -5071.67793 -5069.71254 -5067.78863 -5066.17191 -5061.59765 -5049.00140 -4970.22314 -4833.57142 -4068.84198 -2965.75515 -2010.70747 -1347.59880 -1201.86905 -1149.23037 -1112.66311 -1078.95526 -1019.16893 -1015.04824 -916.74999 -808.33506 -712.62491 -575.23308 -474.79263 -361.20972 -334.69539 -280.53061 -240.82401 -224.43822 -207.11671 -181.66359 -161.54756 -129.27619 -108.25251 -85.48066 -63.09397 -28.04296 -9.85798 20.78335 45.13331 77.24041 95.28372 127.99509 173.12326 196.67454 246.27143 259.97453 256.48557 230.73095 224.51789 219.79935 227.76036 234.69399 232.29348 235.72426 246.65083 259.52270 252.01903 258.08342 266.35540 275.80108 278.10354 295.73329 306.07739 325.54023 338.92632 351.40458 357.92446 383.56258 399.84666 415.06002 424.51849 431.66368 415.63807 412.47317 406.96564 422.54450 499.83679 531.93121 409.19212 228.27296 238.37026 209.51614 167.76640 141.62025 107.72272 97.74275 86.82368 45.70307 18.52102 -26.88919 -61.79095 -105.12318 -138.18161 -208.30572 -412.57141 -737.85218 -1283.15281 -1972.73476 -3492.02753 -4307.91201 -4745.19090 -4815.22751 -4862.57788 -4929.89290 -5013.74724 -4955.12883 -4690.47400 -3862.38087 -3763.81457 -3451.97143 -3234.12676 -3182.16351 -3195.62074 -3210.52057 -3220.05800 -3236.40164 -3243.50799 -3249.65139 -3255.09826 -3259.53488 -3263.00939 -3265.95632 -3272.95758 -3278.31881 -3285.37828 -3291.22364 -3299.53007 -3307.80476 -3320.76924 -3320.86924
-5092.29782 -5092.19782 -5092.43335 -5090.57546 -5092.37972 -5091.37476 -5091.58129 -5089.66519 -5088.39564 -5087.41115 -5085.08022 -5083.55614 -5080.72197 -5080.41890 -5075.88246 -5072.89292 -5068.82606 -5066.60029 -5060.08136 -5024.49806 -4705.00054 -4207.97886 -3067.70496 -2096.87061 -1395.85686 -1316.42596 -1248.23271 -1207.27660 -1205.04109 -1346.36401 -1275.16015 -1053.89012 -927.09653 -844.15651 -707.23706 -555.89357 -420.24750 -406.97670 -299.72436 -290.51000 -261.08581 -234.30321 -194.55477 -187.75308 -143.83071 -121.26926 -105.62257 -73.79825 -52.53383 -18.23657 14.49987 28.41417 63.20348 94.57978 123.03971 156.64010 209.43981 253.74106 239.82337 231.03125 194.36134 191.25508 204.91091 207.90398 214.92410 225.24716 225.10132 224.31648 229.65295 236.14242 248.84467 258.67946 260.40928 269.31760 278.64340 293.55152 302.49611 326.04448 339.94677 346.26164 363.45939 378.08187 388.05709 404.47784 399.69706 384.31708 367.33310 376.85400 383.90912 457.42423 476.11698 310.34908 227.00468 205.48144 189.31219 143.33856 113.35440 59.91929 46.41584 35.39602 -5.84435 -33.16589 -55.78924 -91.32068 -124.15518 -211.60208 -282.70743 -481.43851 -839.86719 -1168.52984 -1783.33026 -2990.85111 -4131.24709 -4510.74813 -4800.19515 -4857.46812 -4924.72986 -4972.40215 -4783.68820 -4305.17356 -3618.15117 -3568.59457 -3296.13510 -3197.89381 -3167.65130 -3181.58453 -3195.90734 -3218.61882 -3239.61426 -3247.87918 -3253.33532 -3256.59032 -3259.50425 -3266.39375 -3269.43236 -3271.67777 -3281.67369 -3285.27235 -3291.10656 -3300.99281 -3309.98747 -3321.51074 -3321.61074
-5099.60000 -5099.50000 -5099.30384 -5098.45626 -5097.52632 -5099.15500 -5096.72322 -5095.78763 -5095.20489 -5092.53728 -5091.07244 -5091.54802 -5088.97852 -5085.07587 -5082.15629 -5081.33948 -5078.44243 -5075.10570 -5063.17051 -5020.84725 -4510.74612 -4121.84794 -2970.73997 -2076.53692 -1658.26000 -1459.21172 -1559.45581 -1468.30504 -1411.78655 -1660.94254 -1418.00098 -1267.84374 -1025.09444 -953.73633 -855.09471 -783.41158 -634.27641 -518.08276 -418.81883 -331.03910 -297.17413 -283.92616 -234.50180 -203.24425 -169.12234 -145.79421 -127.33630 -91.86629 -71.32728 -39.41496 6.76661 42.61798 68.83100 90.11818 121.74849 167.84357 209.77090 225.60733 201.85187 187.80679 170.01023 175.11066 187.40083 194.71187 189.78506 193.36925 207.42475 212.06380 219.04956 227.38646 230.12560 236.05184 245.67688 247.87048 260.71745 279.00895 293.55916 308.50407 319.45371 330.02102 355.28476 362.87495 364.36498 358.00259 358.11455 332.61048 324.48299 342.17773 359.53220 334.58359 325.99377 218.25211 206.88369 172.27813 164.48578 110.41157 88.48975 49.74393 36.31640 1.29651 -45.94298 -62.45157 -117.90019 -128.21425 -178.36528 -278.33417 -422.45370 -656.09638 -1028.18993 -1328.64327 -2188.70862 -3132.60951 -4217.37281 -4577.84798 -4747.84614 -4854.57162 -4904.88400 -4933.43823 -4642.88593 -4023.60036 -3409.69578 -3423.46758 -3228.06709 -3154.29273 -3141.68475 -3176.75295 -3198.44437 -3226.62616 -3238.07752 -3248.38420 -3257.32340 -3258.98323 -3262.65196 -3266.89850 -3271.19089 -3274.10865 -3279.53591 -3285.22901 -3289.86591 -3298.46045 -3310.46474 -3322.65957 -3322.75957
-5106.78886 -5106.68886 -5107.09130 -5106.21611 -5106.07133 -5105.33579 -5104.85737 -5102.92342 -5103.28081 -5099.70970 -5098.23052 -5098.71475 -5094.57941 -5091.94150 -5089.66945 -5087.39563 -5084.57555 -5081.06252 -5061.01535 -4937.14804 -4638.71017 -3692.86781 -2786.48308 -2042.53512 -1870.01987 -2051.96201 -1931.32432 -1890.53918 -2180.68831 -2162.18060 -2329.05320 -1717.98172 -1453.60240 -1045.35269 -970.24665 -851.25654 -718.55743 -648.80698 -497.78412 -458.55415 -407.63121 -299.53961 -266.83340 -206.88719 -185.35458 -158.71379 -127.67768 -104.24962 -83.44772 -52.35039 -17.48543 29.35797 55.15777 99.58015 146.71971 166.25537 173.20579 178.28015 175.51071 162.54280 155.28799 168.03119 167.14284 170.33121 176.72894 178.89531 193.35670 204.67761 209.10854 215.20893 212.33174 219.32102 231.81237 236.14913 245.83939 265.98156 266.97828 288.86531 296.35697 304.45873 322.57689 333.23236 351.71004 347.53794 343.99802 322.98588 297.03561 324.50157 330.29192 434.30834 372.39489 183.18788 169.30901 148.71482 122.92680 101.27705 73.93689 34.05624 3.20556 -31.64444 -57.92084 -112.30822 -137.60763 -179.50198 -339.48600 -377.84246 -688.91000 -803.11698 -1074.80366 -1390.41868 -2532.88989 -3739.09071 -4360.15358 -4731.08984 -4815.62570 -4858.28329 -4905.16718 -4913.21264 -4549.57143 -3900.70835 -3481.32999 -3227.75870 -3158.18098 -3143.54158 -3152.14679 -3171.60453 -3207.32626 -3230.20155 -3239.74849 -3251.46309 -3258.75507 -3260.58846 -3264.56132 -3267.44820 -3271.53104 -3275.17025 -3278.96118 -3284.23206 -3290.33987 -3296.63054 -3309.90555 -3323.98759 -3324.08759
-5113.74362 -5113.64362 -5113.05318 -5112.27538 -5112.30519 -5108.80322 -5109.18740 -5110.25749 -5109.66329 -5106.96218 -5104.83796 -5102.79360 -5101.96785 -5099.96572 -5096.99789 -5093.36029 -5089.52894 -5087.10081 -5072.10556 -5012.62632 -4638.21659 -3999.83949 -3102.53751 -2608.40513 -2541.95651 -2614.29102 -3002.64068 -2872.57545 -2895.02682 -3129.13866 -3553.29278 -3017.81160 -1912.88309 -1424.89947 -1069.95728 -921.89243 -859.91835 -811.67909 -707.43457 -680.66854 -571.32804 -477.92708 -372.20615 -250.72594 -214.35994 -163.61691 -140.87552 -120.27382 -71.80977 -54.39267 -13.44485 10.60643 63.37031 103.02570 152.63846 149.87355 129.87463 123.38053 131.23113 130.78570 124.24537 129.42258 136.23810 141.57995 154.77430 160.92971 172.73880 180.79026 205.20078 203.41315 202.26071 214.83256 219.30604 220.68046 234.60123 246.75496 252.09841 265.29963 274.70123 293.71369 301.21524 324.46171 333.07447 330.90023 332.34205 305.89895 268.70923 282.52824 379.78584 448.49231 297.59067 149.32370 132.96271 125.77862 99.12486 53.67853 21.14873 5.59271 -19.73937 -65.87031 -123.37118 -191.52034 -212.33614 -356.10929 -549.27596 -578.82107 -859.73978 -1122.29341 -1309.92113 -1952.65611 -2756.90182 -3781.84024 -4487.85079 -4729.95605 -4844.37201 -4887.24124 -4927.06622 -4884.91369 -4252.56355 -3777.86295 -3820.18389 -3352.75893 -3158.31986 -3128.86787 -3148.89151 -3173.71724 -3211.70260 -3230.30321 -3241.15531 -3251.65837 -3258.66863 -3262.31830 -3265.39187 -3267.89721 -3271.83292 -3274.80221 -3279.78120 -3282.24232 -3289.67386 -3298.52163 -3309.50769 -3325.43786 -3325.53786
-5120.62947 -5120.52947 -5120.25982 -5121.31589 -5120.59491 -5119.71248 -5117.14905 -5117.51491 -5115.19639 -5115.62625 -5113.29356 -5111.50598 -5108.07595 -5105.79150 -5102.77669 -5100.47175 -5097.28212 -5092.50444 -5084.67814 -5032.46045 -4783.19681 -4418.86949 -3939.79958 -3693.05446 -3651.45997 -3913.43153 -4105.60467 -4284.54788 -4266.71106 -4416.54901 -4351.86475 -4461.12170 -2868.59096 -1935.64691 -1186.13909 -1121.51107 -1058.10967 -917.31694 -852.02949 -814.80709 -791.84794 -577.44060 -397.89894 -285.52445 -233.63374 -192.66455 -161.89385 -140.46717 -113.35468 -91.08352 -38.97316 -2.83341 53.08228 95.65457 97.54305 86.87847 84.94679 80.05354 84.13429 90.80614 105.13636 108.59861 116.88752 122.41020 131.37136 140.00802 154.79224 161.34955 163.34875 186.43797 192.20103 191.38942 201.52442 212.72628 224.77491 226.77534 235.74490 251.78148 261.02212 279.48449 298.86119 307.61460 308.10838 311.14221 311.39145 282.20099 267.23385 284.84268 418.67173 400.21871 188.83218 146.53347 121.33762 90.20939 65.94612 40.62023 -15.40398 -28.21064 -56.25642 -105.64007 -153.53286 -232.99380 -356.56068 -705.75778 -816.44157 -770.92650 -1069.18600 -1466.02633 -1872.14491 -3036.03114 -4024.91094 -4103.94753 -4535.84929 -4713.39057 -4856.92259 -4910.13360 -4957.09976 -4816.17756 -4488.39345 -3650.70092 -3880.01485 -3297.05596 -3149.79496 -3119.07782 -3158.24053 -3185.45887 -3211.28368 -3233.25292 -3243.30427 -3255.60871 -3261.64962 -3263.75533 -3265.54725 -3268.76647 -3272.19949 -3274.49632 -3278.38839 -3282.25997 -3288.70232 -3298.17787 -3309.59040 -3327.03712 -3327.13712
-5127.46528 -5127.36528 -5126.93340 -5126.12756 -5126.21158 -5127.03254 -5123.50478 -5121.95038 -5122.49224 -5120.47969 -5120.02711 -5116.60986 -5115.06037 -5111.66332 -5109.84912 -5106.40885 -5103.97613 -5100.65784 -5095.01083 -5082.79492 -5007.25808 -4707.45320 -4677.93108 -4582.16111 -4422.81460 -4623.04225 -4676.57273 -4712.13549 -4728.09073 -4854.74217 -5045.36616 -4838.81613 -3760.78948 -2280.93038 -1675.96418 -1388.27403 -1165.06835 -988.41630 -928.02836 -883.36019 -788.75145 -642.24241 -392.97688 -327.47759 -266.91046 -209.71276 -189.88929 -141.93479 -126.85163 -99.23409 -52.17336 -13.10042 20.15817 52.02692 55.16890 27.88289 55.42822 58.80005 63.43592 71.31033 80.94834 85.03713 101.86958 108.80507 111.79129 121.75167 141.66207 149.44095 160.81748 166.31706 177.68437 183.69354 193.02104 200.81830 200.13178 208.25415 224.70633 233.87192 245.70688 270.76934 283.15620 289.17343 289.55991 296.73816 286.54794 278.38563 247.86505 231.48496 305.23636 281.08900 131.61842 120.01821 90.98142 67.48718 25.14294 -5.32821 -23.04296 -51.12501 -116.66649 -120.86929 -217.46625 -425.36071 -656.85641 -943.91684 -985.90510 -1208.44763 -1519.71873 -1880.21401 -3767.08568 -3934.51643 -4646.51866 -4572.84814 -4425.38020 -4632.61395 -4793.62975 -4795.67962 -4950.82510 -4897.62541 -4443.46424 -4014.00897 -3810.57920 -3230.57231 -3099.26592 -3119.39175 -3161.18836 -3195.37003 -3216.96202 -3238.65369 -3247.15841 -3256.92916 -3261.52726 -3264.98916 -3266.00183 -3268.52080 -3271.34203 -3273.45008 -3278.12081 -3282.39456 -3288.73091 -3300.08949 -3310.33808 -3328.29915 -3328.39915
-5134.33152 -5134.23152 -5134.19963 -5134.62603 -5132.75747 -5133.22640 -5131.66125 -5130.30653 -5130.25175 -5127.07682 -5124.74144 -5123.33520 -5120.93264 -5119.42044 -5115.86922 -5114.33754 -5111.10803 -5106.41755 -5104.57551 -5094.18289 -5091.42450 -5008.09465 -4962.14815 -4909.88222 -4938.63314 -4978.82267 -5014.56742 -5027.28327 -5024.21228 -5067.03923 -5094.71572 -5055.78594 -4243.49552 -3809.01793 -2408.11963 -1577.40349 -1332.16848 -1102.64108 -998.32723 -943.26166 -801.52896 -707.45784 -491.35312 -406.28799 -337.94749 -229.82676 -204.05480 -154.93046 -128.42944 -103.54903 -77.96729 -43.78254 -32.51967 -11.29636 5.63021 11.23831 8.98583 16.07154 29.11764 50.91188 52.82751 65.43859 62.32091 85.84958 88.48918 98.84818 119.63042 136.35908 152.68969 158.37182 171.52716 175.88846 181.22834 185.18834 188.09492 180.75459 201.99426 214.24590 235.15627 244.54994 257.83808 270.21257 276.36722 276.19866 270.33053 263.88415 241.13756 258.86064 187.43044 155.73011 122.94055 100.47801 46.93369 37.62661 -9.25210 -36.39228 -63.14122 -93.90350 -140.90525 -214.89113 -376.83949 -719.92501 -997.01417 -1337.67299 -1319.15189 -1931.36757 -2412.69774 -3660.78222 -4538.47599 -4684.08246 -4997.87805 -4993.75859 -4798.12547 -4519.42591 -4637.10927 -4772.17392 -4951.89474 -4862.83654 -4814.77003 -4623.97138 -3710.25715 -3172.25438 -3087.08927 -3113.77202 -3149.01716 -3202.51471 -3222.87143 -3240.73501 -3251.11365 -3256.26285 -3263.54562 -3265.33106 -3266.63246 -3268.32908 -3270.05386 -3274.25429 -3276.67379 -3280.21398 -3289.15319 -3299.86138 -3311.03626 -3330.33072 -3330.43072
-5141.27334 -5141.17334 -5140.33013 -5140.03607 -5140.38115 -5138.76195 -5138.30179 -5138.14266 -5135.04853 -5135.63940 -5134.33107 -5132.03141 -5131.73676 -5126.56582 -5128.13319 -5122.96737 -5119.65778 -5114.39423 -5112.40608 -5107.31015 -5100.90865 -5083.04659 -5082.24524 -5071.28343 -5069.49422 -5045.35780 -5060.56536 -5056.04963 -5053.30625 -5072.27834 -5088.39799 -5066.50376 -4697.11640 -4156.31679 -3066.47415 -2072.98309 -1491.14304 -1281.94477 -1136.35233 -983.64568 -872.33955 -782.91384 -635.31523 -476.29600 -398.57029 -275.60697 -235.74880 -174.07825 -143.34389 -131.46226 -96.60734 -77.95055 -49.35800 -42.97686 -26.86538 -18.05632 -1.66063 3.96250 6.02173 22.25146 19.24210 28.37120 46.74534 65.38167 75.84288 85.62029 105.71218 125.48225 135.98862 147.90751 153.33182 165.28990 164.64678 165.50249 171.46885 172.93426 177.55665 191.25730 204.00052 236.39376 244.96243 255.74901 264.76579 262.10759 256.70079 248.94429 265.89025 324.06577 199.35020 88.84713 95.62213 80.10599 12.24789 13.00978 -29.96982 -61.09230 -106.13684 -142.77608 -190.97142 -352.93553 -639.32051 -1574.21569 -1892.57835 -1857.74342 -3040.85448 -3044.62299 -4114.01237 -4819.74669 -4950.75970 -5207.96925 -5292.44048 -5197.54943 -5156.08171 -4721.73096 -4679.60175 -4773.76164 -4957.01622 -5032.25962 -4944.65540 -4410.75516 -3495.18739 -3137.64687 -3089.84959 -3114.16472 -3182.09380 -3210.58059 -3230.50663 -3242.95546 -3253.29615 -3258.63583 -3264.34228 -3265.87472 -3266.67483 -3267.89076 -3269.64578 -3273.11384 -3275.35654 -3279.66321 -3286.25998 -3297.46207 -3310.98080 -3332.17174 -3332.27174
-5148.22526 -5148.12526 -5148.63524 -5147.68499 -5148.06646 -5145.03400 -5145.80289 -5143.67564 -5142.18973 -5142.31917 -5140.20554 -5137.52742 -5136.43406 -5135.57623 -5133.94385 -5129.62247 -5128.19321 -5125.28467 -5123.01144 -5118.42647 -5116.91555 -5107.97062 -5105.27875 -5107.17974 -5096.03080 -5089.22304 -5084.92985 -5070.49696 -5060.76574 -5072.12138 -5085.92309 -5096.15694 -5094.62033 -5110.76947 -3978.35132 -2976.99065 -2206.88897 -1438.27553 -1180.06385 -1022.56193 -908.55338 -842.53487 -707.05048 -593.01415 -427.80100 -334.84977 -259.21688 -195.25027 -165.93380 -159.80248 -131.01195 -96.55053 -82.84549 -75.16751 -42.70301 -38.39269 -26.88404 -28.31425 -10.97966 -3.40142 0.78265 10.82250 24.80308 37.25159 56.61134 69.74138 90.11576 102.68774 129.68233 136.72967 143.12842 146.64317 153.80704 149.99623 151.91964 156.05037 163.97403 177.97063 192.82715 208.85255 213.73021 228.98132 237.73979 237.31463 233.51929 221.21178 222.17637 242.61030 183.93743 83.42718 48.39245 53.30449 -2.85629 -52.56147 -79.31766 -105.79964 -129.33214 -208.48189 -456.61865 -1211.86221 -1677.61565 -2919.87705 -2835.88705 -3753.22947 -4710.26183 -4648.91586 -4687.76459 -5129.66761 -5338.08085 -5436.87666 -4203.95068 -4769.38146 -5258.12287 -4992.18983 -4249.95623 -4307.67289 -4351.12730 -4611.61646 -5088.92542 -3816.36971 -3232.61119 -3103.13714 -3100.66115 -3147.51817 -3184.13654 -3210.48627 -3233.28496 -3248.38836 -3256.75553 -3262.32585 -3265.89243 -3266.32444 -3267.00780 -3267.84225 -3269.50668 -3271.35950 -3274.19764 -3278.52757 -3285.62510 -3297.35760 -3312.24798 -3333.67715 -3333.77715
-5155.23291 -5155.13291 -5154.68821 -5156.08637 -5153.86795 -5153.50060 -5152.50171 -5153.44999 -5150.53393 -5150.06918 -5149.20690 -5147.56399 -5145.60171 -5143.59531 -5141.61217 -5141.63170 -5136.23504 -5133.09213 -5130.73127 -5129.96545 -5127.90512 -5123.19883 -5117.34112 -5112.86707 -5107.59681 -5100.55169 -5098.19966 -5084.04453 -5072.68022 -5077.80027 -5086.58592 -5088.65685 -5101.64516 -5124.71690 -5084.02979 -4477.16488 -3683.97513 -2171.74117 -1338.27460 -1008.07283 -917.67482 -857.84444 -803.34666 -726.69501 -484.03164 -367.57807 -311.26843 -251.27148 -187.92335 -171.34005 -155.12216 -128.49010 -116.78483 -96.52479 -80.40091 -69.49892 -65.28884 -50.80301 -35.95393 -28.40242 -17.13976 -6.05894 3.67071 22.71212 35.47006 60.92593 71.54459 101.21499 119.34235 131.70301 130.67423 130.31810 131.26484 138.67018 140.11119 140.33271 147.94787 154.97052 165.07872 184.15280 207.91162 214.07878 217.52798 218.81751 210.74702 200.18324 191.96316 169.01725 89.70531 72.06645 42.36887 -2.92801 -30.72940 -79.46716 -114.97328 -127.86852 -214.79012 -527.65332 -1174.64704 -2293.19471 -3423.75107 -4021.59279 -4652.24511 -4904.06243 -5201.92085 -5263.59303 -5469.70071 -5564.46877 -5449.98344 -5521.69557 -3640.37974 -2475.07602 -2322.18937 -2713.05934 -2629.67670 -2582.14722 -3044.04212 -3719.55202 -3935.86414 -3332.39324 -3096.00409 -3081.35196 -3105.03211 -3142.98572 -3189.68094 -3221.03922 -3236.23227 -3251.96744 -3260.81258 -3265.06484 -3267.48314 -3267.33222 -3267.47673 -3267.64263 -3269.22686 -3270.91610 -3273.40752 -3278.88849 -3285.38253 -3294.26362 -3313.62005 -3334.99459 -3335.09459
-5162.40809 -5162.30809 -5162.76638 -5161.45922 -5160.79131 -5161.82673 -5160.86111 -5160.24819 -5159.92245 -5157.48258 -5157.10013 -5157.48881 -5155.09624 -5154.90637 -5150.63620 -5151.93763 -5149.42520 -5149.52434 -5145.60826 -5143.74686 -5137.34650 -5133.69158 -5132.09272 -5125.37386 -5119.89496 -5116.16408 -5112.19365 -5096.95560 -5090.30553 -5079.78330 -5077.15946 -5078.34028 -5092.91318 -5099.78610 -5038.79657 -4743.41078 -4295.46411 -2571.51594 -1499.17248 -1006.21421 -929.17368 -881.16157 -847.92072 -782.38945 -617.13474 -396.81783 -312.24546 -277.89500 -257.97837 -193.51338 -172.89655 -160.78603 -150.15121 -122.26781 -106.39598 -97.45079 -85.46376 -72.52887 -59.50400 -47.16327 -35.42496 -28.22769 -13.93172 3.43110 21.66139 38.43533 70.45119 88.88853 110.18396 125.87744 124.43160 124.67004 108.22047 117.19894 114.16245 125.67819 136.92772 142.82567 146.72258 161.76011 191.95349 200.96942 200.41224 206.77385 187.56952 175.82404 159.84304 167.68572 91.81116 33.84315 33.20584 -36.07521 -65.51836 -146.55961 -187.75031 -204.01579 -801.12436 -964.47994 -1684.40400 -3863.30300 -4907.88250 -5195.35406 -5111.25172 -5294.04815 -5354.77122 -5674.43607 -5781.47145 -4795.54513 -3683.51344 -2095.80509 -331.31157 -389.06935 -483.86240 -564.93405 -752.05893 -597.04342 -2024.97358 -2937.90967 -3120.57122 -3072.64607 -3057.04030 -3069.53201 -3116.67076 -3163.61328 -3208.42316 -3230.51375 -3246.10916 -3256.81275 -3264.48448 -3268.61008 -3268.92964 -3268.50592 -3268.18551 -3268.48622 -3270.03641 -3270.81215 -3272.74070 -3277.58778 -3286.35149 -3296.51153 -3316.29315 -3336.45048 -3336.55048
-5169.89642 -5169.79642 -5169.28398 -5170.70048 -5171.35093 -5169.84143 -5169.52707 -5169.04511 -5171.84695 -5168.56456 -5168.04054 -5166.04048 -5164.79270 -5165.41830 -5163.83582 -5162.70482 -5161.05948 -5156.01676 -5157.44245 -5155.84510 -5152.80285 -5150.80215 -5139.62931 -5139.21566 -5134.25705 -5130.84931 -5126.52997 -5119.77360 -5106.41464 -5097.50039 -5085.44494 -5077.12820 -5073.97473 -5067.21466 -5041.25235 -4928.98651 -4245.45489 -2990.83613 -1564.25469 -1148.95961 -942.00984 -880.87946 -831.53801 -819.92557 -768.10780 -528.10412 -366.81117 -312.09332 -289.83129 -225.79708 -201.67164 -194.55115 -178.31178 -164.36449 -135.99822 -106.03406 -112.42709 -88.39309 -79.57316 -69.85147 -66.70014 -61.10604 -41.67006 -11.16704 1.35105 6.91426 40.93571 69.17622 100.74638 125.10990 115.82515 103.32950 99.84712 101.98261 104.12320 108.73398 119.69442 125.87212 131.12968 138.06462 144.83085 167.72807 170.25310 176.28118 170.24524 168.83953 146.31050 112.19433 27.48593 -8.68515 1.72421 -68.98772 -129.01290 -201.89401 -396.49171 -749.06963 -1502.17200 -2515.98581 -3617.55775 -5392.05665 -5377.84329 -5483.92331 -5562.41491 -5635.48252 -5749.08029 -4387.72639 -2522.20142 -688.09336 -336.02883 -239.76950 -226.39617 -106.04623 -112.07097 -107.01231 -114.10799 -121.61590 -1531.61133 -2870.78889 -3064.19329 -3054.69855 -3044.30037 -3057.84121 -3125.36975 -3177.51644 -3215.07721 -3241.36180 -3249.58279 -3264.44522 -3270.53932 -3272.38551 -3272.08009 -3269.80838 -3269.45942 -3269.84897 -3270.97186 -3271.69387 -3272.97071 -3275.50407 -3287.31156 -3296.59149 -3317.00967 -3337.60795 -3337.70795
-5177.80917 -5177.70917 -5178.23207 -5176.64889 -5177.16453 -5178.70890 -5179.29953 -5179.00887 -5178.95889 -5182.04199 -5181.45504 -5179.22125 -5173.93924 -5176.28299 -5177.12636 -5173.13538 -5176.44118 -5174.09215 -5166.81503 -5169.28536 -5167.27569 -5165.04793 -5162.66918 -5159.38175 -5152.14996 -5148.56385 -5139.52607 -5137.06478 -5139.06852 -5119.76193 -5105.18682 -5095.98419 -5079.33962 -5066.01827 -5052.08397 -4895.16526 -4564.73708 -3096.93420 -1593.98404 -1213.76492 -1042.40103 -969.78200 -863.30457 -812.14796 -818.76451 -675.56346 -517.79809 -394.78819 -357.89973 -313.49328 -255.44714 -253.01186 -203.16439 -177.12799 -174.30417 -167.44684 -148.74735 -116.16319 -106.50300 -91.73555 -88.67384 -76.39186 -59.73935 -45.95818 -17.20353 0.95160 7.01077 31.09545 54.45951 86.73818 91.72978 76.31294 84.81284 87.99011 84.80931 84.38812 93.67663 101.54593 117.24907 122.22627 131.30747 147.77074 158.73256 156.36676 156.65996 134.71747 143.25211 139.99260 62.39318 -8.55423 -36.60324 -93.22222 -120.70381 -214.87153 -543.00381 -1771.00508 -1966.16667 -2895.53806 -3874.00842 -4721.49619 -4912.78076 -5213.51370 -4780.39515 -4185.10705 -2927.51079 -1105.12679 -371.51537 -166.31967 -158.36540 -114.24570 -87.16914 -84.45699 -75.63650 -86.26495 -95.60692 -113.14591 -1625.60950 -2617.37087 -3066.61469 -3062.19490 -3053.35447 -3098.30770 -3147.52473 -3190.70731 -3222.67202 -3249.25080 -3260.27106 -3271.89228 -3276.36074 -3277.51690 -3276.37858 -3275.19024 -3274.28619 -3273.62935 -3273.60656 -3274.78915 -3274.47288 -3276.97506 -3284.34528 -3298.23427 -3313.63190 -3338.44098 -3338.54098
-5186.24544 -5186.14544 -5186.55115 -5189.77371 -5188.42270 -5188.50476 -5189.67703 -5192.75264 -5190.90372 -5190.38193 -5188.99369 -5189.41255 -5189.81428 -5188.84119 -5187.77375 -5188.02133 -5191.72617 -5188.11114 -5187.52431 -5190.76887 -5185.46042 -5182.02895 -5179.82294 -5176.51080 -5172.13696 -5169.75095 -5164.66228 -5158.17788 -5148.81425 -5142.14866 -5126.02874 -5122.99700 -5111.60802 -5090.87926 -5067.13499 -4981.51602 -4580.30754 -3938.95688 -2752.11090 -1736.77935 -1193.39775 -1023.94624 -932.09783 -847.62271 -805.57104 -755.19869 -589.55457 -514.75772 -432.99257 -386.46582 -344.10459 -311.40644 -271.47942 -278.51347 -208.87899 -181.32995 -161.66073 -145.86687 -143.68513 -129.05138 -118.51722 -106.53249 -82.31101 -68.96587 -60.56147 -34.90811 -15.38124 4.42594 17.79143 58.03188 74.00742 54.43729 56.61091 57.84016 61.17762 68.79377 74.40645 76.93910 101.33120 106.79512 119.06646 120.87589 133.34662 132.70567 131.33318 115.22746 94.62538 137.40871 105.49803 -24.10584 -78.04763 -134.90205 -255.03002 -455.57649 -685.36700 -1151.72816 -1358.77629 -2178.22701 -2869.09815 -3558.84398 -3740.27620 -3055.65961 -2056.21474 -665.24633 -242.82896 -144.16885 -141.62816 -137.98076 -122.98587 -76.51138 -50.97107 -56.16054 -58.38493 -71.48703 -92.68972 -123.71624 -1612.67823 -2760.76424 -3070.39124 -3073.38495 -3079.02525 -3111.85748 -3159.94671 -3215.66739 -3234.91185 -3258.48759 -3272.71155 -3276.77848 -3282.63631 -3283.92895 -3283.05471 -3282.33779 -3282.27638 -3280.75832 -3279.77261 -3278.24766 -3278.33274 -3280.75748 -3286.97246 -3302.93674 -3317.78252 -3339.91863 -3340.01863
-5195.28942 -5195.18942 -5196.84509 -5196.66886 -5199.64781 -5197.75962 -5198.61199 -5197.53337 -5200.66326 -5203.18931 -5203.69736 -5208.43991 -5205.88169 -5204.95839 -5205.40976 -5208.07701 -5207.18114 -5207.93325 -5204.82894 -5203.20616 -5202.50517 -5200.65872 -5196.41356 -5197.62619 -5193.40537 -5185.05448 -5182.81190 -5174.00313 -5172.13554 -5164.46878 -5151.86872 -5140.82080 -5124.45214 -5113.35283 -5100.13389 -5036.62485 -4828.63736 -4103.54860 -3096.47310 -2399.42898 -1562.54089 -1185.57535 -1028.10320 -912.46718 -854.32392 -775.66023 -683.99192 -593.82404 -568.80725 -561.05398 -529.08533 -402.22056 -397.07836 -364.30613 -271.30225 -230.53362 -210.04143 -195.00078 -176.47188 -164.43579 -149.93243 -127.35813 -104.99493 -94.38380 -70.43269 -57.89401 -40.12813 -10.72091 9.48084 19.27764 67.16315 37.23767 35.58565 34.32231 39.19429 52.03277 57.18168 63.43905 72.72254 82.50551 100.97113 107.96610 111.13200 119.00667 114.30033 85.45064 55.82689 64.90593 94.08796 -5.77806 -119.53814 -165.80537 -252.47327 -432.54900 -557.92261 -856.38161 -878.94169 -1161.65359 -1768.62142 -1645.00114 -872.66701 -186.35146 -138.83991 -116.72579 -103.79624 -112.82180 -82.94930 -70.05364 -76.77588 -61.42711 -46.95837 -50.74837 -63.71513 -75.59475 -115.53699 -548.19491 -1829.90957 -3040.36710 -3116.80324 -3088.52103 -3110.75168 -3134.68126 -3183.43406 -3231.73110 -3261.48809 -3268.32507 -3279.99237 -3286.86150 -3289.25443 -3291.34372 -3294.80342 -3290.88741 -3292.08190 -3290.19866 -3290.92367 -3290.52745 -3287.32146 -3287.88300 -3291.65968 -3306.30664 -3320.60916 -3341.13331 -3341.23331
