-5429.95 -5429.81 -5393.18 -5380.19 -5373.35 -5388.43 -5409.94 -5427.24 -5497.07 -5508.91 -5507.46 -5502.82 -5539.23 -5539.05 -5544.45 -5534.84 -5524.37 -5559.09 -5550.90 -5524.91 -5435.77 -5179.18 -4294.34 -3450.26 -2282.74 -2174.52 -2181.54 -2375.30 -2569.09 -2907.99 -2950.82 -2655.73 -2245.09 -1915.13 -1542.23 -876.72 -875.02 -751.11 -860.56 -1152.60 -1430.55 -2130.02 -2332.88 -2250.07 -2313.30 -2573.98 -3057.26 -3550.76 -4023.00 -3772.93 -3860.59 -4174.19 -4538.34 -4863.36 -5264.19 -5371.56 -5569.26 -5572.40 -5506.41 -5585.43 -5583.83 -5600.93 -5552.48 -5519.19 -5441.08 -5213.37 -5180.63 -4563.74 -4218.35 -3854.28 -3290.33 -3458.97 -3522.70 -2912.52 -2141.49 -891.35 23.51 32.51 30.16 60.37 93.89 114.00 146.05 169.55 216.37 246.98 296.38 431.29 515.27 712.72 887.53 1117.55 1268.62 1474.99 1437.96 797.94 661.91 144.14 79.11 -2.19 -24.00 -87.89 -2219.61 -5272.31 -5760.17 -4945.95 -4693.59 -4598.98 -4046.92 -2936.51 -2163.60 -1475.85 -1263.26 -1279.25 -1362.21 -1568.10 -1861.89 -1964.48 -2406.64 -3180.80 -2830.01 -2289.84 -1856.82 -2001.24 -2188.08 -2328.33 -2414.97 -2426.89 -2419.71 -2412.50 -2407.10 -2421.28 -2498.87 -2523.04 -2617.03 -2910.56 -3079.01 -3427.22 -3436.44 -3473.04 -3488.87
-5527.23 -5527.09 -5541.26 -5481.33 -5462.63 -5468.34 -5469.59 -5508.89 -5564.14 -5597.28 -5600.67 -5589.77 -5598.12 -5609.53 -5615.75 -5645.82 -5651.32 -5686.92 -5635.01 -5624.50 -5551.86 -5163.59 -4101.27 -3139.76 -2294.34 -2199.11 -2213.42 -2244.87 -2206.35 -2319.82 -2420.99 -2353.52 -1972.05 -1416.53 -832.89 -452.85 -149.19 -95.88 -276.94 -298.04 -447.90 -1318.84 -1944.97 -1825.47 -1560.86 -2282.26 -2573.79 -2581.37 -2795.35 -2842.76 -3022.10 -3148.69 -3587.78 -3928.37 -4495.16 -5057.97 -5187.19 -5332.27 -5357.89 -5427.89 -5382.31 -5131.19 -5290.88 -5254.57 -4971.20 -4640.02 -4542.19 -3710.51 -3536.42 -2757.60 -2701.07 -2487.72 -2092.66 -1553.08 -687.86 -176.22 49.33 62.24 71.53 88.72 117.55 138.41 171.70 207.16 230.10 265.90 310.28 363.66 408.92 475.83 569.69 677.69 914.73 1223.66 1310.49 1230.87 1018.46 654.31 262.01 10.40 -26.36 -57.76 -338.01 -3135.50 -3226.81 -5288.49 -4779.46 -4998.56 -4933.35 -4251.92 -3409.60 -2723.61 -1644.45 -1225.51 -1070.22 -1040.06 -1378.00 -1259.65 -1557.38 -2296.35 -2347.25 -2180.43 -1951.19 -2012.42 -2127.39 -2284.72 -2371.82 -2396.37 -2402.99 -2398.36 -2404.85 -2426.47 -2485.45 -2546.82 -2654.76 -2838.25 -3030.69 -3323.03 -3447.35 -3509.73 -3509.78
-5607.68 -5607.55 -5617.72 -5578.87 -5591.00 -5595.56 -5590.02 -5606.23 -5639.17 -5652.72 -5647.71 -5656.69 -5654.51 -5676.66 -5694.47 -5700.61 -5702.88 -5723.73 -5719.03 -5717.59 -5615.27 -5307.18 -4171.48 -3408.50 -2539.83 -2542.12 -2641.16 -2612.97 -2319.70 -2229.99 -2231.78 -2100.41 -1934.20 -804.52 -342.64 -56.57 -52.06 -53.79 -50.64 -85.48 -104.90 -307.79 -708.93 -491.06 -939.30 -1816.78 -2168.40 -2414.45 -2381.00 -2525.17 -2549.79 -2496.51 -2442.85 -3333.96 -3316.53 -3741.76 -4192.56 -4517.62 -4539.59 -4658.45 -4404.17 -4621.18 -4407.32 -4493.50 -3998.87 -3429.33 -2912.96 -2759.86 -2470.76 -2390.75 -2131.72 -1807.52 -1417.69 -1057.71 36.41 50.73 63.70 86.41 94.02 113.36 145.90 160.59 184.39 213.03 263.43 296.34 346.82 375.94 383.47 413.65 465.33 508.16 664.55 953.12 1069.27 1304.37 1166.05 684.43 221.21 104.89 11.79 -22.54 -42.46 -860.26 -3097.38 -4946.21 -4999.72 -5003.24 -5118.20 -5136.57 -4551.61 -3641.33 -2885.45 -1886.42 -1307.78 -1099.15 -1014.04 -1005.52 -1135.50 -1446.09 -1674.29 -1966.39 -1900.17 -2043.30 -2167.08 -2274.51 -2344.94 -2363.55 -2385.73 -2406.58 -2451.03 -2462.77 -2538.35 -2648.86 -2715.54 -2953.16 -3136.67 -3413.95 -3564.77 -3646.49 -3646.73
-5661.62 -5657.62 -5661.63 -5656.85 -5655.02 -5647.66 -5654.26 -5670.74 -5668.02 -5675.49 -5676.14 -5679.42 -5687.73 -5698.85 -5721.83 -5755.16 -5769.24 -5776.08 -5782.48 -5766.38 -5669.55 -5503.41 -4743.08 -3808.53 -3743.41 -3368.00 -3609.43 -3664.71 -2927.31 -2615.72 -2347.90 -2064.32 -1579.18 -556.83 -170.99 -33.67 -5.42 -8.38 3.02 -9.87 -36.49 -84.69 -105.28 -123.37 -375.41 -1149.67 -1437.74 -1976.36 -2079.48 -2299.08 -2281.41 -2277.39 -2238.82 -2146.35 -2509.66 -2903.88 -3084.78 -3171.84 -3239.59 -3182.35 -3200.47 -3409.36 -3118.82 -3299.84 -3007.95 -2678.04 -2671.70 -2486.04 -2445.23 -2359.67 -1991.25 -751.42 -120.59 39.46 53.03 77.53 104.24 108.28 109.45 137.28 161.38 176.67 200.76 237.84 276.57 298.38 329.66 370.76 385.52 414.71 450.81 471.05 475.64 563.56 696.34 1072.45 1181.93 803.34 552.95 129.70 69.74 34.38 -6.52 -31.40 -2016.72 -4146.69 -5306.80 -4968.21 -4953.61 -5182.87 -5172.45 -5067.27 -3873.91 -3413.24 -2505.38 -1469.86 -1199.04 -988.03 -1011.68 -1131.17 -1329.67 -1597.06 -1711.89 -1963.00 -2138.86 -2193.98 -2298.17 -2353.64 -2370.25 -2393.54 -2442.86 -2486.83 -2601.67 -2734.54 -2896.68 -3241.87 -3413.11 -3582.75 -3653.18 -3766.77 -3766.89
-5690.87 -5689.13 -5691.15 -5692.12 -5687.28 -5689.58 -5696.27 -5696.15 -5695.69 -5688.88 -5692.92 -5699.37 -5701.97 -5717.77 -5745.95 -5767.48 -5783.39 -5789.90 -5802.47 -5799.77 -5756.49 -5620.16 -5228.02 -4900.19 -4788.56 -5012.51 -4902.20 -4439.16 -3453.67 -2832.25 -2522.94 -2362.44 -1928.86 -931.57 -82.87 -44.11 -4.11 18.33 19.50 8.11 -23.76 -40.85 -47.25 -85.91 -105.76 -112.68 -155.70 -645.34 -983.05 -1377.15 -1664.73 -1807.69 -2033.55 -2111.74 -2222.64 -2305.78 -2434.88 -2609.71 -2507.41 -2612.62 -2566.86 -2516.19 -2572.46 -2599.91 -2610.05 -2472.81 -2451.04 -2481.92 -2174.54 -2030.15 -1487.61 5.77 41.45 59.03 74.61 99.42 122.79 149.94 146.07 150.22 152.94 194.97 205.90 242.16 271.28 291.80 337.19 364.46 380.09 405.34 442.69 464.04 477.32 498.96 567.91 740.84 1016.91 1151.78 788.05 228.79 92.54 76.51 41.26 12.62 -886.65 -3953.64 -5277.23 -5019.40 -4886.36 -5004.79 -5097.28 -5224.89 -5137.62 -4756.01 -3690.43 -3001.46 -2493.09 -1472.12 -1296.64 -1188.04 -1156.19 -1224.42 -1417.43 -1751.37 -1932.73 -2120.05 -2247.22 -2333.41 -2353.18 -2363.99 -2390.78 -2486.90 -2636.89 -2824.25 -2995.18 -3223.86 -3513.99 -3626.41 -3717.35 -3787.63 -3804.24
-5708.58 -5707.23 -5708.51 -5708.54 -5712.24 -5711.67 -5710.74 -5704.80 -5712.06 -5713.31 -5715.09 -5717.70 -5727.49 -5737.33 -5757.80 -5788.63 -5796.31 -5808.78 -5809.73 -5811.63 -5792.36 -5746.86 -5648.51 -5537.86 -5539.21 -5560.17 -5391.24 -5194.48 -4552.27 -3796.89 -2998.23 -2545.19 -1548.91 -564.04 -80.39 -54.83 -4.81 13.13 33.26 29.43 11.71 -10.49 -0.41 -1.82 -21.65 -59.60 -96.31 -102.48 -347.85 -662.58 -650.66 -783.98 -1408.38 -1833.68 -1850.07 -1886.19 -2050.20 -2194.92 -2255.14 -2302.91 -2260.82 -2288.31 -2350.44 -2351.94 -2472.66 -2480.47 -2595.76 -2408.29 -1465.24 -1074.75 -450.33 31.24 55.28 72.94 89.17 113.85 164.05 184.95 178.66 175.97 186.85 218.44 220.51 238.48 262.77 281.65 320.16 342.61 368.84 390.39 410.24 449.15 466.52 482.80 510.15 658.97 921.45 1139.63 677.24 554.13 169.48 134.46 85.03 18.55 -14.60 -1745.77 -4929.46 -5268.50 -5105.51 -4862.59 -4860.06 -5034.39 -5200.01 -5254.00 -4982.25 -4352.72 -3823.26 -3120.73 -2180.46 -1372.66 -1153.61 -1019.13 -1236.51 -1468.29 -1795.54 -2005.07 -2220.95 -2284.73 -2323.56 -2331.58 -2363.33 -2474.42 -2617.34 -2717.83 -2945.40 -3093.75 -3296.30 -3510.36 -3679.84 -3775.72 -3795.71
-5724.13 -5724.06 -5728.10 -5727.30 -5724.19 -5729.99 -5729.72 -5726.84 -5727.89 -5733.01 -5725.86 -5736.35 -5739.60 -5747.80 -5777.58 -5800.41 -5806.48 -5815.36 -5814.59 -5818.11 -5805.33 -5769.55 -5707.39 -5691.62 -5676.77 -5670.66 -5665.78 -5522.08 -5312.23 -4966.38 -3877.97 -2682.10 -1259.02 -441.91 -91.56 -53.95 -2.67 9.80 25.99 42.84 37.14 25.97 22.32 23.16 12.30 -14.71 -37.24 -44.27 -79.95 -86.58 -94.65 -208.23 -842.83 -1182.31 -1441.73 -1595.75 -1733.35 -1835.00 -1897.24 -2030.69 -1975.20 -1851.14 -1980.10 -2102.45 -2114.56 -2335.92 -2649.70 -1655.73 -171.31 23.86 36.19 49.27 90.49 100.30 116.86 161.78 222.74 205.21 208.24 215.85 215.26 221.20 226.39 243.90 260.65 279.33 302.75 316.61 344.20 387.80 395.35 408.74 428.85 462.43 472.43 482.70 692.88 911.04 937.80 709.79 301.35 200.16 140.87 45.44 8.40 -64.05 -1401.38 -4413.82 -5275.71 -5093.34 -4981.22 -5069.79 -5222.58 -5410.80 -5544.58 -5379.49 -5221.15 -4708.01 -3530.15 -2198.67 -1418.00 -988.10 -1106.06 -1366.80 -1555.88 -1891.91 -1970.58 -2153.39 -2204.12 -2263.94 -2294.26 -2352.34 -2455.18 -2528.76 -2754.57 -3025.41 -3274.41 -3425.95 -3627.23 -3768.88 -3768.93
-5738.75 -5737.65 -5739.00 -5740.94 -5745.83 -5740.85 -5748.54 -5747.69 -5748.87 -5752.62 -5764.80 -5768.86 -5775.67 -5778.12 -5789.20 -5801.44 -5808.73 -5815.01 -5815.11 -5814.18 -5792.61 -5777.65 -5742.54 -5729.92 -5727.87 -5721.97 -5703.28 -5678.26 -5624.23 -5409.18 -4037.22 -2690.83 -1694.95 -141.47 -114.41 -72.43 -7.06 12.35 21.73 46.47 56.29 37.66 30.34 31.60 24.12 17.04 10.76 -0.66 -27.68 -64.33 -86.11 -97.98 -116.75 -575.94 -753.42 -754.36 -736.41 -1274.40 -1387.00 -1426.23 -1534.36 -1376.13 -1359.04 -1486.29 -1208.97 -1789.48 -1168.86 -359.90 -74.77 33.80 49.13 77.46 92.67 113.71 132.20 166.59 223.39 223.78 229.58 236.77 247.48 233.82 247.18 256.47 268.69 282.18 300.86 313.90 334.37 376.08 392.70 391.62 414.25 444.31 445.70 447.87 517.90 639.86 877.45 906.53 961.39 582.24 238.19 62.91 37.75 -53.18 -130.47 -714.70 -2520.37 -5182.42 -5056.07 -4984.11 -5094.21 -5337.13 -5535.77 -5600.25 -5535.77 -5234.99 -4438.85 -3202.92 -1513.46 -916.79 -940.61 -1140.05 -1273.95 -1515.31 -1809.83 -2078.41 -2128.31 -2146.15 -2260.61 -2284.69 -2359.69 -2434.95 -2564.21 -2786.23 -3084.99 -3430.31 -3576.56 -3665.21 -3666.93
-5750.94 -5750.87 -5754.79 -5754.56 -5753.88 -5756.69 -5757.68 -5771.87 -5790.02 -5807.81 -5799.81 -5804.51 -5813.91 -5811.74 -5805.46 -5798.37 -5797.35 -5795.39 -5799.61 -5792.83 -5786.33 -5772.72 -5762.28 -5759.95 -5752.53 -5745.54 -5744.44 -5738.37 -5663.49 -5485.75 -4394.60 -2503.52 -1136.79 -139.05 -108.71 -47.12 -4.07 11.92 29.52 60.73 66.42 56.83 58.80 47.09 45.22 36.84 19.85 8.28 2.79 -14.11 -69.39 -96.10 -112.24 -130.85 -165.04 -198.55 -221.61 -427.26 -853.01 -990.18 -683.45 -577.80 -757.23 -707.82 -383.93 -502.00 -457.06 20.20 32.45 44.21 54.04 85.46 111.94 117.71 159.23 192.98 224.63 248.00 259.63 263.89 257.86 248.89 257.65 266.60 277.71 290.30 303.24 310.17 330.74 367.79 365.66 379.11 390.25 431.92 439.09 439.39 479.34 556.37 701.64 1021.35 1115.84 683.23 271.62 142.98 64.62 35.61 -23.14 -1055.14 -3004.79 -4911.27 -4873.77 -4778.64 -5015.22 -5241.55 -5483.88 -5609.97 -5643.97 -5452.74 -4874.40 -2973.91 -1623.33 -811.24 -794.62 -865.51 -1147.67 -1358.96 -1620.17 -1872.40 -1947.18 -2105.78 -2196.57 -2286.74 -2335.90 -2438.90 -2594.67 -2812.99 -3052.08 -3223.57 -3431.49 -3607.13 -3607.17
-5761.94 -5761.87 -5765.56 -5768.17 -5770.72 -5772.10 -5782.24 -5802.69 -5834.72 -5837.29 -5849.62 -5852.57 -5853.66 -5846.95 -5825.23 -5799.68 -5785.22 -5778.43 -5773.00 -5775.10 -5775.05 -5773.97 -5778.14 -5773.51 -5771.90 -5768.44 -5772.51 -5787.82 -5755.98 -5492.11 -4274.39 -1475.84 -146.95 -122.25 -58.02 -32.43 7.39 22.92 41.78 68.79 64.87 64.65 80.65 74.14 69.17 70.37 45.98 26.79 18.55 13.00 -37.28 -69.34 -101.65 -121.26 -166.92 -184.07 -194.80 -207.66 -317.82 -305.43 -196.82 -186.91 -166.96 -142.00 -127.22 5.25 18.27 27.80 37.31 44.73 58.50 76.23 116.84 131.75 181.90 198.57 243.10 255.89 265.34 267.45 264.73 258.65 261.77 275.28 284.98 293.34 304.32 306.13 313.35 345.88 352.43 357.40 367.14 424.67 426.92 435.62 467.28 498.77 593.67 852.59 1157.66 1048.90 701.93 276.48 75.40 70.34 43.90 -1496.47 -3811.37 -4748.10 -4760.50 -4707.79 -4907.03 -5098.37 -5394.26 -5562.03 -5650.64 -5584.48 -4978.65 -3293.59 -1745.48 -607.18 -577.19 -628.21 -941.72 -1221.39 -1494.36 -1653.76 -1768.71 -1971.97 -2150.60 -2196.19 -2258.42 -2397.08 -2588.25 -2808.04 -2954.81 -3229.00 -3395.74 -3578.82 -3578.87
-5772.81 -5772.74 -5777.92 -5779.76 -5779.26 -5780.51 -5793.56 -5809.23 -5846.99 -5863.16 -5871.58 -5873.52 -5877.32 -5866.39 -5845.60 -5807.50 -5787.24 -5783.26 -5778.48 -5777.77 -5777.24 -5784.29 -5787.85 -5789.19 -5783.28 -5780.34 -5764.12 -5701.16 -5616.03 -3785.14 -2406.39 -522.42 -139.46 -76.34 -12.88 0.61 8.14 22.99 57.25 80.23 93.44 94.44 113.95 109.34 129.51 83.43 85.02 41.33 31.98 13.82 6.59 -17.82 -96.60 -123.48 -145.21 -160.39 -185.57 -197.77 -200.56 -179.33 -167.56 -158.21 -133.47 -106.00 -44.63 2.09 22.44 32.02 42.84 50.67 55.96 77.55 103.96 136.32 179.64 192.71 213.35 242.73 261.38 264.33 264.04 258.34 270.96 282.66 290.82 297.90 302.89 304.49 312.14 310.71 331.21 341.91 357.01 389.15 396.70 418.70 436.34 478.10 577.99 842.71 1152.57 1101.91 881.34 440.52 133.92 94.34 76.38 29.43 -2047.64 -4573.21 -4853.94 -4760.21 -4810.07 -5080.18 -5225.23 -5504.61 -5643.04 -5576.51 -4994.37 -3810.95 -2161.42 -643.49 -484.36 -532.11 -812.63 -973.90 -1276.65 -1478.19 -1684.41 -1889.00 -2048.87 -2123.47 -2187.29 -2301.81 -2447.93 -2714.59 -2996.44 -3247.13 -3376.25 -3552.40 -3552.45
-5781.39 -5781.34 -5785.35 -5788.58 -5791.48 -5793.73 -5804.37 -5827.83 -5854.67 -5872.39 -5883.77 -5889.48 -5890.06 -5879.65 -5849.34 -5819.61 -5792.60 -5788.17 -5789.47 -5791.73 -5794.09 -5802.74 -5809.05 -5801.14 -5788.16 -5741.75 -5640.84 -4848.70 -4090.56 -3085.48 -952.12 -348.57 -134.62 -92.76 -5.78 2.86 13.93 28.36 47.87 67.56 90.69 136.80 135.70 151.45 176.82 156.40 85.19 66.35 39.74 21.44 12.20 -9.39 -65.54 -113.12 -129.07 -150.26 -168.00 -185.21 -182.70 -176.20 -153.71 -128.12 -100.18 -57.02 3.86 19.43 23.64 35.63 49.73 54.79 61.87 78.07 99.68 132.88 157.76 199.51 220.31 244.27 257.01 258.71 258.26 255.68 269.56 279.07 288.58 298.88 302.51 303.40 304.05 304.61 310.08 316.31 321.76 336.20 359.54 396.50 423.28 439.89 473.41 593.45 1034.79 1139.23 968.16 469.38 270.57 183.73 98.00 9.53 -969.87 -4674.33 -5053.18 -4772.33 -4829.20 -5013.64 -5190.21 -5455.94 -5587.12 -5565.65 -5296.03 -3979.15 -1917.90 -614.35 -440.26 -472.85 -561.96 -950.44 -1153.96 -1375.27 -1529.40 -1742.94 -1868.94 -2003.96 -2101.70 -2167.31 -2271.11 -2529.72 -2747.24 -2943.61 -3222.75 -3355.52 -3353.08
-5787.21 -5787.14 -5793.06 -5793.74 -5799.76 -5802.95 -5821.62 -5834.87 -5862.73 -5885.79 -5893.03 -5897.78 -5898.81 -5889.88 -5851.82 -5835.94 -5816.09 -5805.72 -5808.09 -5806.43 -5811.75 -5818.85 -5814.13 -5798.43 -5705.62 -5650.01 -5442.95 -4455.75 -3672.46 -1999.58 -582.81 -163.95 -116.44 -62.25 -20.24 5.08 14.29 32.89 49.79 70.80 119.32 140.86 168.71 204.57 205.96 150.16 100.00 64.74 39.20 26.94 8.60 -3.07 -44.99 -91.08 -113.67 -140.24 -160.05 -176.01 -176.16 -155.93 -121.79 -94.08 -52.53 -13.82 11.53 21.30 30.99 47.42 53.54 60.13 67.94 85.04 105.65 128.36 156.67 179.54 211.19 236.79 243.91 247.37 246.10 249.95 258.88 275.61 286.56 296.44 300.22 302.40 304.07 305.61 309.62 311.19 325.39 357.93 379.80 394.47 401.41 430.43 466.40 524.16 917.94 1189.51 1235.50 738.83 401.06 198.71 108.91 66.35 -1307.71 -5035.95 -5388.00 -4891.69 -4856.78 -5042.92 -5211.17 -5419.04 -5555.91 -5524.06 -5135.70 -4649.08 -1887.35 -727.01 -368.09 -395.88 -430.30 -871.33 -1074.77 -1315.94 -1569.29 -1572.31 -1776.95 -1890.86 -1992.92 -2107.04 -2226.28 -2454.95 -2615.60 -2904.84 -3110.43 -3246.78 -3246.81
-5790.42 -5790.35 -5796.50 -5800.67 -5805.73 -5810.99 -5819.08 -5838.69 -5856.60 -5873.62 -5880.94 -5891.76 -5894.82 -5891.60 -5869.36 -5840.28 -5830.61 -5830.92 -5833.47 -5830.69 -5829.27 -5814.76 -5739.76 -5711.86 -5423.50 -4906.38 -4492.61 -3835.67 -2832.34 -926.41 -194.09 -135.35 -95.52 -43.72 -3.04 7.93 18.53 25.96 50.38 95.32 123.40 145.61 192.26 215.15 219.11 174.17 118.29 86.48 39.68 26.72 13.04 1.01 -22.37 -68.86 -102.63 -123.86 -150.98 -163.58 -145.03 -131.33 -95.02 -58.69 2.09 10.31 14.81 23.86 35.20 45.78 54.69 63.65 73.21 99.10 107.89 131.86 145.39 169.05 196.44 220.68 233.12 230.45 240.11 246.16 256.89 269.74 282.80 288.83 296.80 300.99 303.37 308.08 311.01 312.04 311.97 343.63 372.56 386.80 400.00 426.51 476.39 500.54 752.70 1149.87 1312.67 864.77 587.96 335.78 145.40 87.36 -509.86 -3622.65 -5294.74 -4973.58 -4892.33 -5024.00 -5256.47 -5406.73 -5511.31 -5476.70 -5287.59 -3752.95 -2092.97 -742.80 -365.00 -306.49 -419.24 -622.75 -996.79 -1136.83 -1243.61 -1488.54 -1745.70 -1822.53 -1939.04 -2038.43 -2208.52 -2304.90 -2612.53 -2835.72 -2957.78 -3046.35 -3046.27
-5791.44 -5791.37 -5799.11 -5803.54 -5810.84 -5814.49 -5822.28 -5831.54 -5847.37 -5856.28 -5864.21 -5877.06 -5875.47 -5877.63 -5868.13 -5855.62 -5856.12 -5860.61 -5847.94 -5833.28 -5805.89 -5738.63 -5636.03 -5344.35 -4547.79 -4301.76 -3312.28 -2770.52 -1313.52 -199.97 -179.42 -138.86 -91.32 -21.17 1.43 13.95 30.02 41.41 65.58 89.11 123.85 146.33 174.20 198.99 210.38 162.98 100.38 73.84 46.42 25.23 13.29 -0.20 -36.87 -74.34 -95.91 -110.14 -134.68 -136.60 -124.06 -95.04 -51.82 -16.06 0.97 12.71 20.94 27.23 37.45 46.91 54.33 59.58 79.46 92.15 107.08 121.24 144.60 168.62 189.86 202.20 212.07 219.03 222.43 230.83 248.50 258.79 274.26 280.54 299.80 301.59 305.61 315.91 313.63 314.33 313.59 324.63 361.19 376.53 388.68 412.90 448.48 471.58 619.79 1016.07 1259.78 973.28 481.53 247.79 113.67 73.31 11.45 -2134.82 -3327.84 -4982.21 -4870.54 -4892.69 -5284.84 -5387.06 -5450.48 -5418.34 -5182.45 -3774.43 -2153.01 -591.50 -284.52 -263.05 -337.65 -579.64 -812.22 -939.78 -1079.65 -1340.88 -1674.11 -1734.53 -1847.05 -2026.21 -2176.53 -2295.95 -2406.37 -2674.83 -2809.62 -2982.68 -2982.74
-5791.79 -5792.64 -5797.66 -5808.57 -5812.33 -5816.36 -5823.58 -5830.57 -5836.29 -5843.03 -5845.47 -5855.48 -5861.65 -5866.64 -5869.77 -5866.85 -5866.67 -5865.54 -5857.66 -5772.56 -5659.36 -5391.66 -4858.02 -4327.02 -3810.01 -3047.46 -2687.19 -1874.26 -938.73 -197.77 -161.63 -122.32 -59.89 -9.07 -0.19 24.60 36.14 46.76 68.15 81.81 109.41 120.20 143.89 174.82 197.75 166.60 108.10 75.65 52.61 27.52 11.73 -2.83 -19.73 -61.31 -89.82 -96.09 -113.49 -117.73 -82.51 -56.24 -34.62 -13.40 5.31 14.18 23.05 29.72 37.36 46.48 54.55 57.72 71.16 81.08 94.42 116.36 129.16 153.09 166.82 182.30 195.39 205.01 217.00 222.43 237.95 253.09 265.97 277.48 298.73 307.05 313.60 323.05 319.90 320.01 317.72 316.69 346.66 371.81 386.90 399.08 431.16 467.74 522.92 1016.89 1157.41 838.68 465.11 185.28 99.39 38.34 -37.84 -367.22 -2570.63 -4663.15 -4649.55 -4750.85 -5033.21 -5407.10 -5421.12 -5401.62 -5119.50 -3753.52 -1994.02 -503.49 -244.73 -198.57 -288.60 -477.77 -608.53 -755.75 -1136.52 -1308.31 -1349.66 -1536.65 -1764.05 -1909.39 -2072.10 -2210.89 -2385.44 -2584.66 -2685.43 -2764.69 -2764.59
-5792.74 -5792.66 -5800.37 -5808.13 -5812.74 -5822.67 -5824.98 -5830.90 -5836.39 -5842.92 -5847.22 -5853.85 -5861.32 -5867.91 -5873.33 -5863.29 -5857.71 -5838.44 -5658.20 -5587.52 -5173.76 -4694.35 -4117.97 -3273.86 -2843.44 -2492.66 -2379.30 -1790.40 -526.94 -178.71 -126.78 -68.50 -38.03 -10.38 10.15 23.25 37.40 43.94 62.42 80.22 101.94 121.10 145.05 169.86 176.87 150.12 129.48 101.84 57.77 32.74 12.57 0.48 -19.68 -52.19 -80.62 -85.75 -94.60 -86.73 -50.93 -27.04 -11.01 -6.24 4.02 11.67 22.73 29.58 36.25 46.72 53.21 59.38 67.93 82.82 90.84 103.86 123.09 134.69 158.13 171.98 181.56 198.31 202.03 224.30 242.66 246.60 266.85 281.85 296.75 309.27 319.51 327.45 329.03 328.27 320.97 317.86 327.10 356.85 377.30 393.31 431.55 467.38 499.33 770.13 1017.13 781.11 418.01 155.26 87.28 55.44 -23.44 -944.85 -2913.50 -4859.66 -4680.57 -4765.04 -4987.73 -5300.95 -5376.15 -5344.07 -5022.57 -3815.98 -1480.22 -701.76 -239.57 -172.70 -177.98 -346.04 -537.05 -646.49 -871.33 -1018.88 -1224.71 -1455.45 -1733.92 -1871.92 -2053.16 -2188.47 -2369.81 -2499.77 -2616.81 -2706.97 -2707.04
-5794.89 -5794.82 -5802.43 -5809.14 -5816.13 -5825.37 -5830.61 -5835.69 -5839.69 -5846.68 -5852.38 -5859.52 -5867.81 -5867.87 -5853.98 -5826.53 -5696.42 -5553.47 -5213.18 -4639.64 -4092.89 -3831.11 -2971.23 -2537.64 -2493.29 -2320.76 -1628.61 -892.16 -215.11 -177.09 -78.76 -38.87 -14.21 0.51 17.50 29.83 42.16 54.40 73.31 83.06 113.42 125.11 152.99 156.05 123.68 112.02 102.37 82.76 45.07 18.85 11.80 1.53 -27.13 -53.10 -70.04 -76.71 -85.74 -71.04 -28.22 -19.54 -12.11 -9.03 3.03 11.45 18.45 29.24 37.43 50.23 54.95 59.75 63.40 72.54 83.32 93.77 116.56 125.75 143.81 157.95 170.89 184.51 197.90 205.74 223.83 244.18 262.44 279.42 295.00 308.58 322.98 331.18 332.00 331.23 324.03 318.65 323.78 343.77 368.82 373.70 405.81 449.98 464.17 621.69 920.76 812.00 372.47 144.77 86.70 53.14 -30.86 -1621.99 -4699.74 -4935.05 -4759.76 -4905.61 -5098.26 -5297.97 -5366.01 -5282.94 -4785.99 -3771.15 -1370.76 -508.47 -182.93 -156.54 -169.86 -253.48 -400.55 -446.50 -691.73 -1022.51 -1286.66 -1343.72 -1680.47 -1945.93 -2068.78 -2192.75 -2299.36 -2476.88 -2532.76 -2599.61 -2599.61
-5799.12 -5799.61 -5805.79 -5814.97 -5823.67 -5831.45 -5836.82 -5842.52 -5844.94 -5850.96 -5857.24 -5857.08 -5846.99 -5819.93 -5783.37 -5535.90 -5228.22 -4552.29 -4056.63 -3735.42 -3600.45 -2689.65 -2510.23 -2306.20 -2276.44 -1663.71 -781.89 -249.09 -206.74 -154.94 -79.91 -39.36 -11.83 19.69 25.68 42.70 52.16 70.64 80.14 93.76 115.07 128.59 139.89 125.22 99.04 82.31 72.93 60.93 33.28 21.51 8.71 0.75 -13.19 -41.02 -60.47 -69.48 -59.44 -30.83 -21.91 -15.24 -11.25 -6.87 8.21 14.90 20.10 28.03 37.38 47.47 52.92 56.50 61.86 73.58 81.27 93.51 106.17 120.68 130.24 147.19 161.61 178.32 197.10 208.22 220.20 241.53 264.40 281.50 291.67 311.17 321.38 330.72 333.14 331.99 326.92 319.39 319.64 339.68 355.21 364.93 371.44 397.52 439.91 426.43 629.46 765.67 432.89 144.43 80.54 16.57 -29.61 -1074.72 -4398.55 -5007.57 -4868.25 -4969.82 -5178.11 -5292.69 -5336.61 -5255.47 -4802.81 -3170.90 -1346.45 -417.37 -199.66 -155.09 -175.25 -217.48 -276.08 -425.75 -668.63 -984.03 -1141.85 -1358.44 -1691.94 -1940.61 -2094.24 -2165.62 -2283.59 -2384.30 -2509.26 -2582.21 -2582.28
-5807.65 -5807.57 -5817.03 -5823.48 -5828.82 -5839.14 -5846.51 -5849.81 -5850.39 -5850.11 -5841.92 -5814.21 -5767.84 -5566.33 -5159.06 -4712.30 -4042.48 -3659.56 -3144.16 -2781.53 -2443.54 -2266.45 -2252.23 -2179.26 -1901.21 -1212.05 -456.36 -201.63 -181.97 -148.96 -90.45 -50.00 -13.04 18.20 31.31 47.27 60.32 76.21 85.68 99.97 117.41 133.70 144.67 135.15 101.08 72.63 56.53 40.97 28.33 21.66 9.57 1.97 -10.95 -29.21 -58.62 -57.28 -45.72 -27.23 -19.38 -13.30 -8.12 -2.85 0.17 12.29 20.27 24.80 36.10 42.58 48.65 53.72 59.22 68.15 75.71 86.90 101.16 114.06 125.83 138.32 155.53 160.43 199.03 208.75 221.13 244.18 257.49 277.69 293.53 306.29 319.81 330.19 331.26 330.38 327.70 323.51 321.32 332.86 340.80 349.89 371.34 372.76 368.88 347.06 396.06 444.27 338.15 115.78 59.07 35.75 -17.83 -1520.64 -3864.42 -5160.08 -4936.07 -4907.86 -5100.55 -5167.00 -5209.59 -5059.62 -4750.93 -2799.85 -1653.35 -336.05 -170.49 -151.10 -181.80 -226.38 -304.40 -467.95 -618.60 -874.11 -1152.19 -1317.62 -1724.44 -1927.50 -2082.08 -2219.79 -2285.00 -2409.53 -2520.82 -2591.22 -2591.82
-5823.14 -5823.05 -5832.17 -5838.79 -5843.62 -5853.08 -5862.88 -5861.45 -5854.65 -5844.86 -5808.57 -5668.38 -5314.49 -5156.38 -4647.91 -3969.76 -3479.59 -2894.48 -2587.56 -2455.14 -2249.48 -2178.65 -2207.45 -2198.53 -1828.79 -738.85 -338.25 -193.77 -161.83 -128.35 -74.03 -38.69 1.82 21.18 62.64 75.92 71.35 84.64 87.66 103.88 122.02 132.31 151.18 135.97 104.14 68.82 46.22 36.85 24.69 17.12 8.58 -3.46 -9.57 -31.48 -55.31 -44.78 -36.12 -23.28 -16.62 -6.24 -1.26 -0.95 3.86 12.63 18.13 26.21 34.69 39.84 45.10 50.97 55.74 65.56 76.19 84.91 96.03 109.27 123.67 135.61 152.27 164.90 187.88 199.95 218.42 240.12 250.54 272.19 284.73 300.11 318.12 330.67 331.39 330.12 329.61 326.59 324.77 327.11 334.81 343.94 356.56 362.77 354.11 335.44 285.40 267.24 238.18 121.87 86.87 51.08 15.96 -1876.15 -4451.26 -4972.50 -4876.30 -4907.39 -5004.72 -5070.22 -5139.39 -4872.56 -4224.42 -2495.68 -704.57 -270.94 -159.77 -156.55 -176.34 -232.57 -311.88 -442.06 -617.44 -769.24 -1020.53 -1319.81 -1585.75 -1897.61 -2071.13 -2209.25 -2342.63 -2395.12 -2533.06 -2603.66 -2603.74
-5848.58 -5848.48 -5855.83 -5861.36 -5877.99 -5887.67 -5887.95 -5887.58 -5869.24 -5852.47 -5761.88 -5485.35 -4830.00 -4104.30 -3325.98 -3163.57 -2880.34 -2728.76 -2535.42 -2395.70 -2251.65 -2187.29 -2253.28 -2209.70 -1452.77 -662.47 -377.20 -201.22 -163.12 -127.82 -54.80 -15.19 -4.39 24.22 50.97 66.23 77.38 96.80 104.74 114.23 128.08 146.04 149.39 137.42 94.29 68.00 49.85 31.40 23.95 13.98 5.34 -6.23 -16.37 -31.59 -42.31 -34.07 -28.22 -12.78 -4.40 1.42 1.29 2.36 8.09 14.67 20.18 26.40 32.82 38.01 42.41 46.77 57.28 61.38 70.75 84.12 92.14 104.18 112.31 127.56 142.66 156.35 178.15 191.33 214.27 226.75 258.88 272.78 284.51 298.55 319.43 330.09 330.67 331.18 331.74 332.81 331.28 337.25 340.62 344.65 346.97 353.65 347.09 320.79 298.02 247.07 187.96 152.21 98.87 51.73 13.64 -974.72 -2961.53 -4528.91 -4872.64 -4895.13 -4977.13 -5063.13 -5051.86 -4646.54 -3499.49 -1885.48 -566.75 -178.62 -140.61 -171.98 -196.62 -266.14 -346.82 -439.76 -564.83 -757.08 -1008.40 -1198.50 -1570.07 -1816.72 -2051.51 -2263.19 -2434.81 -2524.26 -2653.48 -2693.94 -2694.09
-5889.90 -5889.66 -5896.66 -5900.30 -5912.16 -5917.55 -5929.17 -5920.38 -5865.34 -5824.01 -5596.25 -5193.14 -4068.94 -3417.99 -2881.34 -2612.07 -2624.22 -2651.97 -2576.30 -2403.23 -2297.62 -2246.63 -2242.19 -2168.12 -1152.25 -378.71 -265.60 -184.70 -156.29 -106.65 -43.59 -14.96 7.27 33.60 46.42 59.70 79.82 111.44 123.99 135.51 146.27 139.86 129.87 119.84 73.76 52.62 46.53 32.18 23.31 8.43 4.35 -9.42 -22.52 -31.67 -28.80 -15.31 -2.95 10.37 16.38 9.25 8.60 7.33 10.54 12.36 19.27 25.75 32.09 37.60 40.35 44.44 54.56 59.58 68.17 76.23 86.42 93.85 99.73 119.89 133.83 148.69 167.29 187.82 214.69 231.50 250.16 267.02 277.15 296.33 306.86 314.35 325.86 332.65 335.89 341.55 341.95 342.93 348.65 345.74 344.14 344.10 337.62 293.27 297.34 237.83 188.54 145.46 92.90 56.58 41.49 -216.60 -2324.81 -4389.45 -4525.41 -4762.38 -4937.58 -4986.34 -4855.18 -4216.30 -2230.77 -827.59 -286.92 -166.02 -140.96 -165.92 -193.12 -267.54 -366.28 -469.39 -619.19 -753.84 -1095.23 -1341.60 -1643.03 -1879.36 -2069.90 -2235.29 -2439.25 -2625.70 -2822.72 -2870.95 -2871.17
-5955.90 -5955.77 -5955.95 -5936.82 -5927.54 -5918.34 -5850.17 -5802.37 -5734.20 -5280.50 -4765.28 -4241.35 -3500.17 -2581.95 -2350.92 -2243.90 -2358.69 -2472.01 -2538.25 -2297.32 -2196.36 -2208.12 -2236.86 -2090.12 -1258.59 -334.29 -279.67 -212.11 -159.04 -98.72 -38.54 -5.37 7.74 28.65 40.50 63.31 90.54 125.47 142.00 153.77 157.70 134.23 97.38 65.23 54.65 36.61 31.89 24.83 20.17 11.94 2.80 -17.17 -24.22 -29.66 -23.43 -14.24 4.78 10.31 31.34 35.29 23.87 12.82 12.76 15.49 19.09 25.30 28.63 36.38 38.84 42.56 47.20 52.86 62.53 70.99 78.70 89.87 99.76 115.98 127.67 146.16 161.25 184.39 205.83 225.16 236.54 259.88 275.22 291.75 304.81 311.88 324.59 334.06 342.01 356.39 357.87 358.57 359.27 351.39 343.94 311.82 303.49 256.78 235.52 197.26 158.47 142.45 106.22 60.98 -42.19 -592.01 -2169.49 -4374.83 -4341.89 -4620.05 -4834.54 -4856.66 -4465.86 -3733.65 -1584.17 -425.43 -214.01 -132.72 -166.80 -187.29 -194.21 -249.35 -311.02 -484.24 -614.71 -855.18 -1271.94 -1509.81 -1776.19 -1984.26 -2125.43 -2193.04 -2446.60 -2549.63 -2930.54 -3008.17 -3008.36
-5985.34 -5983.11 -5886.58 -5686.61 -5646.71 -5636.23 -5443.74 -5014.35 -4775.64 -4306.30 -3592.48 -2829.63 -2706.91 -2375.22 -2213.14 -2185.44 -2218.50 -2235.24 -2193.77 -1827.50 -1925.93 -1899.75 -1954.95 -1858.10 -1394.42 -494.67 -269.09 -218.37 -171.60 -111.79 -42.26 -4.79 7.41 24.26 41.80 59.39 107.82 142.25 162.11 169.25 162.34 129.10 82.12 72.24 55.18 27.29 22.02 18.73 13.80 1.41 -3.48 -17.82 -26.94 -34.27 -29.57 -20.71 0.65 16.70 43.94 54.41 31.43 17.09 15.23 17.91 21.32 25.98 27.57 33.44 35.65 38.76 40.65 48.88 56.00 64.87 73.32 85.21 95.96 103.57 127.38 142.16 157.88 175.06 191.96 215.39 231.30 249.27 268.43 278.40 299.43 311.37 325.38 338.42 349.51 367.11 371.87 369.06 364.66 353.46 333.40 298.15 287.88 238.11 196.88 158.47 134.80 107.65 86.44 67.94 -82.50 -1072.27 -1969.50 -3931.48 -4198.97 -4459.30 -4823.44 -4873.18 -3761.09 -2657.79 -856.06 -393.45 -154.73 -146.21 -179.58 -198.29 -216.04 -262.07 -364.51 -548.50 -698.34 -974.32 -1364.79 -1683.15 -1875.94 -1982.42 -2146.74 -2279.77 -2443.48 -2621.16 -2927.74 -3228.65 -3228.94
-5471.64 -5472.16 -5066.83 -4989.35 -4844.83 -4446.32 -4213.46 -3717.90 -3240.75 -2860.86 -2797.80 -2517.08 -2345.38 -2282.06 -2268.52 -2258.69 -2217.37 -2098.21 -1941.55 -1576.11 -1257.71 -1212.71 -1475.96 -1626.37 -1071.60 -304.49 -258.43 -227.63 -177.60 -118.43 -52.63 -13.54 7.38 24.80 50.50 76.21 127.41 160.98 196.71 190.05 167.01 124.09 75.08 61.22 41.73 21.26 19.57 10.24 2.94 -6.84 -14.34 -20.52 -30.47 -40.91 -40.14 -23.71 -9.33 15.51 46.09 48.92 32.46 24.08 17.55 19.54 22.42 26.60 28.52 29.97 31.98 34.46 36.50 46.80 53.13 60.74 70.21 84.14 96.41 102.43 118.31 131.32 152.94 172.29 191.59 205.69 231.61 247.88 262.92 275.96 294.48 310.29 320.47 343.72 356.89 370.45 374.84 372.54 365.27 351.17 321.95 277.83 242.94 202.94 172.42 140.16 108.11 91.00 83.48 -43.68 -560.21 -1710.41 -2919.83 -3474.82 -4249.89 -4572.01 -4801.87 -4837.35 -3649.46 -1882.88 -612.09 -289.46 -132.74 -159.87 -190.86 -208.38 -220.17 -249.73 -365.71 -543.91 -847.54 -1198.06 -1321.28 -1589.21 -1823.31 -2070.13 -2261.50 -2408.01 -2633.24 -2767.55 -3029.99 -3226.58 -3226.64
-3929.91 -3932.03 -3890.83 -3565.09 -3623.35 -3014.43 -2947.39 -2672.09 -2603.63 -2413.28 -2321.22 -2300.36 -2307.34 -2313.04 -2315.08 -2331.17 -2276.43 -2120.23 -1807.09 -1499.72 -888.81 -912.71 -985.39 -1168.66 -537.00 -303.16 -263.24 -222.94 -179.69 -125.25 -86.26 -26.39 -6.78 14.48 43.00 82.36 135.44 152.03 168.11 161.66 132.91 119.90 71.89 51.21 28.34 18.89 13.26 7.55 3.33 -19.09 -22.55 -31.31 -32.80 -47.75 -46.90 -41.60 -36.07 -9.32 20.79 37.17 33.07 27.49 22.50 22.39 23.32 25.56 27.31 28.88 30.33 30.62 32.69 38.55 46.77 54.91 67.74 77.53 83.95 99.22 109.21 131.03 147.95 174.32 195.11 207.82 225.38 245.41 258.33 275.74 281.97 308.31 316.71 338.09 362.10 369.76 372.79 366.39 356.19 328.72 294.58 274.23 228.66 195.96 166.64 114.88 94.01 84.44 74.14 -403.41 -1496.90 -2397.05 -3122.21 -3631.85 -4665.02 -5013.71 -5065.67 -4402.41 -3256.57 -1576.34 -538.94 -170.60 -142.49 -176.13 -203.12 -214.21 -216.49 -245.31 -366.98 -571.38 -873.72 -1231.15 -1438.29 -1540.15 -1912.79 -2167.09 -2377.16 -2535.37 -2730.37 -2987.70 -3074.17 -3242.71 -3242.83
-2689.48 -2691.64 -2736.08 -2844.14 -2685.80 -2611.01 -2508.52 -2413.51 -2342.72 -2315.13 -2306.97 -2314.28 -2325.23 -2341.07 -2354.17 -2369.13 -2350.07 -2223.58 -2023.06 -1591.14 -982.90 -680.37 -725.95 -730.42 -357.24 -314.15 -279.29 -230.74 -199.48 -166.00 -139.35 -76.73 -9.60 8.24 27.03 77.28 106.29 135.01 122.61 113.27 108.86 106.31 72.46 36.64 24.16 13.94 9.35 4.23 -5.71 -29.01 -30.50 -43.28 -48.36 -48.44 -51.76 -52.13 -47.14 -33.78 6.55 20.65 31.34 31.77 26.97 24.50 25.18 25.71 26.32 27.01 27.86 28.71 30.81 35.17 43.72 53.06 61.19 71.68 76.45 95.56 104.49 132.25 147.89 170.86 184.54 200.56 228.77 237.45 251.82 268.72 283.54 296.42 316.32 326.69 351.80 364.06 366.42 363.54 339.25 327.00 286.90 250.25 226.74 187.11 146.05 112.04 86.31 76.44 36.33 -68.32 -1330.06 -2258.04 -2897.77 -4318.23 -5369.88 -5161.87 -4995.59 -4534.12 -2776.50 -976.40 -278.24 -170.78 -146.19 -187.45 -207.93 -222.34 -224.27 -264.22 -384.72 -618.11 -872.39 -1107.05 -1358.60 -1747.38 -2064.38 -2294.18 -2451.46 -2600.74 -2866.80 -3014.52 -3169.71 -3261.47 -3261.60
-2421.63 -2422.16 -2459.57 -2464.98 -2446.50 -2431.90 -2425.09 -2407.36 -2361.23 -2341.28 -2336.21 -2341.88 -2354.31 -2361.85 -2380.35 -2397.96 -2364.06 -2275.11 -2114.61 -1536.21 -1390.70 -923.06 -711.72 -516.01 -350.73 -323.54 -290.16 -244.60 -216.91 -194.58 -159.50 -106.40 -35.51 -11.10 19.64 54.76 61.09 58.77 56.79 70.36 78.96 54.14 39.80 11.97 5.05 2.70 1.34 -7.32 -24.26 -31.09 -39.85 -51.12 -53.01 -51.45 -54.91 -50.10 -45.74 -38.93 -16.91 14.48 32.83 34.85 25.85 26.23 26.07 25.60 25.36 25.46 25.02 26.34 28.99 31.56 39.34 45.66 54.16 71.31 80.30 96.40 105.40 132.54 147.39 157.17 182.06 199.32 214.22 230.36 248.49 262.36 276.59 297.92 302.41 335.20 346.88 355.17 355.95 340.86 331.39 299.89 253.28 236.76 205.11 163.04 121.88 97.95 77.29 47.68 26.93 -13.06 -1595.66 -2028.94 -3567.32 -4634.92 -5266.61 -5344.12 -5137.84 -4062.58 -1801.07 -731.42 -236.52 -153.01 -169.83 -207.70 -220.29 -235.82 -252.82 -288.92 -480.43 -635.16 -1010.03 -1219.92 -1649.70 -1956.49 -2077.11 -2313.92 -2487.17 -2569.91 -2845.55 -3033.24 -3132.51 -3226.93 -3226.92
-2452.51 -2452.21 -2460.86 -2461.67 -2467.37 -2469.84 -2460.08 -2425.50 -2399.47 -2370.28 -2361.53 -2361.46 -2370.56 -2380.30 -2391.42 -2407.87 -2378.69 -2321.85 -2072.13 -1695.50 -1225.72 -961.49 -736.43 -453.56 -350.30 -328.51 -285.92 -259.74 -226.98 -206.30 -172.78 -122.04 -80.17 -32.58 -19.17 8.93 33.48 32.49 27.72 32.83 28.26 17.77 10.01 5.27 -4.95 -15.31 -18.55 -37.15 -44.17 -47.30 -53.32 -58.43 -58.09 -57.13 -57.64 -53.17 -48.41 -38.89 -20.38 5.83 19.62 29.75 28.80 26.67 26.83 24.53 23.36 23.56 22.34 22.62 24.32 29.22 38.46 42.00 50.41 71.17 77.69 93.06 106.84 123.07 137.36 156.75 180.08 200.97 215.81 232.94 245.89 253.37 275.14 289.03 297.87 327.58 342.51 348.67 349.69 330.42 316.43 274.47 247.43 215.17 165.26 141.16 106.87 86.82 66.33 38.98 2.62 -479.27 -1481.34 -2065.54 -3405.62 -4244.82 -5422.76 -5504.45 -5016.62 -3763.67 -2024.19 -598.76 -237.02 -130.28 -172.59 -201.08 -243.95 -265.27 -293.38 -353.77 -592.82 -732.78 -995.12 -1398.31 -1705.76 -2033.43 -2192.99 -2323.20 -2496.48 -2644.44 -2778.76 -2952.86 -3080.51 -3244.32 -3244.51
-2488.49 -2488.17 -2487.42 -2492.43 -2490.09 -2488.33 -2478.99 -2462.85 -2428.11 -2395.91 -2398.17 -2387.06 -2387.17 -2393.04 -2407.06 -2413.56 -2391.53 -2233.93 -2013.53 -1679.95 -1268.55 -971.88 -789.45 -505.80 -413.53 -332.40 -316.61 -277.05 -244.25 -220.34 -181.56 -157.10 -137.35 -87.51 -55.34 -6.46 6.74 6.96 9.73 15.71 11.90 -4.10 -8.77 -7.87 -19.49 -41.23 -41.94 -58.43 -62.39 -61.10 -62.72 -62.00 -61.71 -60.30 -60.28 -55.10 -47.78 -32.92 -22.83 -0.54 22.32 31.63 39.95 29.89 29.10 23.46 20.71 18.94 20.16 20.59 21.77 24.59 30.09 40.55 45.60 58.41 69.93 82.87 105.52 118.96 141.88 162.42 181.57 197.25 221.45 228.75 242.62 252.80 270.22 282.39 293.01 319.26 337.14 340.00 332.74 315.22 282.68 253.49 226.64 180.11 140.55 116.11 89.51 64.83 35.29 7.39 -418.00 -820.98 -1813.23 -2091.88 -3351.74 -4690.21 -5266.29 -5465.61 -4963.38 -3336.38 -1675.82 -339.29 -127.65 -79.89 -157.37 -211.42 -264.29 -290.13 -347.77 -448.19 -557.89 -791.23 -1079.82 -1360.29 -1628.87 -1979.79 -2172.87 -2274.84 -2491.69 -2646.29 -2779.80 -2962.46 -3083.58 -3261.77 -3261.88
-2508.20 -2508.25 -2508.53 -2508.58 -2510.84 -2507.36 -2498.35 -2482.98 -2444.60 -2417.74 -2438.96 -2443.94 -2434.96 -2431.87 -2426.15 -2410.89 -2346.05 -2185.01 -1951.61 -1584.77 -1032.14 -855.11 -757.78 -729.12 -580.59 -389.20 -326.28 -298.34 -265.88 -232.96 -188.35 -185.89 -168.99 -137.90 -89.93 -70.78 -35.92 -20.98 -17.08 -17.91 -21.67 -43.52 -50.07 -43.64 -72.81 -63.21 -66.07 -71.05 -69.36 -68.85 -69.00 -66.90 -64.06 -62.48 -62.53 -57.62 -46.88 -38.48 -14.29 1.46 30.55 45.16 56.66 41.13 32.01 23.32 19.93 17.24 16.62 18.65 19.48 21.36 24.05 37.54 45.40 56.44 67.46 77.33 94.84 112.91 141.66 158.73 172.08 188.15 208.73 225.57 238.96 246.04 262.63 280.46 293.99 311.09 323.32 326.87 313.09 284.95 259.76 229.73 192.84 158.74 131.53 88.05 76.60 51.21 26.26 -298.51 -842.07 -1474.79 -1620.68 -2112.19 -3286.70 -4868.58 -5359.98 -5407.62 -5211.92 -4136.73 -1087.82 -606.58 -140.31 -67.96 -144.44 -214.60 -265.18 -298.74 -360.41 -499.38 -631.68 -901.20 -1190.05 -1333.29 -1471.41 -1782.75 -2055.61 -2339.81 -2443.96 -2590.51 -2770.62 -2978.44 -3128.39 -3278.94 -3278.95
-2515.47 -2515.40 -2516.91 -2518.52 -2518.98 -2520.13 -2517.80 -2517.62 -2514.61 -2506.17 -2482.31 -2473.23 -2463.73 -2474.01 -2457.58 -2404.37 -2317.79 -2124.34 -1711.17 -1280.48 -959.32 -767.91 -746.55 -750.68 -701.65 -434.58 -357.43 -320.49 -297.16 -260.55 -241.43 -223.07 -204.39 -166.86 -127.90 -113.48 -97.93 -66.04 -71.97 -72.91 -59.20 -63.38 -89.28 -99.94 -85.58 -83.82 -78.90 -75.82 -76.10 -76.47 -74.85 -75.27 -74.86 -70.43 -65.28 -58.77 -48.37 -36.97 -22.58 3.66 33.35 37.98 41.19 38.19 29.05 23.66 16.38 12.26 11.52 12.44 17.10 18.15 23.25 27.00 38.42 50.25 61.83 74.66 86.23 115.39 131.09 155.06 170.17 184.86 201.70 217.76 231.86 245.47 251.03 275.24 290.90 301.97 313.10 312.45 296.08 266.39 237.62 210.71 178.10 153.57 104.88 84.88 49.11 15.27 -333.77 -1018.21 -1365.66 -1523.13 -1530.84 -2197.96 -3065.06 -5152.96 -5326.71 -5513.38 -5344.79 -4159.81 -2267.99 -1129.57 -353.21 -140.52 -170.32 -217.95 -277.76 -316.46 -378.36 -460.33 -667.19 -890.88 -1168.99 -1306.02 -1565.17 -1748.73 -2039.31 -2311.56 -2434.96 -2552.24 -2715.02 -3018.32 -3173.27 -3301.67 -3301.21
-2523.29 -2523.22 -2525.38 -2529.38 -2527.72 -2528.67 -2521.08 -2530.60 -2534.97 -2533.21 -2529.66 -2524.74 -2521.25 -2505.72 -2473.47 -2407.83 -2301.32 -2063.45 -1529.27 -1237.40 -956.65 -765.01 -725.03 -752.37 -752.33 -528.33 -421.61 -370.49 -312.53 -280.22 -269.16 -241.43 -214.46 -184.14 -152.60 -136.75 -138.74 -122.45 -124.00 -130.66 -121.23 -113.51 -100.86 -112.25 -105.89 -100.69 -91.64 -86.00 -87.51 -86.88 -84.89 -81.03 -77.94 -73.35 -66.86 -61.14 -51.35 -41.18 -29.19 -9.21 4.22 19.10 23.89 18.42 16.64 10.44 4.06 7.36 7.47 8.21 10.94 15.51 21.17 24.92 32.44 47.11 59.35 74.52 82.02 96.43 129.27 140.39 166.81 174.99 200.34 210.62 221.73 238.00 249.76 264.46 282.93 296.11 298.48 294.28 280.23 259.75 228.34 185.93 168.47 134.82 96.64 63.73 27.99 -258.64 -593.19 -1363.55 -1411.09 -1414.22 -1561.37 -2454.18 -3654.42 -5043.75 -5484.03 -5528.30 -5416.89 -4681.34 -3392.43 -1822.54 -1264.98 -171.95 -234.93 -259.27 -296.60 -337.31 -375.78 -506.42 -732.45 -985.77 -1157.76 -1370.88 -1635.85 -1877.49 -2040.50 -2258.62 -2411.62 -2610.87 -2894.30 -3217.70 -3395.75 -3498.99 -3498.76
-2535.13 -2535.06 -2538.99 -2545.91 -2544.79 -2537.04 -2515.42 -2505.36 -2525.61 -2497.54 -2518.39 -2530.16 -2533.91 -2518.64 -2502.74 -2420.91 -2280.51 -2115.56 -1630.18 -1294.05 -1020.78 -821.40 -750.99 -734.16 -753.19 -683.75 -631.23 -374.90 -351.86 -328.07 -296.59 -269.45 -228.28 -214.60 -200.29 -175.46 -152.96 -146.34 -146.86 -150.08 -160.37 -160.68 -144.47 -130.69 -122.25 -117.32 -105.32 -105.45 -100.53 -100.17 -94.21 -90.64 -84.53 -76.68 -69.13 -62.35 -51.39 -43.49 -37.17 -28.30 -27.06 -20.25 -7.02 -3.10 2.31 0.60 3.20 3.75 4.36 6.26 7.39 9.95 13.80 21.20 31.25 40.82 50.48 68.11 78.67 102.71 125.29 144.33 161.55 170.14 187.12 205.31 217.18 231.65 247.69 266.33 277.96 285.17 284.66 274.53 256.15 239.04 204.06 157.64 139.63 110.77 87.89 49.89 20.21 -635.01 -1023.51 -1385.13 -1367.94 -1393.18 -1551.55 -2741.43 -4056.67 -4894.20 -5495.05 -5542.54 -5533.47 -5298.62 -4703.22 -2810.01 -1733.51 -830.61 -310.92 -290.51 -313.46 -366.89 -453.63 -615.63 -871.73 -1107.29 -1252.52 -1471.27 -1736.88 -1894.96 -2127.53 -2318.61 -2451.77 -2694.41 -2973.80 -3272.49 -3542.80 -3665.95 -3665.99
-2549.27 -2549.20 -2557.08 -2557.18 -2522.63 -2540.62 -2539.48 -2528.96 -2534.28 -2531.79 -2536.80 -2488.83 -2446.44 -2491.68 -2481.56 -2435.71 -2343.94 -2228.02 -1905.80 -1634.11 -1185.26 -976.52 -847.70 -768.15 -762.32 -788.17 -651.48 -550.58 -420.34 -341.38 -317.06 -278.22 -251.09 -228.95 -210.33 -210.99 -175.60 -183.57 -170.17 -179.06 -184.63 -172.63 -157.15 -156.58 -141.22 -135.13 -125.56 -125.30 -118.47 -115.08 -104.35 -96.07 -87.33 -78.93 -70.50 -62.80 -52.98 -41.51 -39.72 -39.52 -39.91 -34.82 -28.44 -21.07 -15.93 -5.99 -3.64 -0.96 -1.10 0.42 4.93 6.60 9.16 21.47 26.72 37.00 46.72 60.39 71.00 98.83 128.04 139.61 153.37 164.21 182.71 201.85 219.03 235.64 250.84 265.62 273.54 273.80 273.52 244.85 227.86 187.99 165.35 131.78 112.56 90.77 67.38 31.45 -265.09 -989.51 -1285.85 -1298.56 -1304.93 -1419.58 -1551.92 -2678.59 -4033.69 -5234.75 -5479.82 -5549.95 -5562.21 -5479.14 -5304.34 -4584.54 -2838.38 -1715.11 -532.50 -358.43 -334.62 -365.02 -544.93 -791.77 -867.60 -1240.51 -1336.75 -1513.66 -1795.83 -2030.42 -2233.60 -2338.53 -2452.99 -2664.99 -2974.35 -3254.77 -3575.21 -3688.67 -3688.90
-2570.28 -2571.95 -2580.02 -2529.36 -2511.63 -2568.96 -2570.18 -2568.31 -2583.78 -2573.38 -2555.42 -2537.47 -2504.15 -2511.14 -2472.11 -2446.27 -2370.87 -2250.34 -2034.61 -1816.99 -1578.77 -1235.80 -1013.14 -821.07 -755.47 -750.78 -742.87 -729.04 -654.37 -419.85 -324.54 -305.85 -274.96 -256.17 -250.77 -253.12 -222.22 -228.29 -227.98 -207.94 -203.95 -196.38 -186.67 -184.57 -178.10 -167.07 -136.46 -141.93 -133.11 -122.60 -110.59 -96.96 -92.47 -79.35 -73.37 -55.19 -46.79 -38.61 -39.78 -44.95 -50.41 -46.89 -40.60 -34.70 -27.11 -24.87 -17.75 -13.18 -4.03 -2.48 -1.03 -0.65 4.74 14.30 24.46 34.70 48.34 59.04 73.44 92.58 114.10 130.91 146.56 166.78 181.10 190.70 230.09 251.02 259.91 267.73 268.80 256.55 246.11 227.95 180.53 159.43 139.37 101.74 74.78 51.52 38.84 19.05 -129.64 -923.93 -1261.75 -1272.34 -1313.24 -1450.20 -1728.14 -2812.77 -4381.03 -5168.02 -5497.82 -5548.16 -5573.08 -5565.75 -5393.96 -5028.67 -3517.56 -1796.29 -641.58 -368.44 -356.23 -405.65 -523.74 -743.49 -912.91 -1252.12 -1555.31 -1765.66 -1896.52 -2038.67 -2215.00 -2323.86 -2426.20 -2629.46 -2932.72 -3130.79 -3442.51 -3567.70 -3567.78
-2610.82 -2610.78 -2597.78 -2594.42 -2593.31 -2597.52 -2623.12 -2598.62 -2584.09 -2573.27 -2567.74 -2555.30 -2533.82 -2513.91 -2481.16 -2466.33 -2419.59 -2375.18 -2237.30 -2136.72 -1817.88 -1438.16 -1170.37 -923.49 -769.70 -724.58 -741.69 -750.82 -779.67 -571.08 -386.32 -322.04 -312.47 -282.44 -270.61 -268.71 -257.55 -248.04 -246.60 -244.37 -238.17 -226.36 -215.23 -203.74 -194.93 -183.37 -160.45 -152.51 -146.02 -131.94 -118.59 -104.01 -93.82 -68.55 -53.99 -37.71 -40.18 -45.58 -51.79 -58.73 -59.31 -57.32 -52.17 -45.66 -44.52 -43.35 -37.19 -27.65 -20.82 -14.11 -4.33 -3.91 3.30 7.17 20.81 32.75 43.35 62.72 69.18 90.87 107.41 121.52 141.73 170.56 183.35 197.99 240.45 259.70 267.77 268.97 265.17 243.24 209.66 181.84 159.99 125.02 113.14 83.58 55.13 26.95 5.70 -234.22 -783.80 -1240.02 -1291.11 -1299.42 -1366.34 -1535.87 -2194.05 -3156.30 -4687.58 -5277.85 -5513.80 -5548.36 -5572.60 -5594.50 -5526.95 -5219.88 -3619.88 -2325.64 -718.79 -403.40 -364.70 -426.09 -526.57 -777.86 -1132.48 -1379.05 -1702.68 -1874.82 -1990.29 -2090.26 -2284.86 -2352.93 -2456.54 -2640.00 -2912.69 -3176.62 -3345.52 -3577.95 -3578.02
-2662.48 -2664.65 -2654.10 -2616.17 -2642.68 -2657.35 -2654.72 -2618.54 -2594.22 -2556.37 -2554.82 -2548.74 -2524.79 -2511.90 -2488.97 -2428.68 -2430.20 -2404.74 -2351.21 -2170.19 -2062.37 -1718.01 -1170.26 -975.99 -773.92 -709.94 -709.30 -710.61 -729.91 -622.50 -474.24 -443.05 -329.98 -309.74 -303.45 -296.72 -280.37 -272.15 -278.10 -273.92 -271.10 -259.07 -237.29 -222.38 -206.88 -190.82 -179.76 -167.11 -155.07 -134.53 -127.37 -104.84 -85.62 -66.55 -39.25 -21.70 -31.69 -48.01 -62.27 -68.72 -69.34 -69.01 -66.12 -59.69 -54.38 -49.31 -49.28 -46.13 -30.63 -24.25 -12.05 -12.24 -1.39 4.26 14.45 30.01 41.42 60.11 65.53 81.61 97.51 115.97 123.28 160.05 178.30 200.04 233.54 256.79 265.77 266.07 227.80 204.01 176.18 160.77 135.19 103.30 65.12 56.99 35.50 7.91 -169.73 -705.64 -1126.51 -1286.14 -1274.20 -1313.89 -1430.95 -1572.01 -2086.53 -3526.38 -5058.87 -5348.95 -5508.36 -5548.10 -5579.92 -5618.30 -5553.24 -5322.58 -3773.35 -2278.58 -855.82 -395.59 -369.35 -426.84 -579.15 -827.25 -985.06 -1376.00 -1705.36 -1926.50 -2072.12 -2183.08 -2287.61 -2413.32 -2547.35 -2725.40 -2847.57 -3290.63 -3459.25 -3616.09 -3616.00
-2696.36 -2696.29 -2684.18 -2667.56 -2708.69 -2710.60 -2692.55 -2667.20 -2590.00 -2551.01 -2541.08 -2531.54 -2517.52 -2505.45 -2486.82 -2409.71 -2414.49 -2433.39 -2408.46 -2308.52 -2185.89 -1804.19 -1400.17 -1095.16 -820.63 -723.23 -697.98 -695.06 -700.26 -663.31 -636.47 -641.56 -570.25 -483.94 -361.83 -415.88 -417.06 -330.57 -325.85 -294.29 -298.75 -290.50 -273.19 -249.80 -240.33 -223.96 -202.01 -178.32 -166.85 -146.24 -131.59 -103.16 -75.48 -57.24 -25.48 -14.43 -41.80 -62.21 -68.80 -73.96 -81.73 -80.85 -78.12 -70.91 -62.52 -59.91 -58.82 -45.49 -41.22 -29.98 -25.20 -15.50 -5.56 7.68 15.75 29.46 34.91 49.20 55.51 70.75 83.94 107.11 120.32 142.14 171.23 193.46 216.27 241.70 264.92 264.11 230.94 215.62 157.55 125.47 91.09 78.84 56.45 35.09 17.90 -291.35 -928.95 -1090.36 -1221.14 -1285.76 -1310.17 -1340.23 -1437.56 -1497.84 -2651.58 -3839.57 -4973.05 -5500.60 -5516.49 -5548.24 -5589.30 -5619.08 -5562.03 -5182.17 -3384.92 -2003.22 -663.23 -381.36 -380.91 -484.70 -561.67 -793.58 -1324.63 -1486.14 -1851.57 -2063.84 -2145.63 -2259.80 -2337.97 -2438.87 -2529.58 -2711.17 -3025.05 -3379.87 -3580.54 -3820.51 -3820.59
-2703.75 -2703.64 -2699.69 -2710.90 -2716.87 -2710.87 -2696.61 -2660.66 -2598.60 -2542.72 -2534.55 -2532.85 -2525.25 -2522.35 -2497.63 -2438.59 -2409.51 -2433.06 -2406.96 -2367.66 -2141.71 -1858.75 -1425.34 -1077.42 -797.83 -751.71 -718.57 -743.07 -747.97 -743.94 -729.26 -688.31 -705.85 -670.87 -597.66 -602.61 -604.64 -534.28 -480.98 -483.34 -377.16 -325.45 -301.52 -282.74 -265.20 -248.67 -234.77 -217.77 -181.77 -150.54 -123.66 -96.89 -74.24 -45.89 -23.76 -31.77 -57.32 -64.41 -79.21 -82.88 -92.81 -92.88 -90.29 -82.62 -71.55 -68.46 -66.39 -64.60 -54.49 -44.64 -32.45 -22.77 -4.85 7.17 15.70 22.20 31.30 39.67 43.57 59.26 72.66 95.05 115.34 132.58 164.91 182.97 206.14 239.04 252.63 223.76 206.77 186.47 140.39 97.85 69.11 51.73 37.67 17.91 -116.52 -734.91 -1492.28 -1333.04 -1257.05 -1260.41 -1328.28 -1365.59 -1432.30 -1736.71 -2779.22 -3885.58 -4937.75 -5452.56 -5527.28 -5545.39 -5588.23 -5593.00 -5388.53 -4926.71 -2994.14 -1882.83 -494.03 -374.57 -381.35 -615.33 -818.36 -1026.37 -1510.71 -1889.35 -2030.93 -2187.35 -2227.84 -2344.14 -2417.80 -2434.08 -2550.91 -2760.64 -3059.77 -3395.79 -3714.54 -3823.92 -3831.06
-2654.55 -2654.49 -2661.61 -2689.81 -2732.44 -2727.49 -2707.03 -2663.63 -2600.53 -2552.75 -2541.83 -2547.65 -2549.23 -2542.17 -2512.38 -2481.99 -2432.36 -2448.15 -2423.89 -2349.69 -2079.75 -1894.93 -1434.04 -1075.41 -887.71 -904.27 -1011.31 -930.57 -910.77 -931.07 -857.34 -812.13 -856.04 -699.16 -705.23 -666.16 -662.76 -673.05 -695.36 -644.73 -415.15 -340.33 -331.07 -314.48 -305.82 -292.10 -261.07 -222.98 -184.83 -151.03 -125.63 -101.09 -61.31 -31.59 -26.34 -49.16 -68.52 -80.44 -89.03 -97.85 -103.56 -102.50 -94.63 -97.62 -92.40 -87.37 -81.76 -81.73 -69.95 -63.52 -44.97 -35.66 -14.96 -3.46 10.58 17.54 26.26 32.00 37.83 51.03 65.26 81.90 93.71 106.89 132.46 153.35 186.89 219.39 228.64 220.44 208.27 139.51 106.65 70.67 52.57 44.65 5.47 -31.93 -337.75 -1226.96 -1373.06 -1319.76 -1278.89 -1283.74 -1321.62 -1396.79 -1489.84 -1963.37 -3026.30 -4330.28 -5023.50 -5472.68 -5526.19 -5546.61 -5575.34 -5590.64 -5475.97 -4556.31 -2819.28 -1372.33 -519.77 -370.09 -437.34 -692.46 -1124.21 -1504.96 -1851.37 -2113.12 -2183.37 -2286.30 -2310.53 -2366.12 -2430.10 -2468.59 -2545.29 -2660.14 -2940.59 -3417.22 -3794.32 -3911.51 -3911.58
-2672.09 -2678.85 -2698.78 -2706.18 -2731.83 -2742.26 -2716.75 -2674.93 -2615.86 -2579.97 -2562.83 -2561.88 -2569.46 -2550.58 -2526.61 -2508.30 -2482.93 -2488.91 -2435.92 -2329.52 -2122.86 -1802.32 -1475.17 -1250.43 -1202.40 -1197.92 -1198.37 -1256.81 -1344.86 -1265.17 -1291.52 -1303.00 -1272.64 -1139.39 -879.84 -722.37 -696.05 -699.20 -694.46 -683.14 -484.17 -395.13 -356.04 -344.62 -316.95 -299.51 -267.37 -245.42 -192.54 -179.71 -127.78 -104.99 -64.37 -28.83 -33.99 -58.41 -75.06 -91.76 -94.83 -105.32 -107.55 -112.14 -112.88 -108.17 -104.83 -98.19 -95.85 -87.59 -75.93 -75.81 -58.02 -41.80 -26.76 -8.67 6.76 8.31 13.53 21.00 27.22 35.66 52.93 72.20 82.64 99.29 120.27 132.60 177.14 198.02 208.54 202.44 204.91 159.22 84.64 50.19 45.48 19.37 -34.57 -219.13 -1009.45 -1412.31 -1320.19 -1281.75 -1319.21 -1296.90 -1348.64 -1431.97 -1518.05 -2200.49 -3051.78 -4652.28 -5354.10 -5490.86 -5522.44 -5544.66 -5583.94 -5582.21 -5251.93 -4878.99 -2206.88 -691.81 -427.12 -458.85 -583.89 -828.26 -1304.58 -1819.41 -2017.81 -2212.97 -2273.38 -2324.42 -2362.68 -2386.71 -2411.87 -2483.98 -2636.54 -2784.00 -3082.76 -3385.01 -3746.99 -3898.75 -3898.89
-2681.66 -2681.55 -2662.28 -2675.32 -2710.04 -2707.88 -2704.24 -2668.93 -2629.65 -2603.46 -2610.07 -2591.15 -2593.85 -2583.93 -2553.07 -2496.41 -2456.59 -2494.50 -2484.80 -2382.97 -2238.94 -1909.50 -1686.74 -1561.22 -1511.76 -1574.81 -1627.33 -1697.74 -1707.05 -1844.23 -1803.89 -1676.40 -1798.43 -1583.72 -1037.61 -766.93 -724.85 -721.31 -720.41 -706.04 -719.77 -679.86 -613.31 -446.02 -353.77 -309.63 -282.33 -254.09 -223.49 -182.47 -129.75 -100.16 -55.68 -53.52 -48.83 -72.38 -95.07 -107.39 -114.52 -118.98 -120.42 -129.00 -126.87 -124.99 -119.54 -109.22 -99.90 -89.56 -83.86 -81.23 -63.67 -51.43 -42.89 -18.85 -3.13 -0.75 5.32 11.08 16.95 26.19 43.20 51.82 66.89 77.32 88.42 112.45 148.27 161.00 184.83 190.71 169.27 115.50 87.05 29.58 30.92 13.16 -72.92 -448.32 -1410.68 -1392.01 -1278.65 -1300.74 -1371.62 -1367.81 -1438.57 -1575.42 -1989.20 -2805.55 -3854.22 -4924.37 -5407.95 -5461.38 -5519.00 -5548.83 -5589.60 -5516.71 -5216.37 -3985.30 -1730.07 -705.36 -431.94 -500.96 -748.06 -948.47 -1344.67 -1792.43 -1945.81 -2197.54 -2315.50 -2358.20 -2375.24 -2388.70 -2484.15 -2563.36 -2778.59 -2901.02 -3223.18 -3441.45 -3671.99 -3808.58 -3808.65
-2633.77 -2633.72 -2645.83 -2661.93 -2684.51 -2692.95 -2687.10 -2669.70 -2644.46 -2642.19 -2651.01 -2622.54 -2617.49 -2606.27 -2569.55 -2526.42 -2506.90 -2549.17 -2525.05 -2432.07 -2330.38 -2188.75 -2075.15 -2029.22 -1993.99 -2197.43 -2232.10 -2233.02 -2315.68 -2280.44 -2315.40 -2306.76 -2249.64 -1794.93 -1314.81 -939.44 -761.66 -748.82 -759.33 -769.19 -780.58 -757.59 -710.97 -504.34 -389.43 -332.05 -304.62 -271.83 -232.21 -202.68 -153.70 -113.05 -80.61 -95.35 -101.07 -115.06 -125.44 -125.62 -139.01 -141.07 -142.73 -149.25 -142.99 -135.11 -127.52 -111.44 -104.21 -100.65 -89.11 -87.95 -83.01 -75.15 -54.45 -31.59 -23.93 -12.19 -1.28 4.06 15.58 26.28 36.40 40.96 53.53 58.55 73.05 85.27 115.50 133.71 145.04 134.77 122.30 98.08 43.26 6.49 -74.51 -47.51 -144.21 -807.77 -1439.64 -1352.55 -1307.18 -1350.72 -1441.01 -1531.61 -1612.20 -2065.59 -2386.87 -3574.35 -4686.02 -5223.61 -5392.35 -5461.93 -5517.18 -5547.36 -5586.37 -5508.45 -5114.86 -3334.16 -1607.54 -690.12 -425.28 -495.12 -775.09 -1198.61 -1451.23 -1761.83 -2025.92 -2190.58 -2325.38 -2377.90 -2400.16 -2424.08 -2492.58 -2583.99 -2775.53 -3032.36 -3214.94 -3444.76 -3618.45 -3813.16 -3813.22
-2661.19 -2661.12 -2639.93 -2627.51 -2659.90 -2679.03 -2684.03 -2672.80 -2668.23 -2657.47 -2659.39 -2655.29 -2648.10 -2638.47 -2604.32 -2583.51 -2576.83 -2575.50 -2552.19 -2533.39 -2492.68 -2410.70 -2378.37 -2350.68 -2386.76 -2421.96 -2468.47 -2473.77 -2581.19 -2589.40 -2632.35 -2599.54 -2504.08 -2375.56 -2023.76 -1382.41 -878.17 -787.42 -817.63 -787.20 -782.78 -777.73 -724.50 -684.34 -389.71 -343.28 -316.03 -284.19 -255.92 -223.15 -167.67 -136.93 -124.43 -139.92 -141.51 -151.71 -147.30 -155.53 -158.81 -167.53 -160.44 -160.43 -158.00 -152.89 -136.49 -131.86 -117.57 -112.50 -100.44 -95.49 -89.59 -86.53 -72.66 -69.78 -53.35 -22.00 -9.44 1.97 11.19 20.53 26.00 29.32 36.16 37.14 52.95 62.21 78.34 97.59 98.92 91.62 80.31 45.47 25.24 -50.58 -187.91 -291.83 -663.46 -1267.93 -1428.27 -1352.10 -1419.70 -1694.65 -1742.55 -2248.87 -2383.10 -2681.81 -4004.68 -4478.89 -5085.40 -5350.06 -5458.50 -5485.11 -5527.23 -5557.22 -5583.23 -5478.66 -4543.28 -3718.68 -1772.11 -675.50 -459.67 -665.30 -886.63 -1300.47 -1520.73 -1800.60 -2013.62 -2194.80 -2336.97 -2395.14 -2405.88 -2444.49 -2506.23 -2573.33 -2749.53 -2970.39 -3222.92 -3468.78 -3624.33 -3819.01 -3819.07
-2662.58 -2662.52 -2652.31 -2622.11 -2624.01 -2658.84 -2682.59 -2681.21 -2679.49 -2673.99 -2675.88 -2652.78 -2642.47 -2623.29 -2641.06 -2632.28 -2611.12 -2604.53 -2600.05 -2574.70 -2595.67 -2613.64 -2585.10 -2591.56 -2602.09 -2621.21 -2622.38 -2673.88 -2692.64 -2680.59 -2672.38 -2690.03 -2683.22 -2520.07 -2111.26 -1658.91 -1180.47 -983.65 -910.73 -879.01 -843.24 -812.64 -756.03 -723.35 -411.33 -359.94 -348.07 -306.73 -275.08 -238.94 -204.09 -180.20 -171.60 -177.96 -165.61 -174.76 -182.73 -182.14 -185.92 -195.58 -184.06 -182.99 -169.56 -166.26 -151.65 -143.98 -130.81 -122.09 -113.18 -107.05 -95.74 -97.17 -89.86 -84.12 -80.39 -59.66 -43.72 -24.46 0.05 8.41 15.27 21.20 25.43 31.38 33.66 36.34 55.04 70.28 68.28 54.98 47.07 29.38 21.58 -164.78 -501.83 -1001.49 -1612.79 -1485.58 -1387.47 -1458.62 -1878.26 -2089.24 -2284.85 -2896.83 -3431.58 -4103.28 -4669.63 -5203.65 -5444.06 -5521.04 -5519.91 -5533.67 -5554.41 -5567.81 -5584.39 -5532.60 -4874.31 -2698.79 -1566.24 -518.18 -548.55 -763.39 -947.86 -1395.36 -1684.25 -1912.36 -2205.68 -2294.37 -2342.47 -2372.77 -2404.34 -2445.38 -2525.07 -2617.88 -2723.61 -2956.33 -3245.88 -3549.17 -3748.12 -3885.85 -3885.73
-2668.37 -2668.31 -2676.91 -2663.60 -2653.36 -2645.99 -2667.49 -2677.87 -2672.08 -2680.35 -2672.37 -2627.08 -2630.44 -2610.09 -2660.08 -2651.46 -2640.41 -2627.67 -2619.60 -2630.36 -2630.36 -2645.70 -2658.69 -2687.06 -2679.28 -2701.54 -2718.73 -2731.77 -2724.47 -2705.86 -2671.33 -2675.33 -2688.15 -2599.84 -2252.57 -1963.27 -1530.64 -1161.04 -1002.70 -946.22 -948.40 -833.03 -772.50 -710.46 -539.69 -389.84 -361.23 -324.54 -292.74 -269.06 -223.87 -207.31 -195.99 -195.38 -202.03 -209.42 -202.14 -217.12 -228.05 -224.65 -212.07 -200.48 -182.15 -177.70 -171.01 -154.05 -147.84 -131.57 -127.21 -118.66 -112.06 -107.95 -107.92 -97.78 -90.24 -98.91 -74.61 -49.00 -18.26 -17.94 1.42 11.18 15.55 20.45 24.74 27.04 29.10 43.69 35.07 26.11 19.41 -14.49 -93.34 -393.47 -969.55 -1326.87 -1549.60 -1532.34 -1665.46 -2056.42 -3213.70 -3089.34 -3626.93 -4324.37 -4785.92 -5177.15 -5302.85 -5574.76 -5549.58 -5653.79 -5699.68 -5656.62 -5563.10 -5515.34 -5447.19 -5251.69 -4220.86 -2586.97 -981.03 -538.40 -559.81 -773.75 -1050.29 -1402.55 -1764.24 -2000.01 -2258.35 -2312.35 -2341.50 -2361.96 -2403.60 -2455.58 -2515.40 -2624.50 -2778.66 -3145.52 -3393.98 -3708.55 -3910.74 -4122.20 -4122.26
-2675.39 -2675.33 -2682.45 -2688.17 -2694.80 -2670.79 -2676.38 -2675.81 -2664.05 -2682.44 -2688.18 -2652.12 -2656.39 -2701.10 -2704.23 -2691.15 -2677.74 -2671.25 -2669.48 -2656.62 -2681.59 -2696.12 -2717.80 -2730.63 -2722.28 -2733.31 -2736.54 -2731.25 -2723.53 -2708.22 -2680.55 -2669.07 -2647.28 -2612.79 -2481.68 -2188.71 -1598.52 -1333.67 -1071.68 -987.33 -933.72 -836.42 -802.60 -766.01 -589.72 -473.50 -392.45 -354.35 -331.20 -299.21 -245.23 -232.48 -266.00 -231.40 -230.72 -255.73 -250.75 -259.02 -247.06 -244.38 -232.27 -221.63 -203.33 -193.89 -187.42 -172.56 -162.04 -150.35 -136.13 -135.12 -130.88 -126.51 -121.64 -117.41 -124.61 -113.26 -91.57 -72.75 -66.24 -44.41 -19.13 -2.27 -3.10 9.88 -1.94 0.32 19.25 -3.88 -8.05 -15.01 -59.06 -155.45 -586.16 -979.84 -1556.16 -1549.50 -1642.94 -1946.60 -2382.89 -3070.15 -4012.46 -4763.21 -5006.17 -5230.25 -5375.99 -5505.07 -5611.46 -5730.59 -5516.99 -5394.59 -5605.30 -5164.02 -5223.61 -4918.02 -4746.00 -4104.94 -3745.39 -1946.92 -743.89 -575.46 -651.48 -978.56 -1308.02 -1532.27 -1831.63 -2123.89 -2294.63 -2323.97 -2348.70 -2364.23 -2422.60 -2478.28 -2530.43 -2629.07 -2902.07 -3234.08 -3731.24 -3961.32 -4071.19 -4157.50 -4157.48
-2683.48 -2683.42 -2687.57 -2695.17 -2701.11 -2705.94 -2712.95 -2706.82 -2682.60 -2718.56 -2738.01 -2731.04 -2739.24 -2723.88 -2744.46 -2739.04 -2731.39 -2736.56 -2723.62 -2728.06 -2737.15 -2736.42 -2745.26 -2748.42 -2742.02 -2747.01 -2745.79 -2735.80 -2736.43 -2710.90 -2671.50 -2658.65 -2647.53 -2629.12 -2553.72 -2292.40 -1861.16 -1376.40 -1159.37 -1014.85 -955.83 -861.80 -808.02 -759.76 -693.76 -500.08 -390.68 -382.06 -359.02 -343.50 -316.45 -313.40 -333.18 -306.15 -312.77 -301.07 -289.96 -276.10 -270.09 -265.45 -251.89 -240.09 -229.67 -212.82 -206.09 -183.97 -169.75 -166.08 -158.35 -158.64 -155.89 -147.57 -131.13 -134.83 -134.55 -127.29 -119.49 -100.42 -86.95 -52.42 -37.51 -34.15 -15.82 -16.32 -29.76 -16.13 -42.86 -86.98 -101.12 -117.92 -167.96 -217.65 -612.42 -1021.85 -1680.08 -1697.10 -2172.49 -3100.00 -3765.04 -4941.28 -5182.91 -5375.19 -5582.26 -5665.54 -5758.01 -5839.57 -5839.99 -5936.76 -4486.77 -3481.54 -2535.50 -1883.01 -3199.75 -2369.01 -2111.85 -2200.04 -1492.97 -879.86 -598.56 -530.19 -719.32 -1100.71 -1346.34 -1678.05 -1947.62 -2205.63 -2284.55 -2313.67 -2347.92 -2369.10 -2431.37 -2489.76 -2623.63 -2678.96 -2893.25 -3441.22 -3703.44 -4053.66 -4206.16 -4264.34 -4264.39
-2693.03 -2694.58 -2698.85 -2701.43 -2707.22 -2713.03 -2723.73 -2720.21 -2744.49 -2773.92 -2769.02 -2774.76 -2774.63 -2791.47 -2795.91 -2804.19 -2800.84 -2822.54 -2813.44 -2815.31 -2811.23 -2778.92 -2770.50 -2756.97 -2754.61 -2751.47 -2752.77 -2740.71 -2739.60 -2708.52 -2675.03 -2680.94 -2648.37 -2602.95 -2509.91 -2318.27 -1945.00 -1626.76 -1276.90 -1066.54 -979.85 -863.66 -829.26 -787.65 -714.14 -514.61 -436.23 -407.18 -378.28 -370.22 -354.94 -365.31 -354.50 -348.08 -335.49 -329.81 -316.75 -293.90 -292.01 -273.66 -273.00 -256.10 -243.30 -232.34 -223.22 -205.71 -191.94 -185.56 -172.43 -167.06 -172.37 -168.05 -163.07 -163.31 -147.83 -133.53 -127.96 -120.67 -106.97 -95.51 -85.05 -77.93 -57.43 -54.88 -72.65 -66.03 -94.10 -107.86 -144.50 -160.80 -167.36 -190.25 -569.82 -1234.06 -1969.29 -2251.95 -3328.12 -4026.19 -4961.01 -5124.21 -5685.02 -5726.70 -5862.99 -6035.42 -5258.78 -4661.10 -4819.94 -2991.52 -1352.71 -315.56 -230.35 -257.84 23.38 14.62 -166.56 -932.71 -594.87 -498.09 -469.29 -558.30 -736.27 -1169.83 -1457.25 -1749.80 -1969.61 -2170.56 -2262.52 -2302.30 -2334.03 -2360.22 -2415.09 -2537.00 -2708.62 -2774.71 -3043.39 -3319.89 -3848.22 -4098.32 -4254.04 -4294.12 -4293.85
-2704.84 -2704.79 -2706.38 -2713.58 -2720.11 -2722.93 -2736.89 -2755.99 -2778.75 -2790.62 -2803.13 -2806.04 -2811.51 -2817.84 -2835.03 -2840.24 -2834.88 -2854.95 -2863.20 -2848.48 -2841.78 -2821.93 -2805.44 -2781.94 -2776.66 -2770.45 -2765.15 -2757.79 -2739.49 -2717.46 -2690.46 -2674.95 -2636.79 -2553.18 -2421.74 -2174.74 -2024.74 -1712.80 -1350.70 -1135.63 -1029.61 -885.81 -865.87 -819.98 -754.04 -655.74 -540.66 -479.74 -407.28 -409.25 -400.29 -385.97 -380.15 -395.23 -423.94 -414.68 -377.61 -321.16 -338.21 -389.34 -342.41 -296.66 -270.42 -248.44 -240.28 -234.79 -218.94 -202.80 -195.93 -191.46 -188.27 -185.70 -179.17 -178.21 -170.14 -153.59 -149.58 -147.12 -131.65 -124.33 -104.61 -97.14 -86.41 -88.31 -81.61 -88.72 -95.72 -112.96 -152.59 -180.47 -182.38 -180.21 -1018.04 -1817.98 -2613.29 -3135.98 -4578.42 -5075.95 -5510.76 -5590.19 -5828.38 -5810.13 -6117.33 -5112.82 -2850.39 -1911.72 -2876.13 -1587.15 7.44 24.53 34.79 37.08 28.43 23.66 14.51 -81.18 -273.63 -414.91 -546.25 -644.00 -968.11 -1203.56 -1634.64 -1945.47 -2077.83 -2233.36 -2275.70 -2297.27 -2315.13 -2353.04 -2420.80 -2556.81 -2777.71 -2825.11 -3127.35 -3498.34 -3942.81 -4172.99 -4296.65 -4317.37 -4317.44
-2719.12 -2719.06 -2722.50 -2727.63 -2738.26 -2737.83 -2749.05 -2771.34 -2796.53 -2818.34 -2819.16 -2825.22 -2830.18 -2840.25 -2853.52 -2865.23 -2869.34 -2873.73 -2875.76 -2859.18 -2849.84 -2840.84 -2832.57 -2814.90 -2797.69 -2788.76 -2769.91 -2765.81 -2750.68 -2730.54 -2707.59 -2657.12 -2622.48 -2540.01 -2415.60 -2158.99 -1945.95 -1758.94 -1434.47 -1225.18 -1049.67 -920.15 -876.92 -830.49 -783.35 -731.99 -692.01 -568.46 -497.02 -463.21 -488.53 -530.50 -491.78 -451.26 -492.01 -477.46 -428.59 -496.76 -407.86 -455.45 -435.77 -312.36 -287.07 -278.72 -265.92 -257.34 -232.53 -227.74 -230.66 -213.96 -212.26 -212.25 -207.35 -197.02 -191.02 -183.20 -173.93 -160.20 -160.84 -143.87 -130.18 -114.08 -107.17 -106.89 -104.04 -95.73 -85.66 -107.29 -149.25 -209.53 -245.91 -595.87 -1411.02 -2153.27 -2602.63 -4050.89 -5080.89 -5220.27 -5133.43 -5309.97 -5488.18 -4204.88 -3300.44 -1797.09 -597.33 -94.61 3.93 15.24 26.39 37.66 44.11 42.47 34.16 26.73 19.95 -28.70 -173.40 -570.27 -747.71 -918.68 -1121.67 -1438.41 -1698.20 -2003.31 -2180.60 -2273.69 -2303.10 -2311.04 -2314.02 -2391.36 -2559.25 -2711.46 -2933.28 -3120.69 -3426.13 -3732.85 -4023.13 -4272.81 -4303.63 -4322.74 -4322.80
-2736.10 -2736.05 -2738.16 -2747.33 -2747.64 -2761.11 -2765.01 -2788.21 -2810.19 -2832.16 -2842.36 -2847.79 -2849.24 -2858.65 -2871.58 -2871.55 -2863.67 -2869.33 -2873.25 -2879.22 -2867.67 -2852.89 -2848.60 -2830.14 -2811.31 -2801.92 -2791.27 -2770.37 -2760.26 -2745.51 -2728.06 -2688.98 -2597.10 -2512.18 -2310.70 -2183.39 -1927.35 -1680.01 -1365.15 -1140.24 -1062.30 -964.95 -911.67 -822.76 -780.09 -765.70 -749.48 -688.61 -654.24 -588.46 -603.10 -624.27 -587.02 -548.36 -590.15 -560.65 -548.70 -536.84 -503.47 -516.84 -468.05 -373.70 -345.19 -311.22 -278.44 -265.44 -253.68 -249.72 -245.37 -249.31 -246.66 -233.63 -235.59 -227.37 -219.13 -222.44 -215.21 -201.03 -188.21 -167.95 -156.34 -144.50 -127.41 -125.75 -113.60 -89.69 -39.26 -75.19 -167.85 -486.60 -948.41 -1312.30 -1742.02 -2096.68 -2852.48 -3847.66 -4656.11 -3254.69 -2956.12 -1714.44 -2288.03 -1207.41 -0.75 -25.32 -10.54 38.32 43.56 38.99 44.01 43.14 42.82 40.50 34.23 26.04 20.66 8.30 -222.85 -605.04 -923.66 -1099.30 -1406.23 -1547.14 -1793.80 -2134.28 -2237.87 -2277.88 -2303.52 -2313.89 -2315.11 -2341.62 -2591.32 -2949.73 -3162.74 -3331.74 -3679.46 -4040.77 -4174.86 -4303.36 -4320.62 -4330.38 -4330.44
-2756.75 -2759.73 -2764.23 -2767.01 -2773.65 -2776.71 -2788.48 -2811.26 -2833.64 -2858.13 -2863.38 -2863.69 -2856.66 -2861.63 -2874.39 -2866.61 -2869.19 -2882.08 -2878.49 -2879.24 -2868.20 -2861.75 -2852.50 -2839.68 -2827.10 -2814.00 -2804.20 -2788.23 -2772.66 -2761.90 -2743.63 -2714.78 -2636.35 -2521.72 -2326.71 -2079.76 -1894.66 -1560.51 -1441.94 -1195.99 -1065.87 -986.21 -906.55 -822.27 -794.98 -765.24 -734.64 -720.25 -673.33 -654.25 -643.89 -623.24 -615.45 -604.08 -585.50 -564.26 -547.36 -531.76 -521.87 -496.89 -460.54 -418.53 -377.29 -363.61 -353.80 -309.98 -289.37 -278.35 -270.49 -264.25 -269.85 -262.13 -258.30 -245.49 -245.86 -246.76 -236.74 -224.57 -222.82 -199.24 -176.40 -171.48 -150.24 -135.74 -127.76 -115.61 -93.62 -162.09 -276.93 -560.92 -983.78 -1320.07 -1974.89 -2286.50 -2687.02 -3630.32 -3635.13 -1001.78 -314.09 10.11 25.94 11.78 23.20 41.53 64.55 62.24 55.50 52.82 46.69 43.45 37.55 35.00 30.26 21.46 16.63 7.15 -174.32 -852.28 -1326.89 -1461.04 -1601.16 -1700.95 -1861.42 -2100.00 -2282.90 -2299.89 -2321.12 -2319.09 -2315.64 -2351.65 -2570.27 -2941.63 -3451.99 -3730.51 -3996.62 -4156.16 -4246.36 -4317.47 -4329.79 -4337.71 -4337.77
-2782.05 -2782.01 -2797.64 -2792.85 -2806.98 -2805.84 -2821.34 -2840.55 -2867.24 -2870.29 -2870.98 -2872.33 -2868.04 -2873.62 -2882.57 -2862.49 -2869.88 -2875.85 -2860.84 -2855.39 -2868.87 -2873.50 -2859.21 -2849.44 -2833.86 -2822.37 -2815.24 -2809.10 -2798.40 -2786.69 -2780.18 -2704.95 -2559.08 -2433.15 -2210.38 -1985.09 -1790.39 -1579.14 -1330.12 -1213.77 -1094.32 -1008.74 -934.46 -841.44 -813.45 -763.87 -744.40 -716.36 -682.81 -673.09 -651.15 -637.37 -623.51 -615.24 -591.68 -574.38 -546.97 -525.12 -511.80 -489.76 -466.15 -430.20 -401.93 -379.55 -358.24 -339.64 -307.70 -298.51 -293.12 -293.18 -286.37 -275.19 -266.39 -258.27 -255.06 -251.98 -249.35 -243.23 -239.38 -237.21 -223.89 -203.63 -191.31 -189.86 -170.58 -148.18 -170.03 -201.43 -280.11 -347.16 -681.60 -1187.95 -1611.24 -2259.79 -2094.49 -1556.84 -1368.06 13.50 66.96 74.70 83.89 71.38 96.97 105.39 105.46 89.38 70.46 60.51 46.92 39.98 32.22 30.04 26.59 18.57 13.73 -9.43 -414.40 -1374.40 -1561.59 -1748.19 -1945.93 -1963.87 -2067.75 -2234.05 -2303.15 -2329.91 -2329.00 -2324.78 -2322.19 -2352.43 -2555.13 -3001.87 -3544.02 -3858.12 -4209.13 -4303.27 -4312.12 -4328.69 -4338.92 -4344.39 -4344.44
-2811.10 -2814.87 -2823.04 -2829.60 -2834.59 -2839.83 -2841.90 -2873.98 -2884.32 -2885.56 -2892.60 -2886.38 -2890.79 -2892.79 -2896.66 -2874.08 -2856.47 -2856.90 -2856.96 -2866.58 -2887.96 -2890.52 -2881.75 -2868.08 -2855.51 -2838.74 -2830.57 -2824.46 -2818.17 -2812.92 -2796.12 -2746.06 -2530.77 -2330.92 -2180.42 -1964.84 -1678.25 -1409.29 -1357.65 -1218.70 -1104.41 -1031.18 -938.69 -852.80 -799.11 -786.33 -746.38 -722.35 -700.84 -677.71 -662.17 -656.87 -638.05 -621.30 -602.55 -579.07 -561.61 -540.36 -523.18 -495.79 -470.75 -436.62 -414.64 -375.80 -346.64 -335.61 -316.80 -309.71 -303.23 -297.88 -287.20 -278.55 -268.98 -261.06 -253.90 -247.68 -245.02 -243.59 -238.76 -234.04 -220.61 -212.77 -206.60 -198.29 -184.24 -193.88 -215.12 -231.18 -229.87 -298.43 -344.46 -646.83 -690.46 -1038.29 -733.74 -431.12 -230.28 54.89 90.83 131.80 159.24 124.93 165.64 167.42 122.54 106.05 80.39 64.58 52.66 36.97 24.53 21.48 16.87 11.76 -0.39 -23.34 -773.75 -1593.21 -1843.37 -2003.67 -2028.81 -2111.55 -2242.01 -2281.55 -2327.75 -2338.22 -2335.16 -2330.74 -2334.06 -2364.10 -2485.13 -2900.13 -3614.74 -3976.83 -4287.76 -4317.66 -4333.92 -4344.08 -4344.48 -4351.35 -4351.41
-2841.77 -2845.92 -2850.67 -2858.88 -2863.74 -2875.80 -2888.84 -2910.60 -2915.83 -2917.14 -2906.39 -2916.49 -2910.23 -2913.76 -2901.14 -2882.03 -2854.04 -2846.74 -2851.04 -2867.00 -2882.63 -2899.61 -2895.49 -2880.80 -2874.29 -2861.33 -2848.06 -2845.34 -2831.50 -2818.51 -2785.04 -2666.86 -2531.64 -2291.21 -2158.12 -1912.27 -1724.01 -1500.74 -1349.80 -1241.01 -1120.44 -1041.57 -929.17 -867.80 -826.32 -773.53 -760.07 -737.09 -719.29 -701.13 -687.47 -669.00 -650.59 -642.72 -614.91 -582.42 -569.86 -546.86 -519.09 -498.35 -477.88 -448.95 -421.65 -368.48 -343.63 -330.39 -316.66 -308.37 -300.10 -294.42 -286.48 -279.51 -272.95 -268.32 -246.66 -235.14 -234.82 -234.20 -233.10 -222.45 -209.29 -208.76 -205.35 -189.39 -166.66 -178.94 -183.69 -177.49 -186.32 -208.43 -234.55 -227.20 -243.62 -273.97 -168.24 20.58 69.85 119.35 152.08 186.67 250.68 227.91 224.24 201.81 158.03 106.23 78.88 66.55 58.27 41.82 17.75 11.44 1.05 -15.65 -21.95 -44.12 -191.76 -1532.39 -1885.85 -2057.53 -2130.50 -2218.02 -2262.66 -2332.85 -2344.72 -2349.79 -2346.43 -2347.65 -2348.05 -2374.48 -2468.65 -2909.49 -3779.65 -4176.41 -4323.35 -4330.99 -4336.43 -4347.72 -4350.97 -4358.01 -4358.07
-2874.33 -2874.29 -2886.90 -2883.47 -2888.70 -2894.41 -2921.87 -2942.89 -2945.72 -2937.94 -2935.45 -2941.69 -2949.98 -2939.44 -2950.02 -2909.12 -2883.44 -2869.68 -2886.92 -2899.84 -2933.53 -2929.96 -2923.89 -2910.99 -2892.31 -2881.33 -2871.69 -2867.66 -2850.73 -2820.42 -2767.49 -2669.26 -2459.29 -2290.32 -2098.11 -1891.61 -1768.25 -1540.86 -1357.02 -1223.55 -1157.33 -1053.50 -988.30 -928.98 -853.40 -808.04 -779.81 -756.13 -730.86 -722.00 -698.87 -688.21 -674.02 -651.33 -622.97 -592.04 -576.69 -547.21 -528.30 -513.12 -494.72 -462.07 -415.33 -366.56 -340.01 -328.15 -314.61 -308.74 -298.98 -291.56 -285.04 -279.18 -272.51 -267.91 -229.99 -217.85 -209.48 -216.70 -208.24 -190.22 -186.39 -185.50 -176.37 -174.16 -142.47 -119.84 -118.83 -111.55 -124.08 -94.38 -118.28 -106.36 -62.41 -33.91 8.36 77.42 105.07 206.33 282.67 406.74 482.77 304.11 234.93 193.48 141.00 119.63 88.28 65.85 53.94 24.61 9.04 -1.13 -19.05 -25.20 -40.08 -749.69 -1021.39 -1595.68 -2079.27 -2105.03 -2201.53 -2281.45 -2328.23 -2341.63 -2356.49 -2367.32 -2363.57 -2359.58 -2358.98 -2382.64 -2569.61 -3051.86 -3633.93 -4206.84 -4322.43 -4333.64 -4348.26 -4362.23 -4363.91 -4361.52 -4361.58
-2908.96 -2908.93 -2913.52 -2920.34 -2933.75 -2946.43 -2961.08 -2987.31 -2970.45 -2969.22 -2974.47 -2973.79 -2961.70 -2957.83 -2967.62 -2949.52 -2927.18 -2924.80 -2926.11 -2947.54 -2963.60 -2960.57 -2948.26 -2931.62 -2922.51 -2902.50 -2901.66 -2894.06 -2875.97 -2826.10 -2730.90 -2641.25 -2429.93 -2268.72 -2151.28 -1865.47 -1768.80 -1578.26 -1403.99 -1265.83 -1135.97 -1086.36 -1035.60 -963.23 -901.68 -836.22 -795.85 -776.85 -751.43 -739.66 -724.06 -707.26 -684.18 -664.00 -642.45 -618.12 -582.62 -562.80 -538.45 -524.55 -487.64 -458.30 -400.70 -376.12 -340.94 -328.38 -314.82 -304.66 -299.98 -294.39 -287.05 -272.65 -263.48 -247.81 -228.78 -175.08 -169.02 -176.20 -171.04 -164.46 -137.69 -132.16 -119.78 -91.90 -103.39 -65.34 -67.87 -44.38 -53.23 -55.87 -55.23 -49.44 -39.57 -5.77 59.59 96.17 133.57 498.34 497.19 731.16 683.87 272.67 229.95 185.64 142.63 113.06 83.05 69.18 61.29 24.47 6.30 -9.01 -27.92 -61.11 -464.27 -1334.27 -1557.62 -1869.57 -2100.76 -2158.58 -2255.05 -2311.79 -2341.67 -2355.11 -2377.46 -2386.87 -2385.78 -2384.87 -2383.77 -2403.50 -2534.14 -3198.51 -3727.62 -4204.20 -4325.95 -4345.87 -4371.29 -4364.54 -4369.77 -4362.58 -4361.53
-2942.68 -2942.65 -2958.16 -2974.34 -2975.82 -2975.23 -2996.63 -3013.32 -3018.69 -3015.64 -3001.50 -3000.51 -3002.58 -3010.10 -3004.52 -2996.20 -3003.14 -2988.75 -2994.19 -2985.27 -2982.01 -2981.93 -2972.16 -2962.48 -2943.60 -2934.64 -2942.31 -2940.76 -2910.76 -2863.94 -2732.12 -2638.09 -2482.83 -2362.95 -2217.38 -1966.96 -1827.52 -1579.86 -1518.46 -1349.62 -1203.69 -1128.29 -1054.53 -982.86 -939.57 -872.91 -843.87 -803.47 -764.47 -748.69 -733.58 -707.27 -695.96 -666.46 -649.90 -625.17 -592.60 -578.67 -566.65 -538.77 -510.16 -463.28 -432.63 -398.94 -355.27 -328.53 -315.83 -306.91 -295.75 -293.38 -287.51 -265.69 -245.92 -213.79 -212.42 -162.83 -145.67 -142.25 -132.12 -115.27 -85.99 -69.03 -59.41 -52.01 -39.54 -30.46 -21.73 -22.17 -16.29 -12.09 2.94 31.48 62.99 49.60 63.33 137.17 265.87 777.71 920.27 651.39 396.11 208.41 198.16 164.87 128.96 122.95 94.91 64.22 48.45 13.04 -12.32 -29.09 -78.80 -542.79 -1201.98 -1783.83 -1931.07 -2086.50 -2148.38 -2244.82 -2293.90 -2317.32 -2352.21 -2380.05 -2390.93 -2403.09 -2417.54 -2411.55 -2411.05 -2416.40 -2613.43 -3117.23 -3902.83 -4174.18 -4314.16 -4354.22 -4369.63 -4361.40 -4356.03 -4349.71 -4349.78
-2972.03 -2976.46 -2983.95 -2994.96 -3002.59 -3012.39 -3025.23 -3033.42 -3051.16 -3051.31 -3056.62 -3054.11 -3049.73 -3038.19 -3026.60 -3022.81 -3028.78 -3021.41 -3017.42 -3020.11 -3021.09 -3023.47 -3012.56 -3006.22 -2977.17 -2973.69 -2974.18 -2958.86 -2935.24 -2857.75 -2756.90 -2685.63 -2527.35 -2414.50 -2268.70 -2016.28 -1773.86 -1635.99 -1458.59 -1348.51 -1262.09 -1161.34 -1052.82 -1003.14 -927.77 -903.48 -856.62 -813.52 -780.31 -762.92 -742.44 -735.60 -712.32 -682.56 -668.50 -642.14 -617.89 -604.01 -580.16 -556.90 -518.11 -492.87 -459.52 -404.11 -370.99 -353.52 -339.02 -323.03 -314.46 -273.73 -254.28 -249.36 -216.56 -188.67 -180.16 -156.57 -117.13 -112.60 -90.81 -77.26 -61.57 -50.18 -33.13 -25.75 -18.09 2.96 -8.58 28.96 21.97 16.04 16.61 49.72 85.63 101.12 105.37 249.76 533.02 904.31 952.28 408.81 210.35 178.83 147.70 133.36 128.49 116.81 79.53 58.91 23.69 -0.27 -38.68 -73.62 -426.19 -989.46 -1399.61 -1771.38 -1991.18 -2126.92 -2170.15 -2264.61 -2309.79 -2335.05 -2372.86 -2387.57 -2402.30 -2420.38 -2432.41 -2440.52 -2448.28 -2468.35 -2660.81 -2903.82 -3578.23 -4179.67 -4314.54 -4340.31 -4357.57 -4354.28 -4349.49 -4335.37 -4335.45
-3001.49 -3007.41 -3019.83 -3025.57 -3037.29 -3047.07 -3054.54 -3063.74 -3082.06 -3085.88 -3094.50 -3086.81 -3088.39 -3081.46 -3065.52 -3076.89 -3074.45 -3065.01 -3073.56 -3079.48 -3050.67 -3061.59 -3039.45 -3037.13 -3035.46 -3025.34 -3015.82 -2996.36 -2971.76 -2899.69 -2851.69 -2736.62 -2597.61 -2363.29 -2217.93 -1986.77 -1767.07 -1619.78 -1529.25 -1454.05 -1331.36 -1223.27 -1133.40 -1029.82 -981.01 -923.92 -896.15 -849.55 -805.27 -783.26 -771.72 -761.43 -718.08 -700.51 -673.59 -651.15 -627.47 -619.26 -591.24 -564.57 -542.15 -512.97 -475.06 -423.01 -384.33 -390.21 -374.23 -367.90 -332.35 -283.51 -221.80 -214.87 -180.77 -148.89 -131.70 -112.75 -94.87 -86.57 -76.73 -63.35 -42.07 -33.06 -26.84 -14.54 16.51 40.81 52.17 81.28 89.16 85.25 65.00 103.21 108.88 173.22 245.80 547.96 846.91 847.19 461.37 261.64 208.44 180.17 144.21 129.87 107.97 102.79 55.21 36.82 27.87 -31.40 -71.02 -500.04 -1026.42 -1338.82 -1571.16 -1807.02 -2018.21 -2115.38 -2232.76 -2281.46 -2320.74 -2354.53 -2382.33 -2395.77 -2415.00 -2427.85 -2446.49 -2458.75 -2472.22 -2488.77 -2656.06 -2887.31 -3524.14 -4088.32 -4323.06 -4334.62 -4346.98 -4334.82 -4331.09 -4312.99 -4316.82
-3045.30 -3045.21 -3051.52 -3073.58 -3072.80 -3085.40 -3095.91 -3102.85 -3105.70 -3109.09 -3117.17 -3134.19 -3135.81 -3126.19 -3125.92 -3112.89 -3105.60 -3119.16 -3111.97 -3109.80 -3113.72 -3096.16 -3109.82 -3084.34 -3078.35 -3067.45 -3061.77 -3061.68 -3028.62 -2958.48 -2922.00 -2773.85 -2545.32 -2418.62 -2203.91 -2039.29 -1815.42 -1685.25 -1559.97 -1489.64 -1367.58 -1262.24 -1184.80 -1106.49 -1027.40 -959.62 -929.05 -879.59 -840.26 -828.39 -803.01 -785.29 -757.72 -718.43 -684.95 -666.38 -643.15 -616.23 -588.25 -570.18 -546.94 -525.66 -474.89 -440.62 -414.65 -406.91 -413.17 -386.17 -345.06 -310.53 -200.43 -168.28 -160.17 -131.24 -100.67 -89.65 -65.05 -64.97 -50.25 -37.45 -29.69 -22.52 -17.76 6.65 47.76 87.29 98.64 106.34 119.33 118.84 132.07 166.55 180.17 383.87 537.27 911.84 1080.32 655.06 297.35 232.56 193.27 144.70 117.17 109.89 64.63 62.78 45.67 18.67 -10.30 -177.93 -453.60 -975.65 -1370.05 -1559.52 -1650.58 -1854.67 -2041.86 -2129.11 -2239.87 -2307.36 -2335.24 -2372.96 -2392.29 -2406.47 -2426.09 -2442.02 -2451.20 -2466.87 -2485.41 -2508.15 -2632.32 -2751.30 -3245.32 -3962.90 -4252.24 -4327.98 -4330.71 -4323.32 -4308.89 -4294.80 -4289.67
-3087.74 -3087.64 -3104.29 -3115.06 -3104.91 -3142.41 -3149.63 -3143.26 -3159.61 -3152.86 -3159.40 -3178.60 -3178.63 -3168.68 -3170.51 -3165.29 -3175.18 -3168.77 -3160.06 -3167.29 -3159.88 -3154.44 -3148.93 -3146.57 -3134.94 -3118.88 -3108.64 -3096.20 -3081.78 -3037.15 -2964.63 -2845.17 -2684.68 -2510.24 -2293.39 -2150.59 -1861.18 -1793.16 -1703.05 -1548.29 -1477.31 -1339.11 -1228.92 -1114.51 -1071.04 -997.79 -974.13 -928.30 -905.23 -867.13 -827.33 -806.36 -774.48 -745.44 -687.78 -670.48 -642.30 -613.65 -597.16 -577.25 -551.21 -520.57 -491.20 -450.82 -429.51 -424.48 -416.87 -339.76 -261.56 -204.19 -143.24 -92.24 -107.47 -111.09 -74.57 -58.72 -52.28 -40.19 -36.00 -29.88 -22.45 -13.87 -11.04 21.81 81.30 95.52 108.26 116.17 126.22 232.11 287.62 376.95 415.61 968.59 1032.82 1235.04 1119.13 483.74 315.56 202.20 183.27 108.03 84.12 68.65 48.59 41.60 7.68 -19.61 -29.70 -489.29 -1051.49 -1492.12 -1515.85 -1605.31 -1731.84 -1847.82 -2151.57 -2180.71 -2268.77 -2331.69 -2364.58 -2378.91 -2398.73 -2418.22 -2437.12 -2448.60 -2459.97 -2469.92 -2486.79 -2510.25 -2624.02 -2850.65 -3337.23 -3722.04 -4001.19 -4264.91 -4309.76 -4285.73 -4284.86 -4267.93 -4267.27
-3134.33 -3134.23 -3159.69 -3146.84 -3166.25 -3185.24 -3193.42 -3197.90 -3195.54 -3205.14 -3217.26 -3231.30 -3212.95 -3213.84 -3206.51 -3209.20 -3205.31 -3209.79 -3220.09 -3208.65 -3201.85 -3191.64 -3194.04 -3177.47 -3172.66 -3164.44 -3154.20 -3144.85 -3121.40 -3070.71 -2994.19 -2886.17 -2758.75 -2597.96 -2385.68 -2213.23 -2023.90 -1908.36 -1739.61 -1630.46 -1521.50 -1439.25 -1301.04 -1192.21 -1115.70 -1070.55 -1012.52 -990.60 -925.08 -897.01 -855.72 -828.67 -800.46 -745.06 -717.69 -685.16 -655.30 -621.66 -604.69 -587.28 -561.28 -536.02 -499.71 -484.03 -476.90 -350.26 -327.76 -271.68 -92.48 -55.16 -64.42 -69.28 -50.14 -53.71 -35.57 -43.09 -36.66 -35.08 -28.13 -19.44 -13.96 -9.36 20.72 63.53 91.06 101.73 108.77 316.00 412.62 653.51 794.58 965.18 988.89 1716.20 2119.19 1978.58 1482.57 862.63 453.75 241.18 142.77 90.62 64.76 25.34 -9.37 -12.34 -86.90 -101.41 -400.65 -984.80 -1331.67 -1567.65 -1576.17 -1722.86 -1859.43 -1973.42 -2178.69 -2269.10 -2294.20 -2356.99 -2380.38 -2391.29 -2412.33 -2424.56 -2440.65 -2461.49 -2470.04 -2474.15 -2489.13 -2515.47 -2581.49 -2778.69 -3013.03 -3474.35 -3810.28 -4193.13 -4256.37 -4241.28 -4241.20 -4246.99 -4240.33
-3193.75 -3188.48 -3204.37 -3215.07 -3209.88 -3223.88 -3232.96 -3252.67 -3248.84 -3250.13 -3257.50 -3260.83 -3259.14 -3266.77 -3258.45 -3262.12 -3260.76 -3263.92 -3256.56 -3239.69 -3247.23 -3247.01 -3238.86 -3221.72 -3206.17 -3208.76 -3201.25 -3186.49 -3168.71 -3118.60 -3077.78 -2942.47 -2791.09 -2596.42 -2444.37 -2280.09 -2183.82 -1989.25 -1802.24 -1666.05 -1540.45 -1457.39 -1375.09 -1239.96 -1177.19 -1107.42 -1084.59 -1026.86 -958.18 -891.18 -872.06 -832.20 -800.43 -763.24 -739.42 -693.89 -661.46 -634.86 -616.12 -590.65 -573.84 -551.99 -519.48 -498.43 -501.34 -288.84 -164.38 -99.21 -20.15 -11.51 -12.81 -10.32 -12.41 -20.77 -17.84 -23.09 -25.30 -23.68 -13.73 -10.26 13.74 21.79 78.49 102.37 118.78 193.16 356.08 580.86 1053.48 1341.72 1522.96 2064.18 2082.66 2308.36 2404.76 1840.22 1559.48 990.56 399.74 179.69 89.70 81.94 26.41 -9.14 -36.47 -60.88 -194.67 -1053.25 -1301.72 -1339.44 -1586.39 -1720.01 -1784.18 -1942.66 -1976.07 -2101.79 -2209.32 -2295.35 -2333.71 -2354.52 -2388.18 -2400.46 -2417.42 -2429.82 -2445.30 -2458.19 -2468.74 -2476.10 -2479.26 -2497.96 -2537.03 -2670.73 -2933.58 -3331.94 -3879.60 -4095.59 -4218.10 -4211.10 -4205.06 -4210.33 -4210.37
-3267.56 -3261.34 -3275.25 -3291.03 -3301.48 -3304.53 -3327.90 -3317.26 -3309.74 -3306.37 -3298.37 -3302.40 -3305.45 -3301.13 -3294.97 -3300.19 -3291.49 -3296.97 -3298.63 -3286.36 -3286.49 -3270.97 -3274.35 -3257.03 -3258.70 -3256.27 -3235.14 -3216.81 -3207.54 -3164.21 -3139.43 -3018.05 -2887.46 -2723.51 -2466.12 -2345.66 -2242.49 -2035.10 -1812.66 -1690.90 -1602.59 -1525.11 -1427.60 -1309.49 -1285.27 -1216.46 -1127.93 -1104.36 -1019.29 -947.39 -896.62 -846.45 -809.21 -774.16 -732.06 -697.14 -665.28 -647.09 -611.03 -599.99 -574.27 -549.21 -513.77 -502.84 -341.18 -118.68 -43.95 -49.57 8.19 -2.61 -0.48 44.94 53.81 27.34 13.70 -12.89 -8.63 -8.73 9.41 29.11 71.16 76.09 178.08 176.33 147.69 252.34 833.26 1060.75 1781.46 2261.02 2330.98 2159.37 2074.91 1404.47 1895.48 1215.51 1031.46 451.42 207.21 121.54 59.70 33.34 -32.87 -68.81 -142.94 -255.49 -1134.89 -1649.82 -1640.13 -1626.30 -1728.89 -1893.55 -1990.42 -2035.97 -2163.94 -2241.84 -2290.05 -2334.55 -2356.23 -2373.05 -2396.93 -2414.80 -2427.60 -2441.34 -2446.31 -2457.14 -2464.32 -2470.18 -2471.94 -2496.04 -2615.10 -2792.02 -2959.25 -3363.55 -3758.68 -4046.47 -4178.31 -4164.87 -4178.84 -4181.63 -4181.67
-3332.01 -3329.10 -3340.38 -3353.79 -3354.99 -3382.08 -3377.98 -3357.33 -3348.65 -3342.34 -3352.75 -3350.03 -3342.98 -3329.79 -3327.08 -3324.23 -3332.53 -3330.36 -3324.67 -3320.82 -3314.71 -3303.66 -3295.38 -3288.18 -3282.96 -3277.19 -3261.32 -3250.41 -3233.14 -3167.52 -3106.19 -3058.54 -2898.52 -2786.26 -2566.23 -2352.77 -2221.59 -2030.45 -1971.01 -1896.86 -1663.91 -1555.12 -1479.86 -1354.58 -1314.04 -1245.42 -1177.85 -1138.63 -1094.17 -1006.16 -939.10 -868.92 -856.90 -779.48 -737.72 -716.59 -688.32 -655.87 -628.24 -608.73 -582.28 -567.83 -555.59 -425.19 -164.11 -17.69 35.69 48.88 63.92 52.34 50.47 77.14 88.82 70.84 62.92 61.77 35.89 33.85 39.36 56.63 95.45 443.56 501.63 387.45 632.81 981.03 1551.09 2073.94 2468.39 2212.42 1901.61 1465.74 1604.02 1046.85 502.89 380.97 215.96 172.55 88.68 42.78 -32.13 -52.24 -57.72 -201.49 -287.90 -1143.11 -2006.26 -1822.18 -1806.44 -1769.01 -1885.44 -2067.24 -2146.20 -2159.13 -2207.03 -2261.95 -2310.95 -2344.93 -2363.75 -2391.36 -2408.69 -2422.87 -2434.96 -2438.76 -2444.31 -2457.21 -2457.96 -2466.17 -2467.66 -2486.04 -2624.83 -2815.08 -2971.17 -3361.75 -3602.10 -4045.15 -4134.15 -4150.36 -4141.15 -4147.03 -4147.07
-3372.97 -3372.88 -3389.53 -3395.86 -3401.44 -3413.53 -3401.23 -3393.20 -3373.90 -3366.21 -3367.52 -3372.22 -3364.78 -3358.26 -3358.94 -3354.26 -3355.91 -3351.49 -3342.59 -3337.77 -3329.66 -3324.32 -3314.44 -3315.10 -3302.36 -3294.79 -3280.13 -3269.91 -3254.79 -3201.50 -3092.42 -3011.18 -2946.14 -2728.07 -2634.01 -2422.63 -2301.45 -2185.49 -2116.96 -1957.36 -1841.63 -1669.36 -1536.21 -1429.34 -1364.59 -1285.08 -1235.30 -1176.67 -1115.02 -1022.70 -966.36 -911.00 -878.04 -801.05 -761.35 -721.60 -699.79 -670.04 -649.47 -617.45 -597.65 -527.46 -542.97 -384.64 -52.41 34.64 53.63 76.38 81.13 88.34 84.54 98.54 116.10 105.38 178.87 163.69 137.13 188.25 339.28 419.38 662.91 1164.64 1364.55 1395.57 1393.76 1336.77 1285.63 1941.76 1897.85 1444.83 1230.16 899.87 874.07 443.80 232.87 71.46 77.01 52.90 9.04 -29.63 -148.03 -216.06 -320.36 -498.12 -979.15 -1791.86 -2105.92 -1923.92 -1915.28 -1988.45 -2047.26 -2089.59 -2201.22 -2250.11 -2281.82 -2304.00 -2345.77 -2366.72 -2384.36 -2403.07 -2425.69 -2437.76 -2443.57 -2444.89 -2446.87 -2451.28 -2451.21 -2455.21 -2465.62 -2480.66 -2539.69 -2744.78 -2871.48 -3186.05 -3483.27 -4007.59 -4118.56 -4143.98 -4127.92 -4119.50 -4119.55
-3399.07 -3398.99 -3411.23 -3417.52 -3422.36 -3426.43 -3428.00 -3412.80 -3393.59 -3382.97 -3383.14 -3390.13 -3389.13 -3381.51 -3372.96 -3371.77 -3373.50 -3361.15 -3348.63 -3346.63 -3338.67 -3335.36 -3327.93 -3321.95 -3312.78 -3305.13 -3291.39 -3279.46 -3262.15 -3212.04 -3140.50 -3041.31 -2928.92 -2750.52 -2635.32 -2463.08 -2373.95 -2228.51 -2190.22 -2031.12 -1981.60 -1802.15 -1632.61 -1485.10 -1422.54 -1364.30 -1291.60 -1236.45 -1160.31 -1074.95 -1004.24 -946.35 -879.50 -819.33 -780.66 -757.92 -726.04 -687.54 -653.27 -617.36 -577.73 -425.18 -199.87 -94.50 -5.28 62.08 78.31 101.19 122.74 135.33 181.61 355.02 446.05 580.90 508.19 624.32 503.06 764.37 1088.78 1099.75 1303.88 1490.00 1597.72 1440.75 1046.15 1068.81 1003.90 1014.50 914.52 748.19 635.72 432.68 220.65 92.24 44.98 48.16 31.00 -11.59 -25.90 -129.99 -517.94 -511.44 -1669.78 -1885.57 -1716.13 -2167.52 -2094.89 -2116.78 -2086.67 -2157.01 -2188.30 -2211.08 -2242.07 -2295.56 -2317.39 -2342.92 -2372.91 -2381.81 -2404.83 -2426.21 -2443.32 -2449.46 -2452.53 -2450.30 -2445.93 -2444.92 -2447.06 -2445.04 -2442.34 -2455.40 -2478.39 -2572.63 -2684.68 -3034.62 -3584.98 -3793.36 -4052.74 -4120.42 -4110.48 -4100.90 -4097.03
-3417.25 -3417.17 -3427.05 -3432.51 -3438.30 -3440.54 -3440.08 -3425.76 -3407.50 -3393.30 -3395.65 -3397.58 -3399.97 -3394.75 -3387.41 -3382.72 -3378.55 -3360.95 -3353.51 -3348.39 -3344.65 -3339.42 -3331.19 -3326.45 -3317.07 -3307.12 -3301.77 -3291.26 -3271.78 -3232.95 -3182.66 -3097.91 -3013.87 -2843.80 -2634.03 -2542.80 -2464.32 -2384.96 -2173.05 -2113.65 -2005.66 -1815.74 -1700.93 -1587.21 -1505.99 -1437.65 -1343.94 -1266.21 -1213.88 -1094.89 -1044.13 -960.57 -893.74 -851.03 -802.93 -769.74 -729.82 -702.29 -673.98 -595.54 -518.69 -321.70 -108.41 -21.96 31.75 63.47 109.97 126.97 149.36 187.58 372.78 774.72 1115.69 1504.14 1601.09 1760.46 2092.78 1913.62 2110.49 1978.72 1911.46 1601.19 1574.37 1042.26 809.33 502.44 421.75 392.86 485.68 322.54 267.74 297.95 151.82 -256.95 -254.20 -62.90 -81.63 -69.46 -133.35 -702.72 -1823.98 -2404.05 -2368.91 -2308.37 -2119.25 -2087.64 -2116.59 -2151.39 -2192.85 -2230.80 -2251.16 -2278.69 -2309.10 -2331.15 -2356.45 -2372.37 -2405.36 -2413.89 -2431.34 -2444.21 -2448.92 -2456.93 -2456.39 -2452.50 -2445.39 -2437.71 -2432.62 -2431.24 -2433.70 -2444.17 -2476.12 -2547.01 -2700.58 -2930.78 -3267.39 -3795.52 -4040.21 -4083.80 -4091.15 -4080.39 -4080.44
-3424.74 -3425.57 -3431.04 -3435.72 -3439.16 -3441.92 -3439.81 -3428.96 -3417.17 -3412.37 -3413.99 -3419.33 -3405.78 -3402.95 -3395.14 -3383.00 -3372.43 -3357.65 -3361.37 -3360.96 -3352.76 -3337.96 -3331.17 -3325.41 -3316.10 -3308.81 -3300.22 -3293.18 -3274.91 -3262.25 -3204.71 -3102.22 -3009.28 -2863.43 -2776.93 -2696.53 -2545.76 -2426.20 -2295.09 -2186.89 -2019.57 -1862.42 -1737.32 -1638.13 -1543.28 -1471.84 -1379.14 -1312.50 -1195.92 -1154.80 -1088.18 -994.36 -916.63 -858.90 -827.79 -776.90 -753.52 -715.80 -679.42 -575.57 -391.80 -218.50 -73.27 -1.25 45.74 69.74 130.20 192.72 231.66 354.59 725.15 1267.28 1727.03 1971.67 2219.42 2112.35 2182.87 2014.33 1944.53 1891.43 1458.72 961.40 574.91 703.25 619.34 462.77 240.50 201.31 194.72 113.13 73.27 -533.12 -558.03 -337.56 -367.72 -380.30 -355.74 -492.28 -584.87 -1166.93 -2280.32 -2371.58 -2231.86 -2197.85 -2170.72 -2164.37 -2164.00 -2212.60 -2246.38 -2266.94 -2292.55 -2322.30 -2355.09 -2366.15 -2382.19 -2387.53 -2417.36 -2441.71 -2450.95 -2455.45 -2450.87 -2453.65 -2451.36 -2448.06 -2441.83 -2434.91 -2424.66 -2421.44 -2419.40 -2432.87 -2460.48 -2549.06 -2738.43 -3093.09 -3420.57 -3671.92 -3962.96 -4078.68 -4092.50 -4072.87 -4072.93
-3421.52 -3421.46 -3424.89 -3425.12 -3429.78 -3432.04 -3434.46 -3436.13 -3438.05 -3445.76 -3440.68 -3434.08 -3423.57 -3406.85 -3400.81 -3383.59 -3348.47 -3342.59 -3351.73 -3344.98 -3349.65 -3339.96 -3332.04 -3322.94 -3314.35 -3307.39 -3297.91 -3288.12 -3274.40 -3266.29 -3233.32 -3129.95 -3031.77 -2969.99 -2863.93 -2786.66 -2665.81 -2476.41 -2392.06 -2232.79 -2049.39 -1875.54 -1743.60 -1641.97 -1551.36 -1492.23 -1388.87 -1332.97 -1237.79 -1167.17 -1113.46 -1032.88 -938.97 -860.56 -819.62 -798.93 -768.62 -731.82 -703.15 -510.79 -290.39 -125.76 -43.34 34.88 73.56 105.19 162.32 235.44 317.46 413.10 547.16 1023.73 1303.00 1256.34 1522.97 1312.85 1297.27 1349.63 1246.65 752.74 897.39 702.99 555.83 306.06 372.64 351.93 317.87 276.51 148.62 54.26 -8.14 -1592.84 -1374.73 -1200.28 -1475.20 -2241.50 -1958.42 -2143.53 -1586.18 -1901.06 -2283.36 -2298.33 -2208.22 -2196.20 -2183.10 -2226.44 -2230.22 -2262.16 -2289.74 -2305.75 -2320.44 -2351.02 -2374.74 -2397.05 -2409.56 -2419.11 -2439.37 -2457.03 -2460.03 -2466.25 -2455.80 -2452.20 -2446.05 -2435.67 -2427.60 -2417.97 -2413.44 -2408.04 -2399.98 -2410.89 -2462.32 -2527.51 -2741.98 -3170.73 -3478.60 -3858.96 -4076.31 -4097.34 -4087.06 -4069.18 -4069.24
-3419.19 -3419.13 -3419.81 -3420.74 -3419.83 -3423.72 -3425.37 -3436.11 -3447.76 -3462.13 -3465.88 -3448.86 -3444.10 -3427.70 -3403.16 -3378.63 -3325.61 -3315.43 -3318.25 -3325.91 -3343.58 -3341.26 -3334.92 -3327.35 -3313.99 -3303.41 -3293.30 -3282.65 -3272.18 -3261.43 -3236.26 -3185.69 -3147.76 -3095.48 -3006.41 -2842.50 -2702.04 -2603.98 -2470.97 -2276.07 -2077.66 -1831.55 -1742.97 -1644.49 -1577.58 -1492.97 -1433.62 -1333.78 -1279.93 -1193.20 -1118.49 -1068.70 -973.88 -900.61 -851.31 -824.57 -812.23 -782.84 -723.39 -475.56 -241.14 -68.29 -2.92 61.41 102.57 153.74 198.17 207.13 277.42 353.71 466.17 515.66 671.85 763.74 965.29 791.11 671.02 798.37 532.25 538.32 523.90 480.62 461.26 252.94 297.03 240.56 170.87 132.88 71.76 -17.47 -325.08 -1487.26 -2272.35 -2097.62 -2347.67 -2762.46 -2665.87 -2525.65 -2446.19 -2326.03 -2301.85 -2269.37 -2233.13 -2230.71 -2252.78 -2268.39 -2299.46 -2322.90 -2346.69 -2350.70 -2354.95 -2375.84 -2407.07 -2433.45 -2456.11 -2447.90 -2457.87 -2470.05 -2476.10 -2470.98 -2457.38 -2456.32 -2435.36 -2426.37 -2423.05 -2411.95 -2402.23 -2401.52 -2403.05 -2416.75 -2467.72 -2611.21 -2817.56 -2987.10 -3569.56 -3976.56 -4110.12 -4093.22 -4087.48 -4072.47 -4069.96
-3425.63 -3425.55 -3422.70 -3419.09 -3416.72 -3416.19 -3421.57 -3439.47 -3458.35 -3478.62 -3479.38 -3468.77 -3455.52 -3441.41 -3426.79 -3370.01 -3316.13 -3306.50 -3313.63 -3333.45 -3345.57 -3365.17 -3341.93 -3329.67 -3320.02 -3300.59 -3287.52 -3277.74 -3268.05 -3258.79 -3230.89 -3207.38 -3178.99 -3161.59 -3032.99 -2924.39 -2843.30 -2728.17 -2556.10 -2381.42 -2134.36 -1870.47 -1805.62 -1691.85 -1625.98 -1543.67 -1447.55 -1358.37 -1295.50 -1241.17 -1172.84 -1074.68 -992.50 -959.04 -879.41 -862.61 -822.14 -812.42 -725.00 -456.25 -200.13 -76.65 45.04 53.82 119.13 178.10 224.18 256.40 278.27 337.10 343.59 397.37 499.72 604.45 601.90 556.25 399.66 476.79 360.65 346.68 442.24 337.99 378.33 208.31 149.41 102.30 16.30 -55.49 -348.18 -1432.67 -1227.10 -2177.18 -2446.65 -2497.72 -2440.24 -2439.39 -2388.72 -2390.14 -2357.73 -2355.53 -2316.43 -2262.96 -2269.87 -2292.76 -2302.54 -2317.62 -2349.22 -2386.62 -2384.06 -2392.25 -2413.69 -2435.61 -2428.04 -2454.88 -2474.98 -2466.83 -2476.70 -2485.95 -2478.68 -2470.23 -2463.34 -2462.16 -2449.33 -2432.22 -2427.28 -2421.53 -2417.14 -2407.72 -2422.60 -2433.45 -2478.38 -2846.29 -3033.29 -3223.87 -3776.19 -4084.56 -4111.36 -4113.23 -4100.01 -4087.68 -4087.76
-3446.61 -3446.53 -3449.42 -3422.44 -3419.84 -3417.51 -3442.03 -3455.74 -3468.41 -3504.02 -3516.22 -3508.31 -3514.88 -3481.59 -3439.87 -3413.75 -3359.74 -3330.10 -3396.88 -3400.62 -3440.29 -3423.90 -3363.06 -3339.10 -3327.49 -3310.90 -3290.22 -3273.05 -3263.29 -3253.23 -3235.90 -3208.96 -3182.64 -3155.78 -3081.17 -2974.59 -2886.45 -2739.99 -2529.59 -2318.42 -2100.80 -1940.00 -1898.92 -1792.48 -1656.52 -1559.16 -1458.36 -1382.75 -1323.02 -1273.76 -1199.22 -1132.23 -1054.72 -962.94 -926.92 -892.96 -862.81 -852.51 -808.78 -597.80 -342.09 -85.32 39.27 64.26 139.24 279.41 312.43 550.46 368.39 432.87 418.40 432.87 547.20 601.02 613.31 526.89 418.56 351.49 312.94 233.78 371.57 211.23 178.53 146.11 85.07 9.84 -83.07 -138.98 -1040.96 -2915.38 -2568.03 -2274.44 -2450.60 -2369.73 -2311.01 -2303.21 -2310.29 -2328.92 -2352.72 -2361.26 -2368.50 -2319.51 -2327.37 -2384.87 -2378.42 -2390.93 -2393.94 -2430.91 -2437.54 -2461.36 -2454.91 -2480.91 -2486.61 -2499.73 -2497.42 -2491.98 -2504.30 -2497.13 -2485.18 -2476.45 -2466.31 -2468.58 -2457.61 -2456.05 -2439.57 -2448.71 -2463.42 -2470.96 -2442.89 -2465.97 -2615.66 -2893.79 -3024.00 -3415.45 -3853.95 -4098.39 -4137.18 -4125.99 -4110.61 -4099.73 -4099.50
-3548.83 -3533.33 -3569.93 -3536.58 -3540.29 -3575.15 -3539.23 -3578.48 -3629.08 -3546.23 -3631.09 -3619.77 -3574.29 -3549.43 -3598.94 -3559.39 -3471.22 -3563.90 -3658.44 -3642.65 -3539.14 -3437.44 -3381.41 -3357.55 -3333.32 -3317.66 -3292.97 -3276.43 -3259.10 -3251.77 -3239.15 -3216.42 -3188.47 -3162.63 -3140.08 -3031.15 -2932.09 -2820.42 -2724.10 -2555.42 -2197.84 -2054.00 -1948.35 -1886.44 -1720.85 -1604.79 -1497.77 -1460.63 -1391.34 -1281.33 -1212.69 -1153.24 -1061.73 -1002.42 -961.16 -924.51 -909.12 -880.97 -920.26 -810.54 -518.43 -60.60 44.91 95.07 430.93 1043.11 1380.98 997.56 625.63 538.96 526.95 625.09 690.90 624.02 526.22 603.16 534.88 331.78 173.79 181.84 222.63 117.23 90.76 70.18 1.50 -78.90 -142.98 -635.86 -1806.32 -2797.70 -2657.51 -2517.74 -2360.52 -2371.33 -2373.66 -2336.36 -2372.38 -2410.25 -2497.05 -2471.66 -2429.60 -2417.47 -2482.16 -2480.13 -2445.22 -2448.31 -2449.66 -2498.18 -2484.08 -2494.39 -2525.71 -2524.89 -2519.28 -2518.86 -2515.34 -2516.28 -2514.38 -2503.28 -2495.04 -2489.05 -2480.67 -2478.02 -2494.44 -2493.05 -2490.42 -2525.28 -2532.03 -2596.31 -2655.93 -2576.22 -2641.28 -3106.51 -3484.34 -3748.60 -4023.10 -4104.65 -4151.75 -4137.49 -4118.18 -4108.92 -4109.00
-3956.88 -3921.14 -3939.87 -3785.78 -3822.70 -3944.27 -3997.13 -3957.69 -3982.23 -3864.39 -4032.62 -3860.07 -3777.29 -3719.25 -3852.63 -4019.93 -4179.08 -3850.52 -3851.66 -3830.06 -3606.78 -3465.88 -3435.80 -3376.28 -3352.27 -3323.08 -3302.17 -3284.67 -3269.64 -3252.37 -3239.87 -3222.02 -3207.60 -3181.47 -3151.00 -3075.40 -3012.80 -2982.22 -2892.66 -2675.78 -2433.32 -2264.88 -2079.12 -1962.36 -1766.50 -1677.90 -1592.14 -1533.53 -1480.36 -1447.16 -1364.74 -1229.57 -1135.91 -1091.58 -1042.50 -992.93 -995.89 -1022.64 -962.42 -878.61 -534.39 7.06 166.01 293.10 465.31 1006.77 1212.94 944.51 647.17 574.75 681.45 774.31 671.48 496.60 420.51 562.35 379.00 180.05 179.24 119.42 92.94 78.80 44.56 39.84 -52.45 -689.83 -1386.94 -2226.35 -2425.62 -2852.75 -2621.97 -2580.57 -2466.23 -2517.22 -2514.71 -2458.67 -2486.84 -2508.82 -2644.84 -2713.57 -2659.53 -2598.83 -2644.34 -2617.07 -2606.98 -2555.28 -2586.89 -2598.47 -2580.00 -2556.52 -2585.28 -2577.48 -2569.64 -2561.61 -2534.09 -2535.46 -2535.15 -2524.57 -2517.00 -2505.11 -2533.07 -2514.44 -2530.02 -2535.46 -2539.68 -2604.22 -2691.46 -2908.57 -2957.61 -2904.23 -3135.82 -3421.32 -3699.99 -3965.15 -4149.07 -4164.66 -4166.34 -4150.20 -4137.60 -4119.44 -4119.52
-4675.76 -4675.22 -4671.47 -4528.04 -4559.70 -4529.88 -4526.15 -4592.05 -4697.17 -4508.16 -4391.78 -4257.78 -4157.10 -4308.98 -4372.64 -4327.76 -4470.09 -4222.47 -4015.07 -3891.75 -3690.57 -3518.21 -3486.56 -3432.70 -3390.82 -3344.27 -3323.14 -3302.31 -3287.40 -3271.05 -3246.28 -3235.34 -3214.27 -3200.39 -3189.57 -3128.20 -3089.58 -3064.53 -2914.44 -2778.69 -2521.00 -2542.26 -2304.47 -2190.97 -2056.49 -1925.83 -1802.39 -1734.46 -1662.48 -1611.38 -1577.50 -1346.09 -1263.04 -1221.40 -1256.70 -1148.03 -1178.37 -1173.51 -1067.44 -1004.54 -512.52 -99.48 140.10 305.10 561.04 602.25 429.35 555.43 573.07 390.60 504.64 562.71 439.01 384.19 274.84 302.68 159.36 108.83 109.04 40.90 30.46 14.13 -2.61 -98.59 -245.00 -2603.71 -2752.62 -3233.03 -3029.42 -2807.05 -2672.52 -2623.66 -2582.08 -2675.66 -2830.43 -2703.16 -2762.39 -2863.02 -2858.57 -2913.38 -2794.83 -2887.02 -2855.41 -2779.23 -2733.26 -2682.57 -2671.56 -2651.96 -2665.12 -2619.92 -2614.86 -2629.61 -2646.15 -2607.84 -2575.99 -2568.87 -2558.45 -2544.95 -2537.87 -2539.72 -2576.33 -2584.18 -2576.95 -2614.72 -2697.30 -2708.08 -2843.21 -2980.60 -3466.55 -3700.49 -3557.22 -3909.15 -4076.65 -4180.94 -4204.16 -4196.29 -4182.64 -4163.83 -4153.12 -4135.89 -4135.97
