-5017.23 -5017.16 -5031.65 -5047.72 -5063.34 -5077.83 -5098.60 -5132.47 -5166.82 -5201.35 -5214.19 -5234.69 -5250.68 -5301.04 -5305.60 -5307.02 -5292.77 -5298.14 -5295.18 -5299.88 -5313.41 -5325.87 -5350.18 -5363.76 -5366.87 -5370.24 -5371.25 -5378.56 -5385.35 -5392.90 -5396.61 -5400.27 -5402.78 -5403.25 -5404.03 -5401.37 -5399.23 -5402.82 -5410.33 -5422.04 -5453.12 -5472.42 -5513.16 -5540.15 -5570.86 -5583.87 -5593.77 -5596.27 -5583.47 -5541.85 -5492.78 -5482.57 -5478.85 -5477.04 -5481.87 -5523.91 -5565.50 -5550.50 -5534.98 -5532.72 -5530.06 -5532.53 -5531.41 -5532.51 -5528.14 -5532.78 -5528.42 -5529.10 -5520.60 -5441.40 -5301.32 -5124.26 -4781.14 -4642.45 -4219.01 -3728.92 -3315.13 -2946.88 -2756.99 -2648.41 -2516.71 -2345.32 -2348.84 -2683.15 -4360.03 -5279.16 -4415.30 -1451.61 -598.25 -366.09 -520.74 -737.00 -916.25 -1116.83 -1364.44 -1420.34 -1476.17 -1505.30 -1556.23 -1506.34 -1274.43 -1033.09 -1223.99 -1548.79 -2149.94 -3168.58 -5305.99 -8008.01 -8518.15 -8795.81 -8791.83 -8805.84 -8808.18 -8817.95 -8824.92 -8830.29 -8797.92 -8189.01 -6297.97 -3833.55 -2669.60 -2305.19 -2301.08 -2366.47 -2433.25 -2481.25 -2497.10 -2496.14 -2516.44 -2525.29 -2534.74 -2551.59 -2577.61 -2603.62 -2654.41 -2689.44 -2812.96 -2973.34 -3059.47 -3128.02 -3128.12
-5011.77 -5011.69 -5022.99 -5033.74 -5051.10 -5070.90 -5096.43 -5126.28 -5161.76 -5186.35 -5212.06 -5221.79 -5239.48 -5256.21 -5282.95 -5295.20 -5305.38 -5322.78 -5342.67 -5333.08 -5340.50 -5347.34 -5355.84 -5369.87 -5369.94 -5369.58 -5371.51 -5372.61 -5382.06 -5390.67 -5393.37 -5393.62 -5398.22 -5399.71 -5399.91 -5400.90 -5402.79 -5409.52 -5419.18 -5434.02 -5452.58 -5475.37 -5518.13 -5551.98 -5573.71 -5591.51 -5601.01 -5606.01 -5594.73 -5552.18 -5506.94 -5493.23 -5484.71 -5481.73 -5484.57 -5518.79 -5547.73 -5542.26 -5539.30 -5537.32 -5531.39 -5532.72 -5529.70 -5522.67 -5516.12 -5514.22 -5514.44 -5514.55 -5505.20 -5409.79 -5267.92 -4931.72 -4541.26 -4269.79 -4081.12 -3654.03 -3223.32 -2891.56 -2701.85 -2556.05 -2476.88 -2370.21 -2265.31 -2478.89 -3033.54 -3967.42 -2224.54 -729.90 -202.96 -172.65 -258.47 -605.57 -890.02 -1114.47 -1264.68 -1381.62 -1398.74 -1450.08 -1521.14 -1367.64 -1105.02 -820.86 -1110.72 -1729.48 -2573.10 -4161.54 -4764.28 -7548.52 -7832.82 -8408.77 -8777.09 -8811.08 -8812.00 -8824.83 -8831.09 -8836.45 -8820.25 -8672.11 -7629.24 -4358.50 -2716.96 -2321.92 -2267.30 -2339.46 -2387.38 -2493.28 -2499.43 -2511.89 -2516.82 -2526.89 -2538.69 -2555.44 -2577.60 -2590.43 -2624.23 -2672.74 -2795.20 -2945.83 -3031.14 -3079.39 -3079.48
-4988.76 -4989.01 -5002.39 -5016.86 -5033.02 -5058.64 -5079.43 -5129.03 -5179.07 -5202.51 -5233.27 -5237.74 -5249.19 -5256.69 -5276.82 -5287.93 -5314.55 -5360.17 -5373.63 -5371.14 -5365.46 -5373.84 -5373.33 -5369.83 -5366.97 -5365.83 -5366.42 -5370.27 -5378.59 -5383.80 -5388.66 -5388.21 -5389.07 -5391.42 -5396.69 -5404.05 -5410.80 -5420.65 -5433.40 -5449.33 -5470.21 -5498.23 -5531.02 -5564.30 -5583.45 -5598.18 -5610.40 -5612.86 -5601.07 -5555.93 -5514.58 -5504.29 -5493.45 -5492.16 -5494.69 -5513.68 -5538.78 -5552.50 -5539.31 -5529.23 -5532.97 -5528.74 -5523.96 -5516.27 -5500.83 -5494.21 -5497.60 -5496.99 -5459.15 -5367.79 -5239.01 -4791.02 -4460.74 -4106.90 -3731.43 -3407.92 -3187.79 -2883.53 -2656.56 -2477.77 -2386.15 -2348.40 -2184.01 -2219.88 -2681.52 -2841.60 -1361.13 -351.11 -10.92 2.81 -75.18 -549.32 -964.85 -1232.70 -1273.10 -1340.41 -1365.42 -1403.31 -1459.51 -1360.06 -901.36 -819.23 -1279.29 -2090.49 -2945.43 -4434.84 -5519.93 -6341.41 -6909.72 -7782.46 -8350.47 -8806.71 -8810.07 -8829.77 -8832.62 -8835.17 -8818.57 -8452.54 -7333.47 -4962.65 -2945.77 -2294.71 -2239.21 -2292.59 -2381.15 -2461.91 -2502.65 -2511.63 -2525.41 -2533.79 -2540.76 -2550.37 -2565.77 -2584.05 -2608.40 -2654.76 -2734.92 -2891.23 -2937.78 -3049.70 -3049.77
-4965.11 -4965.03 -4985.50 -4997.87 -5004.47 -5025.17 -5057.46 -5104.06 -5171.62 -5232.99 -5254.95 -5266.51 -5272.14 -5277.29 -5285.75 -5291.40 -5329.12 -5393.62 -5418.75 -5417.92 -5406.48 -5403.11 -5378.31 -5368.82 -5363.76 -5361.58 -5360.02 -5362.34 -5367.79 -5375.64 -5376.93 -5379.48 -5383.29 -5382.46 -5393.33 -5407.56 -5429.06 -5436.23 -5453.86 -5465.72 -5489.74 -5509.89 -5545.00 -5569.78 -5592.43 -5605.46 -5620.94 -5619.23 -5604.68 -5562.56 -5523.69 -5507.63 -5499.57 -5495.28 -5496.96 -5510.73 -5524.05 -5541.07 -5530.75 -5532.28 -5533.68 -5524.76 -5513.86 -5502.80 -5493.76 -5488.84 -5484.34 -5482.80 -5463.72 -5266.43 -5068.24 -4737.56 -4206.32 -4077.23 -3569.05 -3187.72 -3003.16 -2703.46 -2543.10 -2365.28 -2042.64 -2038.04 -2024.62 -1851.46 -1716.02 -1347.91 -868.94 -100.70 -5.41 -5.93 -24.48 -541.07 -1042.41 -1220.03 -1279.29 -1281.11 -1326.46 -1361.91 -1351.94 -1222.04 -957.85 -1112.69 -1450.54 -2085.99 -3450.91 -4008.11 -5065.89 -5514.52 -5813.68 -6889.14 -8335.38 -8786.43 -8798.24 -8823.85 -8826.95 -8843.23 -8817.05 -8528.58 -7651.38 -5391.75 -3126.56 -2342.59 -2213.29 -2279.89 -2395.08 -2468.30 -2507.73 -2519.18 -2523.68 -2531.05 -2538.77 -2545.00 -2560.18 -2572.68 -2603.33 -2673.60 -2722.10 -2831.20 -2957.87 -3042.13 -3048.76
-4951.28 -4953.55 -4967.82 -4978.86 -4993.04 -5017.74 -5047.76 -5117.21 -5171.00 -5249.57 -5264.96 -5275.93 -5285.77 -5292.12 -5298.30 -5297.42 -5310.43 -5370.70 -5424.26 -5454.45 -5457.16 -5428.53 -5388.71 -5374.83 -5363.06 -5361.95 -5361.01 -5362.46 -5367.89 -5370.43 -5372.62 -5377.47 -5376.95 -5381.00 -5393.90 -5412.07 -5432.33 -5453.69 -5472.67 -5485.71 -5503.63 -5522.97 -5549.71 -5583.22 -5601.45 -5614.19 -5625.79 -5623.41 -5610.40 -5580.76 -5525.87 -5512.77 -5504.70 -5500.90 -5499.78 -5506.16 -5513.63 -5514.91 -5513.51 -5520.35 -5522.81 -5514.72 -5501.22 -5495.75 -5484.68 -5482.12 -5478.22 -5474.47 -5447.40 -5325.86 -5135.22 -4681.36 -4236.64 -3845.70 -3573.46 -3191.33 -2965.44 -2761.85 -2435.75 -2004.44 -1869.75 -1927.03 -1883.07 -1531.44 -1375.63 -1072.74 -434.55 -156.57 -32.18 -39.93 -175.97 -531.54 -882.36 -1110.08 -1216.65 -1239.26 -1301.82 -1343.61 -1356.35 -1069.64 -960.24 -1206.40 -1545.29 -2048.00 -2766.23 -3645.25 -4387.19 -4938.21 -5680.03 -7320.56 -8392.43 -8735.68 -8766.48 -8793.26 -8811.09 -8821.96 -8820.02 -8686.67 -8283.51 -5328.66 -3188.57 -2338.70 -2216.87 -2285.88 -2403.86 -2465.06 -2500.68 -2520.96 -2520.55 -2523.23 -2526.14 -2535.34 -2550.81 -2560.32 -2595.43 -2666.49 -2752.44 -2864.02 -2977.12 -3046.00 -3046.08
-4957.46 -4959.92 -4968.91 -4981.51 -4994.16 -5010.60 -5063.10 -5110.16 -5195.21 -5249.22 -5271.43 -5282.64 -5288.69 -5294.58 -5300.75 -5298.84 -5310.91 -5349.22 -5401.85 -5439.93 -5451.78 -5438.75 -5402.68 -5385.15 -5371.03 -5365.50 -5364.21 -5366.79 -5372.56 -5374.60 -5375.63 -5377.80 -5380.11 -5388.22 -5397.71 -5423.09 -5447.82 -5464.70 -5481.69 -5497.54 -5511.91 -5545.55 -5561.49 -5590.02 -5608.26 -5621.56 -5632.52 -5632.98 -5611.98 -5584.35 -5537.42 -5512.48 -5508.04 -5505.13 -5506.00 -5505.01 -5511.63 -5509.65 -5508.62 -5509.13 -5508.69 -5502.16 -5495.54 -5491.30 -5479.97 -5476.11 -5469.95 -5462.60 -5436.53 -5337.39 -5184.20 -4626.44 -4258.21 -3737.27 -3431.83 -3073.28 -2905.31 -2549.23 -2247.55 -1963.37 -1625.02 -1296.85 -1418.88 -1226.96 -984.12 -762.61 -411.72 -85.70 -54.42 -48.41 -50.59 -122.29 -611.20 -914.78 -1148.78 -1137.43 -1233.92 -1338.07 -1198.53 -977.43 -868.56 -946.34 -1217.36 -1921.86 -2654.69 -3701.22 -4176.82 -5242.36 -6614.03 -7716.33 -8656.30 -8713.50 -8734.31 -8759.27 -8788.00 -8799.67 -8788.31 -8753.39 -8182.87 -6502.89 -3250.99 -2361.34 -2249.57 -2287.83 -2371.41 -2439.59 -2489.43 -2517.77 -2516.60 -2512.90 -2518.25 -2523.19 -2529.60 -2544.86 -2578.79 -2633.66 -2756.76 -2878.86 -2960.34 -3046.32 -3046.37
-4970.78 -4970.73 -4978.63 -4989.74 -5006.66 -5021.10 -5068.02 -5109.48 -5198.84 -5230.01 -5272.91 -5282.98 -5288.92 -5296.72 -5299.13 -5300.72 -5305.74 -5324.47 -5362.27 -5411.47 -5448.48 -5440.07 -5419.78 -5396.16 -5389.20 -5378.68 -5376.45 -5377.48 -5381.07 -5386.21 -5386.64 -5384.47 -5386.74 -5390.99 -5410.64 -5426.15 -5454.98 -5470.21 -5494.84 -5506.19 -5520.02 -5547.81 -5563.35 -5595.09 -5609.04 -5626.66 -5634.44 -5633.85 -5615.40 -5590.94 -5552.96 -5537.57 -5522.77 -5530.82 -5527.78 -5524.99 -5517.91 -5517.14 -5511.41 -5507.72 -5501.29 -5495.99 -5491.56 -5483.09 -5471.79 -5462.34 -5459.53 -5447.46 -5420.73 -5310.64 -5081.69 -4702.38 -4276.05 -3823.08 -3384.15 -3172.89 -2665.20 -2449.02 -2005.67 -1674.04 -1431.67 -1222.65 -1143.65 -798.40 -744.12 -586.20 -233.31 -29.47 -17.56 -24.40 -10.80 -31.16 -147.05 -378.60 -562.90 -493.03 -999.39 -1334.39 -1227.61 -542.84 -371.24 -609.38 -1416.31 -1816.43 -2538.95 -3584.06 -4384.05 -5530.45 -7380.05 -8179.12 -8674.88 -8710.30 -8702.11 -8732.16 -8758.58 -8751.08 -8723.32 -8716.77 -8161.42 -6229.67 -4037.15 -2404.68 -2263.07 -2304.10 -2354.58 -2447.44 -2503.54 -2518.28 -2511.00 -2509.71 -2507.32 -2515.10 -2524.85 -2533.07 -2573.12 -2602.53 -2741.71 -2815.92 -3048.00 -3104.01 -3103.80
-4992.74 -4992.70 -5009.06 -5013.07 -5020.29 -5032.76 -5077.24 -5128.09 -5196.26 -5225.01 -5261.82 -5267.85 -5277.32 -5280.63 -5294.46 -5291.31 -5299.47 -5314.21 -5331.93 -5384.28 -5431.44 -5437.05 -5423.85 -5417.66 -5413.44 -5406.29 -5407.37 -5406.98 -5404.64 -5395.77 -5393.19 -5392.94 -5396.43 -5404.45 -5418.33 -5443.46 -5457.94 -5485.03 -5497.84 -5514.73 -5527.89 -5549.85 -5565.74 -5593.73 -5611.78 -5625.16 -5633.53 -5639.04 -5630.25 -5599.54 -5594.25 -5595.80 -5583.79 -5582.86 -5570.12 -5546.10 -5543.30 -5531.92 -5521.70 -5515.34 -5504.49 -5496.88 -5490.05 -5480.29 -5468.83 -5460.00 -5453.30 -5442.28 -5400.11 -5295.21 -5095.69 -4714.23 -4372.45 -3870.46 -3571.42 -3368.77 -2934.82 -2667.20 -2040.84 -1646.69 -1285.58 -1047.32 -781.02 -355.45 -296.24 -61.84 -78.79 -10.59 19.87 14.19 10.68 3.42 -9.89 -84.44 -118.19 -317.68 -476.53 -1041.26 -1013.79 -472.66 -328.36 -748.16 -1280.02 -2348.08 -2957.02 -3312.91 -4561.24 -5794.72 -7319.54 -8505.21 -8668.28 -8671.81 -8681.12 -8630.84 -8678.75 -8648.32 -8615.05 -8622.38 -8258.70 -6521.35 -3580.04 -2359.22 -2201.94 -2260.97 -2333.68 -2454.17 -2503.41 -2514.00 -2508.73 -2502.64 -2497.15 -2502.41 -2514.43 -2527.42 -2559.54 -2597.74 -2714.54 -2883.76 -3031.56 -3201.14 -3201.21
-5025.37 -5032.13 -5037.59 -5042.31 -5050.45 -5062.75 -5097.06 -5124.92 -5171.97 -5198.03 -5221.88 -5226.20 -5225.45 -5231.97 -5251.34 -5271.67 -5284.79 -5299.93 -5310.19 -5339.01 -5389.96 -5436.07 -5442.43 -5440.01 -5445.77 -5441.51 -5448.19 -5438.52 -5431.12 -5411.59 -5406.36 -5404.33 -5404.79 -5410.41 -5430.11 -5452.12 -5469.22 -5490.66 -5507.76 -5522.74 -5540.32 -5555.52 -5563.39 -5589.91 -5610.32 -5622.48 -5629.74 -5640.68 -5647.23 -5655.71 -5641.71 -5640.21 -5615.73 -5596.69 -5580.25 -5563.92 -5547.02 -5549.49 -5534.25 -5524.31 -5512.64 -5501.14 -5491.10 -5478.79 -5464.03 -5455.17 -5450.95 -5443.10 -5376.17 -5286.24 -5049.43 -4842.66 -4369.07 -3956.72 -3570.49 -3323.04 -2938.51 -2517.17 -2188.45 -1659.06 -1202.08 -887.50 -567.43 -124.77 -38.68 -16.69 -2.48 16.43 32.95 30.55 35.33 32.27 19.51 3.02 -13.65 -25.74 -127.79 -214.91 -515.25 -366.72 -479.05 -808.92 -1453.05 -2146.18 -2839.61 -3677.64 -4675.27 -5972.80 -7395.05 -8492.77 -8583.57 -8570.13 -8569.90 -8531.61 -8539.34 -8501.46 -8452.39 -8409.01 -8244.90 -6641.08 -3798.64 -2259.24 -2114.49 -2182.28 -2339.30 -2433.35 -2473.83 -2499.35 -2504.00 -2498.27 -2492.46 -2493.57 -2498.45 -2511.25 -2553.30 -2608.89 -2756.19 -2860.14 -3026.44 -3158.56 -3187.22
-5058.59 -5058.32 -5061.95 -5068.85 -5083.61 -5091.57 -5106.79 -5120.42 -5163.37 -5170.08 -5173.97 -5187.65 -5197.73 -5216.39 -5227.73 -5256.29 -5272.68 -5294.35 -5301.47 -5318.06 -5351.30 -5413.73 -5453.72 -5481.60 -5484.20 -5485.92 -5474.24 -5460.17 -5439.36 -5433.02 -5415.09 -5410.67 -5416.01 -5422.66 -5431.41 -5464.49 -5480.55 -5501.55 -5517.96 -5533.29 -5545.96 -5560.06 -5574.38 -5583.52 -5605.23 -5612.53 -5626.04 -5639.20 -5664.19 -5659.28 -5655.98 -5634.48 -5620.41 -5615.42 -5597.79 -5583.81 -5560.75 -5559.00 -5547.56 -5535.28 -5521.16 -5503.57 -5495.56 -5483.45 -5469.17 -5455.64 -5451.35 -5439.24 -5403.74 -5341.57 -5100.79 -4895.11 -4630.92 -4188.55 -3892.52 -3323.35 -2809.64 -2450.19 -2045.73 -1564.97 -1204.49 -804.17 -263.42 -64.00 -16.56 14.90 27.95 45.55 65.12 59.40 59.70 75.89 60.00 13.74 -8.82 -14.80 -19.33 -41.46 -284.61 -361.03 -464.33 -974.20 -1412.42 -2251.46 -3165.52 -3821.27 -4474.56 -6159.64 -7222.78 -8141.92 -8437.44 -8444.30 -8446.76 -8365.22 -8395.44 -8384.69 -8317.35 -8220.26 -8122.96 -4802.49 -3489.26 -2140.86 -2052.30 -2168.42 -2350.95 -2438.90 -2478.35 -2488.13 -2497.97 -2490.38 -2488.26 -2488.37 -2494.97 -2518.62 -2554.88 -2661.65 -2752.23 -2914.43 -3068.31 -3174.08 -3174.16
-5081.29 -5084.99 -5092.32 -5099.18 -5105.54 -5113.26 -5117.48 -5131.33 -5138.61 -5144.71 -5148.83 -5155.89 -5171.06 -5189.05 -5215.66 -5246.55 -5267.95 -5287.58 -5298.35 -5311.65 -5330.69 -5392.27 -5442.94 -5492.18 -5514.67 -5511.34 -5503.30 -5494.83 -5470.89 -5442.09 -5425.11 -5419.18 -5426.03 -5433.29 -5439.39 -5474.05 -5488.64 -5511.14 -5526.77 -5545.90 -5558.77 -5579.18 -5582.27 -5590.47 -5600.36 -5609.30 -5626.63 -5632.47 -5677.84 -5671.84 -5659.57 -5637.49 -5636.56 -5622.92 -5607.38 -5603.71 -5591.91 -5574.29 -5563.07 -5541.94 -5526.95 -5513.65 -5493.13 -5488.99 -5469.18 -5454.40 -5440.71 -5434.38 -5396.79 -5330.82 -5117.18 -4902.12 -4606.45 -4234.30 -3592.08 -3000.46 -2637.29 -2136.58 -1808.29 -1399.36 -1009.00 -474.45 -113.50 -39.74 -10.32 47.84 68.24 75.07 84.30 92.80 115.48 107.28 72.47 64.92 39.89 4.45 -10.51 -30.95 -38.90 -83.61 -341.31 -963.11 -1616.03 -2133.32 -2843.00 -3758.35 -4621.15 -5939.61 -7470.83 -8181.98 -8254.99 -8091.28 -8241.32 -8256.15 -8268.24 -8185.55 -8079.13 -8091.03 -7797.53 -5499.84 -3103.28 -2089.27 -2007.19 -2145.24 -2280.01 -2430.58 -2459.96 -2475.71 -2488.43 -2485.22 -2483.77 -2488.59 -2498.70 -2534.07 -2583.15 -2643.94 -2786.25 -2895.87 -3044.39 -3160.00 -3160.08
-5100.37 -5100.32 -5102.06 -5109.45 -5114.40 -5124.08 -5130.76 -5134.16 -5137.64 -5139.84 -5146.68 -5153.16 -5162.46 -5180.74 -5213.65 -5244.86 -5271.07 -5287.83 -5298.82 -5310.38 -5328.41 -5371.05 -5405.44 -5491.34 -5527.59 -5528.83 -5520.42 -5512.89 -5472.63 -5455.94 -5433.46 -5428.92 -5435.06 -5440.40 -5450.08 -5455.17 -5457.73 -5499.78 -5513.76 -5539.73 -5556.19 -5579.61 -5594.28 -5602.51 -5614.38 -5621.69 -5633.31 -5656.00 -5674.78 -5670.55 -5650.82 -5628.27 -5611.18 -5606.66 -5604.06 -5611.19 -5610.37 -5577.31 -5569.04 -5552.95 -5532.24 -5525.60 -5506.24 -5482.70 -5465.75 -5456.13 -5439.64 -5432.20 -5407.18 -5358.12 -5068.73 -4780.60 -4338.88 -4186.56 -3538.49 -2858.76 -2464.69 -2050.04 -1629.35 -1415.43 -591.99 -308.21 -40.06 -10.94 5.74 47.99 77.83 80.35 109.81 134.01 133.67 128.29 117.72 74.57 51.85 40.30 34.93 -6.96 -10.21 -54.65 -132.20 -590.52 -1547.10 -1823.21 -2395.33 -3584.62 -4019.58 -5609.37 -5867.28 -6635.53 -7423.81 -7479.01 -7872.67 -8000.16 -8032.76 -7982.74 -7919.27 -7893.08 -7355.73 -5154.24 -2971.00 -2120.33 -1958.14 -2101.58 -2229.82 -2395.13 -2450.60 -2472.87 -2479.73 -2479.45 -2486.29 -2499.33 -2523.07 -2563.53 -2621.35 -2721.02 -2799.92 -2927.23 -3018.40 -3146.12 -3146.19
-5110.60 -5110.55 -5114.16 -5121.58 -5126.10 -5130.25 -5135.35 -5141.04 -5147.17 -5155.74 -5155.70 -5165.72 -5171.99 -5195.94 -5218.53 -5251.57 -5271.99 -5291.83 -5303.36 -5312.37 -5323.73 -5342.76 -5403.46 -5422.77 -5508.85 -5527.46 -5519.97 -5507.93 -5487.57 -5463.50 -5442.02 -5436.74 -5435.77 -5433.65 -5406.82 -5397.65 -5365.46 -5332.20 -5402.02 -5428.91 -5503.48 -5545.08 -5575.64 -5603.99 -5620.16 -5637.05 -5656.61 -5663.80 -5692.63 -5673.94 -5657.64 -5620.06 -5618.04 -5615.32 -5618.81 -5620.75 -5627.99 -5588.00 -5572.78 -5555.33 -5543.46 -5527.27 -5511.17 -5484.95 -5469.65 -5455.10 -5447.11 -5434.34 -5403.87 -5271.21 -4992.81 -4493.01 -4147.54 -3755.61 -3545.29 -2622.30 -2156.49 -1858.40 -1477.90 -977.36 -206.11 -12.87 3.60 8.73 11.74 42.98 89.10 120.18 147.74 161.85 165.61 158.25 133.72 111.57 103.54 67.72 54.41 11.63 -6.04 -45.41 -85.36 -154.79 -503.59 -1362.33 -2038.26 -2042.46 -2180.14 -3422.25 -2655.84 -4809.66 -6487.40 -6989.37 -7519.22 -7744.56 -7802.62 -7663.47 -7666.90 -7631.79 -7031.85 -4900.30 -2966.21 -1952.81 -1918.66 -2085.81 -2215.75 -2316.90 -2430.56 -2475.06 -2473.64 -2472.31 -2478.07 -2481.66 -2535.11 -2545.36 -2674.64 -2762.58 -2811.62 -2960.37 -3055.31 -3123.14 -3136.95
-5116.59 -5116.53 -5120.04 -5122.63 -5126.35 -5131.31 -5140.64 -5157.88 -5184.99 -5173.28 -5193.24 -5198.24 -5203.87 -5209.88 -5237.86 -5263.42 -5280.25 -5305.17 -5312.47 -5324.77 -5332.64 -5336.85 -5351.16 -5398.15 -5470.60 -5497.09 -5493.34 -5497.90 -5481.46 -5451.47 -5433.41 -5431.38 -5387.46 -5358.13 -5286.70 -5048.66 -4698.93 -4890.21 -4995.13 -5010.06 -5252.26 -5359.92 -5456.22 -5540.12 -5592.94 -5618.32 -5661.67 -5693.09 -5709.05 -5694.76 -5676.20 -5642.69 -5623.84 -5634.95 -5635.81 -5642.74 -5631.21 -5610.44 -5592.44 -5580.81 -5561.89 -5537.27 -5519.18 -5494.21 -5480.47 -5465.71 -5456.54 -5442.19 -5381.62 -5254.81 -4918.16 -4482.30 -4144.31 -3611.33 -3250.88 -2633.77 -2242.31 -2049.16 -1293.30 -454.39 -63.70 -7.37 28.79 44.54 42.22 52.86 95.42 141.90 163.93 193.73 201.67 203.72 197.33 140.47 133.69 127.10 69.51 26.33 3.29 -34.14 -75.30 -148.04 -413.60 -254.32 -283.70 -708.53 -1076.13 -1153.71 -1304.84 -2824.40 -4951.64 -6694.72 -7004.98 -7422.07 -7509.50 -7520.48 -7272.89 -7306.46 -6639.00 -4817.12 -2365.74 -1885.75 -1902.34 -2040.18 -2193.47 -2332.54 -2422.98 -2465.72 -2470.59 -2469.84 -2467.79 -2473.85 -2512.34 -2560.02 -2673.96 -2750.82 -2840.06 -2935.90 -3013.51 -3132.43 -3132.51
-5121.92 -5122.33 -5121.48 -5123.03 -5126.23 -5132.16 -5149.24 -5176.63 -5209.22 -5233.58 -5262.58 -5265.74 -5265.09 -5292.77 -5273.67 -5306.01 -5309.69 -5332.84 -5333.45 -5339.06 -5344.07 -5329.82 -5284.00 -5239.00 -5291.22 -5346.14 -5420.92 -5432.96 -5442.32 -5439.94 -5409.33 -5365.76 -5105.56 -4850.97 -4600.01 -4241.12 -3611.43 -3460.70 -3799.36 -4026.23 -4330.29 -4341.82 -4910.23 -5354.11 -5321.43 -5602.63 -5661.73 -5686.99 -5705.36 -5684.18 -5687.59 -5647.09 -5631.13 -5643.36 -5646.96 -5655.11 -5642.38 -5633.49 -5620.88 -5603.78 -5588.90 -5561.01 -5533.21 -5508.12 -5484.45 -5470.68 -5457.53 -5439.96 -5370.85 -5276.15 -5024.58 -4656.37 -4222.74 -3516.05 -3308.45 -2620.60 -2314.12 -2136.77 -1001.84 -273.83 -7.77 25.24 74.49 84.42 96.05 91.97 165.66 313.43 372.33 438.38 400.85 262.50 338.26 361.32 425.90 390.08 63.53 41.57 18.11 -41.70 -88.14 -1079.95 -1907.56 -621.00 -792.15 -628.62 -461.62 -449.34 -500.38 -831.06 -1689.76 -5364.38 -6793.91 -7204.13 -7283.01 -7268.63 -7010.54 -6884.01 -6547.75 -3876.97 -2669.31 -1738.51 -1824.87 -2019.36 -2152.86 -2340.71 -2409.66 -2466.47 -2472.98 -2462.52 -2459.64 -2471.43 -2510.92 -2550.77 -2642.65 -2736.18 -2882.93 -3037.66 -3082.71 -3189.88 -3189.81
-5142.33 -5142.30 -5152.55 -5137.79 -5141.75 -5150.62 -5167.17 -5204.91 -5252.20 -5310.14 -5311.79 -5318.80 -5326.16 -5324.54 -5337.90 -5340.00 -5346.34 -5358.21 -5367.45 -5379.93 -5363.49 -5310.93 -5249.66 -4962.18 -4643.38 -4551.58 -4956.94 -5148.07 -5144.01 -5347.95 -5223.16 -4865.45 -4581.38 -4124.13 -3553.20 -3020.39 -2682.95 -2673.33 -2855.43 -2831.78 -3178.88 -3676.06 -3620.45 -4311.01 -4662.41 -5052.01 -5622.51 -5628.84 -5670.41 -5662.61 -5663.29 -5644.21 -5635.66 -5645.81 -5636.88 -5645.01 -5647.20 -5635.10 -5620.93 -5613.03 -5605.62 -5580.62 -5534.31 -5507.36 -5487.24 -5468.20 -5460.11 -5427.16 -5333.33 -5088.32 -4781.55 -4280.79 -3973.20 -3580.27 -2934.75 -2354.63 -1948.74 -1179.83 -506.79 -108.47 13.57 43.96 80.38 100.71 106.26 189.18 418.13 577.73 671.57 851.02 697.74 623.37 761.58 719.67 764.45 608.97 170.39 58.73 14.51 -42.09 -121.31 -606.64 -3835.55 -2439.02 -2014.26 -1635.52 -1780.90 -702.46 -618.52 -542.74 -1467.46 -3699.66 -6663.42 -6875.53 -7019.76 -6719.85 -6580.47 -6353.07 -5867.69 -4765.72 -2237.94 -1743.27 -1764.13 -1936.90 -2064.70 -2241.34 -2406.86 -2472.23 -2472.95 -2455.35 -2447.77 -2452.70 -2478.79 -2548.57 -2644.08 -2745.37 -2904.66 -3035.92 -3186.53 -3297.07 -3297.13
-5202.42 -5209.34 -5213.46 -5208.59 -5198.06 -5183.37 -5200.06 -5245.14 -5317.54 -5384.11 -5379.67 -5390.13 -5393.81 -5379.95 -5374.97 -5378.46 -5392.74 -5394.34 -5410.66 -5421.89 -5398.20 -5260.27 -4861.32 -4275.65 -3551.52 -3683.86 -3692.50 -4410.94 -4529.55 -4870.96 -4645.16 -3929.91 -3285.44 -2972.97 -2651.83 -2294.86 -2111.71 -2106.28 -2201.98 -2253.22 -2453.90 -2482.25 -2750.12 -3128.25 -3899.90 -4369.98 -5022.68 -5402.74 -5482.29 -5381.73 -5434.41 -5515.16 -5600.09 -5579.33 -5605.42 -5619.82 -5639.19 -5635.25 -5639.20 -5629.64 -5617.32 -5607.77 -5543.66 -5547.43 -5489.81 -5470.56 -5457.65 -5440.90 -5283.74 -4953.43 -4490.83 -4116.33 -3851.34 -3621.57 -2947.00 -1725.89 -736.43 -284.22 -105.49 9.72 52.75 73.37 85.27 111.91 151.82 290.13 486.87 746.90 1067.73 1263.58 1093.03 1116.95 1345.30 1163.55 1231.98 833.68 363.78 73.13 -2.25 -37.83 -93.64 -1074.86 -5541.75 -4629.99 -3727.37 -3277.51 -2472.33 -1797.00 -1023.62 -1036.66 -1855.81 -5076.75 -6360.30 -6349.71 -6312.51 -6230.68 -5861.57 -5969.35 -5598.92 -4590.21 -2292.81 -1734.92 -1744.65 -1997.43 -2152.82 -2257.71 -2396.43 -2457.95 -2460.93 -2448.46 -2438.27 -2455.35 -2468.97 -2514.01 -2626.27 -2860.34 -3056.24 -3205.36 -3345.89 -3361.16 -3387.93
-5321.70 -5310.08 -5296.43 -5288.22 -5269.36 -5268.19 -5278.48 -5325.36 -5340.51 -5429.05 -5438.54 -5437.60 -5440.64 -5461.54 -5486.37 -5458.07 -5480.64 -5459.44 -5452.35 -5458.73 -5414.60 -5221.65 -4483.91 -3421.42 -2704.53 -2588.28 -3019.58 -3363.00 -3334.43 -3794.84 -3998.36 -3347.11 -2467.16 -2192.84 -2096.85 -1924.35 -1642.17 -1741.54 -1621.75 -2003.14 -1921.74 -2234.61 -2399.41 -2652.73 -2980.23 -3328.97 -4269.30 -4766.04 -4833.35 -4912.98 -5066.38 -5300.15 -5281.34 -5446.39 -5544.41 -5604.30 -5603.15 -5634.96 -5636.16 -5641.85 -5631.53 -5606.35 -5545.29 -5503.76 -5488.99 -5487.55 -5401.16 -5420.73 -5289.23 -4895.38 -4431.42 -3980.34 -3748.48 -3554.47 -2592.56 -501.97 -176.95 -63.00 -0.65 51.50 78.89 103.57 123.75 149.36 184.52 262.28 350.91 630.85 1001.50 1077.60 1363.29 1463.28 1542.84 1413.66 1250.77 711.44 498.01 111.00 39.85 -18.36 -82.85 -768.42 -5696.02 -5424.91 -4932.09 -4449.44 -3712.18 -3028.68 -2346.55 -1886.43 -1737.58 -2734.31 -2877.36 -2901.28 -3150.40 -2691.93 -3959.00 -4212.87 -4078.77 -4501.88 -2349.32 -1957.09 -1818.04 -1971.78 -2243.21 -2366.15 -2409.51 -2441.54 -2443.93 -2428.33 -2425.03 -2444.47 -2458.19 -2523.18 -2651.14 -2872.47 -3079.59 -3299.53 -3344.89 -3441.60 -3441.65
-5429.95 -5429.81 -5393.18 -5380.19 -5373.35 -5388.43 -5409.94 -5427.24 -5497.07 -5508.91 -5507.46 -5502.82 -5539.23 -5539.05 -5544.45 -5534.84 -5524.37 -5559.09 -5550.90 -5524.91 -5435.77 -5179.18 -4294.34 -3450.26 -2282.74 -2174.51 -2181.53 -2375.29 -2569.07 -2907.97 -2950.89 -2655.87 -2245.38 -1914.65 -1540.66 -877.40 -881.38 -745.16 -827.99 -1130.56 -1437.54 -2150.14 -2352.05 -2256.10 -2316.55 -2579.54 -3048.65 -3528.71 -4009.73 -3771.37 -3861.36 -4173.19 -4536.33 -4860.50 -5261.31 -5369.70 -5567.53 -5571.32 -5506.56 -5588.55 -5593.35 -5615.19 -5529.90 -5496.01 -5440.78 -5185.15 -5192.70 -4576.55 -4248.30 -3923.48 -3379.77 -3510.06 -3687.08 -2872.31 -1639.80 -138.40 2.74 24.81 31.84 50.41 82.18 117.19 147.06 172.79 223.47 259.45 306.76 432.43 514.87 719.69 889.56 1115.88 1263.08 1471.25 1437.47 799.72 665.80 146.60 79.67 -8.38 -43.63 -156.16 -2320.48 -5381.30 -5825.24 -4984.15 -4711.29 -4576.74 -4031.94 -2914.40 -2184.75 -1496.87 -1331.52 -1386.41 -1506.53 -1787.59 -2125.17 -2309.10 -2810.43 -3677.36 -2949.44 -2211.08 -1810.51 -1987.33 -2175.96 -2323.20 -2414.73 -2427.42 -2420.62 -2412.32 -2406.93 -2421.15 -2501.11 -2526.59 -2617.02 -2908.52 -3075.57 -3423.73 -3433.50 -3469.81 -3485.59
-5527.23 -5527.09 -5541.26 -5481.33 -5462.63 -5468.34 -5469.59 -5508.89 -5564.14 -5597.28 -5600.67 -5589.77 -5598.12 -5609.53 -5615.75 -5645.82 -5651.32 -5686.92 -5635.01 -5624.50 -5551.86 -5163.59 -4101.27 -3139.76 -2294.34 -2199.10 -2213.41 -2244.86 -2206.35 -2319.86 -2421.16 -2354.02 -1973.11 -1416.94 -831.50 -454.51 -150.85 -95.60 -274.31 -316.76 -461.34 -1315.10 -1796.25 -1801.69 -1542.48 -2267.97 -2540.75 -2544.13 -2781.12 -2845.60 -3023.59 -3148.56 -3590.13 -3933.76 -4496.57 -5059.23 -5189.48 -5331.87 -5357.08 -5428.10 -5384.89 -5136.40 -5302.01 -5272.69 -4985.01 -4643.96 -4543.59 -3708.13 -3546.25 -2762.21 -2761.26 -2593.08 -1826.65 -956.92 -292.62 26.60 40.37 53.73 56.97 76.46 115.24 133.34 165.54 210.49 233.93 277.48 316.99 357.09 421.28 502.10 569.61 666.27 905.02 1220.81 1306.63 1215.17 1026.70 670.47 269.41 6.37 -53.72 -108.38 -540.39 -3144.06 -3087.37 -5453.62 -4843.16 -4977.41 -4913.28 -4231.19 -3400.80 -2739.22 -1664.70 -1241.17 -1083.88 -1051.34 -1493.69 -1420.66 -1950.59 -2810.68 -2578.08 -2104.62 -1867.91 -1986.60 -2114.81 -2273.11 -2366.89 -2394.85 -2402.57 -2399.02 -2407.11 -2432.10 -2495.10 -2559.58 -2670.05 -2861.36 -3041.77 -3323.05 -3456.79 -3507.50 -3507.56
-5607.68 -5607.55 -5617.72 -5578.87 -5591.00 -5595.56 -5590.02 -5606.23 -5639.17 -5652.72 -5647.71 -5656.69 -5654.51 -5676.66 -5694.47 -5700.61 -5702.88 -5723.73 -5719.03 -5717.59 -5615.27 -5307.18 -4171.48 -3408.49 -2539.82 -2542.11 -2641.16 -2612.99 -2319.77 -2230.13 -2232.31 -2102.46 -1937.37 -805.31 -342.90 -56.39 -50.10 -52.60 -57.48 -100.41 -107.39 -300.09 -611.95 -480.51 -994.09 -1945.57 -2221.01 -2388.55 -2368.59 -2529.53 -2551.86 -2496.30 -2440.63 -3345.24 -3328.88 -3755.87 -4196.86 -4517.21 -4538.63 -4657.97 -4404.50 -4622.60 -4408.96 -4498.02 -4000.22 -3426.99 -2909.22 -2754.28 -2464.64 -2382.68 -2163.93 -1906.22 -1265.34 -755.42 30.07 50.51 61.92 89.02 92.01 100.70 139.25 150.03 185.43 215.25 250.83 304.10 340.84 361.90 384.32 438.27 464.84 504.53 664.91 932.49 1020.52 1294.63 1237.35 789.51 250.44 70.04 -0.65 -47.47 -76.92 -207.45 -1872.95 -4719.98 -5197.47 -5031.69 -5133.51 -5132.64 -4549.54 -3657.19 -2905.81 -1904.01 -1324.09 -1114.13 -1049.18 -1070.10 -1326.65 -1781.66 -2149.04 -2101.34 -1896.62 -2013.99 -2158.17 -2277.54 -2353.54 -2370.64 -2387.41 -2406.63 -2446.81 -2460.87 -2532.56 -2655.03 -2734.77 -2987.82 -3195.27 -3465.17 -3595.79 -3650.54 -3650.78
-5661.62 -5657.62 -5661.63 -5656.85 -5655.02 -5647.66 -5654.26 -5670.74 -5668.02 -5675.49 -5676.14 -5679.42 -5687.73 -5698.85 -5721.83 -5755.16 -5769.24 -5776.08 -5782.48 -5766.38 -5669.55 -5503.41 -4743.08 -3808.52 -3743.40 -3368.00 -3609.46 -3664.81 -2927.54 -2615.94 -2348.39 -2065.79 -1580.42 -539.22 -171.61 -32.71 -3.64 -9.93 1.56 -12.54 -29.50 -77.09 -104.46 -121.28 -417.97 -1349.37 -1598.83 -1928.41 -2057.05 -2301.99 -2284.13 -2277.75 -2234.72 -2147.22 -2500.47 -2882.24 -3085.93 -3170.82 -3238.06 -3181.56 -3200.02 -3408.92 -3117.63 -3298.55 -3005.29 -2674.72 -2673.72 -2496.97 -2455.56 -2363.73 -2044.66 -834.47 -126.64 34.77 51.61 72.45 95.92 99.36 107.88 136.73 158.34 175.87 201.96 226.74 241.07 311.36 331.45 354.00 387.92 434.62 445.84 476.96 505.56 565.48 677.40 1201.69 1342.20 892.32 465.45 124.50 65.66 17.99 -16.75 -38.63 -374.31 -2831.47 -5408.83 -5126.24 -5013.00 -5192.10 -5169.90 -5066.01 -3886.10 -3431.58 -2526.82 -1490.75 -1234.00 -1043.51 -1074.39 -1247.47 -1516.61 -1795.36 -1829.25 -1948.23 -2158.49 -2232.26 -2328.41 -2361.75 -2368.79 -2392.38 -2435.41 -2472.80 -2580.30 -2691.33 -2847.10 -3152.46 -3357.21 -3554.87 -3678.16 -3773.77 -3773.89
-5690.87 -5689.13 -5691.15 -5692.12 -5687.28 -5689.58 -5696.27 -5696.15 -5695.69 -5688.88 -5692.92 -5699.37 -5701.97 -5717.77 -5745.95 -5767.48 -5783.39 -5789.90 -5802.47 -5799.77 -5756.48 -5620.15 -5228.02 -4900.18 -4788.55 -5012.53 -4902.28 -4439.31 -3453.95 -2832.25 -2522.16 -2360.35 -1887.21 -878.15 -84.99 -44.11 -4.30 15.42 17.63 10.21 -14.13 -35.98 -46.23 -83.12 -103.07 -128.61 -194.73 -603.27 -950.94 -1366.36 -1663.32 -1813.98 -2047.47 -2115.53 -2205.16 -2268.00 -2433.31 -2610.37 -2506.02 -2612.00 -2566.33 -2515.52 -2570.49 -2597.15 -2608.37 -2476.31 -2469.79 -2509.88 -2116.98 -1964.25 -1483.53 -44.83 40.27 58.85 70.37 95.90 112.58 138.77 134.98 151.12 157.16 191.50 207.94 234.44 250.26 287.83 321.90 348.88 390.34 431.42 436.60 452.47 500.32 518.17 605.08 770.79 1067.36 1186.23 753.11 252.01 82.34 53.03 32.49 19.12 -165.78 -2824.30 -5320.02 -5296.43 -4974.57 -5019.59 -5097.89 -5221.19 -5138.80 -4765.91 -3700.58 -3011.33 -2512.76 -1506.07 -1341.81 -1265.39 -1273.38 -1374.76 -1608.40 -1828.76 -1977.94 -2153.04 -2224.68 -2310.47 -2345.35 -2363.32 -2386.70 -2470.78 -2607.02 -2776.76 -2932.28 -3084.55 -3339.82 -3515.79 -3738.71 -3823.39 -3844.13
-5708.58 -5707.23 -5708.51 -5708.54 -5712.24 -5711.67 -5710.74 -5704.80 -5712.06 -5713.31 -5715.09 -5717.70 -5727.49 -5737.33 -5757.80 -5788.63 -5796.31 -5808.78 -5809.73 -5811.63 -5792.36 -5746.85 -5648.51 -5537.86 -5539.22 -5560.23 -5391.42 -5194.83 -4552.67 -3795.90 -2997.16 -2543.30 -1592.56 -674.03 -87.49 -56.20 -1.69 11.89 36.42 36.29 14.67 -2.80 3.06 5.94 -14.80 -56.55 -91.85 -97.84 -340.86 -652.90 -643.73 -770.03 -1399.31 -1864.17 -1871.98 -1905.26 -2078.57 -2213.18 -2252.05 -2301.24 -2261.05 -2287.80 -2348.66 -2350.52 -2476.94 -2493.49 -2643.08 -2391.93 -1243.89 -869.13 -385.61 18.54 55.34 69.21 85.36 110.08 154.69 169.97 173.08 165.55 176.72 207.49 223.39 244.52 260.82 282.07 314.87 345.68 387.74 415.71 427.74 434.62 440.34 496.95 528.24 650.71 916.34 1158.72 742.06 553.74 126.27 115.42 111.34 44.48 16.02 -1413.10 -4126.76 -4825.15 -5138.95 -4886.56 -4878.89 -5031.32 -5199.50 -5260.74 -4985.80 -4350.24 -3827.18 -3130.82 -2204.26 -1413.52 -1208.53 -1099.07 -1364.70 -1573.42 -1831.16 -1973.31 -2171.87 -2244.21 -2307.19 -2321.89 -2357.64 -2459.32 -2584.18 -2668.76 -2867.58 -2986.78 -3156.08 -3405.49 -3715.83 -3829.15 -3851.48
-5724.13 -5724.06 -5728.10 -5727.30 -5724.19 -5729.99 -5729.72 -5726.84 -5727.89 -5733.01 -5725.86 -5736.35 -5739.60 -5747.80 -5777.58 -5800.41 -5806.48 -5815.36 -5814.59 -5818.11 -5805.33 -5769.54 -5707.38 -5691.62 -5676.78 -5670.77 -5666.02 -5522.55 -5312.57 -4965.00 -3874.50 -2686.18 -1283.68 -495.99 -103.03 -50.12 1.66 13.36 34.03 48.94 37.19 26.19 21.77 25.36 16.31 -9.87 -37.01 -46.89 -85.42 -86.12 -91.43 -199.16 -753.44 -1153.14 -1477.65 -1606.39 -1730.69 -1844.29 -1901.80 -2027.96 -1976.02 -1850.81 -1978.41 -2110.44 -2140.83 -2370.97 -2698.51 -1435.89 7.92 24.12 35.15 49.90 84.19 98.73 116.15 155.12 205.55 214.01 214.81 207.31 204.70 216.20 230.67 255.19 271.98 286.10 306.52 323.12 354.68 399.70 415.80 432.65 435.39 468.81 481.03 489.16 697.57 916.92 942.49 608.11 239.12 201.32 171.11 95.85 61.33 -1.01 -1087.69 -3937.76 -5259.98 -5216.80 -5026.47 -5082.74 -5213.58 -5362.02 -5516.98 -5355.56 -5199.74 -4690.43 -3534.90 -2221.09 -1455.09 -1044.60 -1126.22 -1400.79 -1538.57 -1868.94 -1939.08 -2107.54 -2130.31 -2232.18 -2283.12 -2344.93 -2436.26 -2500.95 -2690.01 -2935.24 -3190.91 -3382.81 -3654.71 -3823.90 -3823.94
-5738.75 -5737.65 -5739.00 -5740.94 -5745.83 -5740.85 -5748.54 -5747.69 -5748.87 -5752.62 -5764.80 -5768.86 -5775.67 -5778.12 -5789.20 -5801.44 -5808.73 -5815.01 -5815.11 -5814.18 -5792.61 -5777.64 -5742.54 -5729.93 -5727.90 -5722.12 -5703.65 -5678.78 -5623.98 -5405.26 -4031.68 -2685.82 -1688.28 -140.19 -96.26 -46.58 -4.64 18.73 26.87 46.40 59.81 38.07 31.21 33.89 25.26 17.34 9.13 -4.42 -33.77 -75.23 -85.25 -95.33 -123.99 -618.27 -792.45 -817.48 -787.36 -1287.28 -1395.24 -1421.07 -1519.49 -1371.06 -1355.26 -1526.15 -1256.30 -1808.17 -997.51 -99.00 15.59 35.57 49.42 69.11 84.79 111.81 131.91 165.76 215.65 225.68 229.23 232.00 241.40 232.61 251.48 269.97 282.54 295.92 309.26 324.70 342.88 380.81 410.50 418.41 427.79 450.32 459.07 460.76 533.98 657.50 881.87 857.90 982.44 613.97 258.33 101.90 79.09 -8.31 -41.49 -386.64 -2011.63 -5290.88 -5087.63 -4963.46 -5051.81 -5270.47 -5487.58 -5553.24 -5495.61 -5206.09 -4429.29 -3209.53 -1537.20 -917.02 -871.73 -1073.32 -1218.12 -1465.87 -1717.44 -1978.05 -2017.64 -2062.17 -2243.41 -2279.34 -2344.92 -2405.29 -2522.73 -2717.48 -2993.75 -3401.77 -3616.61 -3706.17 -3703.18
-5750.94 -5750.87 -5754.79 -5754.56 -5753.88 -5756.69 -5757.68 -5771.87 -5790.02 -5807.81 -5799.81 -5804.51 -5813.91 -5811.74 -5805.46 -5798.37 -5797.35 -5795.39 -5799.61 -5792.83 -5786.33 -5772.72 -5762.28 -5759.95 -5752.59 -5745.68 -5744.76 -5738.52 -5660.78 -5478.62 -4380.88 -2548.90 -1131.03 -123.61 -80.41 -8.25 6.76 18.47 32.27 54.95 65.80 58.42 60.49 49.36 46.11 47.30 22.85 5.38 3.26 -18.91 -80.93 -101.94 -121.76 -137.13 -170.90 -235.99 -287.36 -466.12 -859.53 -965.54 -665.87 -570.27 -752.18 -737.51 -411.20 -492.64 -372.82 20.42 32.39 47.15 56.16 85.49 112.15 114.86 164.92 195.45 224.29 244.26 254.06 260.37 251.61 244.45 263.54 279.42 293.94 306.04 315.28 324.13 338.99 351.34 369.27 387.48 389.31 431.32 452.66 452.47 487.16 570.23 723.31 1030.42 1133.94 708.21 292.35 165.78 84.82 46.45 17.85 -602.86 -2863.00 -5029.76 -4879.69 -4756.45 -4967.72 -5199.65 -5448.65 -5558.70 -5579.92 -5417.70 -4862.39 -2974.51 -1636.09 -779.04 -731.91 -808.61 -1067.41 -1203.22 -1460.00 -1746.48 -1842.26 -2029.44 -2171.78 -2282.40 -2313.41 -2395.68 -2567.88 -2794.91 -3037.07 -3194.00 -3455.01 -3638.59 -3638.63
-5761.94 -5761.87 -5765.56 -5768.17 -5770.72 -5772.10 -5782.24 -5802.69 -5834.72 -5837.29 -5849.62 -5852.57 -5853.66 -5846.95 -5825.23 -5799.68 -5785.22 -5778.43 -5773.00 -5775.10 -5775.05 -5773.97 -5778.13 -5773.50 -5771.90 -5768.48 -5772.49 -5787.46 -5752.67 -5480.81 -4240.83 -1602.06 -150.95 -132.67 -67.34 -18.18 9.71 25.01 38.67 63.27 69.30 77.21 84.44 77.96 70.80 70.19 57.50 37.48 12.53 7.60 -49.87 -79.83 -112.06 -130.81 -168.36 -185.22 -196.43 -208.62 -322.94 -303.24 -199.79 -183.18 -164.44 -154.00 -131.25 9.23 19.43 29.08 40.21 48.38 62.36 80.20 115.64 129.83 184.88 198.89 241.54 252.73 263.18 265.69 265.92 265.69 273.76 291.14 302.57 308.72 320.41 328.19 335.36 343.68 358.49 366.56 374.64 418.34 434.26 437.52 469.36 501.17 594.46 864.78 1172.68 1056.15 699.35 285.92 98.67 83.62 65.19 -1439.47 -4129.85 -4869.38 -4773.49 -4710.23 -4869.74 -5069.48 -5368.13 -5517.12 -5568.57 -5510.47 -4949.63 -3278.44 -1735.27 -556.12 -523.57 -579.76 -842.07 -1045.13 -1283.35 -1467.59 -1581.41 -1865.96 -2117.45 -2172.57 -2228.65 -2376.10 -2573.09 -2808.27 -2968.75 -3249.58 -3419.29 -3608.05 -3608.09
-5772.81 -5772.74 -5777.92 -5779.76 -5779.26 -5780.51 -5793.56 -5809.23 -5846.99 -5863.16 -5871.58 -5873.52 -5877.32 -5866.39 -5845.60 -5807.50 -5787.24 -5783.26 -5778.48 -5777.77 -5777.24 -5784.28 -5787.84 -5789.16 -5783.23 -5780.25 -5763.95 -5700.79 -5614.94 -3773.03 -2482.47 -593.51 -152.64 -83.28 -27.43 0.76 11.92 26.37 50.29 64.96 79.24 102.02 124.83 113.73 131.29 79.24 82.43 61.04 35.48 10.41 7.77 -13.62 -93.31 -127.53 -152.23 -164.69 -186.41 -198.41 -200.74 -182.13 -172.04 -153.22 -134.94 -107.37 -35.70 7.49 23.89 32.75 46.16 54.65 60.20 80.98 108.34 139.57 183.12 193.14 216.02 243.42 263.09 269.08 268.81 272.43 285.38 299.59 309.32 315.14 320.95 325.73 332.44 334.74 350.71 359.31 363.83 382.42 412.66 433.96 439.56 479.27 584.62 866.29 1169.92 1105.35 877.63 444.07 157.67 109.10 85.18 34.54 -2054.22 -4605.29 -4901.49 -4769.56 -4797.80 -5053.17 -5202.83 -5465.81 -5530.44 -5474.86 -4942.94 -3783.76 -2142.80 -604.41 -430.65 -469.09 -668.89 -801.93 -1030.91 -1260.09 -1489.59 -1759.40 -1983.69 -2083.02 -2152.37 -2279.22 -2433.70 -2707.70 -3003.63 -3266.35 -3399.10 -3580.69 -3580.74
-5781.39 -5781.34 -5785.35 -5788.58 -5791.48 -5793.73 -5804.37 -5827.83 -5854.67 -5872.39 -5883.77 -5889.48 -5890.06 -5879.65 -5849.34 -5819.61 -5792.60 -5788.17 -5789.47 -5791.73 -5794.08 -5802.73 -5809.03 -5801.09 -5788.05 -5741.77 -5641.32 -4861.30 -4102.96 -3070.63 -1009.34 -375.07 -134.97 -97.27 -11.89 1.54 17.74 34.81 49.43 90.40 88.29 133.66 161.20 154.58 179.62 160.46 100.92 75.63 46.06 24.97 11.54 0.11 -51.54 -114.24 -134.13 -152.35 -169.15 -186.15 -182.81 -180.27 -158.39 -126.78 -95.81 -51.41 9.13 21.05 26.01 37.31 53.89 59.39 66.41 83.20 102.44 136.21 156.52 207.22 233.00 252.24 263.24 268.10 268.28 274.03 287.35 301.08 311.04 317.32 321.46 324.18 327.37 331.24 337.31 344.59 355.60 374.18 383.81 416.34 413.16 427.83 470.67 622.17 1052.37 1141.15 968.37 478.47 289.61 199.06 111.04 -6.04 -603.74 -3828.57 -5103.77 -4795.99 -4819.44 -4986.10 -5166.55 -5425.23 -5478.97 -5456.51 -5217.92 -3931.44 -1886.45 -568.36 -388.36 -362.49 -402.28 -659.74 -766.94 -1076.83 -1313.17 -1570.18 -1730.97 -1914.77 -2048.53 -2128.99 -2249.67 -2514.55 -2747.52 -2957.39 -3246.62 -3381.97 -3379.82
-5787.21 -5787.14 -5793.06 -5793.74 -5799.76 -5802.95 -5821.62 -5834.87 -5862.73 -5885.79 -5893.03 -5897.78 -5898.81 -5889.88 -5851.82 -5835.94 -5816.09 -5805.72 -5808.09 -5806.43 -5811.74 -5818.85 -5814.13 -5798.42 -5705.74 -5650.38 -5444.20 -4477.58 -3678.77 -1959.11 -570.75 -151.01 -110.76 -67.24 -22.77 6.01 17.10 42.28 62.46 89.21 110.52 143.19 173.57 209.05 214.09 157.02 122.68 72.58 44.59 32.58 9.49 4.19 -25.69 -80.63 -110.08 -139.50 -159.68 -176.33 -176.24 -148.88 -111.26 -79.40 -35.42 -8.06 12.60 20.44 31.93 51.81 58.46 65.25 74.51 92.15 110.01 138.04 167.34 194.63 224.72 249.95 257.30 260.59 265.89 269.79 282.49 302.13 312.38 318.68 322.81 325.01 327.79 330.33 334.88 350.97 367.22 376.46 381.74 383.66 395.41 420.65 465.82 530.29 927.27 1198.75 1239.60 739.42 401.06 205.30 113.57 38.31 -813.48 -4520.10 -5465.93 -4919.37 -4840.48 -5020.04 -5202.00 -5371.60 -5445.93 -5402.50 -5062.65 -4593.89 -1867.67 -691.93 -292.15 -282.30 -294.40 -576.59 -756.51 -1067.49 -1328.14 -1347.87 -1587.72 -1735.93 -1897.02 -2060.18 -2201.48 -2445.75 -2619.52 -2930.29 -3143.14 -3278.43 -3278.46
-5790.42 -5790.35 -5796.50 -5800.67 -5805.73 -5810.99 -5819.08 -5838.69 -5856.60 -5873.62 -5880.94 -5891.76 -5894.82 -5891.60 -5869.36 -5840.28 -5830.61 -5830.92 -5833.47 -5830.69 -5829.27 -5814.77 -5739.82 -5711.96 -5423.78 -4907.20 -4494.70 -3843.50 -2786.55 -879.93 -180.85 -126.87 -92.96 -44.62 -3.14 8.65 22.12 35.44 54.83 81.45 111.68 149.10 200.06 214.49 225.12 164.99 110.47 71.64 44.09 29.50 12.75 5.89 -4.86 -52.28 -97.27 -119.85 -147.73 -161.21 -138.87 -113.82 -85.33 -47.18 4.61 11.00 15.52 24.26 39.34 50.78 59.92 70.49 79.74 103.41 111.74 142.18 159.08 180.88 210.63 236.85 247.87 245.44 261.27 272.94 284.81 298.48 309.84 318.61 322.22 326.20 328.68 331.11 334.86 351.88 362.09 375.85 380.19 387.31 410.02 438.06 487.44 513.18 772.19 1167.90 1320.93 868.33 586.14 324.50 94.83 52.76 -381.61 -2961.04 -5424.48 -5006.45 -4840.44 -4971.68 -5224.35 -5325.13 -5382.38 -5353.02 -5192.30 -3711.66 -2074.73 -716.74 -321.68 -235.68 -299.41 -426.32 -754.15 -895.33 -1002.96 -1260.61 -1539.33 -1646.04 -1841.40 -1993.83 -2185.25 -2291.83 -2624.19 -2861.59 -2987.15 -3076.80 -3076.71
-5791.44 -5791.37 -5799.11 -5803.54 -5810.84 -5814.49 -5822.28 -5831.54 -5847.37 -5856.28 -5864.21 -5877.06 -5875.47 -5877.63 -5868.13 -5855.62 -5856.12 -5860.61 -5847.94 -5833.28 -5805.90 -5738.67 -5636.14 -5344.51 -4547.75 -4302.05 -3308.36 -2770.83 -1288.71 -204.97 -188.99 -135.88 -94.06 -23.39 2.19 12.82 32.84 43.50 57.67 81.86 109.21 131.80 172.61 187.12 201.70 152.98 86.11 61.47 46.25 27.79 13.68 3.01 -27.43 -60.27 -95.39 -105.27 -124.50 -123.63 -117.57 -93.43 -59.22 -14.10 4.13 15.08 23.60 29.56 42.21 51.58 58.82 67.06 86.29 98.82 116.97 128.26 153.36 184.77 211.21 219.52 230.42 238.04 246.65 259.02 280.13 293.00 301.91 315.17 325.90 327.71 332.74 335.02 333.34 339.15 354.42 369.68 371.05 387.59 408.85 424.66 456.59 492.40 634.55 1029.13 1265.60 979.31 480.12 236.92 93.08 37.15 -22.68 -1673.80 -3182.72 -5029.24 -4845.56 -4837.89 -5219.68 -5318.33 -5352.31 -5307.82 -5090.36 -3732.02 -2131.94 -578.16 -261.67 -206.45 -254.41 -408.75 -586.31 -746.67 -884.58 -1107.01 -1442.93 -1568.68 -1735.83 -1998.41 -2157.99 -2281.57 -2404.09 -2695.99 -2834.19 -3009.46 -3009.52
-5791.79 -5792.64 -5797.66 -5808.57 -5812.33 -5816.36 -5823.58 -5830.57 -5836.29 -5843.03 -5845.47 -5855.48 -5861.65 -5866.64 -5869.77 -5866.85 -5866.67 -5865.54 -5857.66 -5772.55 -5659.38 -5391.72 -4858.13 -4326.98 -3809.45 -3044.32 -2679.07 -1889.13 -940.37 -195.25 -170.42 -134.34 -72.97 -9.94 0.20 21.01 36.54 46.18 58.79 71.89 100.70 120.55 161.66 182.27 185.88 150.88 102.68 89.67 55.37 29.42 14.02 3.48 -15.55 -51.46 -87.45 -95.38 -108.24 -112.63 -83.03 -52.06 -28.65 -8.54 8.68 17.86 27.25 33.32 41.99 52.00 61.13 65.62 79.69 94.52 107.48 127.53 140.40 174.18 191.31 201.18 218.18 229.15 243.34 249.00 267.31 286.33 294.83 309.98 328.35 336.66 344.19 343.33 338.26 336.41 337.92 346.80 362.60 381.64 396.78 422.01 450.80 482.83 538.00 1026.43 1163.26 843.51 469.74 185.95 93.60 21.36 -42.76 -343.85 -2391.70 -4664.25 -4690.84 -4749.83 -4999.17 -5328.79 -5330.05 -5301.01 -5041.03 -3719.34 -1981.15 -496.05 -230.58 -185.41 -232.75 -336.19 -413.84 -610.10 -949.23 -1088.70 -1262.28 -1493.00 -1726.21 -1879.68 -2050.17 -2196.78 -2388.00 -2599.58 -2706.59 -2789.59 -2789.50
-5792.74 -5792.66 -5800.37 -5808.13 -5812.74 -5822.67 -5824.98 -5830.90 -5836.39 -5842.92 -5847.22 -5853.85 -5861.32 -5867.91 -5873.33 -5863.29 -5857.71 -5838.43 -5658.19 -5587.51 -5173.76 -4694.42 -4118.13 -3273.51 -2841.28 -2485.15 -2362.31 -1837.30 -514.42 -173.55 -146.95 -107.23 -49.64 -10.06 7.79 19.10 32.73 44.72 55.52 70.01 89.62 111.95 144.71 166.70 162.87 132.58 94.61 79.94 40.98 30.92 18.34 6.77 -14.90 -45.21 -75.68 -87.98 -99.41 -96.89 -54.92 -26.71 -9.41 -3.95 6.64 15.98 28.85 36.82 42.50 53.59 60.55 65.99 78.84 100.28 107.10 119.35 141.56 155.71 185.57 194.76 208.84 229.42 234.91 250.42 274.16 280.36 295.11 313.89 327.37 343.53 349.90 349.51 346.61 341.91 336.36 336.88 346.41 390.11 394.93 411.43 434.63 479.03 522.03 776.86 1014.42 784.53 420.43 155.21 88.34 56.29 -29.81 -882.54 -2740.53 -4865.31 -4705.59 -4774.50 -4968.69 -5235.00 -5297.39 -5259.37 -4947.32 -3770.15 -1461.80 -693.85 -231.23 -163.78 -168.63 -324.58 -482.97 -561.36 -800.38 -1045.01 -1271.85 -1443.50 -1702.44 -1850.68 -2033.87 -2177.93 -2372.40 -2510.37 -2636.31 -2731.70 -2731.77
-5794.89 -5794.82 -5802.43 -5809.14 -5816.13 -5825.37 -5830.61 -5835.69 -5839.69 -5846.68 -5852.38 -5859.52 -5867.81 -5867.87 -5853.98 -5826.53 -5696.42 -5553.47 -5213.17 -4639.62 -4092.88 -3831.21 -2971.54 -2538.07 -2492.79 -2312.04 -1681.40 -972.29 -208.03 -187.54 -96.62 -40.57 -17.21 -0.12 14.72 24.78 36.55 61.27 76.24 83.23 114.09 128.01 143.81 144.99 115.90 115.35 100.37 72.47 36.14 23.51 19.00 8.63 -23.87 -47.96 -68.33 -78.20 -92.44 -77.51 -29.32 -19.44 -10.13 -6.48 6.39 15.39 24.73 37.48 44.83 57.72 62.81 68.08 75.28 86.26 101.40 112.88 139.64 147.64 168.19 181.91 203.08 214.96 228.70 240.72 259.95 279.98 296.51 316.22 326.72 349.29 354.34 356.03 351.88 345.67 340.59 337.98 346.82 380.00 397.81 400.61 407.33 455.83 477.29 607.52 908.20 813.03 375.33 144.77 88.88 51.96 -39.66 -1460.96 -4736.36 -4906.77 -4738.38 -4895.56 -5075.15 -5236.95 -5289.57 -5215.66 -4727.84 -3728.66 -1350.72 -499.61 -179.50 -163.62 -169.75 -261.14 -389.64 -478.62 -753.63 -1124.52 -1363.33 -1396.07 -1659.44 -1927.98 -2065.90 -2203.72 -2306.97 -2488.17 -2548.73 -2618.61 -2618.60
-5799.12 -5799.61 -5805.79 -5814.97 -5823.67 -5831.45 -5836.82 -5842.52 -5844.94 -5850.96 -5857.24 -5857.08 -5846.99 -5819.93 -5783.37 -5535.90 -5228.22 -4552.29 -4056.60 -3735.38 -3600.41 -2689.61 -2509.97 -2306.01 -2281.52 -1647.23 -823.18 -258.26 -204.25 -163.09 -97.74 -29.52 -8.51 14.51 22.04 38.55 50.13 68.42 84.62 99.83 120.63 141.48 141.47 120.87 99.48 90.53 73.05 57.97 32.41 22.80 11.63 3.93 -11.41 -39.25 -60.44 -68.11 -58.44 -30.06 -21.09 -13.56 -8.80 -4.13 13.71 21.18 27.64 33.52 44.04 55.88 61.65 67.28 74.84 85.67 100.65 111.27 125.60 141.93 155.10 173.97 197.97 208.11 230.38 247.26 255.84 277.76 299.88 317.63 332.31 359.78 361.67 359.64 355.23 350.38 343.81 338.26 337.89 364.69 382.06 390.52 400.86 421.16 448.64 417.26 625.14 762.28 429.81 140.23 79.61 14.43 -36.71 -951.36 -4475.36 -5021.91 -4804.33 -4934.06 -5141.50 -5229.37 -5261.44 -5194.60 -4749.15 -3104.22 -1290.72 -402.91 -196.25 -161.60 -205.98 -266.21 -336.55 -504.53 -739.56 -1079.88 -1242.92 -1428.40 -1729.04 -1959.63 -2103.65 -2179.12 -2292.34 -2390.61 -2516.46 -2597.25 -2597.33
-5807.65 -5807.57 -5817.03 -5823.48 -5828.82 -5839.14 -5846.51 -5849.81 -5850.39 -5850.11 -5841.92 -5814.21 -5767.84 -5566.33 -5159.06 -4712.30 -4042.47 -3659.55 -3144.13 -2781.48 -2443.54 -2266.59 -2251.12 -2187.27 -1888.99 -1111.54 -444.06 -247.14 -190.24 -151.97 -107.37 -41.90 -12.75 10.53 26.15 42.51 54.28 67.67 88.44 106.93 125.10 140.77 142.76 129.34 98.22 73.15 60.40 43.00 27.43 19.88 7.64 2.97 -9.46 -27.52 -55.31 -52.33 -39.56 -25.63 -18.12 -10.21 -5.65 -0.88 3.94 18.88 26.98 29.12 47.08 53.41 58.43 68.35 75.70 84.00 92.37 105.02 124.52 138.22 152.96 166.80 188.58 193.77 233.93 245.33 256.92 280.21 298.28 317.54 336.11 353.24 362.46 361.66 359.67 354.49 348.37 344.02 339.57 345.82 355.49 369.60 397.73 397.57 390.41 349.38 392.23 431.88 326.79 115.12 58.98 31.40 -19.99 -1362.17 -3716.13 -5155.77 -4860.45 -4838.24 -5045.50 -5109.40 -5146.93 -4992.27 -4668.06 -2728.69 -1587.10 -303.84 -152.60 -133.25 -198.59 -267.25 -378.45 -562.71 -713.94 -969.59 -1266.38 -1433.32 -1786.32 -1968.55 -2101.82 -2228.53 -2294.29 -2418.06 -2525.45 -2602.62 -2604.92
-5823.14 -5823.05 -5832.17 -5838.79 -5843.62 -5853.08 -5862.88 -5861.45 -5854.65 -5844.86 -5808.57 -5668.38 -5314.49 -5156.38 -4647.91 -3969.76 -3479.59 -2894.47 -2587.53 -2455.07 -2249.43 -2179.10 -2207.14 -2214.99 -1832.73 -678.11 -383.23 -260.57 -177.70 -129.98 -82.89 -50.48 -4.34 13.97 56.84 54.66 64.36 88.39 92.13 114.15 132.79 140.74 149.79 132.11 100.93 71.16 47.39 36.82 24.79 16.26 7.56 1.84 -7.87 -28.17 -45.13 -39.70 -28.21 -17.80 -12.59 -4.34 -0.60 2.45 8.54 17.29 23.00 33.63 46.88 50.36 53.79 65.10 73.11 83.34 95.91 105.24 115.68 132.57 148.66 164.91 183.50 198.13 221.44 236.84 254.92 280.35 297.38 318.17 327.57 348.47 361.66 362.28 360.61 356.48 349.93 348.51 343.15 341.58 349.52 356.92 369.73 378.45 360.76 330.94 282.67 255.05 222.86 117.99 90.85 50.85 13.61 -1710.91 -4412.34 -5073.18 -4805.11 -4844.45 -4951.91 -5027.75 -5104.73 -4812.10 -4149.47 -2439.31 -688.63 -254.44 -143.17 -131.38 -179.75 -278.56 -390.50 -550.78 -731.24 -870.81 -1134.37 -1439.95 -1678.77 -1948.33 -2097.14 -2225.31 -2358.39 -2413.07 -2553.83 -2618.84 -2618.93
-5848.58 -5848.48 -5855.83 -5861.36 -5877.99 -5887.67 -5887.95 -5887.58 -5869.24 -5852.47 -5761.88 -5485.35 -4830.00 -4104.30 -3325.98 -3163.57 -2880.35 -2728.76 -2535.41 -2395.66 -2251.71 -2187.86 -2252.79 -2228.22 -1446.90 -626.47 -375.06 -229.82 -176.55 -126.68 -58.12 -32.66 -14.87 23.76 53.73 72.91 100.41 93.48 102.24 123.72 139.79 152.44 151.02 135.46 94.98 72.37 51.76 29.71 22.44 13.20 4.77 -5.99 -15.60 -26.46 -33.57 -27.93 -20.77 -5.81 0.70 2.69 2.55 4.99 12.55 19.03 24.68 32.94 39.91 46.92 52.67 58.82 73.45 77.48 88.52 102.65 110.90 127.18 136.08 155.23 174.45 190.85 216.52 232.36 259.07 271.65 307.25 319.47 330.32 347.75 357.05 360.82 359.49 357.87 355.12 355.84 353.24 357.69 357.86 361.33 361.67 364.58 359.49 326.83 302.76 246.25 176.88 143.22 110.31 54.23 7.73 -795.58 -2797.10 -4749.76 -4868.84 -4822.32 -4917.93 -5002.88 -5014.07 -4605.38 -3488.57 -1879.11 -562.89 -173.27 -131.95 -147.15 -198.39 -317.14 -418.77 -542.79 -682.41 -862.18 -1127.15 -1324.71 -1669.27 -1887.74 -2097.96 -2308.70 -2481.50 -2563.21 -2688.07 -2731.52 -2731.68
-5889.90 -5889.66 -5896.66 -5900.30 -5912.16 -5917.55 -5929.17 -5920.38 -5865.34 -5824.01 -5596.25 -5193.14 -4068.94 -3417.99 -2881.34 -2612.08 -2624.24 -2651.99 -2576.26 -2402.62 -2297.18 -2246.17 -2244.81 -2178.33 -1101.52 -318.47 -274.87 -207.10 -164.64 -108.74 -50.57 -28.77 -1.00 31.63 54.08 79.88 116.83 113.60 120.03 136.28 149.42 149.87 140.65 118.03 71.83 55.97 48.27 32.34 21.13 7.81 3.52 -9.79 -22.89 -27.19 -22.84 -9.54 5.08 13.71 14.32 14.64 13.32 9.35 15.09 17.87 25.18 32.97 39.87 47.22 50.47 58.73 72.65 76.45 85.04 97.14 107.33 118.32 127.33 148.02 165.79 184.25 204.90 228.50 261.38 277.10 296.91 316.06 325.74 345.17 349.78 354.96 357.29 358.19 358.71 362.63 361.59 361.81 364.20 361.90 359.26 357.41 352.01 311.17 300.79 247.49 190.91 141.80 107.43 68.39 43.74 -15.15 -2143.83 -4590.54 -4520.60 -4685.63 -4856.72 -4908.08 -4814.91 -4223.21 -2253.38 -826.02 -285.38 -164.67 -133.53 -150.52 -190.92 -323.63 -463.78 -610.43 -725.20 -858.28 -1217.91 -1466.66 -1739.95 -1961.83 -2145.27 -2304.91 -2499.45 -2682.76 -2870.11 -2922.66 -2922.88
-5955.90 -5955.77 -5955.95 -5936.82 -5927.54 -5918.34 -5850.17 -5802.37 -5734.20 -5280.50 -4765.28 -4241.35 -3500.17 -2581.95 -2350.93 -2243.91 -2358.72 -2472.02 -2537.97 -2298.21 -2196.16 -2201.64 -2241.34 -2086.08 -1282.72 -322.72 -287.31 -231.03 -161.97 -101.95 -44.12 -10.48 4.00 23.90 39.76 75.72 115.03 130.87 144.14 147.91 144.90 122.55 95.48 94.28 55.53 41.57 30.00 22.07 16.98 10.24 1.56 -18.98 -25.60 -29.17 -22.25 -10.21 15.63 30.58 38.55 38.99 26.43 16.59 17.42 20.83 24.93 32.50 36.40 46.00 48.26 56.77 63.57 68.90 82.19 90.25 100.27 114.09 128.38 144.88 157.67 182.06 199.17 221.63 251.94 270.17 285.17 316.78 323.44 341.25 343.86 352.75 355.81 358.80 365.51 376.95 377.52 375.97 370.37 364.08 358.91 328.42 322.87 268.12 236.05 207.77 165.32 134.85 98.15 61.03 27.70 -364.95 -1967.33 -4267.68 -4267.55 -4547.25 -4745.44 -4754.26 -4410.18 -3745.64 -1592.20 -425.09 -211.72 -128.09 -156.45 -172.21 -181.64 -266.61 -345.40 -542.42 -708.48 -971.20 -1396.08 -1621.24 -1857.66 -2048.58 -2190.72 -2257.44 -2508.97 -2614.75 -2982.91 -3064.79 -3064.98
-5985.34 -5983.11 -5886.58 -5686.61 -5646.71 -5636.23 -5443.74 -5014.35 -4775.64 -4306.30 -3592.48 -2829.63 -2706.91 -2375.22 -2213.15 -2185.46 -2218.55 -2235.27 -2193.13 -1831.06 -1930.22 -1899.27 -1950.98 -1859.19 -1437.91 -508.27 -273.29 -231.70 -173.51 -115.00 -44.89 -9.53 1.07 22.42 52.05 79.33 120.91 149.90 149.52 135.38 130.84 111.30 63.80 53.54 48.14 33.64 22.04 19.67 11.75 0.71 -4.79 -20.21 -28.30 -34.93 -31.94 -25.50 10.92 38.01 55.92 60.02 30.83 19.89 18.95 23.16 27.38 32.68 34.43 42.21 45.41 49.94 53.35 63.07 76.60 85.52 94.29 108.43 121.50 133.01 156.65 179.40 197.28 212.39 232.17 260.08 279.21 305.78 314.01 323.83 339.97 348.10 354.91 362.47 372.04 387.26 390.64 385.73 376.32 365.62 346.84 312.86 306.73 252.66 206.42 158.57 133.16 103.67 73.86 53.41 16.06 -685.20 -1757.89 -3832.14 -4124.08 -4419.27 -4720.59 -4752.05 -3716.41 -2656.37 -842.95 -387.85 -146.35 -139.84 -170.68 -187.38 -203.64 -255.69 -393.21 -616.17 -793.28 -1098.60 -1482.73 -1813.36 -1998.84 -2079.22 -2234.96 -2340.61 -2501.90 -2686.03 -2990.56 -3324.06 -3324.39
-5471.64 -5472.16 -5066.83 -4989.35 -4844.83 -4446.32 -4213.46 -3717.90 -3240.75 -2860.86 -2797.80 -2517.08 -2345.38 -2282.06 -2268.52 -2258.71 -2217.43 -2098.22 -1939.24 -1575.56 -1260.46 -1214.08 -1476.44 -1631.69 -1118.70 -306.29 -263.48 -234.29 -187.55 -137.87 -53.04 -15.85 4.03 27.42 59.14 108.47 156.48 181.65 175.04 139.91 115.39 93.94 61.23 46.38 35.03 21.44 21.20 14.57 1.75 -7.32 -14.81 -21.92 -32.00 -42.29 -44.18 -30.53 -9.39 21.41 48.58 53.73 32.43 27.07 22.19 24.72 28.16 33.58 35.06 36.76 42.05 44.46 48.93 63.59 70.94 82.11 92.90 108.27 123.07 132.98 149.35 166.30 192.00 211.09 231.91 247.38 280.77 302.18 309.74 319.53 336.30 344.55 351.36 366.15 377.18 390.52 392.25 387.77 377.84 362.69 330.92 286.66 246.55 208.68 177.70 137.97 109.24 87.86 70.23 21.46 -202.79 -1360.71 -2674.76 -3281.39 -4120.12 -4480.33 -4684.20 -4784.38 -3603.60 -1846.67 -581.85 -270.18 -117.88 -139.27 -177.38 -201.00 -210.54 -239.06 -420.58 -675.69 -997.35 -1345.05 -1465.30 -1733.74 -1962.41 -2193.37 -2338.03 -2465.82 -2700.65 -2848.42 -3132.12 -3366.29 -3366.40
-3929.91 -3932.03 -3890.83 -3565.09 -3623.35 -3014.43 -2947.39 -2672.09 -2603.63 -2413.28 -2321.22 -2300.36 -2307.33 -2313.04 -2315.09 -2331.19 -2276.47 -2120.23 -1806.10 -1500.90 -889.94 -912.19 -981.58 -1187.38 -551.08 -309.10 -269.09 -224.84 -192.73 -157.37 -103.30 -26.13 -10.96 17.43 41.69 97.17 163.73 158.18 155.19 158.90 138.45 106.10 62.05 41.56 26.24 19.75 15.73 8.41 1.56 -19.71 -22.49 -33.21 -34.47 -50.34 -50.81 -44.67 -38.75 -8.33 20.13 40.34 35.42 30.98 26.70 27.23 28.84 31.95 33.73 35.79 38.44 40.24 43.52 53.37 62.63 71.33 91.41 100.87 110.85 130.52 143.70 164.20 185.36 216.82 239.08 251.59 270.97 295.57 304.67 317.23 324.04 339.79 346.57 360.78 380.10 388.21 388.37 379.65 368.92 338.02 302.11 288.03 237.68 202.28 165.79 125.42 101.67 78.01 59.27 -235.42 -947.62 -2182.53 -3010.25 -3471.51 -4545.10 -4858.41 -4973.24 -4439.24 -3238.27 -1548.98 -514.48 -152.10 -124.22 -140.28 -181.85 -214.18 -224.84 -272.87 -466.14 -731.64 -1037.54 -1382.44 -1581.46 -1677.63 -2018.11 -2264.99 -2459.68 -2603.72 -2807.81 -3104.11 -3192.10 -3387.37 -3387.48
-2689.48 -2691.64 -2736.08 -2844.14 -2685.80 -2611.01 -2508.52 -2413.51 -2342.72 -2315.13 -2306.97 -2314.28 -2325.23 -2341.07 -2354.18 -2369.14 -2350.09 -2223.59 -2023.05 -1592.07 -983.16 -678.16 -720.61 -734.01 -360.95 -319.87 -281.94 -231.40 -206.70 -164.34 -133.59 -65.27 -11.63 7.53 30.05 86.56 110.97 123.55 103.61 130.48 116.53 111.57 73.64 32.17 24.01 14.80 9.92 4.87 -6.92 -30.64 -31.94 -48.19 -51.60 -50.88 -53.89 -53.04 -47.57 -32.16 7.82 23.12 34.44 34.90 30.57 29.78 30.63 31.49 32.32 33.85 35.36 37.36 41.58 48.46 59.56 69.79 82.58 94.86 103.08 122.39 135.75 166.69 186.91 212.49 229.29 243.95 274.36 284.51 298.18 310.87 321.93 328.14 342.23 348.74 368.83 380.22 382.16 379.27 350.83 332.69 297.88 267.26 235.66 198.60 145.53 128.59 93.04 69.51 27.73 -48.17 -823.39 -1936.65 -2781.68 -4301.17 -5284.92 -5074.87 -5025.97 -4564.54 -2759.30 -954.86 -264.16 -157.27 -130.02 -166.54 -197.48 -237.00 -236.47 -311.82 -483.86 -782.73 -1031.88 -1274.50 -1513.28 -1873.68 -2165.37 -2369.25 -2525.76 -2702.02 -3001.50 -3156.12 -3324.42 -3409.45 -3409.58
-2421.63 -2422.16 -2459.57 -2464.98 -2446.50 -2431.90 -2425.09 -2407.36 -2361.23 -2341.28 -2336.21 -2341.88 -2354.31 -2361.85 -2380.35 -2397.97 -2364.08 -2275.13 -2114.62 -1536.49 -1390.87 -919.39 -709.40 -515.77 -355.25 -328.89 -292.94 -245.95 -219.89 -192.77 -143.56 -84.54 -27.08 -7.67 24.75 53.01 60.15 57.23 48.49 77.16 85.31 57.49 43.03 14.91 9.00 5.65 4.22 -4.69 -21.03 -29.17 -41.67 -53.39 -54.87 -53.22 -56.67 -51.79 -46.50 -38.28 -14.93 17.77 35.73 37.68 31.72 31.59 31.57 31.16 30.78 31.39 32.49 34.82 38.80 41.98 54.65 63.22 71.52 93.23 108.25 126.71 136.41 166.13 185.72 197.81 225.30 240.88 261.78 278.33 294.22 303.96 312.54 324.12 327.97 355.20 363.43 370.53 370.68 353.10 341.08 304.70 270.04 245.78 212.00 176.68 140.74 111.85 74.22 43.35 20.87 -16.21 -1070.86 -1638.07 -3505.28 -4645.01 -5271.59 -5342.09 -5152.25 -4081.59 -1789.44 -718.66 -230.74 -142.49 -145.49 -180.55 -218.08 -240.71 -262.26 -326.21 -559.60 -774.47 -1122.89 -1356.71 -1788.25 -2077.91 -2170.70 -2371.40 -2552.56 -2642.58 -2988.04 -3197.82 -3291.85 -3383.91 -3383.93
-2452.51 -2452.21 -2460.86 -2461.67 -2467.37 -2469.84 -2460.08 -2425.50 -2399.47 -2370.29 -2361.53 -2361.46 -2370.56 -2380.30 -2391.42 -2407.88 -2378.70 -2321.87 -2072.16 -1695.53 -1225.57 -961.51 -741.46 -456.06 -354.17 -332.70 -291.40 -268.56 -239.19 -208.48 -156.85 -97.87 -64.62 -26.22 -13.23 9.05 24.52 30.00 29.44 34.49 30.67 21.10 13.55 9.62 -1.06 -10.84 -13.63 -27.83 -33.56 -37.75 -53.02 -59.34 -59.45 -58.48 -59.10 -54.71 -51.16 -40.44 -22.61 5.84 21.71 34.21 35.49 32.39 31.64 30.30 28.91 30.08 30.04 30.81 34.07 39.51 52.56 59.09 69.13 90.58 103.51 119.29 134.56 154.01 171.03 194.32 217.13 247.01 265.30 278.54 288.48 294.55 303.09 313.14 319.37 347.17 359.40 361.98 363.03 338.95 325.89 286.85 259.28 223.53 179.67 156.44 117.87 88.48 65.28 39.66 -9.57 -435.64 -1161.99 -2016.77 -3440.11 -4259.84 -5422.07 -5498.70 -5015.66 -3756.19 -2013.65 -598.97 -242.25 -149.28 -168.64 -189.42 -213.13 -237.94 -268.75 -332.06 -586.59 -759.53 -1026.45 -1508.16 -1844.97 -2130.41 -2272.98 -2378.90 -2549.68 -2704.37 -2877.25 -3097.56 -3244.25 -3399.79 -3399.97
-2488.49 -2488.17 -2487.42 -2492.44 -2490.10 -2488.33 -2479.00 -2462.86 -2428.12 -2395.91 -2398.18 -2387.06 -2387.17 -2393.04 -2407.06 -2413.56 -2391.53 -2233.95 -2013.56 -1679.99 -1268.53 -971.41 -791.84 -507.37 -416.88 -335.88 -319.46 -288.31 -252.00 -221.99 -177.57 -164.50 -130.44 -76.11 -43.09 -2.96 6.68 8.10 11.61 12.03 4.46 -1.30 -5.05 -1.90 -13.80 -31.45 -31.87 -51.43 -62.04 -61.47 -62.93 -62.19 -62.60 -62.08 -63.27 -57.73 -51.22 -36.94 -26.99 -1.57 25.06 34.11 40.32 34.45 33.18 29.06 25.21 24.61 26.51 27.35 30.06 35.88 42.56 57.63 63.39 77.72 92.79 105.34 134.62 148.28 174.71 193.16 213.43 229.04 256.96 263.34 276.51 289.76 298.16 303.67 310.10 337.06 354.88 349.83 340.89 329.29 295.65 267.11 235.75 190.64 158.07 132.91 98.50 66.00 41.64 3.93 -606.57 -914.49 -1708.08 -2072.65 -3352.44 -4716.75 -5276.30 -5459.15 -4952.78 -3336.32 -1679.38 -371.18 -192.80 -140.89 -169.71 -189.74 -219.02 -247.11 -292.40 -359.63 -486.80 -772.12 -1079.47 -1416.58 -1718.87 -2047.26 -2217.95 -2317.93 -2529.86 -2699.99 -2847.51 -3067.27 -3211.55 -3415.39 -3415.57
-2508.20 -2508.25 -2508.53 -2508.58 -2510.84 -2507.36 -2498.36 -2483.00 -2444.61 -2417.75 -2438.95 -2443.92 -2434.95 -2431.87 -2426.15 -2410.89 -2346.05 -2185.01 -1951.62 -1584.79 -1032.17 -855.25 -756.38 -721.69 -579.69 -393.31 -329.60 -305.90 -277.51 -235.62 -190.50 -184.19 -159.60 -122.81 -69.30 -71.87 -38.75 -14.87 -11.79 -10.88 -27.37 -40.29 -40.24 -36.59 -53.37 -48.37 -59.46 -67.32 -68.98 -69.23 -69.81 -68.02 -65.57 -65.09 -66.11 -61.46 -51.59 -43.51 -18.22 -0.02 33.73 48.91 61.04 46.41 34.51 25.37 23.27 21.71 20.59 23.32 26.95 30.08 35.87 52.65 59.53 72.71 88.32 97.63 121.42 139.84 167.28 184.85 200.77 221.72 238.83 257.75 268.99 272.89 286.47 300.17 307.14 323.36 334.01 330.00 317.37 301.63 277.80 235.71 193.71 167.86 143.93 103.44 90.81 56.02 19.65 -381.54 -1128.63 -1501.61 -1558.47 -2039.60 -3151.58 -4887.82 -5366.87 -5396.68 -5200.16 -4131.89 -1098.63 -623.79 -191.21 -118.98 -163.92 -197.02 -235.67 -269.24 -318.17 -423.80 -612.91 -928.86 -1230.30 -1398.69 -1532.54 -1847.69 -2102.52 -2373.37 -2478.44 -2633.53 -2819.98 -3037.93 -3217.70 -3425.27 -3425.28
-2515.47 -2515.40 -2516.91 -2518.52 -2518.97 -2520.10 -2517.66 -2517.42 -2514.48 -2506.17 -2482.29 -2473.20 -2463.72 -2474.01 -2457.59 -2404.38 -2317.80 -2124.34 -1711.16 -1280.47 -959.34 -768.17 -747.76 -750.03 -695.56 -438.37 -362.08 -327.13 -311.28 -270.54 -243.60 -213.42 -193.01 -155.91 -115.53 -115.71 -99.19 -54.25 -61.57 -64.12 -57.31 -59.90 -77.78 -91.59 -69.14 -72.45 -76.92 -74.51 -78.27 -77.54 -75.91 -76.40 -76.24 -71.85 -68.70 -62.52 -53.25 -42.61 -26.69 2.04 34.73 40.16 43.02 39.18 29.95 25.48 20.03 16.16 18.24 19.37 24.27 26.03 35.47 39.86 51.72 64.17 81.13 93.49 108.84 140.98 153.47 178.89 196.88 217.04 231.90 247.72 261.02 269.18 274.58 293.31 303.99 311.16 320.22 317.32 296.54 259.26 237.31 216.72 179.27 160.63 126.60 104.14 61.62 -29.34 -515.70 -1256.91 -1366.68 -1392.91 -1467.60 -2032.74 -2726.76 -5208.12 -5356.07 -5503.02 -5343.22 -4162.40 -2281.52 -1145.18 -389.10 -191.90 -198.27 -210.85 -252.46 -292.32 -343.56 -434.55 -663.98 -908.24 -1213.18 -1348.37 -1615.85 -1806.29 -2085.75 -2349.79 -2474.33 -2592.29 -2765.48 -3085.98 -3271.49 -3445.78 -3445.53
-2523.29 -2523.22 -2525.38 -2529.37 -2527.68 -2528.59 -2521.25 -2530.06 -2534.81 -2533.22 -2529.61 -2524.67 -2521.21 -2505.72 -2473.50 -2407.84 -2301.33 -2063.45 -1529.24 -1237.35 -956.65 -765.11 -726.51 -755.79 -740.44 -524.59 -412.69 -365.10 -324.09 -290.07 -271.74 -238.17 -210.87 -175.61 -146.34 -137.04 -139.66 -115.66 -121.79 -126.02 -116.85 -110.39 -98.71 -107.44 -104.61 -98.01 -92.61 -86.45 -87.10 -86.44 -84.89 -81.69 -79.16 -76.20 -70.83 -64.91 -55.35 -46.12 -32.73 -11.10 4.47 20.21 26.32 16.50 10.50 12.18 6.12 7.19 9.85 13.53 16.49 23.51 30.94 36.21 44.45 59.23 74.67 90.76 100.56 113.44 148.08 159.67 189.66 198.72 228.79 236.22 246.79 262.84 269.62 280.75 294.04 304.13 306.57 300.63 283.85 248.63 215.95 173.34 161.49 144.94 120.88 81.87 44.30 -300.11 -725.15 -1279.46 -1289.30 -1328.94 -1513.32 -2227.52 -3425.36 -5110.40 -5488.02 -5516.00 -5412.29 -4692.98 -3408.72 -1835.24 -1280.03 -217.09 -250.08 -244.61 -271.45 -310.76 -343.74 -473.46 -699.25 -973.34 -1176.30 -1411.45 -1690.70 -1937.14 -2090.74 -2299.51 -2461.18 -2669.60 -2962.52 -3298.78 -3474.53 -3571.32 -3571.10
-2535.13 -2535.06 -2539.00 -2545.90 -2544.73 -2537.06 -2516.48 -2506.45 -2525.61 -2497.81 -2518.59 -2530.69 -2533.96 -2517.77 -2502.53 -2420.93 -2280.52 -2115.55 -1630.15 -1293.99 -1020.66 -821.47 -752.15 -737.21 -747.34 -647.10 -592.65 -366.58 -348.62 -329.19 -304.06 -277.25 -238.53 -222.43 -198.42 -177.23 -155.25 -148.28 -149.52 -147.85 -152.98 -154.16 -143.49 -130.37 -122.37 -116.57 -104.91 -104.97 -100.24 -99.59 -93.22 -91.12 -85.72 -79.27 -72.72 -65.74 -54.16 -46.22 -38.83 -33.38 -28.82 -19.65 -2.27 2.57 2.85 0.86 5.26 6.12 5.76 9.24 12.13 17.64 22.65 30.62 41.21 52.56 71.72 86.63 93.58 117.45 139.78 161.49 181.29 189.00 213.49 230.20 238.22 251.11 261.49 274.67 284.53 291.96 290.80 282.57 268.95 242.06 206.84 145.47 130.28 115.54 107.04 65.91 36.12 -524.60 -972.03 -1263.12 -1242.84 -1358.38 -1516.64 -2684.21 -4040.36 -4946.86 -5488.28 -5526.81 -5521.51 -5298.34 -4709.84 -2815.61 -1741.92 -844.42 -310.36 -271.07 -290.13 -336.68 -409.90 -563.02 -856.19 -1139.41 -1265.09 -1511.63 -1809.64 -1962.32 -2177.77 -2360.16 -2499.43 -2752.67 -3041.04 -3344.88 -3611.42 -3731.29 -3731.33
-2549.29 -2549.22 -2557.12 -2557.21 -2522.72 -2541.29 -2539.65 -2528.60 -2534.04 -2531.93 -2536.82 -2489.20 -2447.18 -2491.42 -2481.55 -2435.74 -2343.95 -2228.02 -1905.77 -1634.06 -1185.12 -976.60 -848.30 -770.09 -768.56 -770.32 -636.51 -552.40 -420.95 -342.91 -323.35 -285.69 -260.04 -242.13 -219.57 -216.21 -177.91 -186.91 -172.68 -174.52 -180.97 -166.83 -154.28 -155.48 -140.17 -132.76 -123.90 -123.17 -117.46 -114.55 -102.81 -95.47 -88.17 -80.79 -72.92 -65.73 -55.30 -44.87 -38.50 -39.38 -45.71 -38.94 -29.49 -18.80 -15.97 -7.47 -3.53 -0.02 -0.30 2.14 9.34 13.20 16.94 29.82 34.92 45.37 65.20 79.41 86.19 112.47 141.34 154.02 169.48 180.12 201.67 224.22 235.39 248.51 261.55 269.71 275.75 275.33 274.61 249.28 235.73 192.11 169.83 135.09 115.72 100.17 84.69 42.55 -202.33 -803.22 -1186.41 -1237.27 -1229.39 -1406.22 -1520.52 -2565.72 -4033.10 -5245.25 -5472.97 -5532.74 -5548.17 -5479.04 -5299.50 -4584.23 -2841.40 -1731.75 -532.09 -343.85 -313.55 -337.12 -500.04 -744.13 -847.16 -1323.99 -1402.86 -1569.23 -1873.25 -2098.92 -2278.18 -2364.70 -2473.83 -2700.35 -3042.46 -3330.18 -3629.44 -3747.46 -3747.70
-2570.33 -2572.01 -2580.13 -2529.03 -2511.41 -2568.96 -2569.86 -2567.53 -2583.90 -2573.35 -2554.87 -2536.89 -2504.34 -2511.18 -2472.08 -2446.29 -2370.86 -2250.32 -2034.59 -1816.93 -1578.65 -1235.65 -1013.18 -822.41 -759.74 -750.01 -739.55 -723.79 -645.04 -412.60 -329.55 -309.02 -278.15 -269.93 -264.92 -257.47 -224.81 -228.25 -228.07 -207.81 -204.60 -193.80 -182.78 -182.02 -175.73 -164.14 -134.84 -139.24 -132.03 -122.57 -111.69 -95.86 -92.25 -79.85 -74.66 -58.20 -50.00 -42.48 -41.30 -44.46 -58.27 -53.47 -44.90 -37.40 -28.49 -26.28 -18.05 -12.81 -3.18 -1.34 2.75 6.52 12.31 22.53 32.31 44.08 63.16 74.65 88.88 105.75 130.16 145.01 161.81 183.19 194.43 204.74 239.13 254.61 263.09 267.82 263.63 256.84 250.74 232.00 187.28 165.44 145.81 112.13 88.76 73.38 61.54 37.20 -87.02 -766.48 -1162.06 -1237.98 -1283.48 -1440.50 -1673.51 -2745.49 -4382.11 -5181.15 -5484.41 -5530.00 -5557.29 -5557.15 -5386.47 -5025.64 -3519.86 -1804.51 -633.87 -349.68 -335.07 -377.18 -474.95 -694.62 -904.93 -1290.02 -1590.82 -1822.52 -1969.88 -2100.56 -2251.95 -2342.76 -2436.31 -2647.82 -2982.28 -3196.08 -3496.11 -3617.53 -3617.60
-2610.89 -2610.85 -2597.45 -2593.83 -2592.77 -2597.30 -2623.10 -2598.36 -2584.22 -2573.52 -2567.72 -2555.14 -2533.78 -2513.99 -2481.16 -2466.32 -2419.54 -2375.14 -2237.28 -2136.69 -1817.79 -1438.01 -1170.22 -923.57 -772.05 -727.25 -744.22 -748.52 -769.93 -551.25 -380.72 -324.44 -314.13 -289.23 -277.72 -268.67 -258.87 -248.10 -247.22 -244.21 -236.41 -223.34 -212.62 -202.92 -194.02 -180.91 -158.85 -151.62 -147.74 -132.59 -118.63 -102.67 -92.42 -67.85 -51.40 -41.71 -43.89 -47.88 -52.70 -60.25 -66.55 -64.04 -58.15 -50.27 -47.38 -44.69 -36.79 -23.63 -14.21 -9.92 -2.55 -0.29 8.14 12.76 28.52 41.15 53.19 70.06 84.21 101.29 121.79 136.38 149.34 178.47 193.08 206.14 239.26 260.57 270.08 268.80 260.82 238.41 213.82 181.44 162.74 124.97 123.89 103.19 69.49 42.38 35.74 -66.82 -409.69 -1086.51 -1272.76 -1297.24 -1353.72 -1527.49 -2146.05 -3098.80 -4698.33 -5301.70 -5503.85 -5528.69 -5553.30 -5579.25 -5510.58 -5210.80 -3593.98 -2300.87 -697.38 -387.25 -362.80 -434.42 -563.49 -837.08 -1168.98 -1415.59 -1727.42 -1903.04 -2030.37 -2130.55 -2298.25 -2363.14 -2467.80 -2657.66 -2945.87 -3226.44 -3396.58 -3624.75 -3624.82
-2662.53 -2664.70 -2653.98 -2616.05 -2642.78 -2657.76 -2655.02 -2618.31 -2594.20 -2556.42 -2554.56 -2548.65 -2524.84 -2511.92 -2489.01 -2428.76 -2430.59 -2405.19 -2351.20 -2170.17 -2062.33 -1717.91 -1170.09 -975.93 -774.00 -710.59 -711.26 -713.58 -734.54 -610.76 -462.68 -440.21 -330.64 -312.81 -306.63 -293.00 -276.94 -272.61 -278.92 -271.60 -269.12 -257.56 -237.31 -223.90 -207.45 -189.18 -177.41 -164.65 -153.58 -134.84 -127.03 -103.09 -83.84 -64.99 -36.46 -23.70 -35.50 -50.45 -60.99 -67.30 -74.34 -74.55 -71.61 -62.95 -56.17 -50.31 -48.86 -41.59 -25.88 -19.72 -7.23 -3.45 3.80 8.76 20.02 36.18 44.14 58.63 73.75 93.24 102.71 122.40 129.26 162.49 179.75 202.80 230.57 255.99 265.21 265.50 213.69 185.91 169.74 155.52 124.50 98.82 73.56 60.25 42.43 31.25 -39.86 -254.59 -780.93 -1275.65 -1269.41 -1322.86 -1412.12 -1536.56 -1833.90 -3227.65 -5081.14 -5399.47 -5523.35 -5529.60 -5554.64 -5597.20 -5524.94 -5300.72 -3728.43 -2228.68 -820.47 -390.97 -385.02 -490.82 -733.44 -974.55 -1078.97 -1414.62 -1719.12 -1928.13 -2095.85 -2211.05 -2302.13 -2424.06 -2560.58 -2743.18 -2869.72 -3337.90 -3511.28 -3661.41 -3661.31
-2696.37 -2696.31 -2684.16 -2667.54 -2709.04 -2710.77 -2692.84 -2667.35 -2590.06 -2550.99 -2540.95 -2531.58 -2517.59 -2505.52 -2486.66 -2409.60 -2414.34 -2433.30 -2408.46 -2308.52 -2185.88 -1804.13 -1400.06 -1094.99 -820.50 -723.26 -698.25 -696.01 -702.69 -659.68 -630.72 -634.13 -560.91 -478.37 -362.13 -403.21 -406.82 -330.97 -320.91 -291.06 -294.78 -288.33 -271.85 -251.86 -244.02 -224.98 -203.54 -176.71 -164.57 -145.42 -135.73 -103.19 -72.53 -51.69 -22.65 -10.45 -39.61 -61.93 -66.57 -73.07 -83.44 -83.68 -81.40 -70.73 -63.57 -62.19 -61.44 -46.83 -44.15 -30.93 -16.03 -5.45 0.43 12.04 18.84 31.27 41.07 53.23 58.34 77.91 91.20 108.82 121.44 143.83 170.87 194.80 214.93 239.15 261.39 250.21 210.37 201.36 144.73 120.68 102.02 92.37 53.61 40.16 33.84 -85.60 -424.88 -734.91 -1180.95 -1324.95 -1318.17 -1336.28 -1426.33 -1473.14 -2264.01 -3464.71 -4824.58 -5534.56 -5542.77 -5542.20 -5562.01 -5591.82 -5520.94 -5140.76 -3317.47 -1935.20 -638.09 -390.13 -418.57 -568.81 -712.22 -972.23 -1375.90 -1518.75 -1853.65 -2062.48 -2176.51 -2277.96 -2348.09 -2448.79 -2541.39 -2727.98 -3060.20 -3429.76 -3641.85 -3887.22 -3887.31
-2703.74 -2703.62 -2699.64 -2710.92 -2716.86 -2710.86 -2696.57 -2660.74 -2598.65 -2542.72 -2534.59 -2532.80 -2525.17 -2522.24 -2497.19 -2438.14 -2408.80 -2432.35 -2406.97 -2367.66 -2141.70 -1858.74 -1425.28 -1077.32 -797.66 -751.53 -718.66 -743.24 -748.44 -744.11 -733.13 -696.87 -724.37 -672.49 -585.72 -577.81 -599.27 -550.73 -482.77 -484.11 -352.02 -318.11 -296.79 -280.93 -266.26 -251.88 -238.08 -214.52 -181.69 -151.34 -132.38 -99.92 -70.47 -40.10 -21.24 -28.78 -54.46 -62.53 -77.68 -83.81 -92.21 -92.87 -91.47 -83.29 -72.41 -69.67 -68.32 -66.55 -56.42 -47.08 -25.49 -14.22 -1.24 8.99 18.08 22.82 32.72 43.34 46.58 61.25 75.87 95.52 114.94 131.92 161.33 181.47 205.45 233.99 246.83 220.92 206.71 191.91 149.25 110.80 94.14 51.69 34.33 30.45 -16.90 -525.22 -1350.56 -1465.63 -1324.43 -1268.72 -1326.46 -1362.65 -1428.36 -1715.70 -2456.71 -3357.58 -4605.89 -5378.63 -5542.96 -5545.19 -5560.99 -5560.54 -5343.07 -4881.08 -2907.19 -1805.31 -490.50 -428.77 -482.58 -669.95 -870.24 -1087.69 -1523.47 -1871.70 -2000.97 -2166.94 -2237.13 -2354.97 -2421.87 -2441.51 -2566.14 -2791.63 -3116.80 -3458.45 -3782.31 -3884.92 -3889.71
-2654.70 -2654.63 -2661.45 -2689.76 -2732.52 -2727.38 -2706.94 -2663.42 -2600.48 -2552.78 -2541.80 -2547.42 -2548.99 -2542.25 -2512.25 -2482.48 -2435.32 -2447.82 -2423.93 -2349.71 -2079.75 -1894.93 -1434.02 -1075.36 -887.61 -904.20 -1011.37 -930.61 -910.83 -930.60 -857.81 -828.94 -890.02 -718.57 -715.36 -663.36 -664.06 -702.68 -722.93 -658.67 -426.07 -338.81 -325.82 -309.41 -303.87 -292.52 -263.66 -225.45 -190.61 -154.45 -131.96 -101.63 -54.79 -30.70 -25.91 -47.06 -66.92 -77.85 -86.49 -97.81 -102.93 -104.38 -96.05 -99.23 -95.88 -88.74 -82.77 -82.80 -70.96 -64.69 -42.41 -29.42 -10.58 -2.03 12.53 20.26 25.64 32.79 40.45 53.30 67.46 82.49 93.98 103.00 135.52 150.20 178.92 216.57 224.09 218.33 212.11 147.30 114.04 81.14 56.38 34.29 24.43 -7.76 -287.74 -1047.21 -1441.44 -1419.82 -1349.63 -1282.32 -1315.59 -1395.53 -1487.27 -1951.74 -2995.65 -4079.01 -4754.40 -5450.51 -5540.97 -5539.34 -5553.52 -5560.59 -5436.02 -4502.53 -2736.01 -1325.37 -529.73 -432.29 -606.21 -754.67 -1132.34 -1492.20 -1834.61 -2079.57 -2138.45 -2285.93 -2314.96 -2374.35 -2438.31 -2480.82 -2556.51 -2674.32 -2980.06 -3482.81 -3869.32 -3984.84 -3984.91
-2672.75 -2679.40 -2698.65 -2706.16 -2731.75 -2742.01 -2716.78 -2674.94 -2615.91 -2580.01 -2562.83 -2561.76 -2569.47 -2551.11 -2527.34 -2507.09 -2480.61 -2487.88 -2436.06 -2329.57 -2122.87 -1802.31 -1475.16 -1250.42 -1202.43 -1197.99 -1198.56 -1257.14 -1345.19 -1265.00 -1289.83 -1300.12 -1269.19 -1141.30 -885.72 -724.65 -692.12 -690.83 -693.37 -683.07 -517.62 -438.74 -365.73 -342.74 -314.10 -300.01 -269.49 -246.38 -194.66 -176.62 -123.02 -103.50 -69.05 -36.29 -39.82 -60.15 -75.61 -91.35 -93.37 -104.50 -108.23 -115.33 -114.22 -107.59 -106.97 -100.12 -96.88 -89.09 -77.71 -76.69 -59.07 -38.57 -23.70 -7.81 7.36 9.96 16.05 22.64 28.43 36.04 53.60 70.74 81.16 94.60 114.73 123.22 168.63 192.34 207.15 201.14 202.88 158.56 82.48 47.15 34.44 9.21 -17.55 -146.48 -688.53 -1279.67 -1470.46 -1338.40 -1304.94 -1284.37 -1342.64 -1430.28 -1516.32 -2121.25 -2936.58 -4614.71 -5305.07 -5529.50 -5525.92 -5539.86 -5568.14 -5548.53 -5211.11 -4834.71 -2172.79 -671.43 -421.99 -447.63 -543.61 -779.20 -1224.58 -1772.21 -1984.39 -2182.89 -2222.59 -2291.53 -2350.18 -2383.80 -2416.47 -2483.51 -2616.81 -2768.95 -3133.80 -3446.27 -3810.23 -3947.43 -3947.65
-2681.80 -2681.69 -2662.38 -2675.32 -2709.84 -2707.85 -2704.25 -2669.01 -2629.67 -2603.47 -2610.09 -2591.20 -2594.07 -2584.70 -2553.78 -2496.12 -2455.78 -2494.78 -2484.99 -2383.02 -2238.95 -1909.50 -1686.73 -1561.23 -1511.86 -1575.12 -1627.74 -1698.27 -1707.23 -1843.62 -1803.01 -1674.72 -1800.07 -1593.11 -1037.63 -762.00 -716.89 -700.26 -689.11 -663.68 -677.97 -660.70 -599.38 -444.62 -338.89 -307.55 -282.95 -255.94 -226.57 -178.50 -120.14 -91.91 -60.15 -61.26 -55.10 -77.50 -97.41 -107.37 -114.87 -121.50 -124.35 -129.96 -126.85 -121.35 -118.34 -109.95 -100.56 -91.09 -83.55 -80.86 -64.28 -52.68 -42.68 -18.06 -3.32 -1.13 5.15 11.37 18.03 26.95 43.92 51.79 65.56 77.50 85.73 104.21 142.80 155.33 178.69 186.28 158.36 101.75 80.64 22.84 14.11 -5.29 -42.65 -270.54 -1044.17 -1424.74 -1397.44 -1341.60 -1343.08 -1344.88 -1431.28 -1584.16 -1953.64 -2717.11 -3688.26 -4824.92 -5390.36 -5455.25 -5524.28 -5550.07 -5569.37 -5477.83 -5180.74 -3992.71 -1729.03 -673.88 -399.99 -426.68 -633.06 -827.53 -1204.98 -1716.80 -1881.84 -2145.32 -2271.59 -2328.25 -2367.98 -2384.47 -2475.22 -2540.95 -2726.81 -2839.15 -3177.26 -3382.13 -3649.44 -3747.39 -3747.46
-2633.87 -2633.82 -2645.91 -2661.97 -2684.63 -2693.25 -2687.12 -2669.72 -2644.42 -2642.17 -2651.03 -2622.50 -2617.45 -2606.52 -2569.32 -2526.39 -2507.15 -2548.68 -2525.02 -2432.09 -2330.38 -2188.74 -2075.16 -2029.32 -1994.25 -2198.03 -2232.69 -2232.79 -2313.47 -2275.87 -2309.06 -2303.27 -2248.70 -1800.24 -1304.92 -909.63 -749.46 -732.77 -732.42 -735.09 -730.28 -702.16 -672.11 -467.07 -362.21 -330.59 -308.13 -279.56 -236.53 -201.58 -156.69 -119.68 -92.99 -106.49 -107.96 -120.34 -128.04 -129.83 -139.13 -143.03 -146.09 -149.67 -142.08 -132.60 -127.09 -111.32 -104.25 -103.53 -89.49 -88.03 -83.34 -76.69 -53.93 -29.79 -23.24 -12.66 -2.18 4.32 16.66 26.55 36.66 41.48 54.02 58.28 71.40 81.25 114.50 134.20 144.68 137.98 109.44 86.70 36.22 2.82 -53.61 -33.86 -62.22 -428.83 -1330.59 -1490.17 -1392.62 -1383.24 -1439.45 -1485.64 -1607.99 -2042.78 -2354.84 -3506.36 -4574.62 -5114.29 -5364.91 -5466.66 -5531.87 -5553.89 -5570.94 -5466.75 -5085.73 -3378.37 -1621.71 -635.89 -362.00 -412.28 -644.59 -1085.48 -1337.44 -1670.96 -1957.43 -2134.99 -2292.31 -2363.68 -2394.43 -2420.43 -2483.35 -2558.75 -2723.44 -2959.69 -3136.79 -3360.76 -3540.35 -3754.27 -3754.33
-2661.15 -2661.08 -2640.02 -2627.48 -2659.95 -2679.16 -2683.75 -2672.85 -2668.16 -2657.38 -2659.56 -2654.84 -2647.95 -2638.41 -2604.29 -2583.64 -2576.94 -2575.37 -2552.23 -2533.39 -2492.65 -2410.69 -2378.41 -2350.88 -2387.24 -2422.62 -2468.98 -2470.98 -2571.80 -2597.45 -2637.08 -2590.12 -2497.73 -2375.43 -2033.67 -1350.17 -855.02 -765.41 -790.06 -776.82 -779.03 -743.98 -706.96 -689.25 -371.88 -343.34 -318.98 -289.64 -258.76 -225.46 -173.53 -143.01 -136.25 -146.87 -146.63 -156.97 -152.62 -161.57 -160.11 -168.92 -163.55 -160.87 -158.32 -153.37 -136.97 -131.96 -118.10 -117.25 -103.85 -97.10 -91.09 -89.36 -73.58 -69.47 -52.74 -20.44 -8.87 1.47 11.18 20.72 25.47 28.64 36.52 36.73 49.99 58.09 75.06 93.54 93.69 87.48 73.97 36.31 17.08 -64.19 -197.26 -299.76 -557.95 -1196.00 -1534.86 -1445.33 -1458.94 -1697.37 -1708.56 -2119.62 -2315.79 -2595.85 -3907.43 -4406.92 -5070.33 -5345.85 -5475.58 -5495.84 -5546.99 -5570.72 -5572.90 -5433.37 -4527.30 -3725.89 -1798.25 -661.14 -411.11 -570.90 -749.71 -1180.64 -1450.00 -1744.36 -1956.64 -2145.76 -2311.54 -2386.11 -2401.00 -2435.51 -2484.49 -2545.44 -2700.78 -2902.21 -3141.02 -3385.38 -3547.76 -3760.61 -3760.68
-2662.50 -2662.44 -2652.36 -2622.16 -2623.83 -2658.78 -2682.19 -2681.53 -2679.80 -2673.83 -2675.91 -2652.43 -2642.45 -2623.33 -2640.95 -2632.12 -2611.00 -2604.40 -2599.91 -2574.59 -2595.53 -2613.54 -2585.17 -2591.85 -2602.69 -2621.57 -2621.21 -2664.93 -2676.24 -2715.35 -2722.78 -2689.16 -2667.59 -2505.58 -2119.17 -1638.64 -1128.79 -955.94 -889.70 -855.28 -826.37 -794.04 -751.53 -735.36 -413.32 -360.72 -349.44 -310.25 -280.00 -244.03 -204.03 -183.92 -188.28 -192.15 -170.48 -180.43 -186.49 -187.09 -186.43 -194.81 -183.38 -181.99 -171.48 -169.20 -153.99 -143.84 -130.68 -125.64 -116.65 -109.27 -98.68 -98.37 -90.87 -86.25 -82.26 -60.39 -44.85 -24.53 0.11 8.39 14.80 20.83 25.60 30.54 31.94 34.72 53.37 65.58 64.87 54.75 39.45 16.89 10.69 -183.43 -546.46 -996.78 -1539.52 -1520.88 -1491.93 -1578.33 -1873.04 -2083.46 -2240.78 -2685.18 -3231.24 -3924.07 -4567.95 -5168.85 -5471.54 -5554.68 -5537.08 -5541.61 -5574.38 -5581.84 -5556.69 -5486.79 -4840.40 -2711.01 -1580.27 -513.21 -501.53 -641.88 -793.71 -1211.34 -1556.12 -1793.10 -2150.06 -2272.01 -2332.72 -2369.98 -2402.00 -2437.18 -2504.59 -2582.70 -2674.08 -2899.74 -3173.39 -3474.78 -3684.49 -3834.71 -3834.58
-2668.38 -2668.32 -2676.87 -2663.50 -2653.39 -2646.06 -2667.29 -2677.98 -2672.22 -2680.24 -2672.48 -2627.08 -2630.29 -2610.11 -2659.92 -2651.19 -2640.13 -2627.40 -2619.33 -2630.06 -2630.14 -2645.56 -2658.73 -2687.47 -2679.77 -2701.21 -2712.14 -2718.27 -2740.74 -2764.31 -2737.70 -2714.92 -2717.60 -2603.39 -2243.55 -1969.94 -1516.96 -1171.31 -1003.06 -937.98 -954.70 -839.07 -775.06 -720.33 -550.59 -390.23 -360.78 -324.33 -291.44 -269.00 -223.12 -218.37 -218.11 -214.38 -220.16 -220.29 -207.66 -219.28 -215.11 -213.87 -205.78 -197.96 -183.51 -178.90 -172.16 -154.64 -145.96 -132.88 -128.06 -120.04 -114.60 -107.75 -108.62 -101.45 -93.26 -99.45 -75.72 -48.79 -19.34 -19.35 0.31 10.75 15.41 19.74 22.99 25.61 23.92 44.46 37.67 24.44 5.09 -36.13 -94.68 -348.13 -870.70 -1219.41 -1427.67 -1554.84 -1792.53 -2205.00 -3314.95 -3141.14 -3575.23 -4253.47 -4597.49 -5029.98 -5239.69 -5603.18 -5581.85 -5686.80 -5714.02 -5663.36 -5570.12 -5524.87 -5435.12 -5218.05 -4199.84 -2574.08 -981.42 -544.88 -536.17 -721.36 -974.51 -1235.46 -1596.89 -1866.70 -2215.12 -2302.03 -2337.74 -2358.68 -2398.61 -2443.60 -2499.85 -2597.71 -2759.70 -3113.62 -3345.55 -3642.06 -3858.80 -4089.20 -4089.26
-2675.40 -2675.34 -2682.43 -2688.12 -2694.77 -2671.08 -2676.45 -2675.76 -2664.05 -2682.57 -2688.12 -2652.06 -2656.23 -2701.18 -2704.29 -2691.04 -2677.53 -2671.09 -2669.20 -2656.24 -2681.36 -2695.96 -2717.94 -2731.06 -2722.63 -2730.98 -2731.20 -2740.16 -2762.10 -2772.46 -2737.63 -2718.65 -2724.98 -2688.00 -2465.10 -2168.65 -1596.73 -1338.80 -1078.75 -988.14 -937.83 -845.66 -803.40 -765.18 -595.01 -472.89 -391.07 -349.49 -324.95 -294.52 -255.52 -250.43 -268.92 -250.18 -248.68 -260.93 -248.35 -253.77 -236.07 -236.08 -227.38 -217.97 -201.22 -192.10 -188.60 -173.82 -162.29 -150.12 -135.88 -135.99 -131.82 -127.78 -121.84 -118.60 -124.09 -112.80 -91.22 -72.10 -68.95 -47.40 -21.12 -4.80 -5.50 9.02 -5.79 -2.86 9.97 -12.03 -11.02 -21.92 -83.35 -179.21 -321.75 -771.10 -1440.54 -1419.61 -1564.85 -1962.85 -2447.96 -3196.12 -4199.06 -4828.04 -5004.40 -5211.88 -5301.93 -5484.44 -5638.60 -5759.74 -5247.37 -5064.29 -5460.53 -5198.79 -5206.27 -4918.13 -4750.70 -4121.88 -3773.76 -1967.74 -763.13 -569.86 -637.30 -964.85 -1297.37 -1520.30 -1828.92 -2092.68 -2299.70 -2331.40 -2348.21 -2361.63 -2422.06 -2476.01 -2519.55 -2612.29 -2879.72 -3209.70 -3677.20 -3903.13 -4032.39 -4130.13 -4130.10
-2683.48 -2683.42 -2687.58 -2695.17 -2701.08 -2705.90 -2712.92 -2706.76 -2682.57 -2718.61 -2737.82 -2730.90 -2739.10 -2723.93 -2744.90 -2739.98 -2731.79 -2737.85 -2724.31 -2728.56 -2737.90 -2736.71 -2745.50 -2748.85 -2742.04 -2743.40 -2742.01 -2748.43 -2762.09 -2751.88 -2742.22 -2723.91 -2685.54 -2648.62 -2563.10 -2276.49 -1861.32 -1365.20 -1154.10 -1012.88 -960.57 -873.17 -803.18 -744.79 -672.60 -493.52 -388.33 -378.32 -351.73 -331.05 -317.39 -317.71 -316.35 -295.14 -301.75 -296.08 -282.66 -273.42 -266.91 -263.37 -249.54 -237.52 -227.01 -210.92 -208.79 -185.05 -171.14 -166.12 -157.15 -159.24 -156.48 -148.16 -130.46 -134.13 -134.03 -128.10 -118.78 -99.29 -87.82 -55.18 -40.34 -37.21 -19.46 -27.16 -35.72 -21.23 -46.19 -87.11 -102.47 -127.55 -181.25 -202.27 -266.18 -620.70 -1406.75 -1622.31 -2159.90 -3104.29 -3763.02 -4962.65 -5214.12 -5389.73 -5571.48 -5634.74 -5723.55 -5830.42 -5860.01 -5959.94 -4882.53 -3168.05 -2653.71 -2147.36 -3224.41 -2360.62 -2136.76 -2212.56 -1551.75 -929.85 -629.31 -529.77 -710.70 -1095.94 -1354.60 -1709.81 -1967.24 -2213.94 -2300.87 -2326.68 -2350.66 -2369.09 -2432.66 -2496.46 -2641.06 -2677.36 -2864.64 -3441.97 -3689.29 -4002.21 -4174.12 -4248.91 -4248.95
-2693.03 -2694.58 -2698.85 -2701.42 -2707.21 -2713.00 -2723.72 -2720.17 -2744.48 -2773.97 -2768.98 -2774.67 -2774.68 -2792.55 -2799.29 -2809.02 -2805.71 -2828.83 -2818.80 -2820.68 -2815.32 -2780.53 -2771.63 -2757.36 -2753.96 -2748.38 -2749.04 -2747.55 -2758.13 -2750.78 -2739.86 -2719.28 -2688.64 -2665.58 -2595.84 -2376.43 -1997.12 -1614.18 -1244.97 -1055.02 -975.91 -870.14 -822.40 -737.49 -682.16 -506.97 -434.19 -404.13 -371.94 -364.54 -344.50 -357.01 -340.74 -332.17 -327.94 -324.66 -311.04 -291.90 -290.61 -273.66 -274.03 -254.87 -242.23 -231.33 -225.38 -206.82 -193.17 -186.42 -172.28 -167.88 -173.30 -168.76 -163.27 -163.86 -147.87 -133.56 -126.55 -118.61 -106.59 -96.62 -87.80 -80.24 -59.42 -62.94 -74.94 -69.06 -92.01 -109.40 -154.54 -172.77 -184.33 -205.51 -357.00 -1037.18 -1842.28 -2154.42 -3324.48 -4013.77 -4960.62 -5140.05 -5695.75 -5718.94 -5823.76 -5964.06 -5484.64 -5117.23 -4127.23 -3236.88 -2521.04 -572.08 -279.98 -301.63 22.10 14.03 -184.02 -972.47 -662.49 -592.42 -548.10 -611.80 -826.82 -1273.94 -1544.79 -1815.83 -2015.73 -2196.57 -2284.70 -2312.43 -2336.33 -2364.57 -2431.37 -2556.90 -2734.31 -2799.53 -3054.86 -3342.64 -3870.32 -4117.45 -4251.75 -4288.81 -4287.86
-2704.84 -2704.79 -2706.38 -2713.58 -2720.11 -2722.92 -2736.91 -2756.06 -2778.87 -2790.78 -2803.23 -2805.87 -2812.01 -2820.35 -2835.26 -2833.80 -2826.25 -2858.06 -2849.05 -2838.86 -2841.48 -2820.93 -2807.38 -2782.12 -2774.39 -2764.95 -2768.22 -2767.66 -2765.86 -2762.65 -2741.82 -2718.07 -2686.68 -2623.71 -2504.30 -2248.60 -2096.80 -1760.93 -1330.83 -1110.96 -1015.04 -882.45 -868.22 -764.38 -720.03 -659.66 -545.39 -487.70 -408.25 -417.01 -403.77 -375.18 -367.01 -382.89 -412.42 -396.72 -365.11 -316.86 -339.51 -402.91 -340.80 -290.72 -269.63 -248.82 -241.13 -235.71 -220.59 -203.97 -196.39 -192.34 -189.24 -187.12 -180.60 -179.93 -171.01 -153.32 -149.05 -146.18 -131.05 -123.73 -105.73 -100.10 -88.96 -91.35 -85.65 -91.80 -98.35 -131.06 -176.88 -209.14 -214.08 -219.67 -1293.54 -1635.47 -2418.89 -2979.30 -4597.92 -5064.46 -5491.02 -5554.24 -5810.41 -5979.39 -6141.99 -5177.99 -3526.53 -2798.40 -1734.78 -607.05 0.92 23.30 33.40 35.32 27.19 23.68 14.35 -101.47 -333.11 -508.03 -641.25 -761.25 -1119.24 -1350.28 -1746.53 -2007.20 -2118.95 -2254.99 -2293.55 -2306.47 -2317.02 -2354.73 -2439.75 -2589.67 -2800.75 -2847.99 -3170.42 -3551.30 -3991.84 -4202.11 -4295.25 -4315.92 -4315.98
-2719.11 -2719.06 -2722.50 -2727.63 -2738.27 -2737.84 -2749.11 -2771.51 -2796.87 -2818.82 -2819.36 -2824.57 -2830.04 -2844.71 -2841.96 -2838.53 -2846.49 -2857.43 -2847.94 -2838.57 -2832.23 -2835.49 -2834.67 -2814.70 -2800.17 -2795.67 -2783.80 -2777.77 -2772.35 -2763.57 -2745.67 -2708.61 -2669.74 -2588.71 -2477.23 -2231.03 -2019.67 -1850.59 -1492.86 -1246.90 -1055.46 -922.69 -891.60 -826.80 -816.25 -760.00 -702.59 -583.48 -507.82 -475.61 -496.04 -523.94 -482.12 -436.30 -482.94 -464.35 -432.35 -509.27 -421.82 -467.77 -432.69 -304.17 -287.88 -279.96 -265.74 -257.39 -233.56 -228.46 -231.18 -214.27 -213.23 -213.30 -209.87 -195.81 -189.72 -181.39 -172.39 -159.41 -159.69 -144.72 -133.09 -117.86 -110.49 -110.09 -106.43 -99.76 -95.66 -134.82 -196.32 -228.95 -254.49 -923.15 -1715.03 -1942.38 -2379.21 -4035.95 -5129.83 -5320.60 -5154.04 -5185.37 -5379.07 -4477.04 -3373.92 -1830.26 -749.56 -247.23 3.89 17.66 30.24 38.01 42.83 40.98 32.90 26.69 20.09 -37.09 -212.16 -638.71 -830.47 -1028.15 -1230.20 -1543.89 -1785.29 -2057.00 -2208.56 -2287.37 -2308.82 -2311.14 -2309.07 -2381.88 -2577.44 -2779.23 -3007.66 -3160.15 -3479.12 -3787.42 -4068.10 -4281.16 -4304.79 -4322.59 -4322.65
-2736.09 -2736.04 -2738.16 -2747.34 -2747.66 -2761.16 -2765.12 -2788.45 -2810.68 -2832.76 -2839.26 -2846.03 -2857.04 -2869.81 -2858.14 -2848.05 -2853.69 -2862.21 -2855.65 -2853.11 -2842.36 -2838.92 -2849.81 -2832.62 -2814.94 -2810.77 -2803.04 -2783.52 -2778.15 -2770.35 -2759.59 -2732.77 -2662.19 -2587.59 -2386.77 -2267.72 -1998.30 -1737.66 -1419.90 -1179.26 -1097.33 -990.88 -934.03 -853.68 -828.57 -800.78 -761.42 -702.14 -667.54 -600.91 -609.72 -628.79 -589.91 -547.50 -597.08 -570.74 -559.12 -548.07 -510.71 -521.55 -478.45 -374.17 -338.00 -309.65 -278.04 -265.12 -254.31 -250.32 -245.81 -249.21 -246.82 -235.14 -237.70 -226.77 -218.48 -222.35 -215.59 -203.06 -189.96 -170.13 -159.98 -148.18 -129.57 -127.95 -117.10 -94.22 -46.54 -101.58 -204.04 -439.78 -832.86 -1364.80 -1747.56 -1901.45 -2787.26 -3894.56 -4711.91 -3406.28 -3224.56 -1867.83 -2225.78 -1163.47 10.58 -4.80 -0.72 24.18 36.99 35.26 41.90 41.80 41.64 39.43 32.93 26.02 22.55 8.06 -234.91 -654.56 -1011.39 -1175.90 -1464.90 -1606.46 -1864.29 -2169.11 -2257.44 -2291.24 -2307.15 -2311.58 -2308.55 -2330.19 -2607.95 -3048.06 -3281.52 -3402.72 -3733.89 -4085.12 -4205.59 -4309.80 -4326.59 -4329.11 -4329.17
-2756.75 -2759.73 -2764.23 -2767.03 -2773.70 -2776.77 -2788.56 -2811.39 -2833.80 -2857.56 -2852.98 -2859.25 -2867.66 -2874.14 -2863.96 -2855.94 -2855.47 -2859.83 -2866.67 -2864.20 -2854.64 -2851.29 -2854.70 -2845.18 -2828.13 -2820.37 -2814.74 -2799.38 -2788.72 -2783.12 -2768.96 -2750.91 -2694.81 -2601.13 -2421.61 -2178.91 -1979.12 -1624.70 -1502.30 -1236.19 -1094.70 -1004.21 -920.76 -841.24 -825.27 -782.82 -748.08 -732.74 -685.17 -666.95 -658.53 -636.64 -626.95 -613.62 -593.73 -571.85 -552.61 -533.93 -523.33 -495.21 -464.52 -418.67 -372.19 -354.21 -343.51 -309.71 -287.31 -278.21 -270.14 -263.69 -270.16 -263.03 -258.74 -245.87 -245.70 -246.43 -237.41 -226.63 -223.37 -201.77 -181.68 -176.71 -155.12 -139.44 -131.44 -119.41 -97.75 -172.14 -287.31 -514.02 -872.56 -1303.53 -1753.43 -2226.90 -2710.14 -3686.74 -3613.96 -1011.36 -310.77 29.69 41.92 67.44 65.21 50.42 47.25 63.23 58.62 53.80 45.71 41.70 36.14 33.23 29.32 22.27 18.42 6.61 -173.09 -896.58 -1396.71 -1516.88 -1644.41 -1748.90 -1920.04 -2139.83 -2293.71 -2308.84 -2322.96 -2318.30 -2313.67 -2344.00 -2544.78 -2926.65 -3535.13 -3798.62 -4046.39 -4192.48 -4268.79 -4320.90 -4330.86 -4335.94 -4336.00
-2782.05 -2782.01 -2797.66 -2792.88 -2807.03 -2805.88 -2821.18 -2840.05 -2866.32 -2868.90 -2874.36 -2881.23 -2885.54 -2892.14 -2885.12 -2861.93 -2875.31 -2870.88 -2868.37 -2861.36 -2860.67 -2861.55 -2862.02 -2851.33 -2836.41 -2829.61 -2823.44 -2819.36 -2811.32 -2801.85 -2799.46 -2748.91 -2636.22 -2523.09 -2310.29 -2080.73 -1875.89 -1646.27 -1382.53 -1256.43 -1123.28 -1028.29 -953.81 -861.11 -828.15 -779.22 -758.86 -729.66 -696.41 -686.58 -665.65 -651.92 -633.71 -623.13 -600.45 -581.00 -551.74 -525.71 -510.41 -488.06 -465.12 -432.87 -409.10 -377.01 -358.42 -342.22 -307.86 -300.93 -294.61 -294.77 -287.77 -275.70 -267.00 -258.48 -254.58 -251.30 -248.89 -242.47 -234.91 -230.72 -217.95 -202.39 -191.42 -186.14 -175.11 -148.86 -168.90 -203.37 -288.04 -345.07 -621.16 -904.68 -1345.73 -2286.62 -2095.04 -1607.40 -1299.75 10.23 63.95 77.56 94.83 105.84 106.17 95.70 89.69 80.50 68.89 61.70 46.36 39.62 31.05 27.26 25.33 18.38 13.59 -10.14 -378.31 -1332.84 -1623.20 -1792.19 -1971.37 -1996.93 -2107.99 -2254.76 -2310.99 -2330.82 -2328.54 -2324.54 -2322.23 -2348.55 -2547.55 -2984.90 -3609.56 -3925.11 -4240.69 -4311.96 -4331.20 -4335.76 -4340.98 -4344.27 -4344.32
-2811.10 -2814.87 -2823.07 -2829.65 -2834.64 -2839.67 -2841.32 -2872.07 -2882.28 -2884.96 -2897.39 -2894.63 -2899.52 -2900.69 -2896.84 -2873.74 -2859.55 -2861.54 -2861.57 -2864.22 -2876.19 -2875.31 -2874.03 -2870.40 -2862.91 -2847.46 -2839.78 -2834.19 -2828.69 -2825.16 -2818.35 -2785.05 -2611.97 -2429.93 -2278.66 -2057.35 -1756.80 -1467.13 -1410.29 -1261.26 -1135.63 -1054.33 -956.68 -864.36 -810.12 -798.19 -756.62 -732.95 -712.37 -691.72 -676.20 -672.32 -653.23 -632.47 -611.33 -585.97 -570.34 -545.31 -523.29 -494.72 -468.09 -435.79 -411.38 -374.22 -351.08 -340.16 -320.43 -312.67 -305.88 -300.11 -288.24 -279.10 -269.08 -260.74 -253.27 -247.20 -244.55 -243.41 -238.56 -230.60 -216.64 -209.32 -204.32 -189.84 -183.99 -189.29 -209.62 -238.46 -244.50 -294.86 -313.90 -442.54 -861.20 -1395.72 -846.72 -496.07 -275.13 59.66 83.90 129.51 165.06 144.37 157.04 143.19 111.89 109.49 85.46 68.76 53.97 38.07 23.35 19.54 16.36 11.59 -0.62 -23.74 -677.47 -1544.69 -1898.21 -2031.57 -2051.83 -2136.28 -2261.52 -2293.16 -2329.91 -2337.72 -2334.18 -2331.01 -2335.28 -2364.28 -2486.05 -2902.08 -3653.69 -4024.16 -4303.47 -4343.21 -4354.54 -4353.44 -4351.36 -4352.74 -4352.80
-2841.78 -2845.93 -2850.69 -2858.94 -2863.77 -2875.37 -2887.34 -2916.60 -2929.64 -2917.68 -2915.07 -2916.88 -2914.96 -2917.78 -2904.27 -2881.34 -2854.13 -2847.39 -2852.26 -2868.41 -2889.33 -2906.33 -2893.21 -2887.18 -2882.83 -2870.63 -2857.61 -2855.82 -2842.68 -2836.57 -2820.49 -2731.93 -2612.56 -2392.77 -2262.02 -2008.43 -1804.88 -1565.07 -1397.03 -1282.80 -1154.64 -1068.45 -945.18 -879.61 -836.29 -783.06 -768.95 -745.63 -728.12 -711.34 -699.06 -684.37 -663.39 -651.51 -624.24 -589.78 -578.59 -551.97 -517.89 -498.39 -477.10 -446.66 -418.92 -369.53 -348.29 -335.16 -320.23 -311.25 -302.33 -295.97 -287.04 -278.92 -272.57 -268.24 -246.17 -234.70 -234.43 -236.08 -235.28 -224.03 -203.16 -198.63 -196.52 -177.16 -161.07 -175.01 -180.22 -175.92 -199.76 -214.22 -216.52 -170.99 -161.83 -398.26 -217.76 24.76 68.49 121.56 145.56 180.25 258.35 244.23 225.40 197.17 160.06 112.75 84.67 68.85 53.90 42.41 17.04 9.27 -3.07 -16.51 -21.25 -43.63 -170.71 -1482.12 -1893.14 -2082.13 -2152.90 -2242.16 -2277.48 -2335.90 -2346.37 -2348.90 -2345.65 -2348.20 -2349.14 -2374.18 -2466.84 -2906.68 -3776.74 -4190.98 -4354.03 -4362.74 -4361.56 -4357.07 -4357.83 -4357.55 -4357.61
-2874.33 -2874.30 -2886.93 -2883.51 -2888.65 -2893.98 -2920.08 -2948.68 -2962.21 -2945.23 -2943.33 -2943.86 -2953.65 -2942.86 -2950.98 -2907.78 -2882.70 -2869.49 -2884.82 -2896.35 -2928.88 -2936.69 -2934.48 -2920.53 -2901.00 -2890.51 -2880.96 -2877.10 -2864.59 -2849.66 -2816.77 -2739.47 -2551.23 -2392.27 -2203.74 -1982.94 -1850.06 -1595.46 -1401.07 -1262.24 -1191.34 -1081.00 -1009.96 -945.90 -864.38 -817.70 -788.93 -764.56 -739.19 -730.59 -710.53 -697.48 -681.34 -659.85 -632.65 -600.17 -583.16 -548.85 -525.31 -510.63 -492.80 -460.19 -412.92 -368.15 -344.98 -332.90 -318.42 -312.07 -301.01 -292.44 -285.43 -278.64 -270.47 -266.65 -229.88 -217.87 -210.25 -218.55 -212.12 -194.35 -185.43 -175.01 -155.55 -148.19 -132.36 -115.57 -114.61 -111.98 -133.67 -104.64 -131.00 -86.76 -63.63 -31.09 12.09 67.97 104.16 211.94 277.93 402.32 489.24 311.39 240.79 199.69 159.43 118.64 106.25 60.97 50.38 27.04 5.30 -4.15 -19.86 -25.23 -38.34 -734.05 -988.82 -1562.11 -2076.50 -2113.43 -2225.03 -2298.48 -2340.00 -2350.73 -2358.61 -2367.22 -2362.82 -2360.27 -2360.24 -2383.56 -2568.30 -3045.07 -3619.63 -4205.98 -4358.08 -4361.09 -4367.61 -4367.17 -4365.29 -4361.27 -4361.33
-2908.97 -2908.93 -2913.54 -2920.37 -2933.76 -2946.21 -2960.05 -2986.15 -2974.00 -2967.44 -2973.16 -2976.35 -2964.18 -2956.41 -2966.35 -2947.86 -2925.88 -2923.02 -2921.68 -2951.74 -2977.69 -2972.40 -2958.79 -2941.50 -2931.74 -2911.71 -2910.84 -2903.20 -2893.48 -2862.04 -2793.16 -2717.86 -2525.34 -2371.93 -2256.51 -1954.82 -1850.01 -1639.33 -1459.12 -1309.71 -1168.77 -1114.81 -1060.28 -982.18 -915.61 -846.35 -805.05 -785.83 -760.74 -749.30 -732.16 -713.19 -691.43 -672.08 -651.50 -627.25 -589.50 -566.16 -537.26 -520.32 -481.53 -454.87 -399.84 -376.92 -345.43 -332.46 -318.32 -307.76 -302.64 -296.58 -288.61 -272.20 -261.26 -246.40 -228.31 -178.71 -172.88 -180.53 -176.14 -169.80 -137.87 -121.70 -92.98 -66.23 -94.30 -63.23 -64.61 -44.01 -57.89 -61.52 -66.08 -53.62 -36.46 0.50 58.74 92.21 136.14 501.53 496.86 729.21 685.08 278.37 233.05 201.08 168.92 121.82 100.02 71.19 53.91 23.43 1.51 -25.46 -39.82 -61.96 -462.92 -1320.99 -1522.73 -1848.59 -2087.39 -2137.95 -2249.25 -2319.04 -2353.27 -2364.57 -2380.28 -2387.49 -2385.79 -2385.06 -2384.57 -2404.42 -2533.98 -3193.11 -3716.67 -4194.68 -4352.79 -4367.75 -4378.32 -4374.50 -4368.14 -4361.91 -4361.38
-2942.69 -2942.65 -2958.18 -2974.36 -2975.84 -2975.15 -2996.70 -3013.66 -3006.82 -3003.36 -3000.76 -3003.14 -3005.99 -3010.23 -3007.28 -3003.25 -3004.02 -2985.07 -2993.81 -2993.64 -3001.34 -2996.42 -2981.25 -2971.23 -2952.99 -2944.77 -2952.30 -2952.04 -2931.46 -2900.06 -2799.91 -2720.23 -2577.72 -2462.25 -2320.23 -2062.18 -1912.77 -1651.93 -1584.12 -1399.59 -1239.86 -1157.76 -1078.86 -1002.27 -956.33 -885.74 -855.25 -813.33 -773.72 -756.91 -741.02 -713.42 -702.85 -674.45 -658.44 -634.46 -600.35 -583.82 -569.90 -538.01 -503.02 -458.21 -429.92 -398.51 -358.39 -332.43 -319.21 -309.92 -299.12 -296.02 -288.86 -266.70 -243.91 -212.93 -214.08 -167.62 -150.95 -147.81 -138.48 -121.89 -92.46 -61.38 -47.13 -39.72 -37.08 -29.57 -20.15 -22.75 -19.05 -15.58 1.39 29.22 49.36 55.79 80.07 139.55 267.53 778.27 918.59 652.17 399.96 213.89 204.88 178.72 145.36 130.91 96.62 62.09 46.81 14.04 -25.29 -54.14 -98.52 -547.82 -1209.93 -1773.30 -1914.96 -2068.79 -2130.22 -2231.93 -2284.03 -2302.67 -2353.87 -2384.25 -2392.59 -2403.93 -2418.09 -2411.47 -2411.18 -2416.47 -2610.98 -3110.96 -3901.56 -4179.10 -4336.57 -4367.19 -4375.31 -4370.73 -4362.99 -4350.14 -4350.21
-2972.03 -2976.46 -2983.95 -2994.97 -3002.62 -3012.44 -3025.45 -3034.23 -3046.24 -3046.71 -3056.03 -3057.08 -3052.12 -3040.12 -3034.60 -3028.10 -3030.76 -3019.81 -3021.99 -3035.41 -3041.67 -3039.71 -3024.43 -3018.35 -2988.89 -2984.53 -2985.07 -2974.40 -2956.56 -2906.34 -2824.92 -2764.94 -2621.17 -2512.60 -2369.51 -2111.68 -1854.70 -1711.84 -1516.58 -1396.10 -1302.24 -1192.93 -1076.44 -1023.38 -944.58 -919.62 -869.59 -823.74 -788.52 -767.98 -746.39 -739.66 -718.25 -690.21 -677.45 -652.87 -628.31 -613.21 -585.65 -557.44 -510.55 -485.16 -454.53 -403.50 -373.48 -357.31 -342.89 -325.95 -316.67 -278.45 -260.21 -254.33 -219.06 -188.32 -185.67 -163.95 -122.98 -118.43 -97.06 -83.84 -67.29 -51.31 -32.28 -18.72 -14.81 4.24 -5.20 30.23 25.89 16.18 29.54 45.77 74.35 85.73 109.02 246.47 523.34 907.65 956.87 420.25 216.44 183.93 154.70 140.77 136.38 122.52 80.99 59.03 24.39 1.51 -62.06 -100.57 -441.37 -996.67 -1401.38 -1762.85 -1976.90 -2113.05 -2155.05 -2255.53 -2300.65 -2320.02 -2360.12 -2391.18 -2402.68 -2420.88 -2433.68 -2441.70 -2448.60 -2467.48 -2658.33 -2901.36 -3592.36 -4202.39 -4332.41 -4348.20 -4367.58 -4363.76 -4353.09 -4335.93 -4336.01
