-5620.34 -5620.28 -5616.81 -5615.39 -5614.40 -5609.82 -5607.24 -5603.41 -5597.65 -5594.70 -5588.85 -5585.11 -5581.87 -5585.19 -5600.87 -5613.16 -5618.66 -5617.62 -5616.56 -5616.10 -5602.85 -5568.44 -5506.70 -5493.85 -5484.59 -5485.83 -5488.16 -5333.69 -5093.54 -4655.80 -3289.89 -2010.13 -979.73 -453.53 4.22 222.47 304.03 304.66 356.60 424.63 411.05 336.23 333.93 332.02 316.55 298.73 344.40 342.80 264.02 238.80 196.87 -48.71 -333.78 -358.25 -489.28 -583.43 -690.88 -794.38 -864.98 -996.27 -950.37 -845.85 -975.81 -1101.70 -1138.09 -1231.32 -1370.78 -1208.00 -589.68 -222.80 50.19 235.09 351.60 366.38 372.86 330.67 265.51 209.64 150.21 159.17 156.82 150.61 139.15 140.28 141.14 148.84 154.92 166.69 182.35 199.19 216.02 233.27 242.82 246.33 247.26 248.00 248.16 249.16 273.71 335.06 747.40 1643.28 1855.52 2151.18 4320.09 6717.93 7997.93 4208.49 2991.95 2536.11 2850.72 1323.84 342.81 281.50 229.97 207.94 178.19 120.15 28.29 -131.92 -258.27 -538.78 -926.63 -1340.95 -1579.69 -1769.56 -1834.12 -1859.63 -1875.74 -1891.07 -1996.72 -2190.15 -2493.87 -2756.55 -3254.14 -3628.69 -3823.16 -3851.67 -3865.66 -3867.78 -3867.84
-5613.10 -5613.43 -5611.79 -5609.48 -5605.83 -5606.41 -5603.08 -5604.02 -5602.77 -5600.58 -5603.19 -5598.82 -5595.66 -5593.89 -5598.41 -5605.35 -5601.10 -5605.98 -5602.60 -5598.63 -5574.73 -5564.43 -5533.27 -5522.94 -5526.04 -5530.37 -5524.21 -5503.03 -5429.18 -5100.82 -3570.56 -2285.56 -1282.86 -452.90 -44.55 176.31 293.91 317.06 348.21 415.78 427.46 379.41 362.53 376.69 409.53 393.74 431.80 424.67 369.28 313.37 272.15 163.10 -30.61 -123.47 -176.94 -301.89 -309.59 -486.27 -513.82 -546.41 -628.64 -523.43 -514.04 -739.59 -597.53 -926.96 -852.00 -611.07 -393.77 -22.50 238.07 313.88 313.97 320.99 297.50 288.49 241.39 193.55 159.95 155.42 147.44 150.55 143.22 139.78 142.62 148.27 154.19 165.39 186.52 206.43 219.79 232.07 241.03 245.49 245.42 246.46 246.63 247.21 248.92 269.07 260.99 506.08 1651.57 2724.44 3313.17 7140.18 7725.66 7522.66 6376.31 3299.44 3094.76 1235.19 499.28 271.53 240.75 230.38 195.56 142.16 58.52 -63.45 -315.67 -649.92 -1020.71 -1334.72 -1568.02 -1764.45 -1858.47 -1871.11 -1874.18 -1898.96 -1975.67 -2053.28 -2340.50 -2608.89 -3044.04 -3558.70 -3752.24 -3865.21 -3867.42 -3866.75 -3866.56
-5604.03 -5603.98 -5601.15 -5601.46 -5601.08 -5599.16 -5599.16 -5608.36 -5619.60 -5628.75 -5621.33 -5618.59 -5619.58 -5609.88 -5599.77 -5584.25 -5581.33 -5572.44 -5575.37 -5564.81 -5558.86 -5544.55 -5536.49 -5536.67 -5541.13 -5544.18 -5558.54 -5552.58 -5426.83 -5142.84 -3835.12 -2441.60 -1157.72 -359.32 -26.88 246.75 301.64 331.30 328.96 395.72 411.76 398.93 418.10 436.31 501.28 474.67 519.83 470.16 372.41 321.81 274.05 181.03 91.56 30.65 -18.34 -88.34 -128.31 -122.76 -202.67 -250.97 -167.17 -141.62 -170.99 -256.90 -175.65 -211.23 -243.86 -71.31 158.70 244.44 285.59 303.76 297.78 295.03 248.90 239.34 214.40 167.77 153.05 149.27 144.38 142.42 138.90 138.81 141.70 147.86 153.48 162.80 186.07 206.29 220.31 230.58 233.60 240.12 244.25 244.55 244.98 244.94 246.16 249.15 254.80 440.17 1841.61 2551.74 2612.31 4478.18 6467.67 7782.54 6965.23 5403.80 2579.29 1805.26 489.27 279.08 243.52 230.45 201.57 149.42 93.97 -95.94 -310.95 -745.98 -1013.95 -1342.44 -1671.78 -1817.20 -1857.30 -1874.96 -1877.49 -1901.07 -1940.47 -2121.98 -2379.69 -2769.02 -3350.14 -3671.74 -3851.57 -3857.57 -3865.53 -3865.55 -3865.61
-5594.18 -5594.13 -5592.55 -5591.88 -5590.40 -5590.60 -5594.92 -5613.91 -5639.59 -5644.23 -5647.60 -5643.89 -5642.23 -5627.64 -5601.51 -5571.83 -5553.25 -5542.59 -5530.96 -5532.17 -5531.45 -5532.99 -5537.41 -5540.77 -5544.79 -5552.22 -5565.44 -5582.00 -5502.26 -5084.53 -3547.04 -1817.87 -426.54 -115.93 225.76 251.64 322.20 395.48 417.17 417.15 407.41 419.21 449.95 516.02 611.86 701.72 680.56 565.88 441.78 327.99 263.70 255.78 207.30 137.29 43.33 15.41 -3.30 17.58 -23.72 -8.30 24.53 17.73 67.01 49.90 74.92 264.05 274.67 224.83 317.58 342.21 288.43 289.34 235.52 171.20 164.85 184.58 172.62 145.69 148.93 148.35 145.22 140.89 138.37 138.71 142.03 147.82 154.70 166.98 185.42 205.73 218.80 222.60 225.96 238.34 239.74 241.67 243.23 243.73 244.28 245.28 253.23 316.97 888.70 1700.41 1923.41 2786.38 5066.91 7240.26 6924.66 5743.61 2744.97 1761.43 596.90 286.21 249.61 234.83 200.48 168.97 87.45 -91.77 -356.69 -882.88 -1012.67 -1376.44 -1644.49 -1792.90 -1862.03 -1872.75 -1876.70 -1889.74 -1948.26 -2060.93 -2296.49 -2831.29 -3439.85 -3809.54 -3856.01 -3865.94 -3860.98 -3862.87 -3862.94
-5584.22 -5584.16 -5581.90 -5582.90 -5584.64 -5585.32 -5591.43 -5608.58 -5640.01 -5649.72 -5653.62 -5652.40 -5647.75 -5630.68 -5605.26 -5562.12 -5536.98 -5524.79 -5522.05 -5520.09 -5521.62 -5532.20 -5537.81 -5542.46 -5547.10 -5551.15 -5537.38 -5438.51 -5309.57 -3175.01 -2027.40 -799.20 -296.38 141.34 296.26 315.85 342.27 424.50 473.31 467.53 465.97 467.71 467.46 544.64 658.89 770.14 792.21 670.87 551.02 382.67 271.22 267.12 253.37 224.80 142.00 122.37 80.15 74.00 89.73 148.16 162.41 157.54 182.12 211.68 269.70 304.26 325.33 375.94 376.38 291.02 245.27 178.09 110.57 135.66 145.23 141.71 144.13 160.48 155.27 147.90 145.34 141.64 133.39 135.24 135.45 142.12 157.83 171.12 188.65 200.06 213.31 221.30 226.47 234.89 237.04 238.86 240.63 243.00 244.07 247.17 251.58 321.21 440.47 1092.85 2115.38 2430.46 4408.84 6060.09 6255.96 3766.15 2420.70 1662.87 1318.37 295.29 264.23 240.15 218.39 157.41 43.98 -110.64 -335.90 -733.33 -1112.73 -1355.47 -1592.66 -1712.35 -1833.84 -1870.53 -1875.75 -1888.34 -1944.18 -2054.84 -2200.07 -2630.42 -3114.53 -3682.18 -3825.84 -3856.23 -3854.60 -3862.64 -3862.71
-5573.83 -5574.66 -5574.89 -5574.83 -5574.94 -5576.61 -5587.01 -5602.65 -5627.80 -5645.76 -5651.48 -5650.25 -5645.94 -5633.84 -5596.89 -5562.67 -5534.33 -5523.71 -5521.56 -5521.08 -5525.01 -5536.04 -5541.77 -5539.22 -5536.49 -5485.50 -5362.97 -4412.91 -3547.56 -2442.72 -869.73 -761.77 -72.43 179.15 305.67 318.70 337.64 407.69 460.91 495.71 502.22 541.94 507.54 555.48 635.10 762.54 799.60 706.92 491.19 372.74 304.32 272.36 255.90 252.72 226.28 188.63 146.67 158.88 211.86 199.10 212.81 238.96 290.17 308.33 358.40 391.36 367.99 352.88 301.19 244.77 159.84 125.07 127.47 126.94 120.88 111.02 118.62 144.98 152.44 145.98 144.96 141.18 136.92 135.88 134.57 141.63 158.52 171.84 184.24 197.63 211.36 218.18 224.07 231.31 232.89 237.98 239.75 240.73 242.84 246.73 251.51 260.43 352.34 1098.03 2234.09 2008.88 3369.06 7864.78 7832.93 4797.49 3489.64 3124.21 1989.72 311.21 261.74 246.09 231.85 193.69 104.19 -5.09 -282.47 -832.72 -874.34 -1338.06 -1435.90 -1717.19 -1814.01 -1869.51 -1878.12 -1894.41 -1935.79 -1992.63 -2155.97 -2640.58 -2904.56 -3528.35 -3747.64 -3848.49 -3855.72 -3861.27 -3862.09
-5562.75 -5562.69 -5562.53 -5565.21 -5566.63 -5567.80 -5577.78 -5593.24 -5617.61 -5638.44 -5640.80 -5643.88 -5636.45 -5621.95 -5581.44 -5563.32 -5538.11 -5528.11 -5527.68 -5526.90 -5531.23 -5539.88 -5534.83 -5529.20 -5422.54 -5361.07 -5102.69 -3912.81 -2946.35 -1338.97 -627.82 -134.52 168.24 272.40 297.37 336.29 351.23 407.80 423.20 471.39 539.61 563.07 534.58 597.77 670.10 750.63 796.71 689.67 588.97 485.59 298.69 281.30 269.21 260.46 253.64 234.57 220.21 239.59 248.69 265.43 295.94 355.68 398.43 400.05 400.95 349.98 318.72 222.96 203.87 167.16 128.90 126.58 126.47 121.41 115.24 120.22 141.39 149.28 147.32 143.86 140.68 139.43 137.55 132.43 135.45 137.59 148.07 164.18 189.47 201.73 209.67 216.54 222.87 228.55 231.59 235.18 238.08 239.85 242.67 245.73 250.02 253.51 261.87 608.81 1331.87 2079.83 4090.27 7272.70 7605.51 4856.17 3775.45 3604.00 2081.95 478.21 280.18 251.29 242.33 211.70 110.98 54.08 -152.55 -470.92 -968.64 -1237.79 -1330.12 -1717.38 -1812.69 -1869.87 -1883.08 -1894.42 -1973.55 -2089.99 -2241.14 -2561.96 -2982.49 -3476.67 -3687.67 -3843.06 -3855.17 -3861.97 -3862.04
-5550.90 -5550.84 -5549.19 -5553.20 -5554.09 -5558.45 -5560.22 -5583.62 -5598.90 -5605.12 -5610.64 -5620.49 -5620.47 -5613.78 -5585.94 -5553.95 -5544.55 -5539.92 -5540.38 -5537.91 -5535.10 -5519.72 -5439.65 -5412.76 -5088.39 -4472.67 -3949.46 -3118.11 -2141.11 -789.60 -365.51 43.66 222.49 285.30 314.09 338.54 377.56 405.90 430.66 472.33 537.69 589.09 622.09 623.58 653.89 676.52 730.53 727.89 554.98 440.00 349.11 288.23 285.78 270.64 256.83 258.52 251.84 258.68 300.72 318.25 366.76 432.79 464.50 417.37 329.25 294.85 286.10 143.03 120.93 165.33 148.13 118.83 120.54 120.07 117.31 124.22 143.92 141.20 143.59 140.70 139.75 138.68 138.43 133.32 135.12 145.09 151.58 165.37 182.51 198.95 207.97 214.74 219.28 226.31 229.68 231.45 235.22 238.82 242.50 243.71 247.08 250.95 259.26 784.94 1726.60 2004.88 4466.42 6922.38 7515.27 6206.62 3163.14 2069.07 1172.33 887.75 276.82 255.16 234.30 212.19 186.21 92.76 -24.69 -286.51 -628.15 -996.25 -1365.41 -1592.57 -1831.52 -1857.90 -1871.36 -1915.53 -1997.81 -2160.11 -2364.85 -2546.55 -2978.98 -3241.47 -3708.94 -3842.68 -3852.43 -3862.16 -3862.23
-5538.83 -5538.77 -5540.04 -5541.81 -5543.71 -5546.35 -5553.11 -5557.97 -5570.38 -5577.47 -5583.06 -5593.78 -5586.80 -5589.05 -5574.49 -5560.09 -5555.70 -5554.79 -5545.15 -5524.30 -5494.95 -5423.97 -5315.51 -4981.11 -4056.71 -3764.57 -2537.12 -2077.73 -1057.90 -463.13 -220.48 163.80 263.32 312.90 324.90 344.74 389.08 411.16 432.89 464.39 499.13 548.86 588.03 608.59 611.94 630.42 669.99 692.52 639.37 493.22 405.82 312.95 289.97 284.18 282.80 281.64 281.63 296.96 330.42 434.16 464.26 495.73 426.44 332.84 297.03 249.98 185.58 103.85 103.32 144.81 128.55 113.58 119.39 119.41 117.57 129.19 139.58 137.47 140.52 138.59 134.84 135.52 137.88 132.10 136.06 147.28 163.57 167.88 185.42 199.92 203.81 212.17 218.83 223.75 228.11 230.10 233.72 237.77 240.49 242.57 246.43 250.68 257.57 401.89 1304.42 1667.43 3167.52 3883.45 6666.60 7006.19 5111.39 2983.30 2295.86 955.30 280.52 250.18 230.64 196.54 172.29 92.84 -25.15 -392.75 -683.23 -977.36 -1242.05 -1586.40 -1775.82 -1838.30 -1867.82 -1933.69 -2057.96 -2189.28 -2337.00 -2592.12 -2932.44 -3245.85 -3494.14 -3786.46 -3846.47 -3862.65 -3862.72
-5527.80 -5528.75 -5529.08 -5534.04 -5535.03 -5536.33 -5538.00 -5546.18 -5549.60 -5551.31 -5547.67 -5555.40 -5561.60 -5563.83 -5563.45 -5558.57 -5556.29 -5553.36 -5545.72 -5444.07 -5317.51 -5014.76 -4418.91 -3806.12 -3192.66 -2275.86 -1787.06 -1342.89 -862.15 -346.03 6.51 227.53 307.82 335.88 333.18 368.61 394.20 413.18 433.33 459.67 491.15 514.79 568.58 587.29 578.23 593.40 624.24 634.82 616.83 524.09 391.74 338.33 301.33 295.40 299.25 300.77 293.72 314.25 391.10 501.36 484.59 447.16 355.61 289.66 264.66 225.75 124.50 110.40 109.42 109.62 106.23 114.05 118.66 119.70 118.91 124.99 132.39 141.59 129.61 134.07 133.99 131.61 133.47 132.23 137.13 144.88 159.53 166.51 183.52 194.38 203.61 208.38 215.09 220.34 227.01 231.10 233.71 238.45 240.91 242.62 245.69 253.10 261.65 433.97 892.81 1522.66 3360.66 5436.87 7470.52 6803.45 4414.19 2865.25 1984.92 819.88 339.97 243.64 232.17 193.65 170.30 92.50 -47.81 -333.49 -739.67 -809.48 -1185.63 -1496.44 -1674.78 -1808.65 -1877.88 -1921.38 -1997.54 -2166.06 -2370.53 -2536.89 -2742.00 -3075.82 -3475.35 -3740.03 -3833.08 -3855.72 -3855.79
-5518.59 -5518.52 -5519.81 -5522.32 -5521.97 -5529.09 -5530.09 -5531.78 -5532.71 -5535.72 -5540.46 -5545.99 -5550.77 -5556.63 -5556.66 -5539.77 -5535.41 -5510.81 -5298.34 -5221.43 -4752.75 -4208.54 -3558.29 -2580.22 -2044.83 -1587.19 -1351.12 -1048.69 -547.35 52.09 208.98 294.73 317.99 358.04 360.96 375.86 395.62 407.27 424.97 453.27 495.83 528.73 561.25 583.75 562.11 567.66 557.02 558.63 509.95 494.06 409.61 363.36 338.67 324.52 312.15 326.83 328.88 364.58 452.09 485.49 406.62 354.32 332.92 269.88 245.88 144.10 110.19 115.50 115.62 113.74 114.47 118.90 120.28 120.81 121.57 120.21 124.55 138.45 133.73 134.27 124.87 125.91 129.13 130.59 136.84 142.04 151.41 166.47 179.17 190.87 199.86 205.00 214.67 220.32 223.97 232.10 234.81 238.37 241.56 244.13 248.27 253.63 265.61 359.16 1024.86 1763.70 3275.64 5981.54 7346.25 6758.23 4608.88 2297.80 1693.72 660.59 353.39 248.58 229.65 197.86 159.03 29.45 -209.08 -241.83 -474.23 -792.73 -1008.11 -1527.97 -1730.46 -1780.75 -1847.56 -1915.46 -1987.52 -2109.46 -2402.85 -2603.11 -2847.42 -3106.60 -3471.76 -3685.21 -3815.09 -3853.75 -3853.82
-5511.48 -5511.41 -5511.92 -5514.99 -5516.98 -5519.70 -5520.96 -5526.10 -5527.15 -5532.18 -5536.68 -5540.60 -5548.24 -5544.35 -5524.24 -5490.93 -5336.58 -5169.66 -4778.07 -4120.45 -3509.67 -3211.27 -2221.63 -1707.97 -1632.83 -1315.91 -998.77 -630.73 -26.56 206.49 320.84 334.32 352.16 395.63 392.32 402.99 409.64 413.65 439.78 455.68 514.08 540.11 578.21 573.85 534.64 531.06 517.20 498.32 486.69 463.11 441.61 397.14 347.90 336.23 331.04 341.82 354.14 391.96 449.03 450.83 398.48 354.48 318.05 268.06 254.17 147.35 120.10 115.72 116.08 118.02 118.83 120.63 121.60 119.47 120.23 122.54 122.24 122.11 129.91 134.47 123.02 125.47 128.07 130.00 136.83 142.29 150.63 166.86 180.85 190.17 196.32 200.09 209.47 216.62 222.70 230.36 237.26 240.04 241.46 242.75 245.41 249.10 284.47 361.96 1219.33 1282.78 2341.42 4105.41 6797.43 7774.44 4221.43 2061.47 1867.78 1164.98 328.44 261.43 235.37 216.97 128.68 6.44 -289.65 -414.30 -613.48 -932.37 -1134.87 -1465.07 -1691.02 -1761.93 -1842.90 -1914.60 -1986.39 -2030.29 -2293.65 -2638.70 -2863.83 -3077.54 -3340.59 -3661.93 -3738.80 -3810.02 -3810.06
-5507.14 -5507.38 -5508.27 -5510.10 -5513.35 -5515.43 -5519.18 -5521.06 -5524.48 -5527.02 -5531.86 -5529.43 -5513.90 -5479.49 -5435.57 -5144.43 -4782.64 -3997.44 -3425.95 -3075.90 -2928.07 -1889.36 -1666.55 -1411.20 -1286.24 -995.18 -668.28 -160.23 178.88 306.41 367.01 409.41 436.13 463.82 444.54 419.45 419.79 428.21 453.99 466.54 509.96 550.40 564.92 544.55 518.21 500.47 487.22 479.46 460.18 447.96 411.98 389.90 363.19 349.88 349.59 350.12 364.08 406.97 429.01 396.60 359.44 339.49 305.40 269.69 252.15 172.12 122.78 105.92 109.79 118.87 120.97 121.82 122.21 118.32 117.39 120.49 128.09 127.22 127.60 132.95 127.54 126.57 128.46 130.39 139.12 147.96 154.03 167.72 174.66 187.38 193.79 196.35 204.10 215.04 218.81 228.85 235.24 239.92 242.55 243.12 243.99 245.62 314.75 388.79 785.24 2039.74 3456.75 5167.33 6859.22 7319.91 5341.52 3675.27 2309.84 1360.88 319.52 259.38 242.94 227.86 117.57 -130.11 -353.46 -579.52 -712.05 -1067.87 -1392.35 -1606.08 -1705.04 -1823.33 -1847.95 -1891.08 -1916.79 -2018.55 -2187.48 -2419.27 -2762.80 -2985.35 -3299.79 -3508.20 -3702.51 -3799.46 -3799.53
-5507.48 -5507.40 -5509.23 -5510.64 -5512.58 -5515.65 -5518.85 -5520.29 -5516.32 -5514.60 -5503.34 -5470.75 -5415.35 -5177.49 -4698.88 -4175.25 -3393.90 -2952.49 -2362.07 -1960.59 -1593.51 -1397.10 -1351.40 -1232.70 -1042.47 -746.14 -184.81 148.32 252.85 324.43 363.93 413.06 453.31 480.04 466.83 452.19 450.75 446.48 465.72 481.94 515.41 550.99 564.92 552.62 516.20 485.02 464.92 444.41 431.82 425.59 397.05 387.50 372.58 363.11 375.19 375.98 387.07 405.39 414.10 395.38 378.76 345.47 327.52 295.74 264.00 220.95 146.09 94.87 107.10 118.80 119.54 117.61 119.09 119.32 118.94 123.13 129.24 128.48 127.29 127.42 122.95 123.69 125.85 130.89 138.72 148.71 157.60 163.20 171.17 181.42 187.88 195.59 201.49 210.24 217.00 226.51 234.84 239.06 243.40 243.67 243.83 245.11 295.74 340.23 657.54 1607.92 2870.09 4765.44 7050.71 6037.65 3887.42 3248.63 2074.62 1295.72 318.89 264.35 244.24 193.24 83.52 -133.01 -301.36 -646.35 -901.83 -1123.34 -1479.79 -1614.26 -1743.41 -1819.71 -1852.82 -1874.15 -1914.51 -1956.11 -2131.31 -2358.36 -2661.45 -2955.37 -3179.34 -3511.34 -3709.55 -3798.92 -3798.94
-5515.14 -5515.06 -5517.32 -5517.60 -5518.48 -5522.44 -5527.88 -5523.58 -5514.95 -5502.69 -5459.38 -5293.58 -4883.03 -4696.33 -4104.98 -3312.89 -2736.35 -2060.96 -1718.24 -1580.36 -1368.50 -1289.95 -1276.48 -1214.02 -954.13 -419.49 -18.69 220.20 289.48 321.05 352.29 386.45 426.51 457.08 491.71 470.16 465.29 469.82 470.03 499.84 522.60 551.84 570.21 549.15 514.03 475.74 448.60 435.93 419.77 410.35 400.15 390.00 384.60 382.62 394.37 405.15 418.64 435.64 433.65 420.44 437.42 385.24 315.96 298.22 285.37 254.03 223.72 126.46 106.41 117.41 119.53 119.16 120.36 119.59 118.42 125.00 128.57 128.08 128.79 127.34 122.14 122.96 125.25 131.79 138.63 146.21 153.24 160.36 169.25 176.71 182.29 192.44 198.76 205.68 215.86 221.40 231.18 237.56 244.10 244.62 245.47 245.78 287.52 358.11 1421.97 2685.38 3266.21 5619.33 7050.12 6646.69 4301.35 3422.30 1394.10 648.17 342.69 256.43 241.53 211.02 110.10 -67.42 -193.66 -501.28 -660.23 -1034.27 -1357.50 -1623.01 -1780.19 -1809.87 -1853.06 -1868.88 -1894.84 -1949.79 -2058.16 -2274.94 -2516.13 -2791.64 -3175.88 -3361.35 -3648.11 -3798.72 -3798.80
-5533.25 -5533.16 -5533.00 -5534.20 -5542.36 -5547.14 -5545.48 -5543.30 -5524.01 -5502.15 -5400.71 -5077.39 -4341.41 -3509.06 -2619.33 -2419.20 -2070.29 -1880.76 -1658.30 -1512.05 -1363.98 -1292.08 -1310.73 -1185.38 -806.36 -350.22 -12.33 244.27 289.34 311.92 361.68 401.79 420.53 446.55 475.81 496.91 505.27 493.96 502.55 533.62 541.56 546.56 570.32 550.78 498.31 471.70 447.81 422.65 409.46 398.51 391.24 388.51 395.95 402.56 402.08 426.32 442.46 465.47 480.12 455.45 468.19 442.79 374.16 307.28 285.97 257.88 233.44 144.87 118.02 120.74 119.16 118.65 119.71 122.69 122.80 127.31 127.50 128.13 128.86 125.57 122.34 123.80 126.67 131.46 142.37 145.96 151.74 156.80 163.49 172.05 179.93 185.33 193.51 200.98 211.49 221.27 231.43 240.88 244.88 246.27 246.11 247.48 273.23 524.34 2501.43 3227.22 4690.83 5973.92 7228.07 5772.85 4305.19 3781.55 1842.90 656.42 322.67 259.97 247.36 204.83 156.38 41.16 -123.00 -412.79 -555.73 -944.08 -1243.53 -1545.47 -1718.16 -1785.10 -1837.04 -1870.66 -1894.11 -1924.50 -2035.38 -2181.04 -2411.99 -2691.96 -3059.56 -3331.17 -3645.55 -3799.03 -3799.11
-5567.90 -5567.05 -5567.44 -5564.22 -5570.14 -5572.24 -5578.40 -5568.96 -5513.17 -5468.80 -5221.41 -4785.32 -3576.86 -2834.83 -2239.55 -1945.88 -1895.62 -1848.45 -1723.42 -1528.36 -1417.42 -1343.78 -1309.24 -1106.49 -722.10 -259.44 88.58 274.62 280.34 321.82 362.44 402.25 427.99 481.54 523.68 519.32 523.91 538.34 529.78 535.80 543.50 564.38 565.59 532.07 486.15 450.24 432.07 413.87 402.45 385.07 381.47 381.65 389.33 419.03 434.92 469.12 489.87 512.43 526.44 490.10 530.86 575.47 394.75 360.80 320.08 267.26 202.32 104.18 119.15 126.29 122.84 121.18 120.74 124.90 125.56 118.71 122.33 128.23 129.13 124.65 122.17 123.88 129.56 136.50 141.68 145.51 149.76 155.23 159.12 166.34 173.17 183.84 193.81 202.97 211.72 218.39 229.32 243.97 247.49 247.28 246.88 252.49 282.95 716.74 1899.96 2771.28 4418.14 6133.39 7027.57 5132.72 2944.46 3983.15 1621.89 411.90 310.86 252.17 234.08 214.36 143.59 97.26 -59.77 -188.23 -463.87 -898.57 -1171.56 -1496.69 -1646.94 -1767.12 -1841.33 -1866.74 -1904.69 -1940.66 -2021.38 -2141.09 -2308.76 -2573.37 -2947.08 -3331.41 -3648.11 -3800.85 -3800.93
-5627.99 -5627.86 -5621.17 -5596.57 -5581.55 -5567.26 -5495.48 -5446.40 -5378.00 -4921.92 -4404.44 -3852.33 -3089.48 -2131.05 -1865.61 -1733.85 -1783.67 -1809.46 -1747.47 -1479.68 -1358.67 -1319.84 -1289.61 -1094.00 -872.82 -388.72 -49.34 219.76 278.61 324.00 359.59 371.92 406.39 461.63 533.08 544.21 547.23 559.51 554.82 549.88 545.44 566.55 536.59 514.89 492.97 437.51 408.21 389.90 386.06 377.13 358.99 357.34 372.53 392.40 453.40 469.99 522.92 560.74 577.12 579.84 601.43 594.61 503.96 449.72 364.63 305.37 265.90 234.14 151.97 129.44 121.94 109.51 124.40 129.78 125.00 119.69 124.99 130.33 128.31 122.54 121.57 123.48 128.34 135.52 140.65 146.48 150.65 154.16 158.02 164.14 172.08 184.25 196.49 208.06 215.12 223.63 234.31 241.95 248.54 250.10 254.40 286.45 504.02 867.03 1687.63 2080.71 3171.92 5604.97 6518.64 4543.39 2091.34 1227.25 835.91 326.73 275.21 249.65 231.47 213.85 162.84 94.49 3.84 -144.89 -590.20 -931.93 -1103.56 -1404.05 -1517.23 -1700.91 -1799.58 -1863.34 -1925.52 -1965.00 -2045.35 -2171.54 -2362.79 -2517.83 -2930.86 -3107.66 -3646.08 -3801.12 -3801.20
-5652.34 -5649.68 -5546.12 -5340.04 -5294.04 -5279.76 -5083.88 -4652.66 -4413.88 -3944.86 -3229.28 -2459.14 -2335.06 -1980.72 -1832.64 -1759.39 -1766.83 -1731.28 -1598.47 -1193.10 -1155.27 -1092.44 -1074.46 -1027.73 -990.53 -523.28 26.66 253.67 270.61 312.10 365.64 391.00 442.74 508.23 568.90 581.03 575.86 571.57 580.88 578.49 563.55 554.40 530.95 481.09 441.00 421.54 385.76 371.47 368.30 342.49 343.50 338.39 353.74 363.77 423.16 420.83 488.45 536.71 593.99 601.21 619.51 635.26 595.88 489.77 449.92 350.52 303.35 257.76 203.07 164.07 127.83 122.99 131.34 128.10 122.82 124.49 116.21 124.00 122.48 120.63 121.20 122.14 123.89 129.81 136.90 140.24 147.08 153.38 160.62 167.12 174.05 186.34 194.09 209.16 219.21 225.69 236.74 244.00 251.39 255.84 262.13 371.02 650.52 2084.05 2799.53 3742.36 5037.70 6272.71 6959.23 4362.97 2788.69 2022.52 856.43 321.51 277.78 247.17 233.50 211.00 167.21 118.95 15.72 -201.48 -452.69 -716.75 -1015.41 -1370.59 -1593.14 -1749.22 -1829.04 -1891.25 -1936.04 -2014.71 -2099.45 -2195.87 -2405.13 -2652.07 -2912.92 -3189.67 -3568.78 -3823.79 -3823.89
-5134.43 -5134.96 -4722.94 -4638.81 -4488.34 -4085.67 -3849.34 -3351.81 -2873.45 -2493.79 -2432.92 -2152.89 -1980.46 -1919.29 -1908.19 -1894.29 -1839.11 -1681.06 -1469.05 -1081.12 -694.30 -638.79 -750.91 -834.62 -777.59 -310.15 86.81 248.84 283.32 326.72 356.70 418.13 472.90 520.98 572.43 602.70 607.84 590.66 585.39 604.28 608.04 589.35 544.00 501.19 476.61 422.35 380.29 341.08 340.22 334.57 329.89 326.39 339.94 349.45 363.99 386.95 425.98 461.37 517.77 562.88 567.54 587.38 598.34 521.71 422.00 324.30 300.87 298.83 252.76 222.38 171.11 135.53 126.46 122.25 123.52 123.67 121.64 126.73 126.94 123.04 119.95 121.12 121.96 124.82 132.09 134.17 142.31 153.84 167.81 170.35 180.50 189.69 196.21 210.70 223.14 228.70 239.09 246.44 254.13 270.38 306.50 455.07 1337.97 2199.98 2857.26 4858.14 6078.26 7147.17 6374.85 4524.25 2905.98 2141.36 557.36 280.99 251.20 245.84 239.28 224.50 197.17 130.31 2.81 -180.33 -420.14 -722.89 -985.76 -1276.39 -1567.46 -1733.81 -1855.64 -1915.26 -1926.67 -1985.58 -2074.41 -2254.02 -2509.76 -2775.31 -3183.30 -3363.62 -3656.35 -3825.28 -3825.37
-3589.27 -3591.39 -3543.96 -3210.46 -3264.65 -2648.58 -2578.57 -2301.10 -2232.89 -2042.64 -1951.31 -1933.75 -1941.65 -1951.24 -1955.97 -1971.71 -1915.36 -1754.09 -1420.48 -1109.20 -483.16 -431.43 -432.61 -558.19 -401.24 -133.17 81.93 273.63 297.02 326.15 353.56 409.96 457.01 486.31 534.61 580.82 626.07 646.74 630.94 643.90 654.51 641.84 574.09 534.84 481.55 409.11 362.02 341.08 339.06 326.66 322.53 315.52 326.89 340.79 342.60 359.27 374.84 413.64 453.16 510.63 514.60 544.22 535.87 479.04 417.36 358.06 314.95 301.01 265.10 252.58 205.31 129.61 112.47 115.23 124.76 121.69 126.29 128.37 127.11 121.38 118.24 119.00 121.20 122.41 123.64 131.10 138.73 153.07 162.83 182.10 188.81 195.55 209.07 217.62 229.61 238.68 244.23 253.12 263.08 273.82 364.39 1047.89 1937.50 2031.22 3303.15 5586.47 6403.34 5370.22 5399.69 3493.34 2915.51 1081.54 437.74 265.31 252.37 247.51 243.59 230.63 206.68 109.84 1.94 -180.68 -438.43 -720.94 -845.36 -1181.18 -1507.80 -1779.58 -1865.94 -1915.83 -1933.22 -1988.76 -2137.46 -2335.06 -2631.42 -2937.49 -3301.26 -3631.42 -3708.42 -3824.68 -3824.77
-2346.04 -2348.20 -2385.22 -2486.01 -2322.94 -2241.90 -2136.68 -2038.98 -1966.98 -1938.99 -1933.38 -1941.55 -1956.59 -1974.02 -1990.37 -2006.38 -1988.98 -1862.79 -1662.84 -1227.47 -607.38 -291.40 -276.21 -296.82 -153.50 43.35 149.79 266.15 287.74 322.92 355.83 416.29 492.57 550.77 606.48 638.28 670.09 668.82 673.95 664.49 676.96 662.61 631.96 537.59 479.44 409.57 360.02 338.20 331.81 314.94 313.02 305.59 311.60 325.33 335.31 336.69 359.72 385.26 442.87 451.76 481.26 517.94 513.10 497.97 489.28 423.57 344.46 313.13 273.48 256.62 223.17 151.83 131.37 130.05 125.04 119.18 128.35 127.32 127.83 126.19 124.01 118.04 119.10 119.66 123.87 127.48 138.52 154.80 170.62 181.04 190.52 196.51 212.38 226.99 235.52 240.76 247.55 252.37 273.87 321.37 396.80 2507.43 3093.77 3230.39 4803.12 6010.03 5292.93 3485.44 4118.32 2089.43 1483.89 638.18 309.50 267.77 253.05 250.38 244.24 227.48 194.52 137.14 30.18 -155.46 -344.19 -669.18 -808.46 -1217.34 -1477.19 -1768.80 -1883.35 -1915.72 -1941.62 -2042.57 -2241.19 -2534.77 -2858.88 -3136.75 -3487.30 -3688.74 -3802.05 -3828.81 -3828.91
-2075.76 -2076.30 -2106.40 -2106.68 -2080.25 -2059.54 -2049.13 -2028.34 -1980.68 -1960.58 -1955.82 -1961.85 -1975.24 -1985.15 -2006.37 -2024.61 -1995.48 -1907.92 -1748.44 -1168.65 -1022.32 -540.43 -298.44 -181.13 -72.42 34.40 145.87 246.34 278.42 303.19 354.84 416.79 490.53 534.59 632.44 649.49 655.89 696.84 684.53 671.27 678.36 678.33 627.51 517.37 452.00 388.93 353.17 330.40 318.55 311.60 306.23 299.39 299.84 310.18 311.08 336.31 355.49 376.95 411.67 443.98 469.18 478.67 500.75 516.20 480.05 425.63 343.25 324.15 285.84 261.75 239.08 201.06 174.02 149.17 134.25 124.53 134.79 133.30 132.53 130.46 126.82 119.61 117.97 117.04 118.90 121.40 134.91 153.98 167.91 187.79 190.34 203.50 211.96 224.47 232.03 246.44 247.13 259.69 299.04 394.20 759.81 3273.07 4398.37 5180.00 6991.35 6385.26 4913.43 3065.94 1924.92 1759.87 1026.96 380.99 322.62 270.15 253.23 249.98 240.27 215.27 177.30 109.54 13.15 -167.60 -407.98 -670.12 -934.36 -1238.28 -1560.99 -1750.78 -1886.89 -1919.29 -1989.09 -2087.21 -2216.88 -2567.26 -3057.66 -3271.77 -3615.14 -3781.38 -3807.87 -3829.28 -3829.37
-2104.36 -2104.08 -2106.00 -2099.24 -2099.16 -2093.41 -2080.02 -2042.16 -2013.13 -1981.98 -1974.43 -1975.18 -1984.11 -1996.95 -2010.74 -2026.44 -2002.46 -1942.69 -1693.10 -1318.73 -845.62 -573.64 -340.83 -112.41 -51.96 20.77 120.15 165.11 248.18 287.12 324.80 377.27 417.04 513.82 537.92 517.33 591.53 636.13 622.97 582.95 606.41 623.40 547.65 528.40 426.14 377.55 324.53 315.24 305.34 299.79 295.08 291.42 293.98 302.84 311.62 326.47 355.11 370.18 399.20 433.16 451.52 477.62 490.67 495.13 436.57 373.30 355.18 357.48 338.90 295.23 346.48 286.17 198.82 173.03 121.94 141.12 144.56 131.77 130.81 127.13 122.74 115.19 115.42 116.14 117.32 121.41 130.41 144.34 167.91 185.86 198.05 207.16 214.99 223.35 232.19 245.70 252.47 271.48 333.26 1005.32 1696.26 1902.25 2761.73 5020.48 7608.15 6845.18 5006.24 2719.39 2263.01 1008.95 533.96 374.90 287.79 252.73 251.05 251.25 245.48 214.97 183.78 97.42 -70.77 -156.66 -450.66 -727.88 -1006.47 -1243.95 -1595.05 -1727.56 -1839.62 -1927.98 -1995.48 -2107.80 -2292.55 -2554.12 -2997.90 -3339.86 -3629.57 -3774.17 -3819.06 -3830.37 -3830.47
-2138.00 -2137.67 -2130.51 -2127.11 -2119.19 -2109.38 -2094.74 -2071.69 -2035.94 -2001.47 -2001.75 -1993.01 -1993.83 -2001.19 -2015.72 -2020.19 -1999.65 -1844.45 -1623.84 -1288.01 -876.41 -570.31 -380.40 -150.78 -113.00 15.09 46.77 67.49 197.25 279.38 313.35 327.51 346.21 448.91 462.77 518.77 598.99 625.69 539.72 499.57 562.13 540.98 479.24 490.14 439.25 366.36 320.31 301.92 292.98 291.66 289.42 288.96 291.49 297.90 309.48 322.68 347.90 382.03 412.28 428.49 461.73 478.00 488.58 468.38 429.77 379.81 407.74 470.90 408.86 427.16 421.39 346.68 266.45 177.07 135.58 150.74 136.82 119.13 113.83 126.37 116.41 113.23 114.22 114.65 117.72 121.43 130.41 146.96 169.41 186.61 198.96 211.11 218.33 223.38 231.86 243.38 256.90 291.11 426.76 1644.07 2630.80 3225.57 3773.95 5826.12 6474.80 4886.07 2629.71 2754.92 1943.96 607.02 370.65 295.67 266.75 257.96 258.38 248.66 242.80 207.90 161.70 88.22 -88.37 -254.90 -526.51 -712.69 -1066.05 -1275.54 -1476.07 -1716.71 -1851.91 -1914.31 -1962.00 -2116.07 -2299.75 -2459.84 -2923.75 -3286.78 -3557.92 -3751.00 -3796.91 -3829.82 -3829.91
-2154.95 -2154.82 -2148.77 -2140.62 -2134.06 -2126.17 -2109.05 -2088.43 -2049.08 -2019.23 -2032.62 -2035.61 -2028.13 -2026.21 -2024.16 -2008.79 -1944.72 -1782.22 -1547.46 -1180.58 -622.92 -442.08 -328.90 -277.68 -187.24 -46.34 -35.06 7.99 113.85 235.24 311.39 314.03 333.68 368.64 434.61 513.87 536.82 538.22 486.06 439.22 470.80 444.88 421.43 420.48 358.70 336.29 305.84 287.40 286.06 286.24 285.82 288.15 292.17 300.37 307.97 312.84 347.76 380.87 432.09 441.08 473.50 493.44 511.79 499.25 482.11 443.50 446.87 506.14 496.69 492.01 433.21 356.59 278.56 220.96 195.85 153.21 142.21 133.99 130.57 133.40 120.45 112.33 112.88 113.47 115.49 124.79 137.53 154.76 174.10 190.67 205.39 216.83 221.77 225.88 231.13 245.77 259.63 428.55 971.86 1770.34 2240.12 4823.56 5651.61 7011.20 6314.38 3951.15 2705.34 2123.84 896.32 339.54 300.13 304.96 277.38 262.33 253.44 248.43 229.74 212.72 152.38 50.35 -86.14 -264.14 -490.54 -688.97 -1001.69 -1317.20 -1529.68 -1786.10 -1888.36 -1911.26 -1937.69 -2053.26 -2234.68 -2581.24 -2774.58 -3105.91 -3493.39 -3683.79 -3796.72 -3829.90 -3829.95
-2158.76 -2158.67 -2154.70 -2145.08 -2138.23 -2128.90 -2116.25 -2109.72 -2099.17 -2088.14 -2066.35 -2055.64 -2047.90 -2053.57 -2037.19 -1983.69 -1898.87 -1708.70 -1289.71 -855.71 -532.26 -340.22 -301.87 -288.28 -244.60 -87.05 -85.92 -69.62 83.00 230.56 280.71 289.34 289.88 319.20 362.27 398.79 423.39 428.35 466.89 407.39 389.46 413.50 377.78 360.56 345.15 304.96 293.96 280.58 279.26 282.56 284.19 290.08 296.58 300.68 311.93 323.02 357.26 398.18 437.16 456.92 496.01 517.83 533.16 532.77 514.50 498.27 492.28 508.47 475.62 423.27 367.52 316.88 263.52 241.61 187.42 121.97 148.21 134.74 129.81 121.23 110.37 111.98 112.45 113.03 117.25 126.60 141.93 157.35 175.75 195.44 203.93 214.64 226.27 230.92 239.66 259.69 363.71 392.02 2277.38 2960.24 3182.38 4997.83 7080.06 6532.07 4406.57 4205.17 2982.60 2037.93 665.40 314.89 288.09 277.11 265.06 257.22 251.41 242.99 225.26 209.81 133.16 3.41 -131.36 -257.15 -514.82 -726.75 -1037.29 -1299.98 -1639.00 -1809.93 -1888.40 -1904.76 -1953.13 -2027.93 -2204.27 -2512.46 -2721.53 -2969.92 -3337.25 -3705.64 -3819.59 -3838.16 -3838.24
-2161.72 -2161.64 -2156.43 -2149.75 -2139.70 -2132.09 -2120.07 -2113.46 -2110.78 -2105.53 -2095.33 -2087.21 -2082.22 -2068.09 -2039.23 -1973.72 -1863.00 -1628.89 -1089.81 -796.65 -519.87 -321.63 -268.86 -278.42 -260.35 -125.95 -85.33 -84.03 57.20 174.97 208.28 254.96 288.58 301.59 331.68 344.62 339.40 330.52 380.68 381.88 332.65 343.91 348.21 301.30 288.22 288.25 286.21 279.51 277.04 281.44 283.80 291.69 304.16 313.10 323.91 330.93 357.15 384.40 436.44 465.62 496.13 501.28 492.61 482.21 512.88 518.50 492.05 486.80 431.88 350.49 320.54 301.11 264.37 233.93 180.55 131.02 132.22 104.04 107.93 108.80 110.15 110.85 111.58 111.93 118.36 126.32 142.93 160.79 183.53 194.62 205.46 220.22 234.43 237.56 246.86 267.22 414.54 1535.15 2661.56 3947.45 5257.85 7242.50 7573.23 5373.56 2788.40 2032.13 1851.33 1279.40 472.78 323.76 291.90 268.63 254.18 254.00 251.59 237.97 222.12 169.25 107.11 -34.33 -168.64 -323.44 -553.20 -812.03 -1026.00 -1425.37 -1723.12 -1855.85 -1888.47 -1911.80 -1983.81 -2080.00 -2178.70 -2396.30 -2678.58 -3099.84 -3591.88 -3820.04 -3836.78 -3842.71 -3842.80
-2166.60 -2166.52 -2159.13 -2152.31 -2145.25 -2135.10 -2125.53 -2121.58 -2119.63 -2113.50 -2103.07 -2095.21 -2084.68 -2063.17 -2044.25 -1961.31 -1828.33 -1658.55 -1171.87 -840.70 -557.34 -359.33 -281.33 -256.74 -246.18 -217.00 -210.57 -83.09 -73.79 16.24 145.04 217.44 280.59 287.22 291.53 292.79 300.79 308.62 317.53 330.62 311.22 304.85 286.13 287.39 287.21 281.64 276.63 273.26 274.46 284.47 286.78 312.68 322.02 323.79 344.93 356.12 381.95 401.64 434.73 466.13 465.45 450.34 447.78 427.21 468.41 472.31 459.77 399.52 388.75 324.81 305.83 282.89 255.97 229.48 169.61 132.93 109.35 105.27 106.47 108.73 109.68 110.52 110.79 111.52 116.07 132.71 149.72 160.11 181.98 199.38 210.79 227.54 243.41 245.13 254.12 284.84 742.42 2127.51 2821.45 4531.74 6726.64 7667.60 6346.64 5485.61 3596.52 1909.54 1419.61 451.93 360.30 305.66 280.04 271.89 260.79 256.27 255.35 244.72 213.79 139.01 51.52 -78.39 -227.09 -451.64 -641.70 -976.53 -1279.35 -1584.95 -1810.53 -1877.27 -1894.47 -1922.23 -1997.79 -2070.84 -2212.15 -2446.95 -2745.03 -3291.03 -3658.64 -3823.76 -3845.53 -3842.82 -3842.90
-2171.13 -2171.05 -2164.55 -2158.41 -2152.10 -2139.35 -2131.22 -2124.84 -2120.42 -2114.17 -2101.85 -2090.42 -2079.30 -2063.34 -2025.59 -1966.91 -1869.88 -1750.65 -1428.13 -1158.11 -704.89 -493.66 -361.56 -274.43 -243.40 -249.63 -247.30 -213.44 -112.36 1.51 118.68 209.38 257.03 267.45 277.57 265.99 285.27 280.32 287.38 285.48 280.41 280.69 275.80 257.73 267.45 264.32 264.66 266.94 278.84 287.44 300.92 326.43 341.43 358.38 394.47 400.62 399.44 461.04 461.47 444.76 415.72 392.92 382.75 381.93 385.77 393.40 356.29 359.92 341.54 303.27 282.48 259.12 255.81 206.47 160.74 134.94 115.25 104.27 105.72 107.90 109.10 109.39 110.05 110.94 120.48 136.22 154.58 165.91 184.11 208.75 217.73 239.40 249.56 288.12 306.23 1185.13 1928.67 2041.86 3361.32 5824.89 6176.16 6140.86 5176.66 4401.06 2648.01 1846.56 812.10 345.11 346.38 293.61 276.35 271.27 264.16 255.85 253.84 235.76 211.21 172.50 95.68 -6.98 -187.94 -463.45 -732.36 -973.39 -1451.10 -1771.06 -1805.01 -1882.82 -1894.57 -1923.55 -1965.29 -2087.45 -2275.09 -2431.32 -2761.58 -3239.83 -3650.00 -3820.08 -3843.73 -3847.88 -3847.97
-2180.32 -2180.60 -2177.75 -2170.36 -2158.41 -2154.66 -2140.77 -2129.20 -2118.32 -2110.50 -2091.82 -2083.72 -2064.52 -2044.10 -2011.68 -1961.73 -1884.67 -1758.96 -1542.93 -1322.90 -1077.81 -730.82 -506.35 -313.61 -236.25 -214.21 -221.63 -226.73 -167.95 -22.78 99.10 128.41 208.57 230.53 231.94 205.34 254.72 256.96 252.30 272.78 266.72 251.51 238.32 229.12 230.88 235.76 261.87 262.75 284.75 298.31 317.54 344.49 353.96 392.27 411.83 470.20 470.37 491.72 466.63 412.20 382.30 367.15 347.76 345.01 339.84 332.07 336.47 313.43 311.19 294.53 273.01 255.10 231.57 174.29 117.30 111.92 102.65 103.84 105.41 105.82 107.03 108.04 109.17 112.10 118.47 131.16 157.67 167.28 180.59 211.66 226.72 248.19 262.03 316.98 624.90 1958.42 2545.98 2527.06 3328.34 6904.94 6570.47 4262.96 2544.51 3056.34 2133.78 1316.92 634.07 331.48 318.19 288.41 272.74 270.18 263.56 255.84 249.55 232.12 194.48 159.64 83.48 -67.04 -225.37 -546.38 -888.54 -1173.80 -1506.08 -1718.88 -1819.51 -1886.94 -1897.65 -1930.68 -1977.64 -2061.06 -2262.78 -2429.58 -2715.58 -3253.50 -3693.79 -3821.97 -3846.51 -3848.47 -3848.56
-2207.59 -2207.53 -2204.47 -2194.62 -2190.87 -2177.54 -2165.47 -2137.28 -2113.64 -2082.40 -2061.98 -2053.48 -2043.93 -2028.56 -1983.36 -1954.96 -1902.50 -1862.87 -1723.62 -1622.67 -1301.39 -924.54 -646.82 -398.27 -236.58 -184.01 -180.21 -185.95 -213.70 -96.78 10.49 55.89 78.62 149.27 140.57 108.87 144.87 142.54 179.87 209.79 209.91 216.41 186.07 156.09 166.63 213.84 249.71 265.96 278.66 311.32 346.53 389.91 403.98 467.02 499.11 541.83 512.64 459.22 428.09 384.09 362.41 340.91 330.23 314.01 305.63 303.36 303.66 280.06 278.40 271.79 260.21 246.84 197.69 135.61 108.99 105.95 101.61 102.83 104.15 105.05 105.75 106.03 105.91 107.48 114.72 131.68 159.61 170.91 183.84 216.40 232.52 247.63 274.63 618.70 874.01 1780.83 2645.80 3345.19 4930.48 6515.55 6419.22 3625.73 2006.84 1319.99 1618.85 849.33 330.00 321.36 300.28 284.81 270.16 263.80 258.93 255.64 248.75 232.37 203.74 164.42 72.67 -2.32 -227.19 -537.95 -907.68 -1338.85 -1575.58 -1788.32 -1877.06 -1890.41 -1894.21 -1918.75 -1964.41 -2036.89 -2303.65 -2490.89 -2834.18 -3316.78 -3731.00 -3840.61 -3851.06 -3850.22 -3850.30
-2244.83 -2245.25 -2237.12 -2225.21 -2215.40 -2202.43 -2183.81 -2153.91 -2105.38 -2057.28 -2034.55 -2024.14 -2005.46 -1985.62 -1964.78 -1936.70 -1909.31 -1882.91 -1821.80 -1642.39 -1527.98 -1183.23 -635.68 -438.59 -229.85 -161.90 -155.08 -145.95 -146.13 -87.75 -27.60 -5.80 37.60 74.71 63.50 47.89 74.32 66.83 64.69 108.74 117.42 135.73 124.79 137.06 139.74 211.66 250.00 282.19 297.74 325.25 362.83 390.61 447.41 498.12 547.93 542.81 472.35 454.26 414.38 384.04 345.55 324.17 316.17 303.22 294.65 284.75 278.05 277.00 266.90 251.04 234.23 187.30 151.25 118.32 109.47 105.27 102.18 101.68 102.57 103.97 103.61 103.83 104.22 107.05 122.68 143.41 169.03 192.47 201.43 221.35 242.72 257.75 346.50 758.30 1985.40 2910.57 4470.18 5597.82 6493.68 6144.55 5209.11 3547.31 3142.03 1824.14 820.47 579.73 310.79 306.12 295.61 277.60 263.45 261.11 258.11 255.22 246.51 231.77 207.58 178.86 102.36 17.79 -167.04 -623.64 -963.40 -1337.26 -1620.39 -1831.01 -1868.68 -1887.05 -1887.58 -1899.03 -1947.15 -2030.53 -2190.79 -2524.74 -2911.72 -3428.27 -3610.18 -3846.76 -3850.83 -3850.12 -3850.20
-2262.03 -2261.95 -2253.67 -2247.90 -2242.37 -2232.77 -2202.03 -2163.97 -2089.82 -2047.39 -2020.68 -1999.18 -1985.82 -1967.00 -1942.75 -1920.51 -1899.74 -1890.67 -1855.38 -1757.24 -1633.61 -1253.37 -844.68 -538.99 -263.19 -168.64 -137.36 -131.40 -127.38 -90.01 -47.67 -29.99 -16.07 -15.37 -7.07 4.62 30.84 31.69 39.39 59.26 53.13 85.18 114.91 130.47 146.22 211.22 264.14 289.00 300.22 315.43 345.29 374.23 468.69 515.77 539.83 522.80 450.72 411.92 395.02 370.39 338.35 313.43 300.91 283.64 277.66 269.29 264.05 266.96 229.94 218.96 195.53 156.86 132.30 112.54 107.90 99.59 99.08 99.82 100.16 101.51 101.80 101.25 103.37 111.94 127.16 155.80 183.35 191.24 208.73 219.33 243.69 270.49 479.92 1678.20 1855.25 2780.57 4135.49 6752.01 6986.17 5701.94 3367.71 2863.51 3248.96 1287.49 378.47 300.56 305.07 303.80 283.16 271.99 264.32 258.77 258.26 254.64 245.66 230.58 211.17 176.76 108.65 32.83 -192.85 -443.24 -953.61 -1334.56 -1442.99 -1758.16 -1881.53 -1886.28 -1891.01 -1912.72 -1963.96 -2042.15 -2164.62 -2486.00 -2789.77 -3252.56 -3726.49 -3846.25 -3852.05 -3852.69 -3852.77
-2259.11 -2259.03 -2254.05 -2247.50 -2242.66 -2230.32 -2209.55 -2154.08 -2089.56 -2027.16 -2007.90 -1989.59 -1976.23 -1956.97 -1938.78 -1916.92 -1896.43 -1884.71 -1838.15 -1803.81 -1577.38 -1288.40 -856.52 -504.86 -226.73 -182.50 -150.96 -173.17 -175.22 -166.94 -144.16 -83.96 -89.47 -55.22 -38.36 -10.35 -8.19 -2.55 -1.31 -7.05 22.33 49.99 100.73 113.16 123.62 219.40 253.52 284.27 306.08 328.58 373.38 431.51 448.36 516.53 538.09 497.39 433.43 413.53 379.44 359.61 325.66 314.33 288.92 279.06 271.85 261.18 253.82 200.55 170.03 173.37 171.80 150.40 123.80 129.33 109.66 97.52 98.27 98.42 98.47 99.60 99.71 100.74 106.20 119.46 142.84 156.56 175.99 202.53 216.36 242.95 258.27 512.95 1492.85 3106.72 2792.33 4535.90 5698.23 6625.63 7155.17 5838.36 3795.13 2091.06 1791.66 600.68 285.87 288.17 288.45 287.93 274.53 261.55 260.48 258.33 257.66 254.60 245.02 230.61 203.53 175.35 114.66 70.39 -78.73 -281.28 -688.84 -1267.15 -1548.45 -1745.10 -1841.81 -1885.62 -1889.85 -1912.75 -1944.16 -2078.03 -2247.57 -2383.61 -2843.57 -3349.18 -3736.69 -3830.36 -3850.88 -3852.39 -3852.82
-2249.24 -2249.16 -2246.22 -2237.89 -2232.47 -2218.05 -2194.46 -2143.45 -2079.33 -2029.25 -2004.38 -1988.74 -1975.20 -1955.28 -1932.06 -1912.39 -1891.78 -1876.37 -1837.56 -1765.47 -1494.38 -1307.25 -849.44 -491.36 -306.26 -321.65 -424.46 -348.34 -330.71 -350.23 -275.81 -223.20 -260.54 -92.14 -101.48 -66.25 -59.89 -56.09 -57.85 -35.05 16.91 45.41 86.44 97.22 100.21 135.74 242.54 289.79 314.76 316.24 367.00 467.76 471.60 521.57 534.03 490.71 425.49 399.51 369.74 342.74 315.35 305.14 285.55 268.30 260.54 244.34 242.75 194.65 152.16 130.91 138.14 124.34 102.92 110.81 110.52 97.64 97.17 97.28 97.85 98.29 98.93 99.82 103.05 109.78 141.99 169.45 186.62 206.60 229.99 242.45 285.07 603.85 968.17 2076.45 3435.90 4957.04 8050.85 7410.38 6092.55 4904.09 2799.59 2691.52 2269.11 374.43 281.16 275.91 275.92 272.49 264.36 257.36 257.35 256.97 256.00 251.58 245.90 233.14 217.99 174.70 122.11 50.68 -68.16 -253.23 -763.64 -1112.29 -1734.43 -1841.04 -1884.34 -1886.07 -1885.76 -1907.19 -1940.86 -2033.60 -2261.87 -2387.62 -2647.65 -3005.50 -3508.84 -3827.07 -3852.17 -3853.87 -3853.94
-2231.25 -2228.82 -2223.34 -2223.95 -2216.72 -2209.76 -2183.85 -2143.50 -2079.93 -2033.03 -2011.65 -1995.54 -1984.39 -1959.86 -1935.08 -1913.85 -1900.75 -1886.66 -1834.37 -1734.74 -1525.68 -1206.31 -878.22 -653.64 -606.47 -602.97 -606.24 -665.55 -753.39 -676.59 -703.67 -715.62 -685.15 -548.93 -287.37 -128.93 -106.11 -106.23 -90.85 -58.04 -2.64 37.72 64.57 66.70 89.77 143.42 245.41 289.97 333.14 357.83 406.79 463.74 517.44 553.95 536.21 492.62 452.07 418.09 385.31 337.49 315.69 298.85 281.28 265.36 252.91 222.27 199.06 173.77 141.33 116.86 107.31 99.22 96.34 95.34 95.48 95.17 95.90 96.41 96.74 96.46 97.30 98.13 98.87 106.95 137.77 174.67 202.93 216.52 236.79 251.92 345.72 463.88 1368.72 2599.15 3641.98 6013.53 7394.15 6439.82 4362.81 3458.44 1644.54 1694.68 512.54 303.75 276.96 271.81 270.17 266.89 265.12 260.61 256.05 254.79 248.44 246.64 239.34 226.15 206.87 190.02 62.20 -33.72 -144.28 -426.58 -639.13 -1141.60 -1760.09 -1874.41 -1880.84 -1884.79 -1885.14 -1913.02 -1964.21 -2033.89 -2142.77 -2381.17 -2757.94 -3135.13 -3625.01 -3827.81 -3854.13 -3854.36 -3854.44
-2195.71 -2195.61 -2198.60 -2198.68 -2188.77 -2161.35 -2158.42 -2130.71 -2081.75 -2036.84 -2023.59 -2007.29 -1996.96 -1978.49 -1957.17 -1929.04 -1915.34 -1890.85 -1869.87 -1772.81 -1624.41 -1302.19 -1079.61 -954.77 -907.50 -972.41 -1025.65 -1098.17 -1108.89 -1244.96 -1206.59 -1082.74 -1202.80 -989.93 -444.47 -176.57 -137.65 -136.00 -133.14 -107.39 -114.78 -76.41 -41.54 19.56 59.04 170.68 245.18 291.16 343.10 395.70 420.67 469.37 538.44 533.62 527.91 447.25 464.55 437.68 395.18 341.45 328.22 286.34 277.69 265.07 236.64 205.08 174.51 169.16 116.68 108.14 93.85 92.19 98.32 97.22 96.33 94.99 94.85 95.17 94.97 95.21 95.47 96.14 98.49 100.01 119.19 179.93 211.51 229.63 243.72 254.28 394.56 1423.34 1374.81 3605.34 5084.37 7434.69 7882.93 7087.48 3769.76 2544.57 3121.58 891.21 485.77 321.06 276.68 270.49 261.15 265.53 266.48 262.38 254.65 253.30 246.14 239.72 231.64 210.07 184.56 147.73 1.20 -135.54 -231.99 -538.67 -908.13 -1210.16 -1730.16 -1874.74 -1878.15 -1883.72 -1890.11 -1916.31 -1961.97 -2030.22 -2349.73 -2580.75 -3088.01 -3300.09 -3727.26 -3823.03 -3852.93 -3854.18 -3854.26
-2151.73 -2151.64 -2156.06 -2148.16 -2142.08 -2140.30 -2121.74 -2107.14 -2077.85 -2055.42 -2042.73 -2026.27 -2014.09 -1992.92 -1973.97 -1950.39 -1935.13 -1918.23 -1897.95 -1808.24 -1708.22 -1568.48 -1456.75 -1411.96 -1379.79 -1584.04 -1620.62 -1623.51 -1705.10 -1668.65 -1702.37 -1697.22 -1642.96 -1196.81 -717.44 -343.07 -168.48 -155.67 -168.21 -177.60 -183.42 -152.59 -88.50 -12.25 28.74 121.93 241.02 304.66 383.70 447.31 462.65 473.90 520.94 472.05 402.22 349.55 412.65 400.43 363.56 337.13 324.32 291.00 275.25 252.27 217.12 181.07 169.33 128.41 102.31 93.32 84.10 91.03 98.55 99.53 96.82 95.48 94.20 94.28 94.23 94.20 94.70 95.29 98.60 100.82 131.58 158.17 217.61 234.17 248.96 260.25 595.16 2062.18 2584.37 3358.61 5460.09 8508.10 7814.76 5962.33 4056.23 3468.82 3423.62 925.12 371.62 285.64 273.77 265.26 258.92 264.41 259.32 254.88 253.15 249.83 240.13 234.72 220.46 201.29 169.97 55.79 -85.86 -238.42 -444.59 -641.62 -993.52 -1571.87 -1759.65 -1867.19 -1877.74 -1883.74 -1901.66 -1943.52 -2003.83 -2111.74 -2353.30 -2625.55 -3072.95 -3493.94 -3710.27 -3820.34 -3851.44 -3854.60 -3854.67
-2125.27 -2125.19 -2128.33 -2122.65 -2122.88 -2113.09 -2107.04 -2091.89 -2079.23 -2061.30 -2052.02 -2039.23 -2027.96 -2016.42 -1991.49 -1969.86 -1947.17 -1937.01 -1916.15 -1897.28 -1858.35 -1779.54 -1749.53 -1725.48 -1764.84 -1802.92 -1851.54 -1856.87 -1955.81 -1980.83 -2019.03 -1971.29 -1883.06 -1758.76 -1411.97 -776.48 -275.05 -187.49 -221.31 -195.68 -191.68 -180.62 -107.81 -92.50 15.49 104.39 200.89 279.81 335.39 388.54 452.11 458.57 447.74 384.63 341.13 306.23 329.41 310.97 318.02 318.54 325.74 290.36 274.53 255.00 199.14 175.58 162.24 124.96 92.35 88.67 104.55 97.23 99.61 99.39 97.21 94.24 93.84 93.85 93.44 93.49 93.89 97.89 108.98 132.74 161.69 190.21 208.13 239.60 263.99 357.13 766.22 2199.67 2787.14 4583.17 7033.82 8378.76 6620.73 4189.45 2601.87 2098.07 1585.88 367.49 280.08 268.97 267.75 259.98 255.06 257.03 254.95 254.04 251.32 248.09 237.82 230.63 219.22 180.04 72.83 -36.19 -192.71 -348.43 -622.27 -901.66 -1160.72 -1714.93 -1793.80 -1867.63 -1879.91 -1887.20 -1903.75 -1955.88 -2017.03 -2173.50 -2349.04 -2551.69 -2993.79 -3387.35 -3661.48 -3781.68 -3847.19 -3854.71 -3854.78
-2115.57 -2115.49 -2115.06 -2113.00 -2111.10 -2105.20 -2100.13 -2086.40 -2079.47 -2066.57 -2059.84 -2049.44 -2035.62 -2024.76 -2002.12 -1987.30 -1964.97 -1957.67 -1952.32 -1930.10 -1948.75 -1967.78 -1947.01 -1957.42 -1972.36 -1996.17 -1999.31 -2044.24 -2056.19 -2090.65 -2105.68 -2081.89 -2047.96 -1879.69 -1493.61 -1043.37 -569.62 -374.37 -304.94 -273.97 -246.61 -210.70 -153.81 -123.45 -21.68 58.70 153.73 243.29 312.24 319.29 373.05 428.06 401.93 334.75 333.34 288.84 277.95 270.04 281.20 277.89 305.97 304.46 278.73 244.79 204.42 180.59 157.00 120.27 93.00 91.91 112.54 104.17 100.09 96.80 92.84 93.31 93.15 93.01 92.82 96.29 97.03 100.08 116.07 147.23 169.07 191.81 225.03 235.90 284.79 747.67 1383.20 1387.13 2982.36 5078.75 7905.06 8330.54 6117.70 3390.65 3097.15 2627.81 666.50 384.14 275.91 257.99 257.45 254.77 255.80 254.66 253.18 248.59 248.11 243.22 234.98 225.60 194.04 172.53 85.25 -205.25 -347.34 -490.72 -794.82 -1022.58 -1235.43 -1674.44 -1823.09 -1858.17 -1877.96 -1888.19 -1913.83 -1962.94 -2059.15 -2179.88 -2375.43 -2631.10 -2919.23 -3320.82 -3609.42 -3769.24 -3846.33 -3854.98 -3855.04
-2110.71 -2110.64 -2110.29 -2108.54 -2105.90 -2103.11 -2097.90 -2090.01 -2080.01 -2072.58 -2064.57 -2057.68 -2054.06 -2040.09 -2025.32 -2001.27 -1989.19 -1975.10 -1966.27 -1973.97 -1978.01 -1996.04 -2014.19 -2047.34 -2043.88 -2069.97 -2084.56 -2093.55 -2113.28 -2136.88 -2148.32 -2140.96 -2090.82 -1965.09 -1608.97 -1336.78 -910.29 -543.92 -389.11 -335.04 -341.89 -221.97 -157.43 -125.67 -58.08 51.07 171.00 248.26 269.26 276.65 379.12 375.82 326.20 283.70 268.47 268.88 271.05 259.80 250.18 217.35 235.53 254.13 274.78 259.17 236.64 199.87 182.53 132.26 101.20 100.70 115.15 103.31 97.65 96.42 94.44 92.89 92.84 92.75 93.64 95.85 99.35 112.64 125.21 167.76 186.31 206.56 227.37 248.05 372.09 982.89 2166.89 2657.88 2885.80 4767.41 8225.72 6904.04 5599.10 2784.22 1794.62 1879.53 335.07 305.59 256.23 252.57 254.57 254.49 253.92 249.16 250.00 245.10 240.42 233.61 227.92 208.88 171.18 122.88 29.95 -81.14 -404.40 -547.15 -882.32 -1176.49 -1465.78 -1699.07 -1810.74 -1841.75 -1869.81 -1881.65 -1908.75 -1937.88 -2044.36 -2177.35 -2335.39 -2633.07 -2988.48 -3455.19 -3706.57 -3800.51 -3847.07 -3855.63 -3855.70
-2107.13 -2107.06 -2106.20 -2105.48 -2103.90 -2101.30 -2099.28 -2091.93 -2087.61 -2081.92 -2077.24 -2068.72 -2062.73 -2058.37 -2052.65 -2037.18 -2020.52 -2011.69 -2006.98 -1995.75 -2019.91 -2039.19 -2067.72 -2085.18 -2083.42 -2097.29 -2100.17 -2111.75 -2128.28 -2142.32 -2150.71 -2153.85 -2105.72 -2046.03 -1814.19 -1525.39 -959.63 -704.42 -450.14 -370.81 -316.25 -222.89 -173.32 -122.20 -52.59 -20.83 126.88 247.74 258.48 277.20 359.32 371.44 279.52 271.77 264.15 231.51 257.29 241.00 201.75 131.53 145.18 182.27 248.14 267.37 264.95 236.31 210.71 164.27 116.34 94.50 119.71 105.62 96.31 96.16 94.13 92.69 92.64 92.33 94.58 97.28 96.77 110.07 126.40 173.78 200.25 205.71 237.04 270.45 662.29 930.55 1857.52 3022.84 5648.91 6720.86 7971.76 6018.92 4851.48 3270.47 2057.39 1033.26 327.67 267.31 251.72 250.40 250.88 250.64 248.47 242.44 239.69 236.60 232.66 223.80 210.41 185.59 157.03 60.92 2.07 -115.73 -321.82 -786.33 -1089.30 -1491.13 -1733.06 -1789.71 -1822.79 -1839.94 -1864.26 -1876.49 -1904.19 -1929.86 -2082.35 -2240.15 -2371.57 -2629.29 -3169.14 -3600.06 -3826.97 -3844.64 -3852.32 -3855.55 -3855.62
-2104.27 -2104.20 -2104.14 -2103.04 -2102.26 -2102.00 -2102.57 -2106.87 -2104.32 -2105.79 -2106.34 -2099.85 -2098.19 -2083.40 -2089.56 -2081.97 -2068.75 -2070.44 -2055.88 -2059.82 -2069.62 -2074.64 -2089.42 -2097.84 -2099.76 -2106.09 -2108.50 -2116.30 -2124.84 -2133.84 -2138.44 -2137.80 -2130.30 -2069.41 -1898.53 -1608.83 -1210.31 -722.14 -517.74 -383.07 -330.08 -240.10 -179.56 -118.84 -77.39 -13.36 107.76 161.40 248.15 265.42 317.99 319.85 257.59 245.95 215.92 107.35 149.62 115.29 50.88 -2.67 58.52 127.67 188.95 273.20 302.28 262.74 223.68 205.51 167.30 107.83 100.52 106.61 98.52 96.44 93.60 92.30 92.14 91.96 91.83 93.22 93.05 108.38 130.22 164.27 199.68 226.07 252.55 290.24 1664.96 2541.87 2407.58 2520.47 5880.37 7249.50 6610.62 3274.52 2403.67 2406.04 1998.66 436.02 299.83 249.79 247.46 247.03 246.60 243.92 242.74 234.16 232.88 229.93 211.19 193.45 178.34 139.56 50.77 -3.06 -135.31 -242.03 -451.34 -845.30 -1209.85 -1599.78 -1732.61 -1807.89 -1819.34 -1843.18 -1851.81 -1868.00 -1897.68 -1919.80 -2088.84 -2273.93 -2774.00 -2841.48 -3138.47 -3733.35 -3829.29 -3839.36 -3846.48 -3855.58 -3855.65
-2102.46 -2102.32 -2102.34 -2102.44 -2102.55 -2102.59 -2106.79 -2109.96 -2133.87 -2140.31 -2132.67 -2133.88 -2127.73 -2138.73 -2137.05 -2140.73 -2132.30 -2148.52 -2138.15 -2139.90 -2138.42 -2112.96 -2111.01 -2104.97 -2108.25 -2108.49 -2112.80 -2114.13 -2119.22 -2124.90 -2130.10 -2127.98 -2118.89 -2084.74 -1983.96 -1712.57 -1298.12 -921.32 -564.98 -408.20 -340.73 -233.58 -199.43 -153.08 -87.41 -15.17 36.33 65.53 193.00 240.91 263.06 206.09 210.65 140.48 108.20 3.27 -38.26 -27.98 -57.57 -33.66 -17.63 70.95 152.18 226.86 283.12 288.28 271.29 242.91 199.68 137.85 122.90 103.22 101.74 92.69 91.63 91.84 91.66 91.69 91.51 91.48 93.18 99.23 128.95 161.69 203.79 237.29 264.57 754.44 2104.38 2915.71 4435.03 5149.17 7552.07 7547.85 5755.45 3514.69 1822.07 1500.01 561.50 382.36 256.33 247.34 243.74 241.71 237.33 235.54 221.31 222.96 219.56 214.30 177.28 161.64 103.69 74.52 -9.71 -193.81 -261.97 -377.64 -490.44 -913.79 -1183.36 -1562.35 -1729.47 -1804.53 -1810.94 -1821.73 -1817.85 -1825.29 -1832.76 -1883.72 -2044.48 -2481.11 -3068.36 -3247.52 -3523.71 -3683.62 -3832.98 -3831.69 -3847.08 -3855.34 -3855.90
-2102.44 -2102.38 -2102.54 -2103.22 -2103.99 -2105.15 -2112.02 -2126.97 -2146.06 -2154.71 -2161.17 -2160.28 -2160.48 -2161.73 -2171.18 -2171.74 -2163.74 -2176.73 -2183.30 -2168.42 -2164.30 -2148.46 -2139.71 -2125.08 -2125.26 -2122.51 -2130.46 -2130.70 -2125.26 -2127.83 -2125.47 -2124.63 -2122.87 -2097.58 -1996.60 -1744.50 -1497.43 -1000.95 -608.71 -421.40 -342.97 -224.03 -219.57 -176.90 -100.43 -46.15 -24.76 17.34 106.10 156.07 172.84 143.09 87.19 16.47 -34.21 -49.07 -67.56 -70.38 -77.97 -75.43 -60.25 -20.28 54.60 197.53 259.29 293.50 307.81 271.21 235.16 196.83 135.33 100.75 103.21 90.94 90.89 90.85 90.79 90.80 90.98 90.99 94.23 102.64 135.58 163.83 210.63 236.06 273.51 1017.72 2001.93 3029.24 5274.60 6270.33 7133.39 7166.71 5279.02 4013.64 1856.65 1283.80 426.50 275.09 246.52 238.97 237.59 236.85 232.44 223.70 207.82 200.84 188.79 172.08 138.78 86.94 67.57 -29.27 -154.50 -339.13 -547.75 -662.66 -749.67 -904.47 -1310.29 -1515.01 -1745.59 -1798.71 -1783.67 -1773.02 -1779.41 -1791.57 -1795.67 -1827.48 -1948.05 -2467.90 -3235.37 -3366.98 -3669.04 -3807.16 -3840.50 -3843.82 -3849.87 -3856.40 -3856.47
-2104.05 -2103.99 -2104.43 -2105.41 -2107.98 -2108.37 -2115.95 -2133.86 -2155.62 -2171.73 -2172.41 -2174.50 -2175.18 -2178.13 -2185.69 -2190.94 -2191.38 -2190.02 -2190.15 -2172.33 -2166.45 -2162.52 -2163.07 -2152.34 -2141.84 -2143.08 -2146.17 -2137.75 -2137.87 -2140.96 -2136.36 -2126.59 -2123.31 -2115.15 -2046.06 -1838.03 -1547.33 -1229.90 -695.88 -513.51 -344.05 -236.00 -225.51 -186.09 -106.12 -46.69 -35.75 3.74 39.36 63.24 47.75 -10.58 -38.97 -74.58 -98.72 -71.17 -78.15 -78.29 -78.09 -70.92 -65.56 -33.38 36.69 116.68 217.24 268.39 315.95 309.08 287.25 227.85 170.40 123.79 90.34 89.90 89.81 89.66 89.82 90.14 89.44 88.84 89.96 103.28 128.17 154.47 205.09 243.88 276.05 635.78 2577.27 3700.58 4866.65 5523.48 5590.34 4629.74 3932.92 3348.13 1907.54 671.31 270.76 248.27 242.49 231.17 228.35 220.93 214.98 208.83 199.27 182.01 171.41 134.85 80.53 27.01 -49.79 -101.49 -310.96 -552.21 -769.99 -925.18 -990.31 -1197.49 -1386.34 -1640.58 -1743.66 -1787.25 -1783.09 -1775.64 -1780.31 -1787.17 -1791.75 -1810.68 -1903.78 -2485.31 -3223.01 -3642.80 -3794.16 -3833.77 -3846.25 -3852.89 -3851.85 -3859.38 -3859.43
-2106.79 -2106.73 -2107.22 -2109.42 -2110.05 -2115.13 -2121.11 -2137.99 -2161.08 -2178.54 -2186.14 -2187.28 -2183.50 -2186.92 -2195.41 -2189.85 -2175.41 -2176.45 -2179.11 -2181.54 -2176.00 -2166.44 -2170.47 -2161.00 -2151.16 -2154.07 -2155.51 -2142.76 -2137.75 -2138.44 -2136.63 -2133.04 -2132.16 -2130.63 -2054.90 -1998.68 -1656.97 -1339.77 -857.76 -536.29 -432.23 -319.90 -272.99 -210.51 -147.92 -96.01 -60.24 -63.67 -65.59 -60.72 -61.50 -99.00 -121.58 -115.35 -109.62 -90.28 -83.13 -78.36 -65.73 -61.27 -45.78 -23.42 10.79 59.84 179.88 254.14 293.84 299.90 298.55 292.33 249.16 167.54 110.66 89.10 88.71 88.30 88.40 88.31 87.39 87.00 88.38 101.24 126.18 147.34 180.25 248.21 311.42 340.93 2810.29 3680.49 3473.49 3219.74 2353.98 2340.07 2237.49 2197.68 430.41 272.08 253.08 242.61 239.78 222.48 213.27 201.56 187.24 178.20 173.54 161.33 104.94 58.27 11.15 -77.89 -129.23 -255.12 -427.58 -665.42 -987.92 -1100.11 -1189.03 -1370.04 -1589.99 -1682.18 -1759.12 -1788.00 -1789.21 -1781.79 -1788.01 -1791.40 -1795.19 -1802.69 -1969.08 -2563.18 -3183.70 -3613.67 -3823.95 -3846.98 -3850.50 -3855.40 -3862.06 -3866.87 -3866.93
-2111.00 -2111.65 -2112.80 -2114.04 -2117.15 -2120.03 -2130.06 -2151.41 -2170.72 -2193.53 -2196.78 -2193.10 -2182.43 -2184.57 -2189.88 -2175.22 -2172.85 -2183.07 -2173.39 -2173.78 -2179.53 -2165.76 -2164.98 -2156.61 -2155.09 -2153.33 -2148.57 -2142.54 -2138.93 -2137.31 -2136.45 -2137.36 -2137.70 -2125.74 -2106.93 -2045.41 -1902.39 -1345.03 -1165.86 -840.72 -529.74 -386.68 -290.00 -236.73 -188.36 -176.70 -139.02 -114.68 -129.34 -128.97 -156.30 -146.16 -136.94 -124.56 -109.65 -93.98 -84.97 -75.76 -64.91 -48.68 -34.22 -16.75 -0.20 22.18 51.93 144.63 205.88 252.08 282.42 298.67 242.55 186.81 112.61 88.61 87.75 87.18 87.05 87.46 86.90 86.32 88.04 90.94 139.31 155.29 195.62 234.02 295.45 359.11 1575.82 2434.65 3288.13 3170.46 1600.95 1172.63 1445.13 603.65 310.53 247.15 241.38 227.99 215.57 201.33 199.63 190.36 146.96 106.49 57.59 34.60 14.28 17.59 -132.58 -205.81 -303.80 -510.15 -635.93 -803.80 -1138.14 -1302.25 -1516.14 -1624.81 -1703.44 -1734.33 -1772.42 -1790.64 -1789.58 -1787.56 -1793.46 -1796.81 -1799.36 -1816.33 -1957.47 -2323.65 -3084.67 -3699.98 -3828.98 -3845.86 -3852.13 -3857.51 -3861.88 -3867.46 -3867.52
-2117.34 -2117.28 -2121.48 -2121.26 -2126.56 -2128.99 -2141.03 -2162.90 -2187.95 -2190.96 -2186.53 -2184.60 -2176.85 -2177.99 -2182.68 -2159.99 -2159.99 -2163.53 -2144.93 -2142.91 -2175.07 -2164.57 -2158.57 -2156.26 -2157.52 -2153.69 -2145.96 -2144.15 -2140.38 -2138.60 -2138.75 -2139.68 -2137.18 -2122.79 -2098.53 -2053.91 -1980.14 -1729.92 -1248.77 -1043.63 -791.42 -585.06 -481.68 -332.78 -370.77 -232.97 -212.78 -239.51 -211.23 -187.86 -176.86 -156.66 -140.75 -130.25 -113.94 -101.72 -86.84 -68.01 -54.04 -37.28 -21.33 -7.84 6.01 22.45 31.82 63.29 122.69 166.51 202.08 208.13 215.73 153.03 116.54 87.45 86.91 86.35 86.08 85.97 85.63 84.43 84.04 86.85 106.34 116.75 176.81 230.73 266.27 278.44 748.40 1067.77 1685.99 991.12 903.71 684.70 660.01 263.82 250.22 229.51 206.03 177.02 181.54 170.75 149.84 139.18 92.87 47.08 6.47 -15.35 -87.81 -193.57 -349.37 -358.91 -454.35 -750.35 -830.13 -1079.34 -1341.27 -1510.63 -1657.52 -1747.57 -1807.12 -1799.05 -1791.62 -1795.81 -1796.06 -1796.24 -1795.35 -1796.95 -1799.86 -1817.91 -2002.24 -2401.42 -3121.31 -3645.42 -3839.19 -3842.67 -3853.57 -3860.46 -3864.27 -3868.58 -3868.64
-2124.28 -2125.07 -2127.19 -2130.43 -2133.64 -2139.70 -2146.36 -2175.14 -2185.48 -2186.76 -2187.53 -2184.45 -2182.39 -2181.93 -2176.02 -2154.08 -2133.90 -2131.68 -2123.71 -2130.04 -2156.62 -2165.30 -2161.21 -2157.53 -2158.99 -2153.53 -2148.03 -2146.89 -2144.31 -2141.28 -2140.34 -2140.50 -2134.47 -2118.38 -2097.33 -2051.92 -1935.67 -1749.98 -1717.94 -1374.91 -1074.70 -893.42 -768.71 -614.26 -429.04 -411.35 -306.01 -277.49 -241.90 -203.26 -179.76 -168.29 -146.63 -133.01 -120.04 -104.79 -90.04 -64.57 -41.27 -28.69 -14.97 1.00 10.07 25.15 34.28 40.08 52.40 80.67 91.45 116.59 120.01 122.80 92.86 85.51 85.63 84.88 84.27 84.87 84.21 84.07 83.13 82.66 86.78 112.14 182.56 230.50 246.51 257.12 259.95 406.34 410.02 533.08 364.99 390.83 269.16 247.51 237.08 217.43 186.72 111.08 110.31 95.71 25.59 -13.40 33.52 -25.23 -101.31 -156.68 -292.21 -456.32 -626.86 -706.01 -883.15 -1047.52 -1255.02 -1353.38 -1501.25 -1643.73 -1744.88 -1811.71 -1812.96 -1809.04 -1807.41 -1806.51 -1804.31 -1800.31 -1796.47 -1795.84 -1796.87 -1824.92 -1945.37 -2344.71 -3109.28 -3521.06 -3845.94 -3852.74 -3854.34 -3860.00 -3864.98 -3871.72 -3871.78
-2129.40 -2130.13 -2131.96 -2135.93 -2139.86 -2147.79 -2160.89 -2184.50 -2189.30 -2192.19 -2184.11 -2191.10 -2187.06 -2182.46 -2170.23 -2143.00 -2109.58 -2096.89 -2101.85 -2117.03 -2135.31 -2152.40 -2157.16 -2158.87 -2159.54 -2154.13 -2150.30 -2149.46 -2146.37 -2143.74 -2141.81 -2139.93 -2132.56 -2111.16 -2091.52 -2031.32 -1945.52 -1805.10 -1574.45 -1478.64 -1373.46 -1259.91 -1025.40 -718.73 -579.35 -438.40 -388.43 -314.30 -263.57 -226.30 -197.31 -175.27 -154.17 -144.78 -121.27 -96.21 -79.27 -63.61 -30.62 -19.74 -9.67 3.52 13.18 27.01 35.90 42.89 52.79 61.07 67.74 72.08 75.68 77.41 79.50 80.83 83.50 83.80 83.27 83.37 83.45 83.04 81.71 81.79 87.90 128.19 170.71 218.53 235.53 244.03 252.95 271.87 311.24 311.02 287.50 262.29 258.07 240.51 224.50 198.63 170.63 99.15 40.26 -7.21 -111.04 -234.23 -252.23 -120.56 -244.72 -286.59 -477.11 -622.41 -903.83 -1091.38 -1261.48 -1356.71 -1405.90 -1543.01 -1656.69 -1759.33 -1810.67 -1816.29 -1820.73 -1820.92 -1815.28 -1816.80 -1818.16 -1807.62 -1800.02 -1798.30 -1797.97 -1823.85 -1911.22 -2344.39 -3191.10 -3619.52 -3840.87 -3857.68 -3859.19 -3859.60 -3865.25 -3877.00 -3877.06
-2132.88 -2132.82 -2136.65 -2139.02 -2143.74 -2149.85 -2168.69 -2189.74 -2189.28 -2186.86 -2184.93 -2190.37 -2187.59 -2180.99 -2179.32 -2141.13 -2114.95 -2099.96 -2105.98 -2123.71 -2154.29 -2155.22 -2154.65 -2158.00 -2159.85 -2156.11 -2153.01 -2151.88 -2149.33 -2147.34 -2143.75 -2140.53 -2127.73 -2112.30 -2083.21 -2011.92 -1965.12 -1753.82 -1605.49 -1501.36 -1406.05 -1272.74 -1124.17 -906.81 -637.86 -486.67 -406.40 -332.24 -268.84 -242.67 -204.57 -184.38 -168.36 -145.21 -115.72 -91.81 -68.46 -50.61 -24.12 -15.49 -5.66 3.08 16.59 28.09 38.02 44.53 54.51 60.30 68.33 73.33 75.21 76.43 78.06 79.46 81.73 82.51 82.35 82.34 82.26 81.85 81.42 81.42 84.63 116.30 148.97 174.03 208.18 223.59 236.62 230.32 263.06 264.48 250.08 249.08 247.55 231.41 208.83 172.93 129.97 31.89 -71.45 -184.34 -304.46 -377.77 -462.65 -307.32 -320.22 -590.40 -746.13 -928.29 -1121.84 -1368.73 -1462.12 -1412.27 -1555.54 -1748.23 -1774.92 -1813.84 -1822.69 -1823.62 -1827.29 -1833.50 -1837.52 -1833.88 -1829.08 -1815.59 -1806.38 -1801.55 -1800.91 -1818.54 -2004.66 -2476.96 -3041.03 -3634.26 -3833.10 -3855.90 -3862.84 -3875.09 -3875.31 -3877.45 -3877.51
-2135.09 -2135.03 -2138.37 -2141.90 -2147.75 -2156.99 -2176.29 -2201.98 -2196.89 -2194.85 -2193.22 -2187.59 -2186.12 -2179.53 -2175.46 -2155.14 -2130.69 -2120.72 -2122.50 -2132.95 -2145.55 -2152.44 -2156.36 -2158.33 -2161.84 -2157.34 -2155.42 -2153.59 -2151.35 -2149.68 -2146.44 -2142.45 -2130.11 -2114.70 -2089.36 -1996.06 -1955.57 -1802.53 -1698.13 -1574.56 -1376.63 -1267.94 -1195.71 -992.51 -773.01 -528.13 -388.73 -330.81 -270.69 -250.88 -221.84 -195.43 -171.19 -154.40 -125.63 -95.90 -69.35 -50.62 -25.01 -6.92 1.99 8.91 22.86 29.50 40.19 48.96 58.02 63.35 67.93 72.22 73.95 75.97 77.61 79.13 80.32 80.25 81.33 81.43 81.20 81.26 80.91 80.99 85.65 88.52 115.97 127.16 172.67 187.40 204.96 209.57 224.21 230.64 240.07 227.97 217.24 198.43 183.96 87.66 89.72 -10.08 -66.52 -347.56 -429.22 -508.24 -602.36 -434.62 -532.22 -655.53 -960.49 -1141.40 -1265.29 -1391.74 -1514.12 -1592.75 -1689.29 -1802.26 -1813.05 -1821.67 -1828.39 -1828.89 -1833.42 -1842.74 -1849.11 -1853.09 -1856.41 -1834.20 -1814.98 -1810.81 -1809.84 -1830.59 -1955.00 -2609.03 -3123.58 -3607.04 -3844.09 -3861.07 -3880.08 -3880.94 -3881.31 -3878.77 -3878.06
-2133.43 -2133.36 -2135.56 -2138.51 -2147.55 -2154.90 -2170.34 -2188.69 -2203.79 -2199.52 -2189.25 -2188.00 -2183.12 -2177.99 -2167.64 -2160.21 -2158.96 -2146.43 -2143.30 -2138.95 -2143.72 -2149.69 -2158.85 -2160.94 -2161.65 -2159.27 -2158.58 -2157.92 -2155.06 -2153.40 -2150.75 -2148.11 -2137.74 -2120.26 -2090.96 -2024.12 -1977.94 -1842.95 -1825.93 -1657.10 -1383.75 -1225.88 -1142.21 -997.07 -808.05 -574.63 -455.72 -360.28 -286.48 -250.71 -230.74 -195.14 -181.12 -146.70 -120.08 -88.91 -63.27 -39.47 -21.76 -0.83 7.88 17.01 23.89 36.00 44.69 54.46 58.48 64.29 69.10 70.71 72.71 74.10 75.89 77.36 78.62 79.61 80.26 80.47 80.43 80.53 80.56 81.15 81.25 85.18 90.39 95.88 127.83 144.39 130.34 125.92 133.07 138.26 175.42 187.28 168.99 139.59 112.88 28.23 -16.15 -81.99 -220.44 -424.47 -553.22 -589.93 -647.74 -657.38 -708.71 -916.56 -1116.32 -1316.97 -1449.33 -1490.44 -1607.06 -1692.65 -1766.86 -1806.85 -1821.06 -1827.75 -1829.41 -1832.40 -1838.59 -1849.97 -1858.32 -1873.79 -1874.85 -1857.40 -1838.67 -1823.55 -1823.46 -1826.85 -2000.47 -2486.93 -3297.66 -3601.17 -3846.21 -3867.79 -3878.76 -3881.54 -3883.65 -3879.13 -3879.19
-2124.89 -2124.33 -2127.61 -2131.79 -2139.34 -2142.59 -2154.04 -2174.12 -2192.12 -2197.76 -2187.78 -2185.18 -2181.49 -2175.64 -2161.19 -2156.53 -2154.06 -2147.53 -2141.09 -2140.87 -2151.20 -2152.29 -2160.56 -2162.67 -2161.80 -2159.97 -2160.35 -2158.87 -2157.83 -2155.36 -2154.15 -2152.46 -2139.81 -2122.83 -2096.17 -2029.16 -1953.02 -1895.11 -1768.63 -1613.05 -1417.45 -1204.30 -1018.66 -892.14 -693.36 -590.10 -469.15 -366.77 -306.40 -262.70 -234.90 -227.48 -200.97 -162.87 -136.45 -101.70 -64.01 -45.08 -17.21 -1.33 16.28 24.03 30.28 41.50 48.58 53.31 58.54 64.63 67.20 70.75 71.72 73.21 74.65 76.26 77.21 78.21 79.24 79.28 79.25 79.62 80.11 80.66 81.52 82.46 87.28 88.18 93.11 96.48 100.48 88.29 68.74 81.13 74.91 114.97 79.37 16.72 6.15 -96.27 -89.05 -191.07 -568.20 -676.66 -734.90 -814.70 -772.03 -824.48 -982.30 -1133.26 -1433.92 -1460.63 -1560.41 -1631.99 -1687.64 -1744.51 -1783.41 -1816.44 -1826.61 -1829.80 -1830.69 -1835.18 -1848.74 -1858.62 -1873.41 -1882.04 -1887.66 -1890.87 -1866.94 -1852.98 -1850.84 -1856.58 -2044.60 -2308.47 -3026.31 -3679.72 -3860.35 -3875.53 -3877.65 -3881.74 -3883.69 -3880.78 -3880.84
-2114.38 -2112.94 -2120.19 -2122.89 -2130.83 -2134.69 -2143.19 -2153.44 -2170.12 -2179.36 -2188.67 -2184.73 -2179.16 -2176.48 -2160.33 -2158.24 -2151.27 -2145.15 -2148.15 -2150.13 -2146.89 -2154.21 -2158.59 -2163.33 -2164.61 -2163.44 -2162.93 -2161.34 -2160.68 -2159.03 -2159.99 -2155.15 -2144.56 -2108.89 -2077.67 -2011.66 -1944.13 -1882.67 -1776.61 -1651.56 -1444.42 -1264.52 -1061.75 -822.59 -725.18 -601.56 -516.98 -416.28 -322.06 -279.87 -266.76 -255.35 -198.89 -167.16 -133.87 -99.43 -65.04 -41.77 -18.75 -2.94 11.24 22.92 31.62 39.87 48.75 51.14 58.82 62.34 66.55 69.15 71.74 72.22 73.98 75.44 76.00 77.46 77.92 78.25 78.13 79.03 80.60 82.32 82.39 82.10 83.35 84.17 84.25 81.05 78.40 67.56 59.66 53.78 12.86 -19.60 -15.08 -55.61 -135.92 -310.80 -329.13 -611.44 -801.37 -884.51 -1031.72 -1066.71 -1075.62 -994.80 -1125.12 -1404.92 -1516.32 -1619.41 -1641.93 -1722.78 -1748.95 -1782.24 -1803.06 -1821.88 -1830.96 -1833.28 -1835.93 -1842.54 -1854.57 -1867.61 -1886.17 -1893.23 -1902.74 -1914.56 -1903.82 -1884.60 -1868.02 -1872.04 -2096.89 -2382.57 -3174.90 -3699.70 -3854.71 -3879.23 -3880.04 -3885.97 -3886.17 -3883.04 -3882.75
-2109.17 -2109.11 -2112.08 -2116.77 -2124.00 -2130.07 -2138.36 -2144.13 -2153.21 -2161.90 -2172.95 -2182.92 -2179.79 -2174.75 -2162.13 -2159.67 -2148.80 -2152.39 -2155.72 -2157.41 -2154.36 -2154.50 -2160.31 -2164.83 -2166.81 -2165.61 -2165.35 -2165.06 -2163.21 -2161.66 -2162.58 -2156.47 -2138.41 -2116.45 -2082.48 -2014.81 -1907.69 -1857.37 -1741.08 -1576.13 -1407.63 -1245.14 -1100.50 -909.62 -765.31 -594.47 -519.74 -417.89 -353.07 -334.73 -303.69 -283.22 -245.09 -176.38 -116.74 -92.27 -60.41 -35.58 -14.79 -4.79 7.56 17.58 30.86 38.28 46.13 49.19 53.72 60.29 65.75 68.01 70.41 71.85 73.05 74.12 74.68 76.48 76.83 77.40 77.88 80.68 89.28 87.19 83.86 83.53 84.59 83.85 80.72 76.97 74.46 66.89 46.59 31.13 -35.09 -94.39 -97.90 -159.19 -338.59 -451.11 -658.82 -1032.37 -1203.59 -1211.50 -1308.80 -1317.92 -1377.26 -1296.90 -1271.40 -1510.83 -1675.53 -1722.60 -1746.04 -1763.59 -1781.71 -1802.78 -1810.63 -1825.26 -1834.85 -1837.20 -1843.77 -1853.17 -1862.46 -1883.15 -1900.76 -1907.36 -1921.55 -1924.88 -1920.44 -1901.57 -1887.40 -1903.56 -2102.55 -2417.97 -3048.24 -3704.20 -3873.73 -3881.17 -3883.27 -3889.64 -3886.76 -3885.18 -3885.06
-2109.34 -2109.27 -2115.08 -2116.51 -2121.59 -2129.53 -2136.63 -2143.36 -2147.12 -2155.32 -2163.64 -2176.04 -2176.31 -2169.99 -2165.27 -2160.77 -2157.79 -2156.39 -2156.24 -2154.64 -2151.24 -2155.83 -2159.68 -2163.12 -2166.34 -2166.56 -2166.82 -2166.77 -2166.95 -2165.27 -2165.09 -2162.80 -2155.65 -2134.67 -2106.30 -2058.24 -1875.35 -1801.40 -1715.75 -1558.19 -1446.08 -1282.60 -1098.49 -875.50 -766.82 -621.84 -579.33 -484.76 -446.42 -393.21 -340.62 -312.53 -267.81 -220.09 -104.22 -76.34 -51.38 -29.24 -18.08 -6.05 4.52 16.55 24.67 35.16 43.16 47.18 52.80 60.04 65.17 68.55 69.72 70.82 72.01 73.08 74.07 74.89 76.51 76.97 77.18 77.74 93.26 91.57 85.67 86.21 86.76 85.92 83.20 76.11 71.22 58.49 40.56 10.60 -48.16 -162.18 -195.86 -232.11 -426.16 -772.82 -1012.26 -1334.54 -1454.49 -1534.07 -1551.04 -1565.24 -1554.74 -1492.56 -1571.46 -1673.96 -1721.67 -1759.89 -1773.98 -1789.49 -1796.21 -1806.78 -1814.95 -1823.36 -1848.93 -1855.97 -1866.59 -1869.23 -1886.11 -1894.25 -1904.96 -1921.12 -1928.88 -1929.42 -1928.01 -1915.76 -1897.50 -1909.35 -2071.95 -2476.91 -3179.55 -3649.15 -3871.43 -3878.97 -3887.33 -3891.70 -3888.99 -3887.27 -3887.01
-2113.67 -2113.60 -2119.30 -2118.55 -2124.58 -2133.32 -2139.55 -2144.80 -2148.29 -2153.34 -2163.20 -2173.87 -2174.20 -2164.56 -2161.61 -2160.59 -2160.03 -2158.17 -2159.14 -2157.41 -2156.27 -2158.54 -2161.10 -2163.47 -2166.49 -2167.62 -2168.58 -2168.68 -2167.93 -2167.43 -2167.10 -2166.21 -2164.68 -2157.67 -2130.66 -2064.62 -1932.89 -1840.17 -1682.51 -1558.60 -1430.55 -1359.84 -1179.08 -959.13 -783.21 -706.50 -633.90 -576.73 -474.86 -437.87 -385.31 -345.90 -303.56 -211.58 -151.41 -93.22 -61.02 -34.17 -18.80 -8.61 1.70 9.82 21.36 29.76 39.00 48.21 52.90 58.20 65.44 67.15 69.85 70.85 71.85 73.13 73.62 74.94 75.68 76.02 76.47 91.22 103.32 105.54 99.22 82.13 84.30 83.78 82.57 58.11 56.35 33.79 8.13 -7.04 -63.65 -192.63 -407.48 -441.48 -629.97 -928.52 -1177.90 -1445.24 -1568.99 -1655.08 -1688.23 -1659.49 -1647.61 -1616.70 -1675.33 -1717.71 -1749.70 -1778.32 -1786.86 -1799.24 -1800.11 -1811.96 -1822.35 -1834.14 -1854.47 -1875.38 -1877.92 -1894.16 -1911.50 -1911.71 -1919.50 -1924.63 -1930.19 -1935.76 -1934.83 -1915.99 -1903.99 -1915.32 -2080.81 -2526.70 -3047.18 -3603.61 -3857.28 -3889.20 -3893.25 -3892.89 -3890.73 -3888.86 -3888.91
-2131.82 -2129.13 -2133.82 -2136.94 -2136.13 -2141.92 -2148.07 -2155.74 -2155.44 -2157.77 -2168.56 -2170.04 -2168.59 -2167.99 -2164.43 -2164.16 -2163.40 -2161.01 -2160.68 -2160.68 -2160.77 -2161.17 -2163.28 -2164.98 -2166.58 -2169.25 -2170.16 -2169.99 -2170.02 -2169.54 -2170.27 -2168.66 -2168.98 -2159.88 -2139.35 -2087.61 -2033.55 -1884.47 -1715.90 -1555.27 -1392.80 -1272.15 -1120.63 -957.32 -830.46 -740.56 -699.71 -593.52 -512.22 -435.85 -410.73 -347.51 -298.37 -217.90 -173.95 -108.60 -70.39 -43.51 -24.89 -10.40 -4.20 2.08 13.09 26.26 34.07 44.42 55.94 59.49 61.10 66.01 69.10 71.06 71.97 72.66 73.21 73.84 74.58 75.52 75.57 94.89 106.86 109.11 88.01 73.19 66.14 59.84 15.98 17.69 -8.75 -23.09 -97.63 -174.26 -165.30 -270.50 -616.80 -742.55 -881.73 -1153.10 -1499.94 -1608.93 -1690.65 -1722.56 -1715.21 -1708.94 -1724.81 -1723.97 -1727.28 -1753.01 -1781.75 -1790.18 -1802.58 -1809.50 -1816.88 -1832.52 -1836.51 -1853.93 -1872.65 -1892.00 -1888.92 -1897.84 -1924.52 -1932.13 -1927.88 -1935.47 -1936.30 -1939.20 -1940.82 -1926.05 -1916.69 -1929.32 -1999.36 -2529.46 -3186.94 -3623.38 -3865.10 -3896.49 -3896.61 -3894.30 -3892.96 -3890.70 -3890.77
-2167.02 -2162.76 -2166.19 -2170.29 -2175.96 -2177.14 -2188.75 -2180.23 -2172.72 -2169.87 -2171.53 -2173.05 -2173.35 -2171.72 -2168.48 -2167.67 -2166.05 -2163.32 -2163.01 -2162.77 -2162.29 -2161.25 -2163.92 -2165.95 -2167.61 -2169.73 -2171.03 -2171.15 -2171.49 -2172.26 -2172.59 -2171.69 -2171.10 -2166.00 -2136.78 -2093.24 -2038.65 -1896.59 -1681.90 -1561.85 -1449.62 -1334.82 -1181.74 -1001.52 -972.66 -854.92 -704.30 -633.87 -561.81 -491.45 -432.83 -344.91 -270.95 -214.45 -156.44 -112.88 -72.24 -50.62 -20.81 -15.26 -4.99 2.94 14.43 21.46 30.17 41.01 50.87 55.53 59.46 64.89 67.80 69.01 70.33 71.61 72.33 73.07 73.45 74.48 72.27 78.20 89.53 94.81 71.93 61.96 58.22 47.69 -108.74 -141.58 -155.46 -195.70 -339.35 -361.35 -361.42 -529.53 -810.57 -1159.56 -1101.54 -1403.52 -1630.63 -1691.06 -1719.53 -1729.07 -1728.76 -1735.86 -1740.03 -1745.84 -1765.26 -1777.65 -1799.25 -1810.06 -1814.34 -1823.47 -1836.10 -1843.18 -1868.67 -1885.00 -1900.03 -1921.37 -1917.09 -1923.79 -1935.61 -1943.07 -1940.78 -1950.42 -1944.96 -1951.68 -1949.94 -1946.08 -1935.79 -1939.44 -2051.87 -2624.21 -3161.68 -3705.30 -3871.50 -3899.85 -3898.46 -3896.78 -3895.31 -3892.56 -3892.62
-2196.75 -2194.84 -2196.50 -2200.53 -2200.76 -2213.59 -2211.64 -2197.54 -2185.04 -2178.14 -2182.61 -2184.25 -2179.39 -2173.52 -2172.63 -2170.37 -2170.81 -2167.50 -2166.39 -2163.62 -2164.31 -2165.32 -2165.62 -2166.55 -2168.84 -2170.52 -2172.36 -2172.95 -2173.38 -2173.56 -2173.63 -2172.80 -2171.45 -2170.09 -2151.99 -2063.02 -1992.33 -1868.63 -1776.46 -1658.74 -1449.85 -1329.91 -1201.18 -1060.21 -963.07 -819.40 -705.65 -661.18 -628.94 -534.62 -449.25 -336.55 -306.41 -213.71 -155.57 -126.21 -93.68 -54.76 -29.46 -20.73 -7.08 1.06 7.94 14.88 27.42 38.31 44.51 50.80 55.79 59.88 63.35 63.82 68.98 69.60 69.87 70.97 70.89 69.96 67.51 67.10 57.82 45.53 47.58 45.42 -110.72 -357.88 -475.29 -530.39 -522.05 -436.09 -658.56 -882.67 -801.46 -802.51 -1125.64 -1498.87 -1524.85 -1619.19 -1715.40 -1727.63 -1732.14 -1732.47 -1731.21 -1738.51 -1744.72 -1754.29 -1771.25 -1792.39 -1822.33 -1826.67 -1833.34 -1848.59 -1862.39 -1863.77 -1876.70 -1893.66 -1914.06 -1927.90 -1930.94 -1946.47 -1952.27 -1954.15 -1954.22 -1950.51 -1956.90 -1960.21 -1959.62 -1961.28 -1951.38 -1963.27 -2113.37 -2387.38 -3060.40 -3731.79 -3860.71 -3901.00 -3900.83 -3899.63 -3898.35 -3894.55 -3894.61
-2207.55 -2207.49 -2210.83 -2214.26 -2218.05 -2222.70 -2217.76 -2210.32 -2186.23 -2181.08 -2183.26 -2189.79 -2185.88 -2179.22 -2178.28 -2174.71 -2173.32 -2170.22 -2166.16 -2163.57 -2163.52 -2166.36 -2170.74 -2170.71 -2169.93 -2172.68 -2173.91 -2174.77 -2175.24 -2175.49 -2175.29 -2174.60 -2173.68 -2167.72 -2158.49 -2092.44 -2040.76 -1968.81 -1878.83 -1718.98 -1578.18 -1371.67 -1167.29 -1053.61 -941.07 -834.29 -767.67 -699.15 -639.76 -516.69 -432.01 -375.04 -338.28 -236.63 -172.85 -124.64 -100.92 -58.92 -43.50 -27.49 -16.65 -2.36 3.15 10.15 26.00 32.61 38.87 45.98 50.47 51.78 57.97 61.84 66.59 67.23 67.03 68.19 68.68 65.52 63.62 55.44 30.97 7.11 -59.93 -112.71 -431.36 -745.48 -991.25 -943.72 -867.97 -968.09 -1142.00 -1282.71 -1388.07 -1629.34 -1593.85 -1587.57 -1668.09 -1751.57 -1739.04 -1734.66 -1734.44 -1732.60 -1734.00 -1742.35 -1756.47 -1771.27 -1789.83 -1823.96 -1843.79 -1856.80 -1859.97 -1860.19 -1878.48 -1897.12 -1907.40 -1913.14 -1934.93 -1945.05 -1952.40 -1963.24 -1967.10 -1969.92 -1966.60 -1961.87 -1964.20 -1966.57 -1970.03 -1970.33 -1957.29 -1961.21 -2114.78 -2552.13 -3079.28 -3703.22 -3880.96 -3896.42 -3898.23 -3899.35 -3899.16 -3896.90 -3896.97
-2208.47 -2208.40 -2211.87 -2214.92 -2219.30 -2223.83 -2221.87 -2210.36 -2189.12 -2179.92 -2184.95 -2190.48 -2191.05 -2186.60 -2181.09 -2178.95 -2178.00 -2174.68 -2169.58 -2165.31 -2167.48 -2168.95 -2169.36 -2167.23 -2170.33 -2173.80 -2174.68 -2177.11 -2177.88 -2177.10 -2176.71 -2175.89 -2175.81 -2167.40 -2157.43 -2106.31 -2071.40 -1984.25 -1941.87 -1794.21 -1736.36 -1517.49 -1290.43 -1092.33 -1000.45 -923.49 -839.93 -770.68 -653.50 -517.83 -452.53 -404.22 -344.47 -266.20 -193.74 -160.57 -117.47 -73.51 -49.30 -30.49 -24.51 -11.35 -2.25 9.18 18.12 25.54 34.74 41.17 42.75 45.22 52.68 57.10 63.20 63.28 63.90 63.28 64.37 58.80 54.77 46.80 23.90 4.92 -68.67 -156.88 -726.45 -1041.63 -1314.45 -1341.68 -1509.37 -1428.84 -1498.17 -1637.43 -1736.62 -1784.53 -1783.87 -1769.78 -1749.80 -1760.04 -1748.21 -1737.82 -1736.79 -1735.35 -1749.92 -1771.26 -1774.07 -1789.57 -1830.94 -1861.85 -1871.37 -1887.92 -1899.83 -1896.70 -1894.70 -1927.37 -1938.97 -1941.83 -1955.26 -1958.69 -1967.92 -1973.21 -1975.66 -1973.94 -1972.23 -1971.83 -1971.89 -1971.87 -1974.95 -1972.59 -1967.10 -1962.72 -2155.70 -2593.57 -3167.53 -3709.78 -3873.62 -3886.70 -3899.01 -3899.92 -3898.49 -3899.19 -3899.77
-2206.40 -2206.34 -2208.67 -2213.09 -2217.41 -2222.36 -2222.10 -2211.17 -2192.79 -2181.83 -2185.76 -2192.04 -2195.04 -2191.95 -2187.12 -2182.61 -2179.25 -2181.34 -2176.70 -2169.55 -2169.64 -2171.83 -2170.04 -2167.39 -2168.91 -2175.03 -2176.98 -2180.22 -2180.13 -2179.30 -2179.45 -2179.02 -2180.65 -2176.40 -2161.85 -2137.13 -2109.45 -2074.66 -1928.27 -1883.19 -1782.38 -1559.44 -1389.44 -1229.43 -1084.36 -969.03 -901.94 -788.25 -696.47 -532.82 -492.71 -419.99 -357.67 -297.67 -220.54 -175.82 -122.51 -88.80 -69.44 -45.10 -30.39 -20.77 -11.85 -1.44 13.80 17.23 25.79 34.03 36.70 42.55 49.06 55.24 57.43 58.08 57.06 58.28 52.24 50.47 36.57 30.17 14.55 -25.58 -103.52 -308.08 -630.71 -1128.33 -1485.82 -1716.74 -1735.07 -1744.02 -1774.38 -1780.10 -1805.51 -1834.59 -1822.71 -1792.68 -1781.55 -1771.98 -1753.91 -1748.44 -1748.94 -1764.02 -1764.47 -1797.94 -1812.91 -1819.84 -1857.32 -1888.05 -1907.08 -1917.15 -1928.57 -1934.07 -1945.56 -1953.61 -1969.24 -1968.08 -1975.82 -1977.06 -1978.43 -1978.82 -1977.94 -1975.03 -1973.54 -1971.39 -1970.67 -1972.53 -1976.81 -1978.35 -1974.63 -1995.46 -2102.47 -2488.76 -3127.27 -3596.32 -3794.27 -3898.64 -3900.08 -3898.39 -3898.96 -3902.30 -3902.36
-2198.79 -2200.28 -2203.88 -2207.69 -2211.84 -2216.65 -2216.62 -2208.97 -2199.38 -2197.64 -2201.19 -2208.91 -2198.98 -2198.17 -2193.44 -2182.67 -2174.81 -2177.10 -2175.35 -2170.19 -2170.78 -2177.61 -2180.53 -2174.88 -2170.82 -2172.90 -2176.27 -2178.60 -2182.63 -2182.95 -2182.78 -2185.04 -2185.84 -2187.85 -2191.74 -2179.45 -2142.64 -2099.44 -2017.46 -1946.62 -1815.05 -1645.84 -1463.02 -1299.89 -1126.82 -1007.67 -871.85 -797.25 -622.15 -584.00 -529.02 -449.81 -379.92 -301.15 -253.89 -186.21 -155.18 -109.12 -84.60 -63.28 -50.54 -36.27 -14.62 -3.23 1.81 6.82 14.80 22.26 29.67 36.59 42.03 44.72 46.92 52.61 46.06 51.00 39.90 29.53 19.18 -9.76 -51.31 -71.92 -192.60 -381.37 -882.63 -1157.99 -1671.13 -1816.42 -1864.52 -1879.94 -1871.06 -1863.81 -1869.55 -1847.31 -1828.31 -1807.62 -1796.19 -1785.74 -1778.91 -1766.23 -1769.96 -1783.43 -1801.07 -1833.95 -1849.72 -1869.76 -1894.33 -1920.46 -1928.50 -1939.42 -1957.82 -1967.02 -1975.84 -1978.72 -1982.05 -1976.38 -1981.07 -1984.48 -1982.33 -1980.19 -1978.55 -1976.37 -1975.06 -1967.82 -1967.49 -1971.60 -1979.48 -1983.45 -1988.38 -2008.69 -2124.61 -2531.30 -2947.03 -3522.01 -3854.98 -3897.20 -3899.29 -3897.46 -3896.73 -3905.42 -3905.49
-2185.49 -2185.44 -2188.97 -2190.14 -2198.34 -2203.40 -2208.81 -2213.99 -2219.71 -2230.63 -2227.34 -2223.55 -2217.18 -2203.52 -2199.62 -2185.04 -2154.32 -2153.06 -2164.29 -2164.84 -2169.97 -2174.27 -2180.65 -2181.61 -2180.22 -2169.34 -2171.84 -2180.25 -2190.82 -2189.00 -2189.35 -2191.62 -2194.34 -2197.99 -2201.31 -2198.41 -2178.38 -2116.66 -2072.73 -1988.89 -1853.19 -1667.19 -1485.05 -1308.66 -1156.24 -1041.58 -843.23 -759.43 -657.54 -587.88 -544.14 -481.08 -395.03 -301.70 -244.67 -220.55 -172.69 -134.42 -112.40 -76.85 -64.69 -38.00 -22.33 -14.56 -7.68 -3.38 8.04 14.79 21.80 23.42 26.95 28.10 29.37 26.03 25.68 25.87 11.98 -9.86 -11.30 -49.14 -90.24 -212.30 -299.08 -451.60 -905.08 -1223.12 -1696.37 -1827.02 -1892.49 -1912.90 -1891.24 -1894.02 -1879.07 -1854.64 -1845.50 -1836.59 -1822.78 -1818.18 -1806.64 -1798.54 -1797.06 -1806.75 -1832.07 -1861.65 -1870.70 -1900.52 -1930.56 -1947.94 -1951.77 -1961.73 -1968.82 -1980.37 -1988.37 -1990.05 -1988.09 -1987.04 -1987.68 -1987.27 -1985.62 -1983.31 -1980.54 -1978.41 -1965.15 -1954.73 -1965.37 -1979.84 -1982.34 -1984.75 -1991.25 -2015.65 -2131.28 -2329.94 -2858.18 -3511.82 -3742.33 -3882.62 -3889.15 -3896.42 -3902.35 -3909.19 -3909.26
-2177.67 -2177.61 -2181.21 -2184.67 -2187.80 -2195.55 -2201.43 -2215.99 -2231.61 -2248.06 -2256.65 -2244.23 -2242.89 -2228.57 -2209.03 -2188.58 -2140.78 -2139.59 -2146.25 -2154.82 -2164.61 -2160.62 -2166.66 -2174.46 -2177.58 -2168.29 -2167.40 -2182.78 -2200.72 -2201.59 -2199.42 -2198.17 -2205.13 -2210.25 -2214.11 -2208.96 -2189.72 -2167.56 -2115.48 -2018.61 -1881.57 -1612.03 -1482.21 -1315.35 -1183.37 -1011.66 -910.01 -770.93 -718.38 -622.66 -526.33 -484.46 -399.49 -330.97 -292.60 -260.25 -239.15 -180.00 -128.56 -112.58 -74.61 -55.21 -30.79 -28.54 -20.67 -14.81 -3.87 1.13 5.84 5.70 -8.06 6.10 15.44 9.82 1.50 1.77 -22.15 -39.00 -60.31 -92.12 -224.17 -307.64 -407.96 -655.81 -1046.22 -1417.91 -1718.95 -1892.65 -1917.57 -1922.74 -1917.20 -1900.93 -1890.31 -1867.86 -1855.52 -1856.64 -1858.07 -1840.19 -1851.23 -1846.06 -1835.37 -1844.85 -1856.12 -1890.99 -1920.82 -1930.00 -1968.96 -1980.01 -1987.18 -1982.90 -1984.48 -1988.65 -1998.00 -1998.56 -1998.77 -1993.94 -1991.88 -1990.27 -1989.56 -1986.54 -1980.93 -1971.28 -1937.43 -1930.73 -1949.17 -1977.82 -1987.31 -1996.11 -2016.70 -2033.30 -2090.21 -2332.36 -2778.50 -3171.93 -3767.88 -3874.32 -3867.20 -3902.50 -3901.98 -3909.95 -3912.59
-2182.71 -2182.64 -2185.11 -2184.35 -2187.20 -2191.51 -2202.75 -2224.54 -2246.44 -2269.42 -2276.00 -2268.25 -2255.97 -2248.15 -2240.32 -2187.68 -2145.66 -2139.00 -2144.85 -2150.20 -2152.99 -2156.97 -2160.88 -2159.69 -2156.93 -2162.36 -2175.55 -2189.41 -2223.98 -2226.02 -2217.58 -2219.05 -2216.47 -2220.24 -2221.71 -2221.13 -2215.57 -2199.71 -2158.17 -2099.21 -1916.72 -1659.76 -1580.99 -1406.30 -1292.43 -1123.82 -972.55 -826.18 -751.73 -707.54 -529.10 -464.06 -411.17 -395.86 -332.15 -310.26 -248.06 -214.50 -166.51 -144.51 -110.57 -95.85 -70.51 -69.81 -49.70 -30.00 -27.62 -23.19 -12.83 -16.33 -19.26 -16.69 -10.17 -41.49 -56.02 -79.44 -75.31 -115.56 -129.63 -187.76 -288.36 -511.29 -634.85 -1040.24 -1396.99 -1683.17 -1942.18 -1995.17 -1973.89 -1964.35 -1926.20 -1913.05 -1904.98 -1882.51 -1896.86 -1896.62 -1902.92 -1885.88 -1908.36 -1879.36 -1874.25 -1866.84 -1881.55 -1906.67 -1955.16 -1978.32 -2007.90 -2026.05 -2009.66 -2002.99 -2004.75 -2009.37 -2003.44 -2004.50 -2005.48 -1999.13 -1996.25 -1994.98 -1990.76 -1992.41 -1995.47 -1971.68 -1956.14 -1935.93 -1961.24 -1991.26 -2012.12 -2010.47 -2035.70 -2053.02 -2103.95 -2752.47 -3127.35 -3413.98 -3845.71 -3858.82 -3856.82 -3881.36 -3916.07 -3915.68 -3915.74
-2206.03 -2205.95 -2214.81 -2191.28 -2197.04 -2197.68 -2228.59 -2245.80 -2260.20 -2301.19 -2318.11 -2312.47 -2322.83 -2298.81 -2260.85 -2235.89 -2172.35 -2150.44 -2168.48 -2163.60 -2166.35 -2180.47 -2188.55 -2177.43 -2184.65 -2183.76 -2240.84 -2293.52 -2295.80 -2253.31 -2238.81 -2231.80 -2233.22 -2230.00 -2230.14 -2229.83 -2223.37 -2206.54 -2164.40 -2067.43 -1918.46 -1731.45 -1680.91 -1544.82 -1352.46 -1169.33 -968.37 -715.96 -607.05 -525.69 -412.98 -429.99 -437.08 -399.67 -383.58 -353.69 -314.01 -297.53 -271.11 -199.98 -196.97 -178.48 -109.07 -106.47 -76.99 -67.98 -54.49 -58.62 -44.61 -51.65 -55.24 -42.53 -67.62 -87.11 -128.36 -142.67 -192.49 -183.57 -202.41 -343.64 -545.62 -650.27 -815.32 -1285.71 -1687.20 -2004.53 -2075.90 -2044.34 -2042.82 -2001.79 -1986.90 -1961.71 -1957.43 -1941.37 -1943.44 -1945.45 -1962.52 -1955.78 -1970.54 -1948.14 -1948.29 -1912.51 -1924.11 -2000.70 -2018.46 -2069.44 -2061.93 -2061.57 -2048.70 -2034.59 -2018.81 -2027.77 -2029.32 -2030.45 -2020.05 -2008.37 -2007.17 -2000.30 -2000.98 -2018.86 -2023.52 -2070.68 -2005.46 -1981.16 -1980.85 -2035.13 -2041.01 -2051.71 -2046.08 -2065.79 -2243.21 -2755.66 -3142.11 -3608.91 -3849.88 -3865.18 -3877.32 -3877.10 -3912.18 -3918.28 -3917.50
-2313.86 -2298.64 -2342.50 -2316.25 -2324.81 -2364.73 -2333.12 -2374.75 -2431.39 -2347.91 -2440.86 -2429.03 -2388.77 -2369.11 -2415.27 -2366.90 -2246.44 -2257.68 -2319.67 -2308.60 -2338.52 -2323.93 -2337.20 -2365.88 -2285.33 -2487.69 -2455.71 -2447.12 -2324.34 -2293.40 -2272.87 -2257.89 -2247.75 -2242.90 -2239.81 -2239.00 -2231.34 -2221.21 -2218.08 -2183.57 -2028.98 -1883.12 -1731.43 -1663.39 -1295.97 -885.45 -634.29 -558.75 -469.86 -418.22 -393.46 -525.83 -486.76 -461.58 -428.77 -432.78 -441.98 -372.56 -485.60 -420.40 -291.29 -198.30 -185.47 -172.82 -158.73 -144.56 -148.21 -130.56 -115.32 -112.70 -98.78 -111.06 -161.58 -150.97 -224.05 -320.41 -312.59 -293.39 -395.99 -518.02 -722.05 -1031.41 -1252.48 -1677.54 -1881.27 -2099.34 -2134.81 -2147.68 -2144.42 -2166.56 -2122.93 -2063.22 -2028.17 -2090.50 -2093.98 -2024.16 -2025.77 -2055.45 -2152.47 -2095.17 -2046.87 -2047.13 -2090.94 -2120.74 -2126.25 -2169.93 -2125.01 -2128.42 -2095.86 -2057.42 -2062.72 -2052.38 -2050.29 -2050.41 -2040.61 -2028.66 -2021.84 -2010.28 -2032.37 -2052.41 -2069.16 -2100.23 -2215.49 -2206.39 -2172.37 -2179.90 -2132.44 -2123.95 -2202.38 -2173.18 -2208.69 -2772.73 -3350.51 -3797.13 -3851.72 -3864.64 -3874.52 -3917.01 -3925.14 -3918.39 -3918.46
-2730.46 -2695.16 -2719.57 -2572.68 -2613.77 -2743.52 -2800.16 -2763.17 -2796.94 -2683.18 -2859.79 -2679.15 -2590.88 -2534.61 -2642.79 -2738.11 -2895.62 -2640.99 -2666.79 -2839.31 -2683.85 -2744.31 -3005.09 -2757.39 -2876.82 -2736.94 -2686.47 -2540.56 -2392.80 -2324.92 -2305.16 -2290.93 -2276.00 -2259.23 -2247.66 -2244.94 -2244.07 -2251.81 -2258.07 -2214.47 -2203.20 -2097.49 -1923.13 -1649.67 -990.69 -736.01 -628.89 -537.58 -563.68 -557.81 -636.44 -684.06 -679.98 -623.59 -581.64 -571.07 -626.07 -706.02 -610.15 -631.78 -534.58 -463.31 -430.17 -351.61 -335.56 -268.06 -222.74 -254.47 -226.34 -218.34 -220.07 -234.84 -302.58 -388.86 -393.82 -488.21 -431.69 -469.87 -575.14 -733.51 -1116.48 -1361.83 -1752.45 -1981.26 -2155.27 -2172.97 -2256.06 -2367.94 -2365.67 -2525.38 -2603.39 -2684.93 -2361.32 -2310.06 -2283.55 -2189.27 -2174.56 -2178.17 -2367.80 -2518.30 -2527.38 -2452.44 -2450.94 -2486.43 -2587.78 -2394.78 -2291.70 -2262.85 -2201.57 -2122.23 -2152.75 -2123.83 -2103.99 -2097.28 -2054.69 -2053.24 -2060.53 -2057.16 -2097.46 -2118.62 -2243.00 -2187.05 -2398.98 -2467.52 -2395.34 -2484.16 -2345.21 -2408.06 -2468.58 -2483.85 -2731.88 -2977.25 -3363.82 -3781.12 -3887.86 -3883.34 -3886.22 -3928.32 -3927.75 -3919.64 -3919.71
-3460.55 -3460.01 -3465.78 -3325.43 -3364.33 -3337.72 -3336.49 -3403.31 -3525.26 -3337.63 -3224.29 -3074.59 -2961.86 -3074.75 -3184.45 -3095.96 -3430.12 -3405.79 -3600.24 -3343.63 -3340.66 -3361.12 -3485.98 -3541.70 -3296.00 -3001.74 -2815.32 -2587.34 -2463.08 -2425.86 -2343.86 -2330.25 -2295.18 -2268.04 -2265.83 -2257.36 -2257.86 -2272.47 -2271.63 -2260.56 -2228.52 -2265.15 -2119.06 -1646.90 -1075.17 -825.18 -843.68 -875.16 -856.88 -827.36 -867.06 -1105.12 -970.83 -891.19 -1011.93 -871.61 -996.33 -1051.69 -1075.96 -1183.92 -680.83 -776.48 -789.40 -558.96 -405.68 -378.91 -385.18 -500.66 -544.27 -417.85 -321.20 -384.40 -498.86 -517.87 -595.21 -835.91 -869.33 -894.07 -948.25 -1160.27 -1512.73 -1740.90 -1977.12 -2356.01 -2511.46 -2550.35 -2434.26 -2571.16 -2651.27 -2889.15 -3087.13 -3072.40 -2690.93 -2623.74 -2765.20 -2532.13 -2575.84 -2700.80 -2687.60 -2863.68 -2846.58 -3266.94 -3263.98 -2952.07 -2745.02 -2523.37 -2424.13 -2346.72 -2356.25 -2251.71 -2217.38 -2230.81 -2293.03 -2187.17 -2133.74 -2128.14 -2103.00 -2108.21 -2157.44 -2234.46 -2387.07 -2453.84 -2490.29 -2742.71 -2940.88 -2820.52 -3020.53 -2674.35 -3044.96 -3200.76 -3133.83 -3492.73 -3676.81 -3885.86 -3938.58 -3940.44 -3938.23 -3932.61 -3926.95 -3921.83 -3921.91
-3995.28 -3994.93 -3995.24 -3913.47 -3971.27 -3959.98 -3939.43 -3898.30 -3893.53 -3813.03 -3632.86 -3702.65 -3507.49 -3544.79 -3714.98 -3894.86 -3955.50 -3993.19 -4139.25 -3979.84 -4102.92 -4041.57 -3813.51 -3772.98 -3490.86 -3217.45 -3027.31 -2864.86 -2639.11 -2567.95 -2412.01 -2384.06 -2323.94 -2280.27 -2282.98 -2287.27 -2296.54 -2304.09 -2313.18 -2297.20 -2358.77 -2376.43 -2149.82 -1829.28 -1334.45 -1124.24 -1216.46 -1585.04 -1493.23 -1429.84 -1388.39 -1408.76 -1300.20 -1448.30 -1578.06 -1234.48 -1459.91 -1749.72 -1819.47 -1700.37 -1394.46 -1167.26 -1099.28 -928.12 -749.41 -658.62 -659.05 -798.24 -841.16 -854.95 -614.35 -545.29 -700.93 -826.55 -914.43 -1066.52 -1279.75 -1217.46 -1554.29 -1521.45 -1949.96 -2363.12 -2409.10 -2758.04 -2692.78 -2653.51 -2690.91 -3019.41 -3050.62 -3320.63 -3607.64 -3749.62 -3541.26 -3442.50 -3307.25 -3110.58 -2979.63 -3114.40 -3134.02 -3141.09 -3341.56 -3726.28 -3669.06 -3363.00 -3042.71 -3005.30 -2674.28 -2638.00 -2639.39 -2448.52 -2351.09 -2427.44 -2429.90 -2307.94 -2280.34 -2284.43 -2198.91 -2181.15 -2215.55 -2380.39 -2562.42 -2815.92 -3027.65 -3194.57 -3475.49 -3567.20 -3612.63 -3408.19 -3611.08 -3596.79 -3692.29 -3753.68 -3870.32 -3919.15 -3935.13 -3935.91 -3934.06 -3931.49 -3929.20 -3924.85 -3924.93
-4167.46 -4167.33 -4162.33 -4136.14 -4151.66 -4136.39 -4149.91 -4153.34 -4116.89 -4127.84 -4017.30 -4033.38 -4006.74 -4059.24 -4129.25 -4151.56 -4252.91 -4239.38 -4256.17 -4276.26 -4236.39 -4179.31 -4077.10 -3858.00 -3634.26 -3374.46 -3141.79 -3020.69 -2802.69 -2603.01 -2523.10 -2451.16 -2411.82 -2389.48 -2328.36 -2330.44 -2332.58 -2348.06 -2367.49 -2364.82 -2419.60 -2472.10 -2472.10 -2266.90 -1900.70 -2023.31 -2442.96 -2466.60 -2541.64 -2207.33 -1951.63 -1902.43 -1984.69 -1948.33 -2097.66 -1875.47 -2366.08 -2263.02 -2419.20 -2566.28 -1984.37 -1738.02 -1498.23 -1402.92 -1214.03 -1201.44 -1268.79 -1019.39 -1357.29 -1199.37 -1172.91 -1251.78 -1213.20 -1248.90 -1263.98 -1465.05 -1620.81 -1761.38 -1920.29 -2512.86 -2699.11 -2661.94 -2957.74 -3112.80 -3014.77 -2837.68 -3160.85 -3418.73 -3687.88 -3730.19 -3817.31 -3997.52 -4028.77 -4037.29 -3870.76 -3643.30 -3676.79 -3782.96 -3632.58 -3758.36 -3870.46 -3958.36 -3954.90 -3861.66 -3674.70 -3258.87 -3129.49 -2861.77 -2756.84 -2556.91 -2546.69 -2680.11 -2693.17 -2549.19 -2390.41 -2312.14 -2370.49 -2421.77 -2425.88 -2661.13 -2831.11 -3019.41 -3290.82 -3523.33 -3732.56 -3844.39 -3755.52 -3738.80 -3836.29 -3900.38 -3905.97 -3914.85 -3927.78 -3939.70 -3937.16 -3935.78 -3934.95 -3934.08 -3931.99 -3928.11 -3928.18
-4197.31 -4196.05 -4196.58 -4199.57 -4199.75 -4202.48 -4203.75 -4214.33 -4225.74 -4228.79 -4203.48 -4221.64 -4234.82 -4236.58 -4248.69 -4256.92 -4263.71 -4276.24 -4277.88 -4303.53 -4297.76 -4262.66 -4099.48 -3947.89 -3671.00 -3429.60 -3189.33 -3069.80 -2858.62 -2713.73 -2598.18 -2555.93 -2541.91 -2455.41 -2420.55 -2401.32 -2385.41 -2391.79 -2419.70 -2442.60 -2486.53 -2565.71 -2589.65 -2540.39 -2649.71 -2651.09 -2971.03 -3367.68 -3257.92 -3109.18 -2429.17 -2368.18 -2444.85 -2482.21 -2676.45 -2879.56 -3290.18 -3335.70 -3084.55 -3077.54 -2906.93 -2268.98 -2087.56 -2076.17 -1837.32 -1643.80 -1672.06 -1588.79 -1688.21 -1726.22 -1691.92 -1495.86 -1534.71 -1915.29 -1854.60 -1883.02 -2112.65 -2114.48 -2448.26 -2836.91 -3155.38 -3199.92 -3295.70 -3219.66 -3337.26 -3165.50 -3237.01 -3702.36 -3952.82 -3922.50 -3924.14 -4053.62 -4093.94 -4107.69 -4031.14 -3954.90 -3954.77 -4021.89 -4012.06 -4027.60 -4012.32 -4035.84 -4016.74 -3969.55 -3948.58 -3568.86 -3352.02 -3177.32 -3034.54 -3018.18 -2905.39 -2867.95 -2813.70 -2772.77 -2731.17 -2474.23 -2645.55 -2754.04 -2644.71 -2822.24 -3156.52 -3390.78 -3463.50 -3838.12 -3887.39 -3947.85 -3921.05 -3980.16 -3978.41 -3975.00 -3964.43 -3963.05 -3957.37 -3945.06 -3941.59 -3939.80 -3938.23 -3937.19 -3934.40 -3931.20 -3931.27
-4208.62 -4208.54 -4211.07 -4218.19 -4217.26 -4215.50 -4215.43 -4220.99 -4231.45 -4242.63 -4246.55 -4248.08 -4248.35 -4263.77 -4272.54 -4274.30 -4277.00 -4283.40 -4293.49 -4305.74 -4305.15 -4266.73 -4201.29 -4030.37 -3975.83 -3627.47 -3528.40 -3223.71 -3049.57 -2840.31 -2766.26 -2786.20 -2718.91 -2600.83 -2543.81 -2490.66 -2534.14 -2534.04 -2505.77 -2546.31 -2601.17 -2648.19 -2722.67 -2939.92 -3188.45 -3469.99 -3771.24 -3952.68 -3875.64 -3365.22 -3093.62 -2762.51 -2955.03 -3175.83 -3223.60 -3378.48 -3604.10 -3781.28 -3707.54 -3575.08 -3295.31 -3114.29 -2919.74 -2533.99 -2437.51 -2563.02 -2288.76 -2308.33 -2469.63 -2686.56 -2563.57 -2561.42 -2521.25 -2590.24 -2393.40 -2688.55 -2464.82 -2813.44 -2831.70 -3288.01 -3601.16 -3630.13 -3806.60 -3855.53 -3764.90 -3587.55 -3630.50 -3838.52 -3998.59 -4099.25 -4085.81 -4110.79 -4110.68 -4112.85 -4103.17 -4058.67 -4042.84 -4086.44 -4079.70 -4071.75 -4049.80 -4054.78 -4054.70 -4063.04 -3998.46 -3947.36 -3741.10 -3437.29 -3313.52 -3397.30 -3366.73 -3055.04 -2996.03 -3129.93 -3048.17 -2833.81 -2829.40 -3110.01 -3167.42 -3205.58 -3295.00 -3574.81 -3740.48 -3893.99 -3989.64 -3983.98 -4002.85 -3999.25 -3989.48 -3980.99 -3971.91 -3963.12 -3956.55 -3949.47 -3945.32 -3944.59 -3940.93 -3939.90 -3936.68 -3934.07 -3934.15
-4220.36 -4220.28 -4225.17 -4226.18 -4231.45 -4231.06 -4236.38 -4230.02 -4234.37 -4238.77 -4247.81 -4251.74 -4259.07 -4265.51 -4274.74 -4277.71 -4281.21 -4289.50 -4298.75 -4309.44 -4314.14 -4310.68 -4277.13 -4144.67 -4025.09 -3951.44 -3743.87 -3516.40 -3210.36 -3042.92 -3051.59 -2997.94 -2885.68 -2765.55 -2839.05 -2764.48 -2693.51 -2778.47 -2764.50 -2687.36 -2665.57 -2827.78 -2840.36 -3252.87 -3560.00 -4016.34 -4141.66 -4208.06 -4059.30 -3782.88 -3664.65 -3356.01 -3358.48 -3502.86 -3696.48 -3809.40 -3915.12 -3974.22 -3958.62 -3904.60 -3658.90 -3498.29 -3429.34 -3327.02 -3189.41 -3338.97 -3311.82 -3149.34 -3143.77 -3113.34 -3124.65 -3404.37 -3454.60 -2990.39 -2999.81 -3139.18 -3459.14 -3417.82 -3289.97 -3660.07 -3844.37 -3934.59 -3944.05 -4040.19 -3959.17 -3955.37 -4062.14 -4066.38 -4098.61 -4134.88 -4126.47 -4128.62 -4130.25 -4114.20 -4107.07 -4093.21 -4086.70 -4077.09 -4068.93 -4057.76 -4047.97 -4050.49 -4058.64 -4066.84 -4072.96 -4024.42 -3901.59 -3791.50 -3801.76 -3731.45 -3611.94 -3281.40 -3245.62 -3246.05 -3234.41 -3232.06 -3260.64 -3401.39 -3397.37 -3655.72 -3768.12 -3912.84 -3943.52 -4012.71 -4015.72 -4011.71 -4014.55 -4004.40 -3987.08 -3978.02 -3969.53 -3963.11 -3956.96 -3951.68 -3950.71 -3946.55 -3945.56 -3942.56 -3939.79 -3936.93 -3936.86
-4231.77 -4231.68 -4235.65 -4244.29 -4240.60 -4241.43 -4243.26 -4243.31 -4242.16 -4246.18 -4249.81 -4251.81 -4258.68 -4265.15 -4274.87 -4279.18 -4289.90 -4294.23 -4306.52 -4316.04 -4316.13 -4315.06 -4300.89 -4233.10 -4158.80 -4067.24 -3916.89 -3757.84 -3413.97 -3380.86 -3355.22 -3201.82 -3098.56 -3068.59 -3100.91 -3010.42 -2980.56 -2934.43 -3060.85 -2967.50 -3069.19 -3057.43 -3093.08 -3284.81 -3705.03 -4091.07 -4231.09 -4229.21 -4140.67 -3981.38 -3868.91 -3740.78 -3712.83 -3791.45 -3945.68 -3947.60 -4029.94 -4095.43 -4091.32 -4069.52 -3961.46 -3861.20 -3830.68 -3733.58 -3687.51 -3746.90 -3812.56 -3668.10 -3729.27 -3991.68 -3949.53 -3831.94 -3811.74 -3420.16 -3363.42 -3531.39 -3876.25 -3818.83 -3762.62 -3814.67 -4002.65 -4069.42 -4075.81 -4149.77 -4184.57 -4217.61 -4195.13 -4198.19 -4185.31 -4167.32 -4150.56 -4144.79 -4135.28 -4123.40 -4102.17 -4094.77 -4085.25 -4076.65 -4065.95 -4052.11 -4047.90 -4050.74 -4060.44 -4081.47 -4083.10 -4066.67 -4023.78 -4048.80 -4015.57 -3960.39 -3800.38 -3574.19 -3377.18 -3570.47 -3515.16 -3481.19 -3556.90 -3744.28 -3753.36 -3926.31 -3977.50 -3995.76 -4006.46 -4035.86 -4033.09 -4024.46 -4013.25 -3993.64 -3985.71 -3976.43 -3971.30 -3963.69 -3960.71 -3956.95 -3953.73 -3950.54 -3948.31 -3944.95 -3941.95 -3939.41 -3939.49
-4242.01 -4241.92 -4248.57 -4251.26 -4254.83 -4257.45 -4258.23 -4256.82 -4258.21 -4256.61 -4257.69 -4259.52 -4259.91 -4269.59 -4275.64 -4286.44 -4296.99 -4304.95 -4315.52 -4321.01 -4318.93 -4320.97 -4311.29 -4297.67 -4255.32 -4191.62 -4074.30 -3953.01 -3946.74 -3630.17 -3524.98 -3414.57 -3384.99 -3497.09 -3400.07 -3480.77 -3359.00 -3223.03 -3321.56 -3300.11 -3305.36 -3330.60 -3382.45 -3623.50 -3967.79 -4092.35 -4231.27 -4256.63 -4215.32 -4144.71 -4083.64 -4017.93 -3986.19 -4038.06 -4058.43 -4113.30 -4160.16 -4183.30 -4188.56 -4186.90 -4078.35 -4027.93 -4085.76 -4098.13 -4107.43 -4081.55 -4080.19 -4147.68 -4222.75 -4193.99 -4213.42 -4156.58 -4091.47 -3987.96 -3941.43 -4089.06 -4012.67 -4026.18 -4065.03 -4076.53 -4154.55 -4210.16 -4206.26 -4236.10 -4235.62 -4228.69 -4218.49 -4210.35 -4194.08 -4182.36 -4166.94 -4155.35 -4140.66 -4122.61 -4114.68 -4104.62 -4095.56 -4081.74 -4070.83 -4066.75 -4061.52 -4059.46 -4072.93 -4084.02 -4090.08 -4097.16 -4095.65 -4090.93 -4089.84 -4034.11 -3908.64 -3851.80 -3864.86 -3868.11 -3820.86 -3863.17 -3860.93 -3872.59 -3947.66 -4061.28 -4059.48 -4052.48 -4047.82 -4045.03 -4034.82 -4023.51 -4007.96 -3994.85 -3986.17 -3976.55 -3973.20 -3967.53 -3964.19 -3960.01 -3955.31 -3953.55 -3950.54 -3948.13 -3944.46 -3942.12 -3942.06
-4250.64 -4250.55 -4259.04 -4263.25 -4267.01 -4273.75 -4270.97 -4270.24 -4267.81 -4269.61 -4270.41 -4272.95 -4272.99 -4277.80 -4285.63 -4290.58 -4300.41 -4310.36 -4317.87 -4322.43 -4323.96 -4324.13 -4327.47 -4320.12 -4311.41 -4284.79 -4221.04 -4200.40 -4112.69 -3918.51 -3771.21 -3734.71 -3659.94 -3665.60 -3788.50 -3942.87 -3935.39 -3682.09 -3568.74 -3495.84 -3546.20 -3588.83 -3766.28 -3963.52 -4230.41 -4230.33 -4252.57 -4262.48 -4251.83 -4235.52 -4188.42 -4166.00 -4132.45 -4131.79 -4143.61 -4179.94 -4208.81 -4218.47 -4222.56 -4206.50 -4186.84 -4194.23 -4229.01 -4218.56 -4221.09 -4231.76 -4212.17 -4251.48 -4257.56 -4258.22 -4254.57 -4225.33 -4236.54 -4236.87 -4193.51 -4208.98 -4192.18 -4179.98 -4199.09 -4201.12 -4217.18 -4242.01 -4242.95 -4243.12 -4236.82 -4230.97 -4219.27 -4211.19 -4204.08 -4188.59 -4177.04 -4161.68 -4152.76 -4139.55 -4133.98 -4121.56 -4102.74 -4095.26 -4080.50 -4076.80 -4074.01 -4078.73 -4085.32 -4092.53 -4096.07 -4102.25 -4106.96 -4111.73 -4109.61 -4110.80 -4084.05 -4071.65 -3995.47 -4005.92 -4005.79 -4067.17 -4037.20 -4030.62 -4059.30 -4074.38 -4068.47 -4058.91 -4051.25 -4046.54 -4033.74 -4022.07 -4008.97 -3998.09 -3991.14 -3979.91 -3976.68 -3972.85 -3966.82 -3963.87 -3958.77 -3957.21 -3953.57 -3950.67 -3947.73 -3944.50 -3944.59
