-5039.71 -5039.67 -5046.37 -5031.46 -5031.11 -5034.75 -5050.80 -5085.73 -5131.56 -5185.13 -5186.66 -5191.80 -5197.23 -5195.18 -5206.03 -5207.13 -5212.41 -5223.16 -5232.37 -5244.76 -5229.18 -5177.90 -5119.40 -4833.60 -4515.95 -4427.04 -4837.20 -5028.65 -5023.96 -5232.48 -5108.22 -4750.18 -4466.34 -4007.05 -3431.05 -2891.94 -2548.39 -2529.15 -2701.56 -2666.62 -3009.13 -3492.43 -3424.31 -4100.86 -4442.67 -4825.69 -5388.86 -5386.00 -5428.29 -5420.53 -5423.70 -5406.13 -5397.72 -5412.50 -5409.16 -5418.32 -5427.90 -5425.72 -5415.01 -5411.41 -5412.30 -5395.92 -5355.13 -5338.14 -5323.44 -5316.98 -5314.78 -5292.07 -5203.06 -4966.83 -4670.15 -4175.64 -3865.49 -3439.99 -2654.45 -2224.65 -1803.72 -1399.64 -1140.10 -1161.34 -727.04 -541.27 -172.93 242.82 247.18 242.05 256.63 253.74 250.90 265.21 269.56 279.05 278.92 286.77 294.85 279.04 -178.43 -743.26 -2330.72 -3113.25 -2853.02 -2593.84 -2559.67 -1671.15 -1829.04 -1493.24 -1624.54 -537.53 -438.07 -351.69 -1271.64 -3498.88 -6453.56 -6654.38 -6782.90 -6474.82 -6311.00 -6073.92 -5559.25 -4439.63 -1882.05 -1366.88 -1360.01 -1511.52 -1624.78 -1784.23 -1942.90 -2007.05 -2009.03 -2002.06 -2004.35 -2015.79 -2056.53 -2128.97 -2234.81 -2340.94 -2502.14 -2633.01 -2786.11 -2895.77 -2895.82
-5089.97 -5095.74 -5097.75 -5090.50 -5078.47 -5062.74 -5076.68 -5121.12 -5189.73 -5252.61 -5248.61 -5257.12 -5259.35 -5245.50 -5239.38 -5241.83 -5254.61 -5255.72 -5271.26 -5282.58 -5259.22 -5122.62 -4726.03 -4141.90 -3419.47 -3555.02 -3564.03 -4286.03 -4405.28 -4747.48 -4521.60 -3805.89 -3159.26 -2843.01 -2513.04 -2149.60 -1951.66 -1939.31 -2019.69 -2052.75 -2250.96 -2263.60 -2526.99 -2895.00 -3668.65 -4122.70 -4771.93 -5152.25 -5228.98 -5125.67 -5180.47 -5263.86 -5355.23 -5336.38 -5366.43 -5384.61 -5409.67 -5410.05 -5422.34 -5417.24 -5412.40 -5409.85 -5353.64 -5367.64 -5319.25 -5310.70 -5305.00 -5296.79 -5152.24 -4833.04 -4378.89 -3992.79 -3696.57 -3387.54 -2551.97 -2024.21 -1460.82 -1143.81 -669.03 -818.61 -346.74 23.31 95.13 255.35 264.04 269.60 269.50 269.40 275.20 284.38 291.09 292.39 296.12 302.07 319.77 305.14 -17.90 -899.71 -2044.69 -2951.26 -3362.66 -3541.29 -3542.55 -3388.56 -3319.71 -3074.33 -2299.84 -1619.73 -838.81 -849.78 -1666.35 -4881.52 -6158.71 -6136.86 -6089.70 -5994.22 -5614.07 -5696.42 -5301.89 -4273.56 -1947.95 -1370.19 -1360.27 -1579.94 -1728.23 -1816.05 -1948.19 -2007.02 -2011.54 -2003.94 -2001.27 -2033.95 -2054.36 -2105.26 -2226.24 -2464.68 -2665.82 -2813.97 -2957.88 -2972.25 -3001.42
-5197.64 -5186.73 -5172.88 -5162.78 -5142.86 -5139.26 -5148.34 -5193.41 -5209.63 -5293.80 -5302.28 -5300.50 -5302.68 -5321.72 -5344.15 -5316.51 -5337.59 -5317.18 -5309.88 -5316.36 -5272.47 -5080.68 -4345.13 -3284.33 -2569.60 -2454.49 -2888.11 -3233.24 -3204.02 -3665.46 -3869.84 -3217.18 -2330.96 -2047.20 -1942.82 -1763.13 -1474.59 -1556.77 -1498.81 -1775.20 -1756.51 -1972.59 -2127.99 -2384.42 -2707.07 -3057.64 -4006.61 -4504.51 -4568.88 -4649.21 -4804.57 -5042.39 -5025.23 -5193.61 -5296.47 -5363.65 -5361.17 -5399.81 -5406.44 -5417.87 -5416.15 -5398.18 -5343.96 -5312.66 -5308.53 -5315.95 -5242.64 -5275.59 -5155.92 -4770.67 -4312.70 -3824.46 -3509.49 -3127.85 -2565.53 -1547.73 -535.79 -491.48 -418.68 -17.13 244.72 256.02 261.02 271.64 275.94 290.31 299.72 292.63 295.70 306.96 309.84 310.76 318.30 330.24 336.43 301.32 250.99 -88.80 -298.50 -1857.01 -2883.45 -3782.88 -3875.09 -3929.12 -4035.07 -4068.45 -3491.79 -2804.98 -2136.12 -1676.73 -1546.80 -2543.27 -2683.98 -2699.70 -2936.33 -2465.60 -3716.32 -3957.93 -3800.61 -4214.94 -2021.30 -1609.36 -1449.30 -1584.35 -1834.72 -1944.31 -1980.17 -2009.49 -2012.29 -2004.04 -2006.97 -2035.69 -2050.06 -2127.07 -2260.67 -2489.37 -2699.95 -2924.09 -2970.44 -3068.89 -3068.96
-5295.36 -5295.22 -5260.39 -5246.82 -5238.30 -5249.73 -5269.38 -5286.72 -5355.31 -5367.23 -5365.49 -5360.87 -5394.39 -5394.24 -5398.96 -5389.40 -5379.02 -5411.84 -5403.45 -5377.25 -5288.71 -5033.59 -4150.56 -3307.68 -2143.00 -2036.57 -2044.94 -2240.29 -2435.25 -2774.74 -2815.46 -2517.47 -2101.50 -1760.63 -1426.68 -860.45 -855.09 -719.82 -902.23 -1138.88 -1383.94 -1849.81 -2009.74 -1965.55 -2027.96 -2265.75 -2754.52 -3247.55 -3737.98 -3497.14 -3589.67 -3904.99 -4271.07 -4598.29 -5002.89 -5111.92 -5317.76 -5325.56 -5263.15 -5354.70 -5365.93 -5398.82 -5317.12 -5298.47 -5252.36 -5012.82 -5031.78 -4427.81 -4113.84 -3795.76 -3231.44 -3313.54 -3409.21 -2860.14 -2436.90 -1727.13 -538.00 235.72 236.70 244.81 254.77 265.71 278.65 291.24 313.64 315.41 318.07 312.43 318.72 323.83 336.60 345.62 366.19 371.99 366.81 326.11 318.28 121.96 57.33 -1334.04 -2887.05 -3809.87 -3914.64 -4166.53 -4251.23 -4250.41 -4282.27 -4317.56 -3787.81 -2680.12 -1967.80 -1298.83 -1138.57 -1190.65 -1300.41 -1572.85 -1900.42 -2061.89 -2543.73 -3394.16 -2650.51 -1898.49 -1461.86 -1624.27 -1791.39 -1927.55 -2009.07 -2019.27 -2013.39 -2007.66 -2009.80 -2022.52 -2111.44 -2143.88 -2240.50 -2538.27 -2709.89 -3060.54 -3072.80 -3109.79 -3127.15
-5380.84 -5380.71 -5390.95 -5337.56 -5319.76 -5322.01 -5323.22 -5361.86 -5414.54 -5447.01 -5450.35 -5440.50 -5448.59 -5459.57 -5466.00 -5493.62 -5499.03 -5532.24 -5482.93 -5471.84 -5399.50 -5014.68 -3954.30 -2994.37 -2151.17 -2057.04 -2073.50 -2106.41 -2068.97 -2183.19 -2282.40 -2207.78 -1819.05 -1274.46 -747.59 -380.55 -15.96 44.79 -128.56 -334.59 -354.73 -1309.25 -1934.26 -1658.46 -1383.25 -1978.98 -2201.27 -2216.82 -2481.35 -2557.10 -2741.11 -2871.53 -3317.50 -3664.20 -4228.99 -4795.59 -4927.89 -5075.90 -5105.72 -5184.33 -5147.79 -4906.28 -5081.75 -5065.23 -4795.52 -4462.97 -4379.58 -3556.04 -3408.97 -2624.22 -2580.75 -2311.41 -1937.31 -1665.52 -1110.37 -432.83 162.86 240.68 254.29 259.51 264.76 275.87 296.71 318.56 321.03 321.36 330.56 349.69 345.52 356.23 370.68 393.54 399.56 392.54 375.73 328.88 328.07 284.28 141.80 -707.35 -3030.80 -3470.69 -3870.39 -4085.41 -4095.43 -4155.07 -4344.45 -4672.49 -4644.73 -3972.53 -3147.53 -2502.10 -1458.33 -1045.34 -885.94 -848.87 -1274.03 -1190.17 -1703.66 -2543.50 -2294.74 -1804.74 -1554.06 -1646.77 -1763.86 -1904.60 -1992.13 -2011.62 -2017.12 -2019.68 -2025.86 -2058.39 -2125.99 -2191.31 -2306.88 -2506.79 -2688.63 -2969.39 -3109.63 -3164.13 -3164.20
-5448.15 -5448.03 -5454.68 -5422.40 -5432.20 -5434.06 -5429.39 -5447.99 -5478.78 -5492.17 -5489.63 -5496.83 -5496.92 -5518.41 -5535.58 -5543.89 -5545.95 -5565.83 -5561.07 -5559.02 -5458.88 -5152.33 -4018.85 -3257.62 -2392.71 -2397.07 -2497.35 -2470.98 -2179.68 -2090.83 -2084.93 -1944.37 -1775.32 -688.80 -179.17 236.27 245.89 263.07 257.96 134.21 40.57 -278.58 -791.10 -398.01 -843.97 -1744.20 -1893.13 -2008.66 -2018.47 -2213.11 -2253.36 -2201.87 -2147.49 -3070.26 -3052.71 -3482.04 -3926.77 -4252.06 -4278.93 -4405.56 -4158.01 -4387.46 -4181.20 -4285.52 -3807.35 -3243.79 -2736.72 -2590.72 -2291.02 -2191.98 -2008.13 -1884.26 -1445.13 -1101.97 -147.64 193.34 236.07 258.22 265.49 279.78 282.80 293.59 311.05 327.00 350.86 365.24 374.72 366.89 367.72 392.45 398.24 413.72 421.51 403.67 381.52 324.63 326.64 388.65 222.38 58.90 -1358.57 -2957.45 -3666.14 -3893.07 -3998.23 -4079.63 -4316.27 -4692.98 -4832.69 -4863.95 -4274.09 -3395.26 -2663.75 -1690.23 -1125.24 -914.37 -838.90 -854.51 -1099.30 -1537.98 -1894.00 -1823.76 -1604.44 -1708.32 -1837.41 -1939.60 -2013.53 -2023.71 -2026.83 -2044.27 -2098.91 -2110.44 -2185.87 -2311.76 -2392.81 -2652.53 -2861.40 -3137.86 -3270.04 -3323.68 -3323.94
-5487.28 -5484.74 -5486.74 -5482.08 -5481.40 -5476.52 -5481.43 -5494.60 -5496.96 -5504.28 -5505.96 -5510.90 -5517.79 -5531.50 -5554.46 -5587.52 -5602.87 -5610.37 -5617.09 -5601.68 -5509.13 -5344.39 -4585.73 -3654.26 -3589.56 -3218.85 -3462.59 -3519.50 -2784.60 -2472.09 -2194.48 -1879.50 -1434.01 -532.52 82.45 242.47 272.50 311.40 323.69 288.20 256.03 141.97 141.16 118.54 -271.82 -1197.42 -1549.28 -1730.51 -1799.78 -1954.23 -1950.74 -1960.23 -1928.88 -1826.09 -2212.19 -2599.85 -2809.03 -2897.62 -2968.89 -2918.95 -2947.55 -3164.17 -2883.53 -3082.22 -2803.06 -2487.93 -2477.88 -2264.43 -2208.81 -2082.43 -1882.06 -1136.43 -637.75 -124.84 195.38 284.95 280.53 283.37 282.92 299.56 305.22 320.33 335.22 357.50 371.09 385.72 389.37 388.50 400.04 411.70 425.38 437.45 460.59 453.85 427.73 381.65 358.56 369.64 285.37 104.36 -33.71 -1729.28 -2564.63 -3008.60 -3546.20 -4260.74 -4332.93 -4468.78 -4635.60 -4919.36 -4895.24 -4778.52 -3618.46 -3173.21 -2295.82 -1286.04 -1031.70 -837.55 -866.49 -1030.00 -1293.64 -1548.03 -1569.08 -1672.43 -1873.59 -1940.76 -2015.60 -2044.20 -2052.36 -2073.66 -2106.88 -2145.90 -2255.59 -2370.93 -2530.43 -2841.12 -3043.00 -3247.15 -3373.83 -3465.11 -3465.24
-5498.23 -5498.17 -5498.85 -5498.25 -5498.17 -5500.80 -5504.40 -5506.11 -5507.26 -5507.50 -5512.84 -5517.44 -5524.19 -5539.63 -5568.49 -5592.56 -5608.41 -5617.80 -5628.01 -5628.73 -5587.93 -5453.65 -5065.42 -4739.53 -4630.19 -4856.07 -4751.15 -4291.53 -3308.95 -2681.73 -2348.89 -2128.84 -1783.96 -1024.89 215.66 224.06 249.78 336.41 375.24 319.96 265.48 246.87 243.80 238.66 179.93 -60.55 -517.21 -516.79 -878.42 -1202.53 -1386.63 -1493.99 -1700.83 -1790.59 -1900.55 -1971.99 -2137.90 -2329.45 -2228.32 -2346.68 -2305.40 -2264.90 -2332.34 -2370.96 -2392.02 -2253.97 -2203.20 -2204.32 -2073.40 -1875.73 -1531.56 -405.50 47.15 272.99 326.80 370.09 326.17 306.53 308.72 315.78 315.32 342.01 348.39 375.71 387.58 408.53 416.06 419.54 430.58 427.65 443.14 481.27 486.49 499.92 478.81 435.18 384.64 333.78 336.54 217.40 -137.53 -770.89 -1413.68 -1440.24 -2647.29 -3940.80 -4356.07 -4289.80 -4484.54 -4716.47 -4821.00 -4941.13 -4845.91 -4473.21 -3435.30 -2765.27 -2281.37 -1301.00 -1136.72 -1061.20 -1071.30 -1168.51 -1395.68 -1595.38 -1732.85 -1899.08 -1965.93 -2035.48 -2062.89 -2074.93 -2102.92 -2181.99 -2313.74 -2484.75 -2636.39 -2790.19 -3049.48 -3224.89 -3448.72 -3533.19 -3556.01
-5494.90 -5495.56 -5496.21 -5497.58 -5498.86 -5500.82 -5503.03 -5506.26 -5506.97 -5508.96 -5514.48 -5519.65 -5527.69 -5544.57 -5568.01 -5600.32 -5609.99 -5624.42 -5627.74 -5629.41 -5615.35 -5572.33 -5476.68 -5369.11 -5373.57 -5397.96 -5235.64 -5043.66 -4403.90 -3626.86 -2785.70 -2273.38 -1575.40 -964.03 216.69 225.84 241.97 282.19 357.96 344.81 321.20 265.01 259.57 250.62 246.29 243.14 205.43 168.08 -102.64 -461.54 -462.51 -648.87 -1194.78 -1486.11 -1509.77 -1544.75 -1740.32 -1897.68 -1962.86 -2024.33 -1989.07 -2028.93 -2096.95 -2091.70 -2205.31 -2195.70 -2216.81 -2168.95 -1808.29 -1361.77 -754.65 92.16 273.15 294.05 336.22 385.64 326.66 323.78 328.43 334.11 345.79 373.19 375.21 395.55 409.96 421.41 436.63 447.78 449.46 461.06 494.64 506.24 510.31 526.42 506.80 449.03 418.59 424.93 469.77 514.97 40.86 -48.31 -98.63 -839.75 -1275.40 -2489.26 -4120.62 -4186.02 -4234.49 -4543.67 -4550.73 -4761.70 -4913.88 -4960.13 -4686.49 -4068.11 -3560.77 -2886.00 -1989.45 -1225.02 -1028.06 -931.97 -1185.44 -1389.74 -1631.52 -1772.03 -1939.00 -2004.22 -2050.82 -2065.24 -2104.40 -2195.54 -2316.63 -2404.53 -2599.75 -2719.07 -2888.98 -3135.34 -3448.80 -3561.46 -3586.00
-5487.43 -5487.38 -5486.69 -5489.47 -5494.30 -5494.74 -5497.33 -5501.53 -5505.39 -5510.27 -5513.30 -5521.61 -5529.94 -5542.16 -5571.15 -5593.40 -5606.90 -5617.15 -5620.68 -5627.54 -5618.82 -5587.37 -5529.34 -5516.10 -5505.54 -5503.72 -5502.99 -5364.43 -5155.48 -4779.98 -3608.24 -2447.42 -1378.54 -502.49 171.08 221.56 243.71 258.16 307.85 365.20 358.49 299.83 284.74 288.70 277.51 259.00 259.84 255.09 238.77 235.13 183.65 -85.98 -739.05 -913.33 -1083.24 -1198.24 -1309.67 -1457.08 -1553.10 -1720.54 -1674.23 -1557.29 -1691.79 -1851.79 -1902.85 -2014.00 -2202.79 -2016.87 -851.92 -244.29 78.25 268.40 327.24 345.22 359.82 350.69 342.28 344.08 348.37 362.23 368.76 379.67 387.03 409.72 421.92 437.60 464.46 471.21 474.55 487.55 510.08 511.20 534.77 554.58 530.97 513.39 496.78 506.94 450.50 564.58 359.82 195.60 90.13 -217.95 -669.60 -2128.59 -4128.84 -4053.49 -4188.37 -4389.81 -4578.06 -4812.15 -4949.27 -5078.50 -5212.29 -5049.67 -4896.68 -4404.20 -3290.93 -2030.67 -1288.34 -895.51 -983.58 -1241.57 -1375.86 -1704.82 -1766.67 -1923.10 -1946.97 -2024.74 -2073.16 -2125.72 -2205.24 -2269.18 -2449.25 -2695.75 -2954.36 -3144.54 -3417.69 -3582.51 -3582.57
-5477.39 -5478.55 -5479.69 -5480.33 -5479.75 -5487.74 -5488.06 -5498.98 -5506.97 -5515.20 -5524.76 -5533.38 -5544.40 -5551.48 -5565.92 -5583.37 -5589.43 -5604.17 -5609.52 -5610.02 -5592.17 -5583.89 -5554.70 -5544.14 -5545.80 -5546.60 -5536.56 -5515.50 -5451.67 -5179.70 -3868.93 -2754.05 -1801.27 -605.28 161.11 203.82 236.35 249.64 283.14 343.70 366.11 319.73 302.74 321.06 311.84 317.47 331.36 295.25 276.36 244.15 238.48 183.64 31.53 -378.52 -551.77 -716.73 -684.40 -959.31 -1012.51 -1067.40 -1213.94 -1086.25 -1044.57 -1329.63 -1117.10 -1604.75 -1489.52 -1036.78 -482.43 24.20 263.74 290.45 305.19 339.40 345.49 352.13 354.64 354.65 357.56 374.78 392.05 392.20 412.48 423.50 433.71 454.01 472.21 486.37 500.98 514.11 522.69 542.05 568.39 578.54 584.34 572.22 553.46 528.47 458.62 444.30 312.28 293.41 210.22 -217.56 -525.05 -2610.46 -3838.06 -3975.33 -4051.43 -4312.05 -4638.25 -4697.52 -4807.45 -5005.07 -5194.21 -5254.33 -5192.30 -4913.65 -4174.92 -3006.38 -1398.06 -804.24 -770.05 -958.08 -1101.29 -1343.98 -1587.34 -1828.13 -1858.08 -1900.88 -2055.13 -2090.62 -2150.24 -2208.95 -2320.26 -2511.18 -2781.46 -3188.12 -3399.28 -3487.60 -3486.72
-5464.26 -5464.21 -5463.36 -5468.48 -5471.99 -5476.87 -5480.27 -5499.29 -5516.86 -5539.02 -5541.75 -5551.43 -5559.93 -5565.56 -5565.06 -5562.08 -5566.95 -5566.90 -5580.16 -5575.21 -5575.20 -5563.82 -5557.85 -5558.58 -5561.22 -5561.94 -5571.11 -5565.33 -5459.63 -5225.79 -4109.06 -2876.47 -1460.40 -318.38 172.39 219.64 236.99 246.66 289.55 333.60 343.35 335.08 363.78 373.09 365.63 350.14 395.77 319.51 301.55 282.19 239.61 218.68 111.18 -23.17 -206.32 -342.59 -408.99 -388.92 -509.52 -611.46 -527.99 -470.38 -504.72 -575.20 -340.95 -464.96 -565.02 -22.81 209.54 262.59 270.08 295.80 317.82 324.44 346.80 354.00 360.01 367.82 374.99 389.78 396.82 406.49 426.17 438.42 459.82 475.38 490.69 505.23 526.54 535.59 556.22 586.62 593.39 611.79 606.41 610.17 522.21 456.04 411.29 331.06 294.59 448.39 273.45 -103.13 -936.26 -2757.52 -3363.90 -3831.78 -3826.54 -3987.87 -4342.98 -4487.25 -4741.44 -4948.92 -5164.60 -5266.27 -5284.11 -5135.20 -4603.86 -2794.61 -1509.30 -690.49 -652.94 -736.77 -984.71 -1127.63 -1364.99 -1642.55 -1727.88 -1885.78 -2043.58 -2128.57 -2156.02 -2218.05 -2395.36 -2606.87 -2856.14 -3005.64 -3269.58 -3447.06 -3447.13
-5448.82 -5448.77 -5449.03 -5451.99 -5453.29 -5460.21 -5468.09 -5498.46 -5534.85 -5547.48 -5560.50 -5571.43 -5578.03 -5576.55 -5561.54 -5542.25 -5536.05 -5534.76 -5530.80 -5538.33 -5544.36 -5550.71 -5557.38 -5562.27 -5565.94 -5571.78 -5583.13 -5600.29 -5536.70 -5188.87 -3839.16 -2232.87 -362.88 -19.27 205.02 214.07 226.65 249.27 280.56 341.38 370.50 361.19 374.09 427.34 467.34 529.20 488.00 372.08 317.00 299.44 260.51 241.07 198.06 117.63 -82.35 -168.72 -210.19 -197.40 -259.55 -235.98 -188.79 -125.29 28.18 -8.29 48.95 251.32 268.04 194.63 289.29 315.73 301.47 314.76 322.88 332.02 354.18 357.17 368.71 375.61 382.37 396.84 407.46 419.86 431.24 448.10 471.05 480.76 513.56 529.49 541.36 552.50 574.88 590.74 595.23 632.57 648.56 634.29 606.28 529.71 479.47 420.18 395.80 491.70 426.74 150.58 -795.78 -1828.01 -2702.91 -3251.72 -3839.19 -4010.21 -4203.35 -4433.80 -4662.11 -4837.71 -5102.10 -5237.27 -5283.45 -5231.35 -4706.17 -3106.76 -1623.06 -502.33 -478.12 -548.70 -800.78 -997.47 -1230.74 -1404.49 -1513.68 -1786.66 -2013.50 -2056.33 -2100.75 -2241.14 -2429.33 -2655.59 -2804.06 -3090.35 -3256.99 -3440.91 -3440.97
-5431.45 -5431.40 -5429.26 -5434.27 -5443.15 -5448.40 -5460.86 -5486.56 -5528.87 -5543.89 -5562.14 -5568.87 -5577.42 -5573.28 -5556.80 -5526.54 -5510.77 -5506.51 -5516.40 -5524.08 -5530.40 -5547.12 -5555.33 -5561.78 -5567.70 -5571.93 -5560.74 -5483.04 -5374.65 -3425.04 -2492.99 -901.08 -197.74 173.41 219.22 223.15 224.09 254.69 333.38 361.18 389.21 403.95 409.81 463.63 559.64 585.43 592.38 415.39 350.40 306.04 289.56 265.44 225.33 220.85 136.93 64.57 -73.57 -119.46 -78.66 52.54 105.27 178.59 210.80 244.47 249.74 267.96 308.58 319.20 329.80 312.28 309.77 319.18 326.82 339.45 354.25 358.89 367.62 376.51 384.04 404.42 412.53 429.04 446.43 467.90 482.11 498.58 526.38 536.55 557.15 575.81 586.10 601.24 620.75 648.05 679.98 701.43 686.90 601.59 520.08 461.15 425.78 576.79 575.09 247.84 -43.34 -525.75 -1260.21 -2281.03 -3494.64 -4018.12 -4231.35 -4497.92 -4598.05 -4829.25 -4954.36 -5190.64 -5253.87 -5207.12 -4709.73 -3602.23 -2030.29 -560.78 -407.10 -452.21 -654.15 -791.91 -1017.34 -1239.36 -1454.05 -1706.09 -1908.95 -2001.32 -2055.71 -2167.86 -2314.91 -2585.65 -2874.04 -3128.97 -3262.62 -3436.66 -3436.73
-5411.41 -5413.38 -5415.29 -5417.63 -5421.49 -5428.96 -5448.98 -5469.59 -5502.93 -5532.74 -5550.53 -5558.54 -5568.08 -5568.51 -5545.63 -5520.96 -5506.41 -5503.19 -5510.39 -5516.48 -5528.08 -5544.95 -5553.06 -5555.81 -5556.49 -5515.33 -5412.56 -4571.47 -3780.79 -2838.26 -1330.78 -697.21 36.57 188.37 222.16 231.00 246.37 289.24 336.98 376.32 415.71 448.10 437.78 455.45 540.93 668.11 589.60 493.54 338.89 309.57 295.82 258.56 237.27 231.68 221.84 165.47 94.77 24.22 115.84 141.38 175.83 241.36 249.55 250.83 295.99 322.62 342.27 344.89 330.15 317.30 311.71 319.09 326.70 341.11 349.45 363.53 371.63 380.79 391.66 412.50 418.12 441.66 454.22 473.95 493.03 514.91 533.58 549.27 566.52 583.33 601.49 625.21 635.13 661.92 689.17 725.45 695.89 652.96 532.38 456.71 455.98 569.54 623.85 435.55 230.78 -72.61 -458.59 -2417.04 -3559.17 -4161.24 -4304.59 -4467.94 -4604.52 -4771.38 -4921.74 -5154.87 -5204.97 -5190.00 -4973.50 -3751.11 -1792.64 -537.81 -372.64 -364.32 -412.32 -672.09 -786.68 -1085.46 -1313.35 -1552.02 -1702.07 -1866.72 -1980.75 -2055.41 -2163.30 -2415.97 -2642.42 -2844.00 -3126.25 -3257.60 -3256.49
-5387.87 -5387.82 -5388.30 -5394.67 -5403.00 -5407.82 -5423.68 -5448.23 -5481.71 -5517.37 -5531.29 -5545.97 -5551.42 -5545.12 -5524.90 -5512.00 -5499.83 -5499.84 -5509.12 -5518.28 -5526.85 -5542.02 -5542.21 -5545.32 -5453.95 -5408.35 -5189.44 -4156.04 -3313.56 -2016.43 -882.41 -86.50 185.80 224.63 226.76 239.51 254.11 301.04 329.55 365.33 420.25 462.02 476.44 505.36 546.27 690.67 609.07 439.21 363.83 331.76 282.74 268.66 251.96 241.59 235.33 212.30 180.20 150.64 171.76 242.78 254.43 255.33 273.39 313.26 336.41 331.87 333.78 308.06 301.15 303.69 309.12 319.95 328.78 340.39 353.90 362.75 375.51 389.08 397.97 412.09 421.52 446.05 462.30 484.39 503.15 528.00 542.95 558.04 585.70 600.29 616.69 636.07 649.51 681.90 706.53 729.88 697.74 633.64 531.24 574.05 580.01 574.01 461.13 408.65 230.75 39.34 -197.14 -677.29 -2820.81 -4202.95 -4332.32 -4489.71 -4586.67 -4805.57 -4963.78 -5105.45 -5171.82 -5134.93 -4826.83 -4382.64 -1778.45 -662.06 -296.00 -299.92 -323.86 -611.84 -790.11 -1102.40 -1350.24 -1359.33 -1580.19 -1718.58 -1863.28 -2005.53 -2134.23 -2363.27 -2530.91 -2835.82 -3045.12 -3172.94 -3172.99
-5360.20 -5360.15 -5355.59 -5366.12 -5370.40 -5384.41 -5386.95 -5427.29 -5450.81 -5466.79 -5482.64 -5511.99 -5523.74 -5529.06 -5515.17 -5496.76 -5496.79 -5503.38 -5511.15 -5521.56 -5524.09 -5516.81 -5451.07 -5433.15 -5159.28 -4624.92 -4187.75 -3484.86 -2699.79 -1197.95 -363.26 154.55 207.94 231.74 243.18 249.96 261.95 287.72 341.43 378.55 413.57 471.47 509.57 523.72 560.20 621.08 542.04 484.60 363.59 331.50 293.75 275.48 266.97 250.68 240.09 235.22 209.12 195.69 232.28 255.30 264.18 299.09 344.10 338.03 321.18 313.44 310.81 293.62 289.75 297.86 307.23 323.26 328.55 344.10 351.74 361.03 374.42 392.03 401.09 409.87 432.63 462.67 474.43 502.42 520.27 541.28 555.85 574.43 595.88 622.54 642.81 658.41 666.58 699.57 727.50 730.51 686.22 606.30 630.21 714.10 747.48 601.96 452.42 655.77 367.33 223.74 -152.95 -1054.56 -2828.00 -3718.84 -4198.01 -4309.98 -4558.97 -4748.75 -4975.95 -5059.27 -5102.58 -5079.08 -4937.79 -3536.26 -1976.44 -686.22 -323.14 -262.31 -341.43 -471.84 -807.40 -945.56 -1043.86 -1282.57 -1549.41 -1650.44 -1828.33 -1966.36 -2139.43 -2232.13 -2551.87 -2784.09 -2903.27 -2986.57 -2986.49
-5328.59 -5328.54 -5329.44 -5334.88 -5340.73 -5350.63 -5368.28 -5379.34 -5404.82 -5423.98 -5441.82 -5475.51 -5477.25 -5496.93 -5496.41 -5493.36 -5496.26 -5507.39 -5508.96 -5499.62 -5481.65 -5424.30 -5329.76 -5046.82 -4252.36 -4004.82 -2949.68 -2572.69 -1603.32 -378.61 147.83 201.22 231.85 249.19 253.63 260.57 284.02 298.27 318.57 349.26 392.17 447.10 491.06 521.01 549.41 556.48 550.34 496.94 432.97 329.05 284.49 278.36 268.48 255.61 250.57 246.39 244.48 246.62 249.53 280.76 300.97 349.24 355.56 324.60 305.10 290.52 280.29 280.83 286.05 291.25 308.32 317.07 330.57 339.13 349.82 364.89 382.55 393.95 404.02 410.62 444.33 466.40 480.14 514.91 527.62 552.80 582.13 590.70 612.09 648.13 654.74 673.29 680.44 710.65 732.08 728.23 707.32 640.34 705.00 737.95 659.80 544.62 478.03 796.78 448.87 122.37 -180.56 -1163.38 -2774.99 -3500.24 -3829.48 -4175.33 -4468.15 -4585.79 -4955.90 -5033.37 -5059.87 -5029.62 -4828.22 -3545.49 -2021.22 -548.75 -261.12 -234.87 -297.28 -467.39 -648.33 -809.40 -945.06 -1161.54 -1473.68 -1585.68 -1737.86 -1982.57 -2128.88 -2235.70 -2348.24 -2630.49 -2764.30 -2930.51 -2930.57
-5293.67 -5296.64 -5294.68 -5308.21 -5311.80 -5316.21 -5324.04 -5354.88 -5367.56 -5384.58 -5386.23 -5415.13 -5440.75 -5452.94 -5467.97 -5480.12 -5490.87 -5498.37 -5503.99 -5422.54 -5318.88 -5055.14 -4534.27 -4013.52 -3496.93 -2702.17 -2279.31 -1890.80 -1264.43 -424.44 102.34 228.58 250.36 262.79 263.99 283.40 296.06 308.40 325.54 343.60 381.64 416.90 462.90 495.89 498.16 494.59 517.84 533.52 483.27 344.32 293.20 278.97 272.22 266.17 257.72 254.67 251.96 254.24 276.47 335.26 373.83 351.73 303.30 287.52 273.10 267.78 263.54 270.12 282.31 284.66 298.63 309.25 322.15 339.97 351.08 366.93 376.49 391.98 408.96 423.83 456.81 466.64 479.36 520.29 538.56 564.38 603.90 621.09 638.35 654.04 668.73 678.83 693.75 711.60 732.23 744.74 730.00 729.94 772.41 751.30 633.72 583.76 582.16 752.53 631.68 261.09 -23.56 -1031.66 -2518.97 -3485.39 -3930.54 -4037.88 -4251.64 -4467.73 -4730.77 -5026.19 -5022.35 -5004.94 -4765.60 -3521.40 -1865.48 -461.22 -232.73 -203.87 -279.04 -396.36 -482.79 -681.43 -1012.79 -1146.84 -1313.59 -1524.11 -1736.82 -1878.23 -2029.43 -2162.44 -2341.14 -2540.29 -2642.03 -2716.93 -2716.84
-5255.58 -5255.53 -5254.74 -5261.18 -5255.69 -5286.87 -5292.04 -5308.16 -5318.73 -5340.26 -5363.02 -5389.26 -5407.58 -5434.21 -5448.99 -5446.28 -5464.48 -5455.51 -5277.46 -5219.00 -4814.64 -4346.20 -3779.49 -2933.04 -2494.40 -2097.08 -1894.29 -1577.13 -884.72 83.09 226.32 251.01 259.06 270.77 285.80 293.04 301.39 312.48 322.52 354.73 375.29 415.03 450.91 488.07 484.64 466.35 461.13 469.61 376.07 351.90 320.21 296.41 278.13 272.45 269.24 266.90 262.33 266.37 311.29 343.28 337.35 311.19 296.03 265.15 260.43 260.22 260.83 267.35 271.84 279.26 291.43 311.41 316.28 329.02 351.59 363.74 379.97 393.16 412.50 439.98 451.73 473.03 505.23 522.13 547.48 582.96 605.38 628.64 645.20 660.52 679.18 693.82 702.06 718.68 729.49 752.24 765.90 786.59 754.08 665.45 610.84 651.73 717.21 853.31 558.09 233.34 130.00 -216.87 -1520.62 -3012.89 -3719.07 -4056.14 -4194.26 -4484.22 -4681.80 -4926.50 -4976.18 -4949.69 -4661.96 -3552.45 -1354.07 -631.83 -219.85 -184.28 -201.78 -381.92 -551.48 -633.75 -871.31 -1111.31 -1328.90 -1482.08 -1722.19 -1858.98 -2018.92 -2148.55 -2328.26 -2457.24 -2573.46 -2660.25 -2660.32
-5214.60 -5214.55 -5207.83 -5219.25 -5225.91 -5232.48 -5235.23 -5274.36 -5287.48 -5315.93 -5338.70 -5358.58 -5392.52 -5408.92 -5407.66 -5399.01 -5278.09 -5151.26 -4818.68 -4253.52 -3721.08 -3471.50 -2615.66 -2172.04 -2120.68 -1863.84 -1466.98 -1033.73 -134.04 225.92 254.78 265.47 270.63 282.50 295.49 309.51 317.04 324.99 345.19 362.14 401.71 431.96 467.56 474.49 448.56 447.84 443.04 427.75 385.40 350.85 324.11 309.50 285.25 275.72 274.03 273.95 269.72 277.90 314.20 343.97 332.25 306.39 284.61 265.50 260.23 259.93 260.14 264.76 268.57 274.44 281.21 295.71 311.33 323.76 351.52 363.70 380.16 384.50 413.54 437.37 455.64 476.42 507.57 531.37 560.14 586.93 604.20 634.21 655.15 675.53 683.90 703.83 712.84 727.42 736.41 752.61 781.86 797.61 754.27 705.61 739.76 787.05 761.99 833.74 438.32 229.13 198.07 -255.65 -1596.59 -3269.66 -3844.61 -4054.40 -4323.40 -4592.78 -4766.96 -4904.42 -4946.10 -4882.64 -4434.84 -3495.61 -1235.03 -432.86 -157.90 -170.38 -198.17 -311.65 -455.40 -547.29 -823.48 -1190.33 -1418.99 -1437.82 -1681.31 -1932.53 -2053.13 -2172.67 -2263.92 -2430.24 -2482.17 -2543.39 -2543.38
-5171.09 -5173.60 -5169.73 -5167.28 -5176.72 -5180.17 -5205.24 -5223.78 -5261.24 -5277.68 -5302.66 -5333.90 -5341.32 -5328.00 -5317.37 -5082.78 -4789.41 -4130.00 -3641.95 -3339.16 -3211.30 -2304.38 -2130.92 -1912.79 -1829.81 -1446.72 -902.47 -229.92 222.72 252.14 260.37 278.22 292.17 311.70 326.01 332.51 332.29 341.74 362.14 379.44 409.13 449.68 461.38 443.49 429.86 418.57 404.57 401.69 380.44 363.09 326.24 318.96 301.32 289.55 285.54 281.86 291.20 317.28 340.58 323.21 310.79 290.63 268.99 262.65 259.98 259.83 259.94 261.93 266.12 270.96 280.35 297.73 308.99 325.80 342.05 361.02 373.15 393.59 428.26 437.47 467.17 494.77 509.28 539.72 568.07 595.75 621.74 659.11 671.19 684.74 698.42 706.40 715.49 727.24 734.73 754.62 773.51 793.74 814.98 809.51 762.78 791.16 871.91 901.00 634.81 238.77 21.23 -857.18 -1685.58 -3005.46 -3778.39 -4084.84 -4359.62 -4605.20 -4812.73 -4874.82 -4898.90 -4844.95 -4433.52 -2875.39 -1155.12 -334.52 -156.99 -155.91 -226.54 -306.26 -390.12 -569.06 -805.33 -1141.67 -1296.86 -1464.96 -1746.69 -1959.71 -2086.84 -2150.58 -2239.91 -2325.39 -2440.02 -2513.49 -2513.56
-5126.23 -5126.18 -5117.69 -5129.34 -5135.15 -5140.61 -5154.96 -5177.10 -5187.21 -5222.45 -5232.22 -5248.95 -5225.83 -5050.54 -4662.06 -4237.44 -3584.99 -3218.33 -2714.16 -2362.17 -2037.09 -1868.81 -1839.55 -1742.77 -1524.46 -1085.03 -163.16 226.72 240.81 260.75 276.17 299.84 310.81 355.52 362.56 350.54 352.89 357.70 378.19 394.47 412.23 448.72 466.64 450.68 424.27 404.63 393.08 381.02 369.20 364.17 336.47 324.56 309.56 305.60 300.26 295.23 303.86 319.98 333.44 315.63 307.40 284.10 276.52 267.80 261.76 259.85 259.84 260.16 263.81 270.57 279.76 294.45 302.91 321.10 340.77 357.29 373.18 396.61 425.84 431.88 485.79 495.99 514.55 549.53 570.91 600.72 633.68 659.99 676.08 694.34 704.07 714.49 721.28 729.77 738.62 754.02 760.10 777.68 801.38 756.50 661.52 759.40 883.10 928.59 601.57 233.26 -295.03 -1290.07 -2202.95 -3154.24 -3645.01 -4111.38 -4325.24 -4456.11 -4686.14 -4738.26 -4764.26 -4624.93 -4340.42 -2501.14 -1424.72 -225.10 -103.76 -106.80 -209.75 -293.67 -420.53 -616.23 -768.38 -1018.96 -1306.57 -1463.42 -1797.55 -1959.11 -2077.65 -2187.08 -2236.64 -2343.30 -2443.13 -2507.84 -2508.12
-5083.57 -5083.52 -5073.98 -5073.40 -5084.11 -5099.69 -5123.56 -5137.22 -5153.65 -5185.88 -5174.37 -5036.40 -4752.76 -4614.01 -4131.86 -3476.52 -3002.33 -2438.75 -2139.94 -2022.46 -1834.23 -1765.56 -1763.66 -1723.32 -1437.36 -670.28 5.55 235.92 255.16 269.42 287.81 303.34 331.08 357.38 410.70 383.78 372.47 383.76 386.08 407.74 429.92 448.65 476.76 456.95 429.68 402.87 385.35 376.25 364.15 355.32 344.19 329.44 323.18 327.52 327.95 322.63 328.79 336.82 332.46 324.66 316.80 295.32 280.42 270.21 264.89 259.96 259.87 260.05 260.48 267.29 274.23 288.48 306.06 325.06 338.15 354.20 377.29 397.54 424.42 441.46 477.70 493.18 521.95 552.05 573.96 606.39 626.17 655.90 678.69 701.00 708.42 717.79 724.35 728.12 744.63 751.16 756.19 721.07 691.16 671.07 589.74 680.59 820.88 888.22 633.63 216.01 94.26 -833.19 -1808.22 -3360.54 -4105.29 -4243.83 -4350.59 -4459.14 -4574.50 -4634.77 -4710.63 -4444.45 -3827.98 -2207.84 -537.63 -153.83 -68.35 -96.60 -171.68 -293.61 -424.83 -593.57 -774.63 -908.18 -1163.19 -1453.95 -1679.54 -1930.11 -2061.43 -2175.00 -2286.34 -2329.38 -2450.51 -2504.97 -2505.05
-5048.02 -5047.96 -5031.96 -5031.69 -5028.89 -5041.97 -5084.70 -5097.56 -5124.84 -5126.25 -5079.91 -4834.03 -4217.31 -3518.96 -2778.42 -2643.02 -2378.54 -2249.14 -2073.86 -1946.65 -1818.96 -1760.03 -1783.76 -1703.22 -1279.88 -590.08 -7.45 243.09 258.82 270.23 292.75 310.33 323.25 359.25 388.21 409.36 412.60 401.61 409.23 420.56 439.93 468.16 477.91 465.85 421.94 398.88 383.47 368.21 360.66 351.13 345.37 338.43 337.25 343.70 340.61 338.11 342.28 362.32 372.15 357.35 347.63 299.37 285.11 272.95 267.26 260.14 260.02 260.11 260.60 264.05 275.76 283.29 301.55 322.45 334.32 351.95 371.65 394.78 413.59 435.27 477.84 499.08 532.17 548.85 593.37 615.79 636.98 665.38 683.90 702.46 711.23 718.02 724.92 729.18 744.36 762.34 773.38 769.19 719.03 622.26 540.06 629.67 694.40 832.24 437.10 230.74 -15.40 -457.41 -1591.96 -2660.85 -3315.73 -4293.88 -4399.64 -4402.10 -4527.82 -4596.86 -4607.12 -4234.17 -3173.04 -1646.19 -403.08 -66.28 -52.31 -103.79 -177.03 -320.02 -438.65 -566.86 -704.74 -886.35 -1137.88 -1326.83 -1647.45 -1849.71 -2044.81 -2234.55 -2389.12 -2459.43 -2566.85 -2597.64 -2597.79
-5026.41 -5024.84 -5009.66 -5002.42 -5005.11 -5017.14 -5039.60 -5063.25 -5050.22 -5048.77 -4877.20 -4508.59 -3419.93 -2816.26 -2309.82 -2066.14 -2103.52 -2157.49 -2100.69 -1945.37 -1851.48 -1800.06 -1776.07 -1638.55 -1164.62 -371.59 214.78 251.66 261.94 274.97 294.79 311.53 341.01 385.72 420.61 436.06 431.81 425.06 433.35 450.79 468.42 473.58 468.21 453.26 401.35 377.83 371.43 364.34 356.48 345.07 343.36 337.12 335.67 342.94 355.76 379.25 401.50 411.09 415.98 373.76 383.03 348.73 299.36 287.26 275.79 262.20 260.23 260.27 260.52 264.64 275.27 281.51 297.26 313.17 333.08 347.51 360.85 389.59 406.65 431.66 468.84 496.19 535.07 563.01 584.87 609.46 631.63 664.90 681.58 698.19 706.61 718.83 726.57 730.68 745.48 760.07 781.30 771.30 717.03 664.31 575.46 494.21 462.56 589.29 417.18 175.75 -35.01 -280.86 -731.22 -1124.11 -2580.84 -3991.04 -3984.10 -4255.76 -4452.92 -4495.73 -4412.10 -3852.53 -1980.65 -621.22 -124.13 -34.61 -38.27 -89.98 -152.28 -313.12 -460.73 -620.16 -735.65 -863.95 -1210.09 -1443.50 -1697.96 -1902.55 -2068.26 -2209.24 -2397.24 -2555.75 -2724.07 -2766.71 -2766.92
-5029.71 -5029.62 -5003.81 -4970.96 -4957.34 -4961.54 -4902.68 -4891.63 -4873.92 -4448.71 -3967.11 -3515.41 -2812.16 -1941.45 -1744.47 -1678.99 -1818.36 -1953.75 -2048.29 -1825.77 -1732.81 -1735.29 -1749.46 -1616.10 -1080.79 -102.91 185.91 246.13 260.82 276.12 297.27 313.17 336.09 358.51 413.62 455.78 479.12 464.14 463.93 471.40 469.06 438.83 423.27 420.84 388.79 366.73 355.84 348.29 345.22 341.64 333.90 328.67 329.43 332.33 349.97 378.10 411.63 437.34 452.41 452.41 439.23 372.61 321.24 291.10 278.32 266.51 261.58 260.50 260.62 263.00 269.54 280.72 295.97 307.11 322.81 343.50 363.25 389.75 403.95 442.87 461.31 494.08 526.00 557.93 575.15 611.39 634.67 659.39 684.83 698.42 707.21 720.00 728.19 734.60 750.36 772.78 797.68 819.69 781.84 660.35 639.99 536.86 530.18 442.46 235.57 178.33 99.78 -115.05 -519.93 -948.38 -2075.28 -3577.19 -3672.64 -4095.66 -4307.98 -4328.19 -4011.44 -3387.35 -1327.43 -226.23 -45.57 6.51 -59.05 -97.56 -128.57 -243.80 -330.49 -529.06 -697.62 -957.97 -1362.26 -1582.66 -1798.40 -1970.46 -2093.10 -2149.84 -2374.09 -2466.33 -2813.78 -2885.75 -2885.92
-5000.71 -4997.31 -4873.01 -4647.17 -4600.97 -4609.78 -4437.64 -4038.53 -3838.95 -3445.29 -2770.22 -2070.31 -1983.75 -1709.47 -1583.10 -1599.03 -1657.34 -1698.32 -1684.67 -1341.60 -1459.54 -1418.13 -1435.74 -1473.86 -1432.27 -198.98 210.60 247.26 259.63 274.01 297.92 321.88 351.98 393.16 433.72 469.84 507.02 501.61 492.70 472.16 455.82 435.33 422.45 398.70 377.64 359.38 345.16 341.03 338.50 325.30 324.59 324.01 326.48 328.63 338.19 343.46 378.10 409.83 453.73 472.69 468.60 411.32 367.98 298.14 286.31 269.66 266.37 262.85 260.94 261.08 261.15 271.86 290.61 304.24 317.34 334.31 353.25 372.94 403.23 431.21 458.62 483.36 505.93 540.97 566.47 599.51 628.50 645.74 678.96 697.16 709.61 722.01 726.99 738.89 761.95 774.84 801.77 828.57 811.60 719.64 645.58 676.08 751.49 415.25 225.94 150.84 60.98 -127.30 -348.82 -1126.71 -1876.08 -3186.37 -3421.50 -3890.59 -4245.49 -4285.58 -3332.84 -2325.02 -600.35 -178.89 26.17 -1.63 -54.96 -97.82 -134.65 -210.24 -357.06 -583.98 -765.25 -1057.49 -1433.61 -1743.05 -1917.30 -1989.91 -2113.80 -2205.08 -2348.40 -2513.00 -2805.83 -3121.22 -3121.53
-4435.30 -4435.88 -3997.60 -3900.82 -3751.66 -3355.49 -3159.31 -2698.00 -2251.79 -1937.23 -1955.88 -1739.42 -1600.61 -1595.66 -1617.66 -1639.43 -1638.50 -1551.89 -1420.44 -1071.47 -774.77 -730.03 -954.89 -1140.26 -1019.25 51.53 192.02 242.26 258.68 272.45 295.20 345.13 388.98 423.59 447.14 489.73 522.18 509.42 505.52 492.24 471.28 450.22 424.52 399.52 374.41 350.70 346.14 333.89 326.37 317.32 314.98 313.36 317.68 323.29 326.07 338.70 353.00 373.83 416.51 445.12 470.90 469.31 394.49 330.98 299.05 273.91 267.53 267.53 263.07 261.25 261.38 273.19 284.78 304.82 318.53 337.65 358.06 370.41 396.22 415.32 442.61 477.63 500.46 521.20 568.46 596.92 620.66 643.99 669.86 694.97 705.64 720.48 725.56 744.41 760.80 773.76 793.39 781.44 816.74 792.60 772.27 878.21 541.61 284.86 211.97 133.18 53.19 -224.90 -587.00 -1269.51 -2089.30 -2210.77 -2916.87 -3592.72 -3971.53 -4121.30 -3106.98 -1517.90 -334.47 -59.69 58.75 11.18 -54.74 -108.04 -131.43 -173.70 -367.95 -614.46 -939.66 -1275.43 -1387.17 -1644.49 -1858.61 -2064.78 -2197.55 -2307.02 -2518.88 -2655.07 -2908.65 -3139.57 -3139.65
-2851.72 -2853.90 -2785.21 -2428.36 -2485.11 -1874.21 -1836.58 -1614.12 -1586.44 -1464.80 -1430.64 -1484.99 -1539.40 -1614.23 -1651.37 -1696.22 -1682.60 -1557.80 -1274.84 -985.14 -391.42 -418.47 -462.61 -709.30 -321.58 58.02 186.15 238.38 252.02 268.01 285.58 344.99 383.11 400.60 445.16 480.96 522.17 558.58 553.17 547.08 533.45 495.07 424.74 388.51 359.87 341.15 334.94 323.51 318.30 307.12 308.19 304.15 305.02 309.21 314.00 324.73 328.96 343.28 375.52 413.57 433.63 435.25 383.35 331.77 315.01 293.50 275.44 270.76 265.85 262.97 261.52 267.56 282.63 291.90 315.48 328.30 340.29 364.50 379.39 409.43 433.09 473.89 501.89 519.82 549.74 592.62 612.62 644.03 654.47 690.31 702.48 715.60 740.82 755.37 765.74 776.29 756.72 728.86 740.96 762.93 915.36 747.84 317.66 233.06 197.44 138.33 82.12 -51.50 -509.42 -903.46 -1200.00 -1690.40 -2429.81 -2938.09 -3790.47 -3194.42 -2519.49 -1158.79 -249.74 51.35 54.22 19.57 -47.11 -102.48 -126.67 -192.52 -393.79 -659.37 -954.96 -1295.79 -1484.73 -1564.25 -1884.07 -2112.96 -2290.74 -2418.47 -2604.48 -2881.74 -2956.21 -3137.82 -3137.90
-1584.27 -1586.48 -1597.69 -1684.60 -1518.09 -1459.90 -1379.83 -1325.86 -1325.09 -1341.99 -1400.51 -1457.03 -1558.64 -1615.49 -1670.33 -1720.69 -1731.11 -1643.72 -1465.56 -1063.47 -475.25 -175.49 -203.44 -260.77 -46.65 100.22 187.85 234.70 244.49 264.76 283.29 327.10 391.61 434.91 489.80 520.15 544.59 567.64 564.45 546.00 541.67 519.82 469.82 377.49 346.94 332.03 324.11 311.69 304.15 292.48 297.81 297.26 294.62 298.86 305.54 307.88 317.50 323.24 354.47 381.86 407.81 415.94 406.11 346.83 310.48 299.48 286.06 278.83 271.43 266.75 261.67 266.30 280.44 292.19 306.90 323.63 330.61 354.95 368.28 406.16 432.24 460.80 484.70 507.55 559.29 575.70 599.59 630.16 657.26 675.22 700.03 715.43 748.91 769.21 782.51 791.93 746.16 693.00 658.69 743.30 908.55 509.08 299.06 238.54 182.24 154.29 90.88 13.19 -137.44 -407.02 -731.41 -1393.23 -1963.95 -1797.60 -2006.91 -2189.65 -1562.33 -402.68 6.60 56.35 50.93 -4.84 -51.95 -115.81 -126.99 -215.96 -390.98 -685.32 -930.75 -1164.81 -1384.27 -1725.97 -2006.78 -2196.47 -2331.27 -2489.39 -2772.30 -2920.51 -3066.61 -3138.08 -3138.18
-1305.23 -1305.79 -1310.95 -1298.31 -1265.72 -1262.75 -1283.46 -1302.76 -1320.57 -1350.78 -1420.37 -1477.77 -1558.46 -1609.28 -1682.82 -1744.87 -1745.77 -1684.07 -1545.88 -1004.45 -865.93 -409.25 -200.65 -83.45 37.93 79.70 159.43 227.96 240.82 253.82 283.33 306.25 362.24 389.99 478.78 516.25 505.42 529.35 504.97 501.11 524.76 509.91 456.69 360.81 318.80 313.71 310.09 295.25 283.28 282.85 284.27 281.02 282.53 288.53 290.25 301.63 309.16 318.55 321.93 367.73 401.74 408.58 399.74 379.98 326.80 304.54 292.14 282.14 273.30 268.29 263.06 261.87 273.58 282.84 296.59 324.49 338.17 360.10 370.34 403.72 427.32 442.13 480.51 502.19 527.28 559.75 591.90 618.69 642.72 678.53 686.00 731.18 747.97 769.91 779.34 804.02 777.95 642.89 592.37 857.47 769.39 328.03 278.35 239.14 183.14 142.72 100.97 37.61 -120.92 -205.12 -776.93 -1172.56 -1420.57 -1506.50 -1622.31 -1333.64 -542.39 -120.50 60.39 62.19 33.84 -15.02 -67.67 -107.77 -139.88 -210.87 -443.43 -659.18 -1001.40 -1224.04 -1630.10 -1909.36 -1986.00 -2168.45 -2334.41 -2409.01 -2741.20 -2934.29 -3017.51 -3092.25 -3092.21
-1340.33 -1340.01 -1320.79 -1294.99 -1296.39 -1314.02 -1322.78 -1331.21 -1352.74 -1393.58 -1445.45 -1493.70 -1566.50 -1633.75 -1684.17 -1742.56 -1751.59 -1718.00 -1498.10 -1147.82 -700.97 -444.81 -223.94 -14.25 56.64 73.31 156.86 214.49 233.89 244.74 260.73 294.41 322.46 366.23 378.71 379.36 435.00 464.41 441.67 407.58 420.09 420.19 361.94 345.40 302.87 285.84 281.14 272.59 272.78 270.66 270.39 268.98 275.14 283.02 285.59 290.07 296.21 310.08 320.27 341.92 368.54 399.60 402.50 370.04 332.05 310.98 300.55 290.29 295.19 277.10 265.64 262.42 272.48 278.24 293.25 323.15 335.14 354.63 370.41 390.59 410.31 437.03 466.63 505.18 526.21 560.60 585.60 600.75 639.10 670.64 690.12 722.88 748.04 767.39 754.37 802.71 753.60 661.32 624.01 690.31 399.08 361.74 290.08 240.18 216.18 146.05 69.21 -33.08 -110.46 -268.03 -706.55 -977.77 -1356.56 -1382.13 -1266.80 -894.40 -412.98 -33.49 71.25 55.37 10.50 -21.07 -59.85 -96.20 -134.18 -199.69 -453.60 -627.91 -880.29 -1344.40 -1674.85 -1938.05 -2067.95 -2158.53 -2310.21 -2449.64 -2609.12 -2812.39 -2947.74 -3089.24 -3089.33
-1394.94 -1394.78 -1365.64 -1350.17 -1338.76 -1347.16 -1362.96 -1399.04 -1392.98 -1430.58 -1481.10 -1527.58 -1585.17 -1633.40 -1702.43 -1737.59 -1742.79 -1633.54 -1433.72 -1120.16 -731.63 -448.04 -271.42 -52.67 -6.96 59.13 71.86 174.27 219.12 235.73 256.31 266.84 281.96 312.76 328.58 367.58 400.19 407.49 381.97 351.86 368.31 343.91 309.38 309.86 283.12 267.93 267.18 259.58 260.91 260.91 261.92 264.54 269.41 275.68 277.54 285.27 293.29 306.38 317.69 325.56 371.94 392.44 402.44 382.90 367.78 328.40 328.35 324.27 317.64 300.79 270.64 262.35 270.23 281.66 288.14 309.21 326.54 340.34 362.43 380.72 417.44 439.36 465.17 492.48 533.80 545.25 575.32 596.98 626.76 667.65 686.32 702.68 719.05 743.39 671.73 712.18 754.07 735.24 914.38 583.17 342.80 310.39 273.11 249.43 225.38 119.76 -17.03 -62.75 -177.47 -311.68 -689.15 -1139.26 -1290.87 -1346.47 -1204.65 -751.39 -263.94 76.04 80.60 60.25 8.60 -20.48 -59.02 -90.66 -145.86 -211.72 -339.56 -615.68 -906.95 -1229.75 -1529.57 -1835.50 -1989.72 -2072.64 -2260.27 -2422.57 -2557.23 -2765.54 -2898.48 -3087.22 -3087.39
-1445.04 -1445.12 -1422.93 -1398.09 -1402.52 -1396.02 -1410.52 -1428.80 -1423.72 -1460.26 -1542.34 -1589.11 -1637.27 -1681.18 -1717.96 -1739.55 -1707.70 -1573.33 -1362.06 -1018.90 -493.80 -329.18 -233.79 -198.69 -112.09 -1.57 48.31 110.75 156.98 209.59 248.97 252.07 257.82 266.95 303.29 356.11 333.71 328.13 318.99 307.26 299.47 273.40 273.06 272.22 247.01 252.44 250.48 248.66 249.73 251.32 253.75 260.80 266.87 272.03 273.98 276.26 285.68 297.60 322.95 339.71 387.13 412.89 426.58 406.67 394.04 357.50 363.96 366.14 326.10 316.69 272.63 264.58 272.31 286.99 297.80 308.14 323.30 335.11 356.23 372.76 412.54 436.53 452.56 479.79 508.84 542.10 571.71 600.13 619.96 668.58 697.42 707.01 670.92 638.47 628.89 635.75 655.27 835.65 926.81 542.81 399.23 273.01 270.65 256.16 221.21 80.30 -12.25 -91.86 -144.94 -326.04 -639.10 -1143.99 -1302.29 -1309.55 -1273.04 -970.08 -98.61 27.84 99.41 78.33 15.70 -28.29 -71.50 -107.35 -157.41 -260.69 -440.12 -746.71 -1036.11 -1193.53 -1308.67 -1608.16 -1856.85 -2105.96 -2199.24 -2339.99 -2515.09 -2714.16 -2886.84 -3080.85 -3080.94
-1490.24 -1490.28 -1472.53 -1447.73 -1447.84 -1464.42 -1490.11 -1513.42 -1557.44 -1586.31 -1601.73 -1643.64 -1686.31 -1727.37 -1743.64 -1736.75 -1671.58 -1510.37 -1124.07 -714.92 -411.53 -238.17 -224.87 -226.54 -181.63 -59.11 10.90 52.45 124.24 199.59 225.94 239.05 248.00 257.17 268.64 270.53 277.36 292.75 291.23 271.99 270.60 264.31 252.19 234.42 239.96 240.37 240.06 240.87 240.50 242.86 247.91 253.84 263.04 265.26 271.40 275.59 283.13 305.15 319.87 343.09 384.44 401.88 408.32 411.46 404.47 383.94 380.45 363.40 327.78 291.23 270.87 263.78 277.61 284.92 295.46 309.75 322.14 336.23 351.37 383.01 404.39 433.42 451.92 475.65 506.71 536.79 550.88 598.78 607.63 660.69 701.63 720.71 676.88 628.77 575.96 545.84 725.28 1000.99 598.76 418.88 288.50 261.78 256.77 228.86 112.75 18.77 -51.30 -104.77 -146.37 -320.87 -527.27 -1219.58 -1271.95 -1332.53 -1305.74 -976.08 -438.70 -117.79 51.23 42.26 -4.10 -35.91 -85.10 -123.77 -173.67 -257.90 -479.21 -712.95 -1002.06 -1127.42 -1374.90 -1556.27 -1814.27 -2065.27 -2177.82 -2283.88 -2441.20 -2751.50 -2927.42 -3086.72 -3086.50
-1540.66 -1540.68 -1519.40 -1513.19 -1498.89 -1506.56 -1525.83 -1560.73 -1599.83 -1625.27 -1664.13 -1716.21 -1746.45 -1761.14 -1768.38 -1737.52 -1656.07 -1445.34 -944.74 -665.90 -403.78 -227.55 -204.59 -235.54 -211.15 -107.34 -47.32 -12.84 97.31 163.13 181.91 220.16 240.59 247.14 258.14 259.58 253.36 258.77 251.80 250.22 254.32 252.49 241.77 222.48 223.07 225.55 228.24 230.28 231.37 236.16 240.69 250.24 260.81 262.00 268.91 274.24 278.64 303.22 322.10 341.57 365.16 372.94 375.09 366.88 377.63 375.14 351.63 344.12 304.63 273.10 265.83 263.31 275.65 286.50 295.83 311.72 325.28 343.32 353.29 369.24 402.26 415.96 450.67 463.75 505.22 529.79 554.62 598.17 610.50 629.61 694.88 723.82 674.96 630.76 570.74 504.72 749.50 738.97 371.46 337.73 291.61 259.45 252.11 169.19 58.87 -11.99 -63.62 -92.43 -160.95 -376.26 -717.91 -1189.50 -1328.46 -1338.94 -1321.66 -1137.85 -773.29 -330.70 -186.13 34.47 -16.45 -61.79 -98.98 -135.59 -166.16 -286.28 -499.17 -759.26 -953.78 -1171.77 -1431.35 -1658.12 -1801.74 -1998.29 -2148.84 -2338.42 -2620.95 -2948.26 -3113.27 -3198.86 -3198.66
-1597.35 -1597.34 -1577.02 -1579.61 -1569.27 -1559.01 -1565.36 -1579.65 -1618.49 -1628.66 -1689.98 -1733.14 -1769.90 -1796.16 -1797.09 -1754.92 -1641.86 -1496.38 -1041.60 -720.07 -463.55 -281.09 -227.28 -219.47 -224.28 -146.93 -122.89 -38.41 -24.86 31.23 78.26 141.79 223.00 235.64 238.37 239.78 240.10 239.07 241.59 241.44 218.84 212.75 198.80 208.81 212.26 204.50 220.02 222.36 223.52 230.13 237.10 242.29 254.63 261.00 268.16 272.68 293.04 317.37 333.80 342.06 331.72 321.89 325.51 318.76 326.62 324.79 326.52 281.24 276.95 266.49 264.63 265.42 278.63 287.51 298.40 312.02 318.78 340.28 354.48 378.68 403.56 425.02 452.04 463.68 487.02 531.32 548.57 564.99 609.68 644.76 689.17 727.49 668.99 567.53 505.18 565.91 581.41 376.02 357.71 306.75 284.20 258.77 214.98 140.66 46.30 -27.41 -65.93 -108.62 -160.73 -532.70 -904.46 -1160.96 -1328.47 -1340.95 -1345.90 -1299.99 -1161.60 -622.27 -327.07 -145.35 -57.77 -89.46 -113.49 -154.62 -220.49 -362.53 -642.09 -907.76 -1016.16 -1248.31 -1529.19 -1675.19 -1876.61 -2042.64 -2166.63 -2409.16 -2689.28 -2981.94 -3238.59 -3346.61 -3346.68
-1655.79 -1655.77 -1644.95 -1626.11 -1605.20 -1619.12 -1628.80 -1637.88 -1666.47 -1687.16 -1734.76 -1713.50 -1700.55 -1769.46 -1791.59 -1771.72 -1704.36 -1610.42 -1311.65 -1053.19 -627.47 -433.99 -317.90 -250.16 -253.01 -247.08 -159.41 -109.43 -62.09 -13.71 30.11 122.70 181.97 200.69 218.33 187.25 224.82 205.19 227.42 191.45 169.20 180.65 171.31 157.08 172.37 175.98 210.41 218.78 222.92 223.82 234.82 243.03 255.41 264.16 272.39 288.26 306.34 325.38 337.54 325.07 296.98 293.58 309.07 309.72 287.04 276.69 276.64 277.01 265.15 263.41 264.05 270.50 277.07 290.56 298.19 311.86 320.24 337.96 352.57 378.38 410.18 425.33 450.30 466.16 490.45 529.10 552.18 580.17 623.21 660.17 688.58 723.80 703.82 639.31 712.85 751.90 386.04 352.63 332.43 274.42 257.26 236.80 167.31 82.44 4.91 -41.20 -84.28 -121.19 -160.20 -506.11 -925.02 -1262.58 -1324.64 -1342.14 -1353.27 -1359.55 -1328.31 -1137.77 -665.53 -405.34 -137.74 -117.27 -128.55 -152.62 -301.16 -533.59 -627.77 -1080.80 -1144.91 -1299.20 -1582.62 -1790.14 -1955.52 -2033.73 -2131.29 -2348.76 -2678.69 -2956.30 -3242.70 -3351.62 -3351.87
-1718.63 -1720.43 -1716.03 -1649.65 -1627.36 -1695.50 -1693.08 -1707.72 -1761.16 -1755.17 -1773.06 -1773.42 -1773.82 -1805.80 -1789.41 -1787.82 -1735.58 -1638.78 -1441.54 -1237.26 -1014.60 -688.42 -477.20 -299.95 -245.39 -237.53 -237.52 -233.35 -197.14 -38.14 13.25 76.38 132.15 133.33 126.41 103.29 133.79 131.49 164.70 150.07 138.15 136.99 127.58 125.39 133.14 141.66 193.93 196.57 213.42 224.14 231.74 250.23 255.81 272.78 275.83 314.55 333.06 334.68 329.95 306.21 271.76 272.45 273.17 273.00 260.74 243.02 246.92 251.88 263.39 262.19 264.15 270.87 279.67 288.97 303.90 315.35 329.85 340.20 359.55 379.51 400.82 419.90 445.18 472.48 488.25 507.79 563.14 582.66 620.00 639.40 649.73 659.10 687.70 691.22 610.67 454.54 362.96 332.32 294.41 222.24 221.31 202.20 162.12 54.61 -24.59 -57.97 -98.30 -137.51 -209.21 -522.67 -1003.85 -1242.69 -1329.51 -1343.03 -1362.47 -1387.82 -1365.92 -1277.27 -876.49 -466.82 -181.96 -128.80 -144.69 -186.33 -273.70 -473.98 -670.08 -1034.72 -1318.25 -1530.58 -1666.88 -1783.79 -1920.65 -2003.15 -2084.97 -2280.18 -2602.50 -2810.25 -3100.52 -3211.44 -3211.53
-1797.32 -1797.31 -1772.74 -1758.98 -1756.73 -1758.39 -1797.97 -1777.26 -1778.63 -1795.83 -1812.84 -1815.09 -1817.35 -1814.21 -1809.82 -1811.17 -1791.12 -1761.11 -1643.55 -1553.01 -1251.41 -885.81 -630.43 -394.42 -256.76 -219.57 -236.62 -249.83 -250.15 -117.79 -39.35 35.51 59.34 110.79 92.92 61.04 72.94 122.81 139.46 141.74 140.74 135.83 114.17 91.48 103.05 130.39 157.64 182.49 197.30 228.53 233.84 253.56 271.11 309.06 316.62 359.15 354.60 330.31 308.35 280.49 264.05 255.29 248.63 238.41 238.60 239.26 239.41 247.34 252.39 256.00 263.42 268.57 281.23 286.50 302.47 317.85 329.56 349.54 359.21 381.97 400.58 422.28 449.76 480.35 494.49 512.17 562.77 594.96 612.93 614.13 608.76 604.31 658.52 763.52 603.74 318.83 300.31 300.28 251.54 214.04 192.36 153.65 88.36 -19.37 -78.65 -90.32 -115.59 -163.60 -350.72 -628.37 -1095.07 -1272.32 -1336.12 -1343.43 -1362.03 -1399.71 -1401.20 -1335.57 -927.85 -601.29 -203.22 -143.70 -167.18 -238.16 -355.77 -608.68 -915.51 -1153.20 -1447.08 -1600.49 -1716.31 -1804.02 -1947.79 -2006.57 -2099.88 -2280.67 -2560.55 -2831.31 -2993.98 -3209.10 -3209.18
-1883.23 -1885.96 -1865.08 -1814.44 -1833.54 -1848.08 -1857.36 -1831.42 -1817.67 -1800.48 -1818.82 -1824.23 -1822.36 -1827.40 -1820.85 -1779.83 -1802.44 -1788.35 -1753.62 -1591.06 -1490.73 -1160.68 -630.67 -443.71 -253.32 -199.53 -204.49 -213.85 -230.63 -152.82 -75.29 -63.04 -0.92 49.35 37.55 -2.18 37.04 49.05 66.50 120.75 108.90 99.45 88.57 78.38 91.94 128.18 148.66 192.10 221.26 234.58 239.63 256.24 294.10 336.15 376.25 384.25 353.55 332.75 287.08 269.88 254.74 242.80 238.70 233.84 233.40 234.17 237.89 242.40 247.09 248.61 257.30 262.69 281.05 286.22 298.59 315.37 329.15 352.82 362.65 380.83 400.80 427.68 440.67 481.15 496.79 526.36 561.41 593.20 609.15 588.97 552.17 533.23 654.53 574.50 400.85 280.04 248.02 232.53 206.94 177.99 159.92 110.31 48.62 -27.32 -73.76 -101.44 -137.84 -180.55 -298.05 -699.67 -1204.85 -1299.80 -1343.55 -1348.25 -1368.79 -1417.14 -1411.36 -1367.45 -966.60 -582.22 -231.75 -157.85 -188.36 -290.25 -511.66 -738.66 -829.67 -1140.93 -1428.89 -1620.12 -1767.80 -1867.43 -1946.92 -2060.73 -2183.64 -2356.18 -2478.35 -2930.58 -3096.68 -3236.89 -3236.80
-1947.46 -1947.41 -1922.87 -1904.73 -1949.94 -1952.56 -1923.46 -1908.83 -1844.92 -1814.35 -1819.06 -1828.42 -1825.38 -1831.55 -1828.40 -1766.74 -1789.21 -1816.31 -1809.05 -1723.70 -1609.79 -1243.65 -852.24 -556.03 -294.84 -207.75 -190.78 -197.48 -206.40 -166.05 -136.50 -141.91 -123.16 -90.17 -42.24 -68.19 -62.34 -55.92 7.36 47.31 -11.02 22.52 34.72 59.22 75.93 103.88 168.06 214.29 229.04 241.91 248.49 275.38 326.42 369.81 390.40 381.32 347.40 298.80 277.02 264.89 244.57 235.23 231.19 225.83 224.70 226.03 229.66 241.09 239.25 245.23 252.28 270.03 279.52 291.20 302.27 317.77 331.10 360.63 370.09 390.49 407.01 427.06 447.80 476.42 502.76 531.34 554.80 574.71 607.55 570.89 517.65 489.76 676.96 458.49 295.43 277.25 215.41 194.88 182.66 133.24 90.64 58.16 4.44 -68.92 -100.32 -112.18 -140.46 -159.63 -442.78 -777.18 -1129.72 -1344.97 -1352.01 -1359.84 -1381.47 -1422.13 -1411.53 -1334.11 -849.78 -493.13 -192.07 -162.38 -222.29 -360.13 -490.58 -728.79 -1107.52 -1237.79 -1547.94 -1741.28 -1839.32 -1925.64 -1986.14 -2070.75 -2156.79 -2331.70 -2655.29 -3014.96 -3220.58 -3454.68 -3454.77
-1982.07 -1981.97 -1969.16 -1975.98 -1978.32 -1971.16 -1961.75 -1928.67 -1873.66 -1833.05 -1835.94 -1841.19 -1845.26 -1857.66 -1842.66 -1797.41 -1783.99 -1817.79 -1810.28 -1777.56 -1566.03 -1292.68 -873.14 -534.81 -271.01 -230.43 -210.71 -242.52 -253.76 -254.35 -244.50 -207.73 -239.34 -183.83 -134.85 -139.76 -165.56 -178.46 -175.70 -168.55 -142.72 -83.57 -16.71 23.96 51.04 118.50 163.87 210.63 232.94 246.62 256.28 304.01 334.98 384.86 400.62 376.06 334.75 304.18 270.44 251.21 235.40 230.55 223.36 223.02 222.31 222.28 223.16 225.84 230.70 240.64 248.58 262.09 280.03 292.02 308.28 318.88 338.65 357.19 373.89 395.91 417.03 433.65 461.42 481.96 519.23 537.10 550.75 585.88 601.08 569.79 534.18 491.07 382.39 325.15 291.66 248.84 191.77 176.86 162.21 114.31 64.00 -9.00 -45.03 -83.30 -109.07 -117.42 -138.11 -236.91 -468.44 -712.78 -1047.39 -1276.99 -1353.25 -1361.87 -1388.52 -1418.39 -1376.61 -1271.94 -738.38 -460.14 -159.08 -203.02 -287.98 -455.07 -638.46 -834.44 -1248.65 -1577.01 -1690.70 -1833.80 -1894.28 -1988.67 -2045.50 -2060.03 -2169.37 -2388.31 -2703.41 -3033.97 -3350.60 -3445.75 -3449.94
-1957.33 -1957.28 -1955.15 -1982.64 -2024.41 -2016.74 -1995.89 -1955.49 -1900.67 -1855.86 -1856.52 -1871.90 -1880.99 -1885.50 -1866.89 -1847.56 -1812.52 -1835.37 -1823.18 -1758.34 -1502.29 -1323.02 -877.06 -530.74 -354.18 -376.75 -494.83 -422.85 -412.89 -438.78 -372.02 -344.16 -408.15 -234.29 -233.50 -196.61 -198.32 -219.10 -221.36 -210.04 -160.62 -107.02 -68.42 -20.53 7.92 50.71 168.14 222.29 239.70 258.49 271.24 309.47 347.28 386.05 390.70 356.79 319.56 289.35 263.83 241.84 230.05 224.32 216.50 199.93 206.06 212.32 219.28 221.12 224.97 230.05 245.98 263.69 277.66 289.62 311.08 321.09 345.36 362.52 381.99 406.37 417.29 444.44 463.57 474.11 513.40 533.22 560.01 587.17 616.17 594.02 592.74 541.08 381.83 313.67 266.43 225.37 175.92 160.35 130.10 81.99 6.18 -26.33 -39.50 -88.94 -100.75 -120.89 -150.19 -303.97 -595.93 -898.52 -1088.75 -1302.45 -1350.86 -1366.81 -1388.17 -1419.80 -1400.50 -1176.35 -703.37 -355.83 -190.62 -228.77 -408.23 -538.48 -891.81 -1231.31 -1550.26 -1777.59 -1822.99 -1942.90 -1960.80 -2004.25 -2052.61 -2087.22 -2153.01 -2262.94 -2558.37 -3053.84 -3432.36 -3538.51 -3538.59
-1996.78 -2004.01 -2017.67 -2018.62 -2041.92 -2049.25 -2027.30 -1983.97 -1933.15 -1904.93 -1893.09 -1897.77 -1913.79 -1900.39 -1886.18 -1876.16 -1856.52 -1872.26 -1834.16 -1737.19 -1541.70 -1232.41 -915.85 -701.24 -663.84 -666.82 -677.95 -744.85 -841.14 -768.60 -801.14 -816.94 -791.26 -667.09 -413.68 -255.10 -227.30 -224.28 -217.81 -187.43 -143.52 -106.73 -97.34 -71.10 14.84 68.15 177.67 225.90 247.27 256.63 296.53 335.28 370.50 399.89 368.71 329.06 314.84 282.18 256.42 242.42 229.51 223.57 222.06 194.25 192.71 196.72 201.20 215.21 222.15 225.94 236.03 261.20 274.78 287.96 312.05 327.50 344.88 369.82 381.18 397.09 413.36 441.16 460.56 478.31 508.98 527.23 578.37 597.55 622.05 614.51 559.24 523.30 365.45 306.78 259.40 188.88 159.62 128.27 96.51 56.78 -8.07 -41.00 -70.78 -72.35 -99.52 -125.06 -152.61 -309.88 -554.51 -994.03 -1229.93 -1334.53 -1359.76 -1375.21 -1411.27 -1422.22 -1355.72 -1266.40 -574.54 -192.24 -159.53 -247.94 -337.91 -553.52 -974.30 -1497.48 -1694.65 -1868.77 -1891.70 -1942.48 -1983.08 -2003.30 -2025.52 -2082.12 -2204.60 -2348.87 -2706.01 -3011.71 -3367.02 -3495.04 -3495.26
-2024.41 -2024.31 -1997.65 -2004.30 -2038.64 -2042.29 -2033.54 -1997.02 -1962.43 -1941.25 -1954.27 -1938.51 -1946.82 -1940.69 -1916.33 -1868.12 -1834.03 -1882.13 -1878.51 -1788.21 -1653.56 -1337.10 -1124.13 -1007.69 -969.88 -1043.83 -1100.89 -1182.43 -1199.48 -1342.84 -1307.91 -1187.26 -1316.45 -1115.30 -564.78 -294.24 -253.57 -240.34 -227.98 -189.68 -190.01 -156.76 -135.75 -112.83 -13.97 113.16 188.60 230.26 243.91 265.74 314.43 356.04 398.82 366.00 356.04 323.01 289.29 273.00 248.25 231.77 224.66 222.05 196.81 171.11 178.42 186.47 198.95 210.74 216.74 221.32 237.12 253.99 265.10 282.10 303.87 322.82 342.31 366.06 384.41 396.80 414.50 422.58 459.52 472.14 503.40 527.88 570.33 588.46 589.02 602.28 668.90 523.57 365.69 298.03 270.01 196.97 146.46 113.76 65.58 36.87 -27.79 -47.93 -85.38 -87.77 -115.60 -162.59 -239.97 -397.46 -650.29 -975.31 -1242.24 -1281.61 -1361.56 -1394.60 -1422.54 -1417.17 -1359.35 -1063.24 -467.77 -192.38 -141.12 -223.90 -417.49 -593.97 -945.93 -1434.28 -1581.87 -1818.93 -1929.54 -1970.77 -1988.73 -2001.40 -2070.78 -2129.64 -2303.79 -2412.24 -2741.37 -2941.35 -3201.82 -3289.47 -3289.54
-1993.01 -1992.97 -1998.50 -2014.70 -2034.48 -2039.78 -2036.70 -2016.36 -1990.10 -1996.09 -2007.23 -1979.54 -1977.25 -1970.73 -1940.34 -1900.31 -1885.09 -1935.87 -1917.89 -1838.31 -1744.05 -1612.89 -1507.91 -1474.40 -1447.05 -1661.96 -1703.03 -1712.30 -1801.10 -1768.26 -1810.35 -1807.38 -1759.09 -1318.66 -827.81 -435.87 -280.85 -265.08 -267.23 -269.24 -256.93 -210.61 -160.16 -129.94 -66.03 81.78 190.69 232.08 251.00 280.36 317.73 348.79 369.70 331.81 318.39 286.58 251.96 250.79 241.82 224.64 222.35 182.85 160.84 163.79 168.63 172.65 187.31 178.90 211.10 220.46 238.38 248.24 266.74 294.27 309.81 321.98 341.12 368.93 385.16 403.00 414.08 433.15 459.85 469.96 511.34 521.73 567.68 583.81 552.70 521.18 657.37 519.24 350.92 296.33 258.64 196.40 157.64 105.07 53.73 7.00 -34.17 -66.69 -104.35 -120.50 -155.45 -243.30 -322.55 -546.23 -778.07 -947.21 -1131.13 -1264.79 -1367.82 -1400.46 -1434.41 -1419.60 -1341.22 -916.54 -446.43 -176.17 -132.73 -207.93 -423.35 -836.40 -1070.23 -1377.72 -1643.39 -1801.04 -1936.04 -1992.25 -2007.34 -2017.78 -2071.97 -2142.65 -2296.49 -2522.99 -2696.62 -2912.81 -3086.71 -3291.34 -3291.41
-2034.95 -2034.89 -2007.16 -1994.31 -2022.07 -2042.58 -2045.45 -2030.48 -2028.51 -2021.97 -2025.70 -2020.31 -2016.15 -2009.84 -1977.70 -1960.93 -1957.53 -1961.81 -1946.72 -1934.95 -1898.25 -1833.31 -1809.22 -1792.89 -1838.96 -1882.40 -1936.55 -1948.50 -2053.10 -2086.96 -2132.09 -2091.27 -2002.86 -1883.44 -1545.50 -867.00 -376.43 -290.69 -319.09 -309.20 -308.54 -264.05 -205.60 -222.07 -77.04 80.30 167.74 234.12 242.23 266.28 311.80 326.74 312.69 286.84 273.15 245.01 243.17 239.23 231.03 220.13 206.44 170.51 155.05 153.49 156.12 153.11 151.42 145.71 185.17 215.79 231.30 244.04 265.30 281.95 292.21 330.23 344.06 366.66 386.10 400.91 411.12 429.03 458.85 466.71 507.71 521.37 533.65 548.54 596.34 620.82 455.69 357.26 318.99 281.53 233.73 198.92 163.86 108.64 52.97 -4.30 -66.22 -162.92 -170.20 -228.29 -253.51 -322.20 -577.65 -690.11 -837.33 -942.35 -1113.34 -1212.25 -1345.21 -1406.76 -1434.70 -1415.74 -1215.38 -1012.94 -504.32 -198.94 -194.32 -347.46 -512.52 -920.49 -1172.33 -1443.11 -1633.73 -1797.08 -1945.17 -2003.85 -2007.07 -2022.36 -2064.05 -2118.94 -2263.13 -2460.78 -2693.58 -2930.53 -3088.98 -3292.96 -3293.03
-2049.01 -2048.95 -2033.64 -2002.70 -1999.10 -2034.96 -2057.14 -2056.24 -2053.85 -2047.38 -2052.24 -2029.24 -2017.94 -2000.32 -2019.84 -2013.71 -1995.27 -1992.41 -1992.62 -1975.23 -2003.74 -2030.10 -2013.86 -2029.03 -2049.92 -2080.37 -2087.50 -2139.51 -2156.23 -2201.94 -2214.83 -2186.16 -2166.88 -2008.72 -1627.50 -1148.18 -641.43 -470.54 -407.99 -372.26 -348.75 -305.96 -255.88 -235.14 -139.35 8.20 141.91 231.63 241.26 265.58 285.37 294.08 276.78 257.66 251.28 244.70 240.73 233.54 221.36 201.01 182.68 168.77 156.04 152.59 151.03 149.65 146.11 142.32 161.82 195.79 226.56 236.29 265.93 276.97 294.92 321.26 341.23 355.92 381.25 405.10 411.54 430.00 450.93 468.63 482.29 499.49 487.20 505.41 647.74 641.61 426.47 296.85 300.48 256.82 211.14 176.53 148.53 86.34 45.61 -4.54 -178.41 -216.03 -249.30 -313.92 -379.79 -517.27 -697.02 -826.39 -887.86 -924.93 -963.36 -1099.52 -1279.26 -1361.47 -1429.72 -1424.30 -1293.68 -750.63 -453.89 -186.02 -273.64 -414.14 -545.84 -932.96 -1260.25 -1477.38 -1805.91 -1910.63 -1952.22 -1972.74 -1992.18 -2017.79 -2073.38 -2145.54 -2232.80 -2452.12 -2717.87 -3014.40 -3220.26 -3362.33 -3362.20
-2065.58 -2065.52 -2068.03 -2053.62 -2041.91 -2033.38 -2051.48 -2061.96 -2056.03 -2064.11 -2057.13 -2012.00 -2015.39 -1994.68 -2044.63 -2036.52 -2026.18 -2016.56 -2014.01 -2029.21 -2039.45 -2061.85 -2084.46 -2124.44 -2124.01 -2156.93 -2176.73 -2190.19 -2219.41 -2248.17 -2226.22 -2206.92 -2214.14 -2102.15 -1746.12 -1473.99 -1022.22 -677.30 -511.33 -447.16 -465.41 -340.74 -262.81 -228.44 -171.71 -11.04 139.84 230.56 238.90 249.38 269.83 272.01 257.90 254.72 245.03 240.74 238.73 226.48 208.45 165.35 154.34 155.54 159.47 155.32 152.75 148.97 146.53 142.47 150.77 176.16 220.80 233.53 246.23 272.63 292.71 306.19 336.80 358.57 383.49 396.00 410.20 426.29 439.74 461.83 471.51 462.61 450.77 454.46 595.43 636.88 373.79 270.28 257.82 223.86 164.28 136.73 113.36 36.65 -32.73 -146.70 -449.88 -408.22 -484.84 -647.42 -632.31 -723.53 -808.60 -887.83 -891.09 -905.58 -948.78 -1002.17 -1159.56 -1335.73 -1393.39 -1363.40 -1127.05 -699.97 -278.92 -193.23 -298.25 -478.13 -706.81 -944.78 -1284.20 -1533.59 -1856.45 -1927.15 -1947.03 -1956.53 -1978.56 -2013.01 -2062.62 -2154.01 -2309.04 -2657.72 -2885.55 -3177.31 -3390.04 -3612.10 -3612.17
-2080.21 -2080.15 -2084.13 -2087.51 -2093.71 -2068.12 -2070.46 -2068.00 -2054.79 -2072.38 -2078.63 -2041.64 -2045.12 -2090.68 -2094.31 -2080.35 -2067.02 -2061.93 -2064.82 -2055.62 -2086.71 -2110.65 -2144.29 -2165.99 -2166.78 -2186.64 -2192.39 -2212.05 -2239.24 -2254.36 -2224.41 -2208.55 -2218.20 -2182.66 -1961.19 -1664.66 -1094.10 -836.94 -578.72 -489.39 -434.71 -344.29 -278.56 -221.87 -156.02 -106.50 72.51 217.64 234.49 242.07 262.76 262.08 241.85 241.98 238.59 229.93 221.16 208.23 192.05 147.13 133.06 139.91 155.16 158.09 158.14 151.56 148.98 145.71 149.11 172.29 210.25 224.34 239.49 266.22 286.38 301.31 333.81 365.51 383.90 393.43 399.24 413.52 421.74 446.18 454.30 442.43 420.76 604.16 565.21 401.14 277.97 225.50 198.49 164.33 117.55 98.10 39.42 -62.08 -166.58 -334.90 -591.52 -734.78 -789.16 -841.79 -822.94 -852.09 -886.22 -887.97 -881.30 -882.29 -894.45 -888.05 -976.10 -1074.10 -1129.25 -1061.35 -1011.48 -535.45 -205.17 -263.17 -386.61 -701.09 -1006.29 -1208.57 -1490.32 -1736.94 -1920.74 -1941.44 -1940.22 -1940.05 -1988.05 -2035.05 -2072.48 -2158.05 -2419.64 -2745.28 -3209.41 -3432.33 -3556.97 -3648.21 -3648.19
-2093.57 -2093.52 -2095.11 -2102.25 -2107.14 -2110.89 -2115.86 -2108.84 -2081.66 -2116.60 -2136.17 -2127.66 -2135.17 -2117.78 -2138.91 -2132.81 -2123.89 -2130.80 -2119.72 -2127.64 -2141.33 -2150.20 -2169.45 -2181.09 -2186.17 -2197.24 -2202.59 -2218.11 -2237.02 -2231.71 -2225.17 -2210.25 -2175.01 -2139.35 -2054.93 -1768.02 -1353.78 -856.47 -644.12 -499.89 -447.59 -359.06 -274.48 -201.48 -148.78 -90.41 59.64 123.68 222.96 231.54 235.61 234.61 227.61 228.10 194.09 187.92 169.30 135.12 86.04 10.02 48.97 87.45 143.84 164.68 175.75 158.24 150.75 149.80 149.61 147.64 175.48 212.80 238.10 263.29 276.17 290.50 312.89 342.91 363.26 389.99 385.34 402.22 419.06 427.55 432.05 408.86 366.16 744.87 375.69 268.17 246.92 209.96 183.96 160.67 119.79 -1.08 -112.03 -290.68 -394.26 -660.43 -813.22 -864.90 -901.95 -903.26 -898.86 -893.59 -892.23 -867.05 -831.44 -791.41 -726.10 -705.00 -690.92 -556.18 -525.57 -529.22 -378.63 -236.71 -196.77 -253.31 -449.19 -814.43 -1055.69 -1377.71 -1612.94 -1842.85 -1910.13 -1923.31 -1932.78 -1936.91 -1990.25 -2045.96 -2181.20 -2216.16 -2397.80 -2971.70 -3214.85 -3524.94 -3693.17 -3761.79 -3761.83
-2108.75 -2110.43 -2113.04 -2113.48 -2116.63 -2121.44 -2130.89 -2126.49 -2150.69 -2178.77 -2171.51 -2176.58 -2174.60 -2192.33 -2196.63 -2205.22 -2200.36 -2223.93 -2215.34 -2218.89 -2219.82 -2193.84 -2194.66 -2190.57 -2197.32 -2199.84 -2208.24 -2215.69 -2232.00 -2229.89 -2222.78 -2204.21 -2175.24 -2152.72 -2083.31 -1865.19 -1482.09 -1097.24 -724.30 -536.24 -455.31 -347.07 -291.86 -198.07 -143.43 -88.51 -28.15 22.78 170.11 212.73 215.42 153.14 167.59 100.09 53.80 9.41 12.87 15.86 -15.85 -13.77 3.26 57.00 138.22 158.80 178.94 177.03 167.17 160.28 154.26 150.42 182.09 215.89 234.29 248.76 268.21 290.90 312.54 329.27 345.92 362.47 354.99 369.41 395.70 405.87 412.28 402.40 439.21 416.61 272.28 255.74 201.12 145.75 97.08 94.95 58.87 -25.71 -333.77 -471.03 -564.19 -628.27 -879.76 -904.57 -908.22 -903.75 -885.54 -875.43 -772.94 -728.12 -648.99 -608.28 -420.53 -279.38 -53.82 -138.66 -159.40 -193.09 -122.71 -179.54 -217.70 -344.52 -547.77 -965.51 -1218.97 -1462.60 -1648.38 -1813.53 -1882.47 -1893.77 -1900.86 -1923.42 -1975.58 -2097.46 -2266.61 -2328.14 -2576.73 -2864.45 -3390.89 -3633.27 -3763.60 -3796.27 -3795.06
-2124.10 -2124.05 -2123.08 -2128.51 -2133.31 -2134.16 -2147.08 -2165.64 -2187.99 -2198.64 -2209.37 -2210.75 -2215.47 -2222.31 -2235.08 -2231.37 -2222.45 -2253.71 -2245.60 -2238.16 -2246.07 -2230.55 -2228.08 -2214.16 -2215.75 -2215.26 -2227.17 -2233.61 -2238.53 -2239.79 -2222.56 -2200.32 -2169.23 -2107.41 -1988.03 -1730.41 -1575.89 -1237.96 -804.18 -581.49 -483.48 -348.65 -334.08 -220.17 -155.21 -138.89 -118.45 -58.57 61.20 91.11 106.95 52.99 6.19 3.24 -6.88 -15.69 -12.61 -11.41 -10.57 -8.06 -5.86 -3.81 65.60 159.03 180.64 195.39 198.99 172.88 165.08 155.81 173.03 186.72 231.32 242.22 252.58 281.17 300.96 314.83 324.58 329.01 338.52 341.51 369.40 380.24 391.71 390.81 572.32 647.46 244.37 207.89 150.60 106.95 20.88 8.19 -52.57 -172.41 -610.58 -666.92 -685.57 -771.85 -902.46 -900.99 -903.83 -881.86 -843.34 -738.42 -552.55 -461.33 -229.33 -114.52 -102.05 72.41 45.45 101.79 20.76 -17.69 -154.52 -259.34 -353.67 -477.96 -811.11 -1024.95 -1399.17 -1635.72 -1728.01 -1843.79 -1870.14 -1873.33 -1870.47 -1892.40 -1974.39 -2119.23 -2324.74 -2370.16 -2685.42 -3061.05 -3501.16 -3710.33 -3801.10 -3817.04 -3817.11
-2138.12 -2138.07 -2139.16 -2142.05 -2150.18 -2149.19 -2159.00 -2179.71 -2203.99 -2225.20 -2225.94 -2229.87 -2234.13 -2246.47 -2242.01 -2236.61 -2243.42 -2252.96 -2243.96 -2237.80 -2235.16 -2245.83 -2254.62 -2243.60 -2239.92 -2244.30 -2242.96 -2242.24 -2242.57 -2238.71 -2223.37 -2188.45 -2150.08 -2067.02 -1955.90 -1706.39 -1492.20 -1321.19 -960.47 -709.41 -515.46 -382.59 -348.92 -279.50 -257.76 -185.62 -139.59 -85.18 -46.19 -33.10 -27.59 -52.99 -42.84 -20.67 -19.35 -13.13 -9.35 -7.95 -7.17 -5.70 -7.02 5.51 38.70 81.39 147.29 177.46 204.67 198.28 182.59 158.83 160.74 175.75 217.31 233.83 243.51 265.12 288.04 311.95 313.02 308.85 314.33 325.75 330.25 329.63 345.80 370.37 513.37 1161.28 223.50 185.85 145.71 52.87 -20.94 -61.21 -129.44 -508.02 -759.37 -862.89 -824.21 -880.42 -888.52 -865.48 -828.24 -713.78 -590.57 -380.89 -182.49 -46.03 36.24 105.48 123.05 157.75 150.94 140.65 83.10 -55.62 -224.26 -415.71 -507.89 -714.69 -910.15 -1196.92 -1416.45 -1667.79 -1796.06 -1857.74 -1870.28 -1856.37 -1843.49 -1909.81 -2097.85 -2293.11 -2516.64 -2667.11 -2982.57 -3289.11 -3570.01 -3780.92 -3804.36 -3817.11 -3817.18
-2151.51 -2151.45 -2151.84 -2157.65 -2157.56 -2167.68 -2172.27 -2192.78 -2215.35 -2236.22 -2242.53 -2248.20 -2257.41 -2268.51 -2255.70 -2244.10 -2247.33 -2255.06 -2249.11 -2247.41 -2243.09 -2245.29 -2265.00 -2258.55 -2251.81 -2256.50 -2256.14 -2246.78 -2245.86 -2241.42 -2233.57 -2207.68 -2137.16 -2062.22 -1859.11 -1737.07 -1464.87 -1201.41 -879.27 -634.63 -550.23 -442.23 -382.99 -301.92 -272.05 -237.86 -188.84 -148.89 -115.09 -68.29 -62.73 -61.95 -49.21 -31.00 -23.85 -14.09 -10.50 -5.52 1.47 3.59 13.46 26.48 31.87 49.47 124.92 175.19 188.20 191.90 185.36 174.81 164.07 157.89 189.43 219.50 235.99 244.72 249.46 268.17 285.40 288.80 294.08 299.58 300.80 292.05 304.74 353.53 374.16 903.45 379.02 151.41 91.17 50.04 -28.05 -110.23 -380.73 -592.80 -791.30 -793.35 -775.85 -705.71 -755.81 -748.68 -621.16 -478.15 -357.40 -223.43 -8.79 78.81 163.40 164.31 170.53 164.75 146.00 111.11 52.35 -75.85 -340.56 -511.09 -664.45 -842.92 -1115.33 -1240.99 -1476.34 -1757.34 -1830.55 -1846.15 -1849.95 -1847.18 -1831.51 -1842.49 -2112.17 -2551.63 -2779.92 -2897.29 -3226.04 -3575.98 -3697.83 -3799.32 -3813.85 -3816.73 -3816.80
-2165.07 -2166.78 -2169.18 -2170.66 -2174.84 -2177.62 -2188.97 -2210.81 -2231.35 -2255.06 -2250.40 -2255.54 -2263.38 -2269.50 -2257.15 -2246.14 -2244.78 -2249.47 -2255.05 -2255.08 -2249.04 -2253.89 -2266.08 -2264.31 -2257.27 -2260.64 -2262.84 -2257.32 -2252.05 -2248.79 -2238.85 -2220.82 -2164.94 -2070.64 -1886.90 -1641.58 -1439.13 -1077.10 -953.57 -682.10 -541.53 -447.59 -363.51 -280.60 -267.31 -220.21 -179.96 -160.66 -110.98 -94.19 -87.33 -68.84 -58.47 -44.38 -29.84 -16.99 -6.44 4.43 12.32 22.21 29.62 33.35 42.31 49.45 53.73 136.15 164.77 166.68 169.31 174.43 160.06 153.25 182.43 209.52 223.01 227.76 234.85 243.48 252.57 274.15 286.69 288.53 286.95 287.07 318.60 358.33 377.46 750.03 638.98 157.76 71.50 46.22 -25.45 -194.71 -399.39 -582.43 -610.28 -679.84 -632.64 -575.39 -528.92 -548.16 -495.80 -439.88 -246.75 -94.82 -27.51 70.31 150.77 165.02 145.43 139.34 118.87 69.58 -18.65 -144.31 -448.48 -693.15 -989.36 -1157.45 -1281.51 -1365.98 -1511.67 -1712.72 -1848.73 -1852.47 -1849.35 -1832.00 -1822.91 -1844.23 -2038.11 -2416.24 -3020.34 -3279.26 -3529.15 -3672.47 -3748.38 -3804.10 -3813.53 -3816.67 -3816.73
-2179.46 -2179.40 -2186.77 -2185.17 -2193.29 -2194.33 -2206.26 -2227.18 -2252.41 -2255.49 -2258.92 -2264.61 -2269.11 -2274.04 -2266.87 -2244.77 -2254.94 -2251.09 -2250.11 -2246.28 -2249.99 -2256.81 -2266.28 -2264.23 -2261.47 -2264.80 -2265.89 -2267.59 -2265.23 -2261.50 -2259.23 -2209.17 -2095.33 -1984.39 -1765.14 -1533.13 -1326.10 -1093.16 -827.40 -697.28 -558.59 -461.43 -386.05 -294.71 -258.25 -212.19 -191.71 -159.99 -126.80 -116.63 -94.56 -79.27 -62.41 -49.43 -33.24 -22.25 -5.27 12.75 24.95 34.74 41.29 44.54 52.19 59.43 66.69 92.39 137.33 136.13 146.57 152.44 159.18 150.75 166.92 197.22 220.93 222.67 226.60 229.46 239.90 244.26 262.08 284.15 286.33 286.47 302.02 347.28 371.18 428.26 599.37 142.97 -9.48 -141.12 -96.39 -199.36 -314.40 -400.19 -430.05 -460.96 -486.22 -417.41 -355.91 -388.73 -336.21 -287.84 -200.28 -153.37 -37.12 87.51 130.37 131.12 93.50 102.60 85.28 -28.43 -101.02 -342.92 -648.97 -956.58 -1188.35 -1394.51 -1591.74 -1592.71 -1677.47 -1807.40 -1850.42 -1846.48 -1840.69 -1825.03 -1817.50 -1838.18 -2024.51 -2456.87 -3080.61 -3396.44 -3706.82 -3779.75 -3799.61 -3809.24 -3815.29 -3818.69 -3818.76
-2193.81 -2195.39 -2198.83 -2203.14 -2206.52 -2211.11 -2214.25 -2242.28 -2252.69 -2256.01 -2264.58 -2265.75 -2267.48 -2269.91 -2262.69 -2242.39 -2229.53 -2232.09 -2230.28 -2233.46 -2252.18 -2258.56 -2263.80 -2272.88 -2273.16 -2270.62 -2272.58 -2273.27 -2273.96 -2273.59 -2267.02 -2233.77 -2061.61 -1877.01 -1725.25 -1494.07 -1193.73 -900.78 -841.03 -689.10 -563.70 -481.07 -382.09 -290.01 -236.91 -223.60 -182.37 -159.86 -137.82 -117.03 -97.11 -89.21 -68.34 -52.15 -38.54 -24.39 -9.37 15.60 34.13 43.42 48.84 54.46 57.29 65.71 78.33 88.05 113.13 122.65 133.82 141.54 148.25 149.04 143.80 157.00 186.46 213.26 221.45 225.59 230.25 241.24 254.35 276.45 282.60 284.29 300.53 322.61 337.55 372.04 381.25 142.65 -73.82 -211.02 -243.17 -282.92 -353.70 -384.37 -386.97 -374.43 -348.35 -333.74 -293.88 -278.80 -204.13 -157.33 -88.41 -22.92 50.99 95.18 115.37 101.79 20.95 -28.35 -78.10 -183.56 -345.53 -484.86 -759.80 -1077.58 -1370.06 -1608.18 -1653.74 -1715.13 -1813.32 -1829.15 -1849.80 -1844.62 -1831.82 -1821.22 -1813.00 -1832.99 -1950.33 -2362.34 -3111.23 -3483.42 -3759.62 -3799.29 -3812.24 -3817.03 -3818.80 -3822.27 -3822.33
-2206.67 -2208.18 -2210.18 -2215.08 -2218.47 -2225.32 -2234.65 -2264.19 -2276.60 -2266.45 -2266.32 -2266.60 -2269.74 -2268.82 -2259.86 -2233.38 -2206.03 -2198.27 -2208.29 -2227.05 -2252.95 -2276.18 -2272.13 -2279.70 -2278.70 -2275.79 -2275.51 -2277.59 -2276.23 -2272.24 -2255.19 -2165.99 -2043.38 -1821.79 -1683.61 -1434.48 -1228.50 -992.36 -814.42 -697.00 -570.46 -480.95 -359.65 -295.04 -250.76 -199.93 -184.31 -161.78 -143.98 -125.85 -108.11 -93.98 -75.29 -62.78 -41.43 -17.66 -2.25 15.90 42.07 49.22 54.07 59.58 64.99 74.33 82.60 94.26 112.76 118.61 125.28 131.39 137.33 139.73 135.86 135.13 144.94 203.56 209.64 223.29 225.34 233.07 249.10 257.81 277.16 279.84 281.58 308.02 307.16 300.26 276.67 160.92 -250.39 -292.26 -302.20 -342.76 -361.23 -359.99 -339.65 -273.22 -237.34 -217.35 -155.04 -130.99 -81.41 -27.40 43.92 49.93 92.16 100.76 102.52 88.49 14.17 -145.61 -299.35 -439.10 -521.32 -703.82 -854.19 -1183.11 -1477.20 -1610.32 -1727.27 -1797.56 -1823.87 -1854.76 -1851.15 -1839.58 -1826.55 -1818.05 -1810.31 -1832.00 -1913.23 -2351.88 -3217.57 -3633.69 -3800.34 -3809.57 -3813.03 -3817.06 -3819.23 -3824.14 -3824.20
-2217.58 -2217.53 -2222.23 -2222.95 -2226.72 -2231.09 -2246.66 -2273.14 -2282.33 -2269.85 -2268.31 -2269.78 -2271.69 -2269.49 -2270.33 -2235.49 -2213.24 -2203.29 -2215.50 -2235.98 -2270.97 -2287.57 -2290.46 -2287.08 -2281.50 -2280.12 -2279.36 -2281.01 -2277.88 -2261.33 -2235.71 -2152.81 -1969.06 -1804.52 -1616.33 -1392.75 -1254.91 -990.13 -803.78 -659.53 -587.38 -484.22 -411.83 -346.63 -269.39 -221.17 -194.83 -170.58 -146.24 -134.38 -111.21 -99.27 -85.07 -61.72 -36.90 -15.05 3.85 21.25 43.67 49.70 56.62 60.69 68.89 77.90 85.74 93.59 102.86 107.37 117.39 126.02 132.61 135.79 138.08 138.62 137.80 170.07 194.80 215.94 221.51 231.86 239.55 253.76 257.75 267.80 270.18 275.88 278.53 277.97 261.69 120.30 -125.35 -270.77 -334.44 -355.41 -358.43 -332.73 -271.36 -169.67 -88.95 -54.80 -22.74 3.78 50.10 53.49 75.85 97.21 92.12 87.82 79.82 45.66 -84.78 -322.88 -431.62 -474.66 -660.72 -971.33 -1125.59 -1307.79 -1569.85 -1649.92 -1781.04 -1835.33 -1856.83 -1858.50 -1850.85 -1839.42 -1829.00 -1817.08 -1810.69 -1821.26 -2002.22 -2478.01 -3050.53 -3636.94 -3792.81 -3801.82 -3812.81 -3822.40 -3823.06 -3827.89 -3827.95
-2227.31 -2227.26 -2229.67 -2232.88 -2238.23 -2244.75 -2259.55 -2282.57 -2278.88 -2270.88 -2270.68 -2271.30 -2270.73 -2265.11 -2266.02 -2253.36 -2232.96 -2229.92 -2235.21 -2263.02 -2291.75 -2293.97 -2292.87 -2289.52 -2283.42 -2283.43 -2285.82 -2286.32 -2282.48 -2255.12 -2187.24 -2114.13 -1913.66 -1760.64 -1642.69 -1339.66 -1235.73 -1026.76 -844.93 -693.39 -556.93 -501.92 -447.95 -371.21 -306.81 -238.97 -199.65 -176.43 -149.24 -139.82 -121.44 -102.65 -82.32 -67.95 -44.94 -20.22 1.92 17.65 41.14 54.48 61.55 66.49 75.52 79.96 87.05 91.45 96.08 104.21 111.14 120.95 128.35 135.55 139.96 142.60 142.60 148.85 165.52 184.71 201.82 226.38 231.40 238.34 247.28 247.59 258.99 262.71 272.89 257.50 245.98 198.61 -81.31 -191.08 -334.78 -348.94 -345.56 -284.27 -187.59 -19.15 -23.07 35.53 36.37 80.34 99.06 90.37 79.23 86.84 77.33 76.39 67.02 24.41 -119.44 -267.53 -431.26 -566.06 -726.88 -1007.67 -1280.52 -1404.98 -1590.35 -1695.16 -1793.26 -1846.90 -1858.25 -1855.39 -1849.62 -1845.75 -1834.45 -1823.66 -1813.22 -1830.27 -1954.52 -2614.67 -3137.83 -3616.56 -3781.86 -3802.09 -3822.17 -3826.70 -3828.99 -3831.40 -3832.22
-2233.86 -2233.80 -2236.58 -2241.11 -2245.82 -2248.65 -2262.17 -2278.19 -2278.01 -2272.17 -2272.28 -2275.41 -2274.43 -2271.23 -2268.66 -2271.90 -2270.52 -2260.81 -2271.24 -2281.68 -2297.63 -2295.52 -2292.04 -2290.21 -2286.68 -2287.82 -2292.11 -2292.80 -2285.91 -2259.10 -2160.27 -2080.18 -1938.82 -1821.21 -1679.65 -1428.18 -1276.01 -1009.61 -943.17 -759.75 -602.28 -521.52 -444.75 -373.38 -323.92 -260.55 -229.24 -191.62 -157.73 -140.97 -128.11 -97.88 -83.86 -59.27 -39.48 -16.04 5.85 24.55 40.27 58.17 64.80 70.62 74.12 79.02 85.05 90.20 94.79 103.30 113.59 117.92 125.07 131.04 136.32 140.90 143.54 144.66 149.81 155.47 175.41 202.23 206.77 214.09 221.87 239.18 240.71 250.07 255.76 249.00 242.74 240.00 36.31 -74.20 -218.39 -312.62 -301.32 -212.02 -90.64 7.69 66.69 103.21 111.67 113.02 102.81 85.84 64.85 62.71 60.85 52.23 44.84 -5.47 -195.51 -325.67 -537.57 -720.39 -889.52 -1158.66 -1353.18 -1588.80 -1694.09 -1788.70 -1817.44 -1820.53 -1848.71 -1853.44 -1851.23 -1851.11 -1848.94 -1836.79 -1827.58 -1829.21 -2020.24 -2522.40 -3317.63 -3597.53 -3762.62 -3801.79 -3823.90 -3825.81 -3828.78 -3830.28 -3830.35
-2232.94 -2232.98 -2235.89 -2239.93 -2245.03 -2247.54 -2256.02 -2271.59 -2281.48 -2284.84 -2280.61 -2282.84 -2279.94 -2275.45 -2271.90 -2270.84 -2273.04 -2270.74 -2277.41 -2291.73 -2299.33 -2300.83 -2298.94 -2297.12 -2291.31 -2295.37 -2296.69 -2291.62 -2285.47 -2238.47 -2166.55 -2099.66 -1957.69 -1850.25 -1696.97 -1442.28 -1184.67 -1041.50 -851.36 -734.74 -641.17 -536.38 -427.39 -374.02 -299.38 -274.50 -233.64 -194.49 -167.70 -149.65 -133.42 -126.89 -100.54 -69.55 -51.40 -27.24 0.57 16.82 38.25 50.30 63.39 67.90 71.28 77.08 81.82 87.32 92.89 101.61 108.37 119.84 123.21 128.53 133.60 138.57 141.65 144.13 148.77 149.41 151.20 153.62 165.65 176.26 180.68 218.31 231.25 238.88 248.79 247.05 242.75 239.64 190.00 60.50 -58.29 -201.06 -187.61 -105.49 -10.22 45.77 74.79 108.37 91.26 85.61 71.27 33.06 29.59 32.98 31.15 24.32 -59.99 -80.54 -304.33 -518.94 -691.30 -825.89 -991.43 -1276.49 -1528.85 -1683.97 -1718.31 -1805.07 -1816.98 -1816.42 -1832.89 -1852.61 -1849.88 -1853.33 -1856.28 -1855.57 -1854.91 -1871.13 -2061.75 -2307.22 -3003.44 -3624.50 -3760.99 -3787.37 -3822.08 -3829.88 -3829.81 -3830.58 -3830.64
-2229.41 -2229.35 -2236.55 -2238.87 -2244.32 -2247.75 -2253.26 -2261.79 -2274.83 -2281.43 -2288.83 -2285.96 -2283.86 -2282.92 -2274.50 -2270.72 -2276.68 -2282.90 -2287.93 -2300.46 -2301.57 -2305.48 -2305.56 -2304.96 -2302.53 -2304.29 -2303.22 -2296.48 -2285.11 -2243.56 -2200.85 -2105.15 -1978.32 -1760.62 -1622.16 -1381.87 -1154.60 -995.95 -891.27 -815.56 -692.52 -581.16 -483.12 -378.20 -329.52 -282.35 -259.23 -221.57 -186.13 -168.88 -153.77 -145.57 -97.53 -72.99 -50.15 -27.73 -2.65 14.33 32.31 44.79 52.91 60.65 67.42 72.52 79.61 79.38 87.98 94.54 105.57 114.18 123.47 125.13 132.17 137.18 139.16 143.62 148.33 145.29 140.60 144.14 147.20 145.59 157.54 168.68 204.44 232.80 235.89 236.68 235.75 216.94 189.39 114.75 25.91 25.63 -27.97 -19.41 40.60 65.08 73.41 49.72 37.59 38.20 4.81 -21.30 -47.06 -8.17 -10.83 -67.88 -111.14 -189.34 -324.03 -705.86 -829.69 -940.53 -1106.91 -1379.79 -1599.95 -1680.96 -1768.05 -1809.01 -1826.15 -1829.53 -1845.29 -1848.21 -1846.42 -1850.29 -1859.61 -1864.34 -1874.56 -1888.14 -2066.29 -2303.77 -2963.31 -3544.16 -3771.96 -3774.98 -3804.86 -3814.59 -3825.29 -3830.68 -3830.59
-2234.36 -2234.29 -2236.91 -2243.38 -2246.63 -2252.32 -2258.58 -2262.63 -2267.51 -2273.12 -2281.85 -2293.02 -2293.02 -2291.45 -2289.29 -2281.17 -2287.59 -2298.66 -2300.95 -2310.82 -2313.75 -2310.56 -2316.07 -2312.00 -2309.87 -2310.84 -2311.55 -2308.83 -2298.54 -2264.23 -2236.03 -2120.10 -1898.90 -1769.00 -1559.94 -1394.87 -1158.19 -1033.76 -907.49 -824.52 -695.72 -581.35 -505.86 -424.86 -356.46 -300.35 -276.75 -239.97 -212.47 -203.66 -172.87 -148.28 -117.68 -73.14 -36.97 -23.69 -1.57 17.13 31.43 38.49 47.05 54.39 62.14 66.22 71.52 73.46 78.12 89.96 101.70 109.76 117.83 124.22 129.53 133.99 135.82 140.67 139.48 139.02 137.86 138.97 141.06 137.36 138.30 150.11 194.35 206.07 226.95 230.98 228.51 221.70 190.41 161.43 99.31 86.61 59.95 62.81 72.47 66.00 52.22 -9.85 -59.21 -89.16 -109.19 -118.27 -164.76 -99.81 -72.23 -162.16 -312.83 -456.90 -572.95 -782.52 -933.22 -1122.76 -1219.76 -1441.00 -1617.81 -1688.64 -1765.07 -1811.02 -1827.47 -1841.84 -1842.74 -1845.09 -1848.87 -1850.26 -1856.56 -1865.80 -1884.07 -1907.80 -2042.42 -2167.65 -2679.28 -3425.73 -3706.05 -3774.28 -3809.92 -3824.61 -3828.57 -3829.22 -3828.96
-2243.81 -2243.74 -2249.89 -2252.53 -2252.18 -2265.55 -2270.91 -2272.19 -2277.96 -2279.84 -2285.97 -2298.74 -2300.19 -2300.05 -2302.31 -2296.47 -2305.03 -2306.12 -2304.61 -2325.19 -2324.15 -2322.47 -2325.00 -2324.00 -2323.97 -2321.97 -2316.40 -2310.92 -2311.34 -2286.59 -2238.09 -2131.50 -1986.57 -1823.94 -1614.99 -1470.42 -1178.56 -1102.62 -1016.05 -856.48 -773.95 -633.66 -519.56 -415.97 -375.04 -316.55 -297.34 -262.41 -233.73 -210.63 -170.70 -150.36 -119.75 -94.31 -27.77 -11.09 4.87 19.99 27.20 34.10 41.42 49.90 54.04 59.72 66.02 68.66 73.91 86.77 98.28 109.92 114.17 120.31 126.13 130.88 132.90 132.80 136.23 135.00 134.46 135.51 137.02 136.13 138.08 146.73 154.33 173.30 190.18 211.71 219.01 212.39 193.39 168.69 136.11 110.32 91.46 85.58 72.23 53.82 31.67 -21.89 -79.14 -177.91 -302.99 -362.20 -339.48 -261.95 -316.14 -399.35 -413.74 -602.77 -761.26 -1001.13 -1098.42 -1204.44 -1352.00 -1447.24 -1706.60 -1745.84 -1800.56 -1823.65 -1838.60 -1838.89 -1839.43 -1842.27 -1850.82 -1853.44 -1859.40 -1867.04 -1884.71 -1910.58 -2036.48 -2272.43 -2781.64 -3188.12 -3469.09 -3758.04 -3807.34 -3818.03 -3830.86 -3831.59 -3832.35
-2257.41 -2257.34 -2266.61 -2261.74 -2269.29 -2279.02 -2284.62 -2288.61 -2288.91 -2294.14 -2303.00 -2316.94 -2312.91 -2316.91 -2316.34 -2312.87 -2310.64 -2316.88 -2325.33 -2330.90 -2329.63 -2328.95 -2331.39 -2330.91 -2328.18 -2326.55 -2322.74 -2319.28 -2314.49 -2279.86 -2228.90 -2135.15 -2014.94 -1865.24 -1659.49 -1493.30 -1301.73 -1186.43 -1013.25 -902.48 -795.26 -715.91 -580.61 -466.98 -391.16 -358.18 -317.30 -286.13 -238.92 -218.63 -178.54 -150.42 -129.09 -88.32 -54.48 -20.85 -0.97 15.59 24.67 30.59 35.95 39.42 47.15 50.22 57.19 63.42 70.63 80.16 96.49 102.53 113.85 120.06 124.74 128.98 128.83 131.13 132.14 131.91 132.26 132.86 133.83 135.58 136.51 138.19 139.82 155.50 170.54 159.41 186.88 176.33 136.81 136.81 118.06 117.58 102.19 88.90 65.84 43.12 11.44 -39.87 -85.21 -252.46 -408.85 -504.47 -493.74 -403.29 -502.15 -565.27 -598.30 -721.54 -882.01 -1187.29 -1199.95 -1372.63 -1476.44 -1562.47 -1725.24 -1794.63 -1806.02 -1836.04 -1842.66 -1840.51 -1841.99 -1841.32 -1849.93 -1863.22 -1869.98 -1873.02 -1895.15 -1926.74 -2010.12 -2218.16 -2465.62 -2938.80 -3282.16 -3708.88 -3805.37 -3811.15 -3820.81 -3833.17 -3833.42
-2285.05 -2281.67 -2288.74 -2292.23 -2288.63 -2295.83 -2301.55 -2312.10 -2310.53 -2312.01 -2320.26 -2326.15 -2329.18 -2336.06 -2332.66 -2330.74 -2330.15 -2335.19 -2338.85 -2336.76 -2338.52 -2339.23 -2339.17 -2336.95 -2333.80 -2333.79 -2331.27 -2324.11 -2316.59 -2290.57 -2261.37 -2160.50 -2017.60 -1835.88 -1689.02 -1530.96 -1436.14 -1235.96 -1042.46 -902.13 -785.80 -706.69 -617.45 -491.94 -424.19 -377.37 -354.17 -297.67 -249.77 -199.61 -179.07 -144.90 -120.44 -82.15 -61.14 -28.41 -7.30 8.96 20.07 28.02 29.68 30.95 37.40 44.23 48.09 56.92 72.35 78.52 82.29 97.42 109.12 117.48 121.56 125.29 127.13 128.08 128.87 129.86 130.11 130.40 130.86 132.10 131.82 130.39 132.16 128.07 107.55 111.44 107.09 98.97 37.43 31.33 86.25 103.91 86.89 59.18 47.38 26.20 -37.27 -94.08 -228.23 -309.79 -411.36 -545.14 -715.90 -653.00 -676.42 -844.91 -924.33 -928.84 -1201.35 -1376.15 -1429.69 -1560.25 -1579.45 -1662.78 -1743.39 -1805.43 -1820.91 -1833.26 -1843.42 -1844.61 -1845.70 -1849.90 -1852.78 -1863.60 -1876.28 -1885.42 -1896.62 -1926.31 -1981.11 -2128.20 -2410.59 -2808.77 -3369.90 -3621.80 -3805.17 -3813.62 -3812.12 -3832.40 -3832.46
-2329.14 -2324.43 -2330.26 -2336.17 -2342.48 -2344.05 -2358.94 -2350.15 -2343.77 -2342.01 -2339.07 -2343.84 -2347.35 -2349.82 -2346.28 -2346.61 -2343.04 -2347.78 -2349.37 -2345.50 -2345.14 -2343.54 -2345.74 -2342.57 -2344.11 -2344.74 -2337.40 -2326.92 -2318.63 -2296.97 -2282.65 -2184.77 -2079.20 -1923.52 -1681.99 -1563.30 -1460.05 -1246.58 -1020.30 -903.11 -818.13 -746.74 -657.15 -529.42 -512.17 -448.40 -365.39 -331.36 -281.48 -226.95 -179.37 -140.12 -107.22 -79.88 -51.20 -29.73 -8.72 4.21 21.86 24.41 26.89 30.23 35.24 36.96 40.81 49.40 60.42 68.34 78.38 93.32 102.98 109.25 114.41 120.18 123.36 125.20 125.12 127.29 126.44 126.18 125.25 126.86 122.12 117.29 121.69 116.46 80.41 66.77 -6.77 -42.52 -66.03 -7.29 56.13 59.00 63.95 8.40 7.48 -14.60 -94.45 -164.52 -281.17 -395.08 -621.93 -953.47 -1028.53 -1028.05 -1051.99 -1069.88 -1193.63 -1253.81 -1398.33 -1541.46 -1621.35 -1638.61 -1734.16 -1786.50 -1813.30 -1842.24 -1839.23 -1839.07 -1845.20 -1850.25 -1851.75 -1860.38 -1857.34 -1868.29 -1878.66 -1893.25 -1903.31 -1942.97 -2076.53 -2271.15 -2450.90 -2860.57 -3259.44 -3594.23 -3807.91 -3812.60 -3820.83 -3832.89 -3832.95
-2367.05 -2364.87 -2368.82 -2375.31 -2376.24 -2394.19 -2391.96 -2376.33 -2367.71 -2363.51 -2371.97 -2375.07 -2372.12 -2365.66 -2361.52 -2357.85 -2363.08 -2361.91 -2355.75 -2355.85 -2353.52 -2351.99 -2351.07 -2349.73 -2348.71 -2347.19 -2340.52 -2333.45 -2324.49 -2285.37 -2241.14 -2207.79 -2068.03 -1965.98 -1753.49 -1539.80 -1403.90 -1215.21 -1155.82 -1057.62 -831.39 -733.08 -656.18 -561.35 -509.17 -432.44 -370.38 -348.84 -328.22 -262.42 -201.56 -143.45 -131.58 -80.06 -50.29 -35.06 -19.09 0.97 14.52 18.93 24.57 26.99 26.41 28.56 36.41 44.92 50.24 59.62 70.96 82.96 92.48 94.77 109.78 113.10 115.35 118.73 119.78 119.29 120.53 121.01 120.68 119.25 113.61 106.15 82.25 68.70 -5.00 -118.55 -221.68 -200.38 -141.49 -143.93 -70.68 4.71 -23.50 -85.86 -81.28 -91.29 -188.90 -303.34 -497.89 -650.37 -782.99 -1125.57 -1197.41 -1300.80 -1369.92 -1322.59 -1477.82 -1455.05 -1552.15 -1701.90 -1759.31 -1755.13 -1771.20 -1805.04 -1832.83 -1843.78 -1844.71 -1850.16 -1850.98 -1857.32 -1861.00 -1859.18 -1867.93 -1876.54 -1885.37 -1906.42 -1921.31 -1951.45 -2114.58 -2314.01 -2488.21 -2890.74 -3145.85 -3622.85 -3761.06 -3823.63 -3829.30 -3833.56 -3833.62
-2385.45 -2385.37 -2392.84 -2398.20 -2403.45 -2412.67 -2406.20 -2399.90 -2382.53 -2378.08 -2381.30 -2387.56 -2384.26 -2382.84 -2381.73 -2376.99 -2377.26 -2376.63 -2373.81 -2366.12 -2356.71 -2357.10 -2354.68 -2355.01 -2352.20 -2351.20 -2344.63 -2339.63 -2330.14 -2295.94 -2215.69 -2149.18 -2094.99 -1900.53 -1808.55 -1592.57 -1473.69 -1363.37 -1292.97 -1120.33 -986.70 -813.76 -671.26 -575.72 -507.28 -444.70 -404.42 -362.04 -320.87 -255.27 -207.86 -171.43 -150.12 -92.86 -59.47 -36.16 -24.57 -2.71 5.30 12.59 18.68 22.54 23.01 24.96 34.22 38.72 42.53 51.74 61.65 67.86 81.08 90.09 102.32 105.81 107.25 112.12 115.26 113.83 114.42 113.04 113.35 108.56 92.44 85.64 38.67 -50.30 -157.39 -298.87 -396.95 -465.86 -328.40 -391.44 -391.68 -464.34 -243.26 -339.64 -246.26 -319.04 -301.47 -585.97 -917.41 -1111.98 -1076.35 -1236.17 -1393.03 -1541.93 -1569.63 -1579.73 -1625.81 -1681.90 -1698.65 -1717.61 -1795.86 -1824.06 -1828.81 -1834.57 -1850.50 -1849.51 -1852.73 -1859.61 -1865.49 -1871.42 -1874.22 -1873.16 -1877.35 -1883.91 -1903.24 -1908.51 -1943.43 -1969.11 -2047.53 -2270.37 -2411.94 -2746.44 -3061.91 -3610.01 -3750.71 -3816.41 -3833.05 -3834.11 -3834.18
-2393.36 -2393.29 -2400.60 -2406.13 -2412.66 -2420.15 -2422.55 -2411.39 -2396.08 -2389.54 -2394.48 -2402.70 -2405.18 -2400.61 -2393.97 -2391.84 -2394.14 -2388.53 -2378.80 -2366.30 -2358.97 -2360.34 -2359.86 -2357.98 -2355.34 -2353.45 -2348.24 -2341.28 -2329.22 -2297.79 -2249.50 -2169.35 -2066.56 -1902.83 -1797.91 -1625.44 -1540.65 -1398.13 -1350.66 -1186.67 -1128.31 -938.35 -763.77 -616.90 -550.95 -507.63 -452.90 -411.82 -352.57 -288.77 -233.53 -197.10 -154.36 -108.79 -70.57 -55.47 -36.03 -12.01 1.25 10.57 11.51 16.51 20.19 24.51 29.07 32.89 39.00 46.16 56.65 60.98 73.60 80.84 95.28 96.06 99.61 102.22 106.87 106.32 106.39 105.65 103.53 99.78 81.11 63.29 -66.82 -187.24 -326.93 -440.06 -745.74 -826.35 -735.04 -877.84 -913.93 -893.24 -862.95 -778.27 -450.10 -596.18 -614.51 -895.50 -1248.10 -1291.08 -1484.75 -1555.35 -1511.50 -1642.15 -1716.26 -1771.97 -1774.16 -1811.52 -1818.52 -1805.36 -1823.08 -1852.71 -1858.79 -1862.48 -1867.96 -1861.68 -1867.38 -1875.64 -1885.11 -1886.02 -1888.68 -1885.78 -1888.97 -1893.31 -1910.14 -1923.01 -1940.80 -1965.28 -2026.01 -2129.69 -2270.34 -2632.34 -3199.06 -3428.51 -3701.43 -3808.69 -3826.72 -3833.48 -3833.44
-2398.51 -2398.44 -2405.30 -2412.63 -2421.22 -2429.33 -2431.45 -2421.59 -2409.62 -2400.10 -2406.17 -2411.86 -2418.50 -2414.42 -2410.92 -2406.15 -2400.48 -2380.68 -2374.37 -2366.90 -2363.91 -2363.75 -2363.22 -2362.08 -2358.00 -2354.73 -2353.30 -2349.23 -2337.41 -2312.69 -2283.03 -2216.64 -2142.09 -1983.19 -1788.67 -1700.54 -1626.68 -1552.78 -1329.14 -1264.71 -1154.74 -956.53 -836.49 -721.74 -632.25 -578.10 -502.68 -441.03 -402.91 -314.45 -276.66 -212.26 -166.15 -127.57 -84.63 -62.57 -39.69 -22.73 -13.03 0.55 7.43 12.09 15.85 20.10 26.96 29.00 34.88 44.07 52.45 59.50 69.29 79.87 85.85 87.89 88.96 92.30 93.06 97.96 95.70 96.17 92.81 83.65 64.16 11.64 -85.46 -240.24 -440.76 -776.42 -924.31 -1092.97 -1196.61 -1316.29 -1221.52 -1445.45 -1516.75 -1405.72 -1171.11 -1089.42 -1114.60 -1382.65 -1550.22 -1702.13 -1680.28 -1752.86 -1700.41 -1705.73 -1776.13 -1818.81 -1839.67 -1854.46 -1852.10 -1860.16 -1873.65 -1876.52 -1881.78 -1879.83 -1883.75 -1883.61 -1888.86 -1892.35 -1892.89 -1897.52 -1898.27 -1904.44 -1906.32 -1906.33 -1914.08 -1931.96 -1943.35 -1982.36 -2031.29 -2123.65 -2302.14 -2552.84 -2909.19 -3452.80 -3713.28 -3802.14 -3816.76 -3833.09 -3833.16
-2397.53 -2398.99 -2405.49 -2412.60 -2420.23 -2428.62 -2432.89 -2428.45 -2421.81 -2421.84 -2427.78 -2438.47 -2429.13 -2429.30 -2423.18 -2410.19 -2394.42 -2376.63 -2379.36 -2382.00 -2376.14 -2367.46 -2367.38 -2364.73 -2360.93 -2358.20 -2355.60 -2352.97 -2350.09 -2341.80 -2304.08 -2226.47 -2144.05 -2010.00 -1931.73 -1853.22 -1708.12 -1598.06 -1462.49 -1350.38 -1173.53 -1013.66 -882.13 -778.59 -683.30 -628.63 -559.35 -494.05 -402.36 -370.36 -313.04 -239.21 -183.57 -130.73 -103.54 -68.74 -54.88 -33.18 -23.59 -12.14 -2.46 5.46 14.76 20.09 24.64 26.58 32.53 39.81 48.66 56.37 65.59 72.85 76.10 82.13 77.72 82.56 85.38 86.05 85.42 80.44 65.71 64.61 32.52 -21.18 -248.35 -368.37 -701.92 -981.66 -1246.29 -1486.05 -1650.18 -1675.55 -1596.53 -1693.20 -1720.90 -1675.82 -1598.00 -1582.83 -1558.20 -1558.44 -1687.36 -1798.89 -1812.57 -1823.49 -1809.26 -1818.18 -1827.35 -1850.72 -1864.10 -1867.69 -1874.37 -1890.24 -1906.98 -1902.22 -1898.73 -1889.78 -1897.99 -1907.09 -1909.34 -1908.46 -1902.09 -1904.53 -1909.76 -1912.79 -1914.30 -1911.47 -1919.50 -1933.90 -1949.55 -1978.06 -2029.57 -2147.56 -2352.88 -2713.14 -3067.63 -3348.67 -3664.37 -3813.44 -3835.92 -3835.67 -3835.73
-2389.78 -2389.72 -2397.32 -2401.35 -2413.13 -2421.88 -2430.22 -2439.36 -2448.48 -2462.13 -2461.57 -2460.10 -2455.09 -2438.65 -2432.69 -2414.26 -2377.93 -2370.82 -2376.85 -2370.49 -2373.26 -2367.52 -2370.80 -2367.78 -2363.19 -2361.75 -2357.69 -2357.05 -2353.02 -2349.29 -2329.78 -2256.38 -2173.82 -2119.22 -2022.63 -1949.76 -1835.33 -1647.28 -1563.92 -1395.34 -1204.30 -1029.24 -892.45 -782.85 -708.87 -667.06 -575.80 -529.41 -443.52 -382.86 -336.25 -270.54 -201.11 -131.83 -99.03 -86.70 -64.16 -45.67 -36.24 -16.39 -7.40 5.36 12.44 18.39 22.67 24.67 31.68 38.10 45.10 48.57 56.86 65.17 66.24 65.62 66.30 68.05 67.67 64.16 68.51 60.61 46.58 8.46 -1.20 -46.65 -260.91 -462.96 -1013.38 -1336.43 -1574.22 -1730.95 -1693.51 -1743.94 -1707.11 -1730.12 -1749.06 -1790.73 -1783.74 -1778.29 -1735.25 -1733.93 -1761.50 -1807.94 -1830.23 -1832.50 -1828.38 -1854.53 -1863.75 -1878.88 -1886.96 -1885.66 -1888.40 -1902.93 -1915.11 -1918.90 -1915.77 -1912.59 -1917.26 -1922.18 -1921.01 -1926.19 -1916.36 -1919.95 -1916.48 -1916.57 -1916.95 -1920.94 -1926.62 -1935.20 -1944.64 -1977.65 -2051.78 -2131.11 -2368.13 -2803.06 -3130.95 -3554.42 -3780.47 -3825.10 -3842.18 -3840.76 -3840.83
-2386.59 -2386.52 -2394.31 -2399.84 -2407.39 -2417.84 -2428.05 -2446.33 -2465.89 -2482.36 -2497.91 -2489.40 -2488.50 -2469.81 -2440.81 -2416.01 -2361.02 -2350.41 -2348.47 -2352.81 -2366.37 -2363.63 -2375.13 -2374.65 -2367.30 -2363.34 -2361.29 -2359.50 -2356.58 -2352.98 -2338.38 -2306.92 -2282.59 -2239.09 -2163.59 -2015.18 -1875.04 -1781.89 -1644.27 -1436.50 -1231.05 -980.34 -886.58 -793.23 -739.75 -668.54 -617.06 -530.80 -485.47 -410.14 -347.73 -307.11 -230.17 -163.12 -129.04 -110.41 -99.69 -71.10 -44.46 -30.42 -11.28 1.24 11.50 14.34 16.52 19.31 26.10 30.86 36.22 40.32 41.10 53.20 60.27 58.59 56.85 57.10 51.26 49.14 48.84 40.90 -9.35 -34.04 -44.81 -132.27 -343.12 -623.97 -1029.08 -1566.65 -1715.91 -1765.78 -1750.13 -1736.88 -1742.21 -1750.67 -1775.77 -1791.31 -1798.97 -1799.48 -1810.48 -1813.44 -1818.21 -1837.19 -1841.94 -1849.48 -1860.88 -1873.20 -1898.61 -1912.38 -1924.28 -1914.64 -1911.68 -1920.70 -1935.20 -1949.51 -1955.33 -1936.39 -1932.44 -1937.04 -1941.02 -1936.89 -1928.79 -1935.90 -1922.46 -1919.02 -1922.40 -1926.89 -1932.91 -1944.60 -1971.96 -1994.88 -2058.29 -2223.21 -2449.26 -2625.93 -3225.53 -3678.48 -3792.31 -3821.88 -3840.75 -3843.58 -3843.90
-2395.45 -2395.37 -2402.25 -2403.33 -2410.20 -2418.64 -2435.22 -2460.74 -2485.10 -2508.03 -2520.66 -2515.37 -2502.97 -2491.02 -2469.64 -2410.25 -2354.96 -2341.59 -2341.07 -2354.42 -2374.01 -2400.94 -2393.01 -2379.33 -2377.71 -2368.34 -2365.50 -2362.97 -2360.85 -2357.24 -2345.30 -2336.07 -2315.27 -2303.97 -2195.25 -2101.03 -2026.73 -1914.51 -1739.73 -1546.14 -1285.20 -1009.32 -946.75 -841.35 -787.04 -719.53 -635.31 -558.15 -514.34 -472.49 -418.32 -321.68 -250.54 -226.92 -158.68 -143.01 -106.78 -90.68 -64.58 -48.45 -26.49 -11.45 -2.65 -4.09 4.31 12.78 15.38 22.21 27.26 27.82 32.06 41.23 48.32 37.17 36.16 28.53 34.12 23.55 22.34 1.49 -35.69 -129.06 -165.41 -348.32 -603.14 -976.33 -1572.67 -1783.56 -1809.71 -1807.62 -1763.99 -1750.23 -1754.78 -1756.08 -1779.73 -1794.50 -1814.88 -1816.66 -1845.44 -1846.11 -1851.24 -1849.58 -1862.18 -1885.32 -1891.58 -1903.20 -1928.57 -1955.50 -1948.71 -1945.95 -1955.10 -1965.39 -1953.06 -1966.54 -1970.92 -1949.52 -1951.99 -1956.91 -1946.86 -1943.94 -1949.51 -1950.36 -1942.21 -1934.07 -1938.40 -1942.32 -1958.04 -1959.04 -1994.44 -2017.58 -2071.68 -2458.21 -2663.67 -2860.91 -3438.15 -3793.51 -3824.71 -3845.10 -3846.24 -3850.06 -3850.13
-2421.72 -2421.64 -2434.12 -2413.01 -2424.96 -2428.29 -2464.82 -2485.14 -2500.99 -2539.31 -2562.33 -2558.30 -2566.59 -2535.33 -2484.93 -2452.18 -2387.56 -2355.59 -2403.72 -2405.28 -2497.47 -2489.79 -2422.20 -2396.14 -2388.55 -2380.09 -2373.18 -2369.08 -2366.15 -2360.90 -2355.41 -2342.74 -2327.30 -2306.33 -2247.54 -2155.68 -2076.05 -1935.39 -1703.30 -1476.18 -1255.70 -1082.83 -1042.88 -947.74 -823.28 -743.69 -646.56 -578.80 -542.05 -505.81 -445.70 -386.78 -317.94 -233.38 -202.24 -171.46 -144.98 -135.98 -113.27 -69.61 -64.67 -44.13 -15.98 -18.27 -7.58 -1.21 6.69 7.76 12.63 10.55 14.16 27.70 17.54 14.34 9.51 4.92 -7.22 -0.09 -7.28 -64.24 -148.32 -191.72 -247.12 -514.21 -925.29 -1575.89 -1953.89 -1914.46 -1885.38 -1827.87 -1811.56 -1786.32 -1789.89 -1787.08 -1799.17 -1809.89 -1851.35 -1868.87 -1894.78 -1914.40 -1930.65 -1892.52 -1901.84 -1955.38 -1947.22 -1955.89 -1961.09 -1989.85 -1990.94 -1999.65 -1986.38 -2001.16 -1996.24 -1993.71 -1984.85 -1973.07 -1980.53 -1971.29 -1960.10 -1961.58 -1959.36 -1974.69 -1959.85 -1961.10 -1952.87 -1976.45 -1999.28 -2031.78 -2015.68 -2055.66 -2213.48 -2496.10 -2642.65 -3048.26 -3518.27 -3799.29 -3848.87 -3849.94 -3849.22 -3849.73 -3850.87
-2531.52 -2516.68 -2564.37 -2542.94 -2555.40 -2599.33 -2572.93 -2616.43 -2670.16 -2586.82 -2693.26 -2674.31 -2629.07 -2608.61 -2629.82 -2583.69 -2481.11 -2546.32 -2686.88 -2742.17 -2628.18 -2505.54 -2443.46 -2421.35 -2399.97 -2397.06 -2384.26 -2379.83 -2371.27 -2369.59 -2366.63 -2353.68 -2335.43 -2324.24 -2303.84 -2211.24 -2125.67 -1992.39 -1870.52 -1707.62 -1348.30 -1198.31 -1092.45 -1036.04 -885.65 -750.23 -647.39 -622.77 -587.10 -517.48 -461.70 -416.88 -329.78 -276.49 -236.12 -215.10 -205.78 -161.59 -183.18 -148.47 -97.66 -51.11 -42.12 -39.60 -36.25 -30.42 -27.44 -21.37 -21.46 -19.95 -6.77 -6.68 -31.22 -15.42 -30.12 -66.56 -56.72 -44.36 -87.97 -140.99 -226.14 -365.04 -476.54 -770.22 -1203.39 -1783.06 -2002.53 -2001.21 -1930.76 -1910.62 -1879.18 -1849.63 -1837.35 -1891.31 -1901.61 -1868.16 -1904.20 -1948.20 -2034.15 -2019.30 -1995.39 -1981.22 -2032.87 -2034.15 -2001.48 -2000.32 -2002.61 -2043.26 -2026.12 -2026.57 -2043.21 -2033.89 -2022.63 -2011.61 -2002.30 -1997.10 -1993.16 -1982.44 -1978.49 -1978.04 -1980.71 -1983.33 -2006.79 -2008.53 -2012.39 -2058.08 -2065.29 -2149.59 -2226.26 -2167.72 -2241.52 -2717.19 -3102.15 -3386.51 -3705.72 -3801.44 -3856.09 -3858.78 -3855.35 -3850.24 -3850.31
