-5238.08 -5238.01 -5248.29 -5269.64 -5309.97 -5374.63 -5410.43 -5417.21 -5400.09 -5388.11 -5389.18 -5384.78 -5371.13 -5358.82 -5344.32 -5291.46 -5292.07 -5275.94 -5262.87 -5280.76 -5306.07 -5350.36 -5390.25 -5418.78 -5445.35 -5450.21 -5451.34 -5468.59 -5496.29 -5498.03 -5498.76 -5514.74 -5525.08 -5523.59 -5518.20 -5510.67 -5499.60 -5488.71 -5488.11 -5494.21 -5502.48 -5516.63 -5530.63 -5552.59 -5568.20 -5570.77 -5573.98 -5558.56 -5555.00 -5541.52 -5511.58 -5503.70 -5499.59 -5494.93 -5495.75 -5506.49 -5524.00 -5515.28 -5510.28 -5505.18 -5498.60 -5490.65 -5484.91 -5475.78 -5473.08 -5466.26 -5453.34 -5443.87 -5437.47 -5436.64 -5437.58 -5437.96 -5425.47 -5409.11 -5263.31 -4842.43 -4716.07 -4358.85 -3708.04 -3580.95 -3241.57 -2909.18 -2467.79 -2423.32 -2862.59 -4308.91 -5846.80 -5828.62 -4940.74 -4189.82 -2319.06 -2057.81 -2951.12 -3515.70 -3951.44 -3918.15 -3876.84 -3756.52 -3700.96 -2146.59 -1250.81 -909.15 -801.76 -1065.36 -1540.72 -2343.53 -3413.13 -4514.14 -6971.62 -8181.71 -8564.76 -8579.80 -8594.72 -8608.60 -8588.23 -8035.66 -6236.09 -3601.60 -2582.27 -2113.07 -2041.38 -2052.19 -2060.48 -2057.14 -2030.51 -2007.72 -1967.01 -1921.70 -1895.66 -1941.32 -2201.39 -2664.83 -2892.07 -2992.95 -3212.61 -3426.17 -3553.03 -3731.37 -3855.23 -3933.23 -3933.35
-5252.64 -5252.57 -5261.49 -5273.68 -5310.01 -5365.28 -5416.75 -5434.85 -5419.99 -5418.85 -5412.28 -5410.92 -5419.81 -5400.58 -5376.61 -5354.72 -5363.99 -5348.37 -5365.82 -5349.08 -5351.39 -5366.80 -5384.86 -5386.13 -5386.85 -5403.67 -5412.89 -5432.63 -5431.85 -5451.03 -5473.49 -5480.28 -5488.29 -5501.30 -5487.03 -5474.70 -5477.57 -5473.44 -5475.49 -5479.78 -5488.64 -5503.54 -5514.04 -5531.55 -5550.49 -5559.23 -5558.29 -5548.56 -5536.35 -5518.55 -5491.46 -5480.22 -5481.70 -5477.88 -5484.78 -5507.59 -5533.98 -5520.90 -5514.65 -5509.20 -5502.42 -5497.36 -5490.04 -5481.19 -5472.07 -5462.03 -5453.61 -5445.82 -5440.09 -5438.69 -5439.03 -5432.36 -5422.31 -5411.83 -5292.71 -4988.91 -4253.51 -3985.84 -3579.00 -3346.09 -2848.65 -2590.29 -2317.92 -2837.91 -3198.77 -5788.45 -6017.87 -4897.66 -3425.22 -2009.88 -1652.29 -1772.16 -2715.12 -3353.16 -3681.60 -3674.28 -3679.13 -3534.41 -3224.86 -2101.36 -1477.31 -1032.15 -854.71 -1067.47 -1543.85 -2169.41 -2800.27 -3322.88 -6433.10 -7949.36 -8546.86 -8568.90 -8576.74 -8590.60 -8558.62 -8329.36 -7017.27 -5189.60 -2669.45 -2172.97 -2047.45 -2053.05 -2057.31 -2052.21 -2030.38 -2009.49 -1968.16 -1936.71 -1912.31 -1993.07 -2131.45 -2528.53 -2776.62 -2878.73 -3032.59 -3150.53 -3388.10 -3627.66 -3831.66 -3893.08 -3893.20
-5262.48 -5263.45 -5270.21 -5284.01 -5313.45 -5358.54 -5414.24 -5441.01 -5443.16 -5444.60 -5440.52 -5436.50 -5433.50 -5433.64 -5424.17 -5414.06 -5406.44 -5390.32 -5381.14 -5386.23 -5382.18 -5382.72 -5370.62 -5364.92 -5366.81 -5375.75 -5380.80 -5403.88 -5411.34 -5422.20 -5444.92 -5455.53 -5472.92 -5474.06 -5476.94 -5473.52 -5468.13 -5465.06 -5467.92 -5471.09 -5476.15 -5490.69 -5503.41 -5525.76 -5537.80 -5540.96 -5538.37 -5538.82 -5518.34 -5496.76 -5483.45 -5473.44 -5467.25 -5469.57 -5479.78 -5511.87 -5526.00 -5525.72 -5517.85 -5515.10 -5506.48 -5497.76 -5492.14 -5483.19 -5469.38 -5459.56 -5450.09 -5445.64 -5442.06 -5440.95 -5441.55 -5437.52 -5411.05 -5394.60 -5266.49 -5007.18 -4465.22 -3692.03 -3348.34 -3132.48 -2737.63 -2393.57 -2288.89 -3335.70 -4807.74 -6548.67 -6064.00 -4159.00 -2616.60 -1117.89 -950.67 -1936.73 -2467.34 -3145.75 -3553.23 -3489.52 -3466.63 -3280.42 -2740.50 -2168.86 -1497.12 -1060.97 -874.52 -1023.34 -1727.14 -2278.55 -3300.74 -4222.69 -6902.06 -8391.91 -8538.23 -8551.64 -8566.57 -8573.74 -8562.90 -8384.19 -7332.75 -5121.20 -2861.94 -2204.92 -2065.20 -2049.02 -2049.67 -2048.76 -2031.59 -2009.76 -1980.18 -1934.77 -1925.04 -2015.50 -2242.02 -2463.59 -2544.19 -2678.24 -2847.09 -2897.45 -3254.87 -3598.82 -3785.03 -3832.38 -3832.59
-5266.59 -5266.51 -5273.24 -5282.54 -5303.88 -5337.01 -5402.44 -5434.88 -5459.20 -5464.65 -5460.03 -5456.90 -5459.04 -5452.55 -5442.50 -5433.94 -5426.73 -5418.81 -5412.41 -5405.84 -5397.70 -5384.80 -5369.18 -5355.48 -5357.18 -5359.40 -5367.31 -5383.61 -5402.08 -5421.80 -5434.62 -5448.19 -5466.95 -5465.79 -5466.01 -5464.11 -5464.04 -5463.22 -5465.58 -5470.04 -5475.78 -5488.45 -5504.54 -5521.17 -5532.58 -5536.28 -5534.32 -5534.28 -5503.09 -5496.05 -5480.73 -5467.86 -5463.66 -5465.85 -5479.61 -5506.19 -5532.77 -5533.81 -5522.87 -5518.90 -5511.54 -5510.57 -5505.76 -5491.42 -5482.82 -5463.54 -5457.24 -5450.09 -5447.28 -5444.99 -5439.90 -5429.20 -5325.07 -5206.35 -5107.70 -4918.74 -4521.83 -3948.32 -3272.33 -2934.93 -2678.58 -2421.59 -2471.70 -3143.43 -4336.78 -7049.74 -7142.72 -3761.16 -1909.81 -766.09 -980.33 -1664.77 -2731.76 -3128.72 -3359.49 -3208.39 -3126.33 -3077.53 -2783.93 -2170.97 -1435.04 -983.15 -763.59 -968.31 -1610.25 -2453.02 -3629.63 -5629.77 -7478.15 -8124.54 -8520.27 -8527.42 -8547.36 -8553.56 -8555.21 -8527.02 -7472.71 -5757.02 -3247.93 -2201.35 -2085.15 -2047.97 -2047.26 -2045.95 -2030.07 -2018.76 -1988.69 -1961.98 -1947.68 -2047.71 -2232.44 -2337.30 -2432.25 -2460.21 -2467.79 -2732.06 -3201.77 -3513.93 -3614.09 -3676.92 -3677.03
-5266.05 -5266.73 -5272.50 -5282.45 -5291.78 -5318.54 -5373.58 -5413.17 -5442.36 -5470.10 -5469.32 -5468.35 -5466.26 -5462.43 -5454.11 -5445.37 -5435.42 -5426.69 -5421.37 -5410.89 -5402.12 -5389.46 -5373.64 -5359.44 -5355.32 -5358.45 -5365.35 -5377.51 -5401.62 -5418.16 -5436.97 -5447.68 -5456.87 -5463.78 -5465.54 -5463.64 -5463.05 -5463.41 -5466.23 -5469.00 -5477.03 -5491.17 -5505.34 -5521.77 -5530.57 -5535.62 -5533.29 -5529.50 -5509.37 -5499.09 -5480.23 -5469.99 -5461.92 -5462.84 -5484.86 -5510.91 -5536.20 -5535.64 -5525.94 -5523.39 -5521.31 -5517.87 -5507.40 -5500.74 -5495.95 -5478.03 -5463.42 -5457.63 -5453.59 -5452.76 -5440.91 -5421.24 -5268.99 -5064.04 -4990.92 -4642.90 -4439.17 -3928.29 -3499.93 -2852.95 -2727.94 -2323.90 -2183.45 -3952.89 -5257.55 -7229.80 -6784.28 -3879.87 -1753.95 -858.39 -1100.40 -1675.12 -2223.29 -3241.47 -3207.20 -2971.82 -2746.57 -2652.43 -2486.80 -2112.42 -1395.47 -913.13 -734.58 -1137.23 -1476.54 -2286.74 -3259.55 -4738.07 -6482.29 -8108.72 -8534.92 -8517.17 -8525.94 -8537.56 -8544.19 -8459.44 -8030.97 -5815.93 -3428.38 -2287.24 -2066.32 -2039.97 -2038.88 -2037.97 -2029.87 -2011.70 -1999.17 -1971.68 -1960.65 -2043.30 -2082.85 -2186.15 -2240.43 -2315.63 -2390.40 -2737.80 -2930.51 -3280.50 -3485.97 -3628.13 -3628.27
-5252.69 -5252.59 -5266.01 -5272.28 -5276.08 -5286.19 -5310.94 -5393.66 -5435.58 -5448.98 -5471.69 -5475.20 -5474.01 -5463.17 -5454.77 -5438.06 -5431.43 -5421.98 -5414.06 -5406.34 -5396.31 -5390.53 -5374.55 -5357.36 -5357.89 -5362.02 -5369.93 -5379.29 -5403.44 -5416.85 -5432.57 -5446.64 -5453.46 -5461.16 -5463.33 -5462.64 -5462.31 -5461.21 -5464.87 -5467.54 -5473.31 -5492.30 -5505.08 -5518.62 -5531.48 -5536.83 -5534.82 -5529.92 -5511.91 -5490.52 -5470.76 -5459.29 -5454.79 -5456.91 -5481.41 -5501.59 -5546.96 -5550.06 -5526.07 -5519.86 -5523.45 -5522.78 -5516.60 -5512.96 -5505.25 -5489.15 -5477.20 -5469.18 -5467.60 -5463.68 -5459.43 -5429.63 -5318.30 -4963.28 -4670.58 -4456.79 -4162.30 -4104.32 -3712.25 -2987.65 -2705.90 -2234.90 -2153.84 -2750.54 -4189.25 -6950.95 -6884.62 -4637.24 -1559.53 -1042.38 -1205.86 -1788.41 -2623.44 -3059.28 -2943.93 -2467.95 -2398.30 -2436.77 -2388.50 -1930.03 -1403.38 -1052.64 -857.45 -1076.54 -1482.06 -2186.89 -3090.82 -3595.82 -6138.18 -7825.89 -8401.28 -8508.88 -8517.37 -8522.43 -8530.48 -8507.35 -8377.11 -6515.77 -4432.81 -2344.96 -2082.82 -2026.55 -2027.54 -2028.19 -2025.79 -2008.44 -1994.30 -1975.11 -1975.09 -1987.20 -2019.22 -2027.97 -2123.33 -2163.38 -2233.45 -2404.55 -2802.84 -3009.60 -3372.45 -3487.04 -3514.38
-5212.87 -5212.78 -5229.96 -5235.93 -5252.31 -5260.26 -5283.14 -5315.19 -5383.10 -5426.32 -5459.79 -5470.25 -5469.41 -5457.66 -5442.52 -5418.95 -5401.91 -5393.11 -5396.38 -5392.42 -5373.86 -5366.39 -5364.21 -5358.97 -5359.55 -5363.12 -5374.25 -5384.08 -5398.86 -5416.71 -5431.23 -5440.56 -5448.03 -5455.59 -5457.84 -5456.23 -5451.96 -5452.96 -5453.99 -5462.24 -5468.50 -5486.14 -5503.72 -5518.48 -5532.10 -5537.31 -5536.94 -5527.81 -5508.16 -5481.95 -5460.20 -5444.46 -5442.92 -5444.29 -5455.06 -5503.81 -5537.83 -5541.59 -5526.34 -5526.06 -5532.11 -5530.04 -5522.93 -5521.44 -5516.87 -5499.13 -5487.55 -5479.56 -5476.48 -5473.01 -5456.50 -5409.95 -5237.16 -4825.42 -4471.36 -4084.29 -3930.78 -3796.38 -3351.23 -2836.60 -2465.66 -2127.68 -2110.61 -2563.96 -4996.23 -6427.78 -6645.07 -4766.30 -1371.09 -1064.45 -1249.83 -1829.87 -2598.52 -2792.94 -2493.47 -2175.82 -2132.33 -2059.28 -2073.84 -1778.12 -1542.44 -949.66 -966.10 -1179.08 -1536.63 -2042.94 -2463.19 -3503.70 -5642.14 -7018.09 -8050.92 -8500.22 -8509.94 -8519.45 -8523.80 -8506.34 -8237.11 -7319.64 -4040.75 -2599.02 -2051.40 -2017.61 -2008.93 -2011.71 -2014.46 -2008.29 -1990.05 -1977.85 -1969.68 -1965.98 -1974.93 -2008.69 -2057.87 -2104.74 -2165.03 -2310.83 -2415.25 -2718.05 -3110.97 -3245.05 -3245.41
-5170.96 -5170.86 -5184.52 -5201.74 -5215.09 -5229.98 -5244.18 -5278.26 -5328.00 -5413.77 -5437.02 -5450.58 -5456.79 -5449.94 -5417.27 -5399.71 -5370.31 -5359.11 -5344.72 -5345.68 -5351.52 -5351.98 -5353.87 -5358.08 -5360.72 -5363.06 -5371.47 -5379.62 -5397.19 -5405.60 -5423.44 -5432.95 -5445.21 -5447.99 -5451.21 -5445.50 -5443.70 -5441.92 -5443.74 -5451.48 -5461.38 -5473.79 -5500.07 -5516.06 -5531.52 -5537.99 -5538.33 -5528.98 -5498.89 -5475.49 -5440.73 -5418.89 -5426.55 -5429.39 -5450.17 -5492.84 -5524.60 -5533.57 -5530.09 -5531.29 -5532.66 -5531.10 -5526.02 -5522.83 -5520.28 -5503.42 -5494.33 -5483.11 -5478.39 -5473.97 -5438.23 -5308.57 -5096.78 -4720.86 -4334.80 -3881.04 -3720.54 -3648.72 -3352.17 -2878.00 -2427.55 -2195.31 -2203.67 -2610.14 -4818.75 -6612.30 -6401.07 -4119.90 -1333.15 -986.12 -1234.47 -1701.65 -2260.08 -1893.72 -1884.94 -1887.10 -1879.92 -1729.98 -1721.42 -1803.67 -1475.98 -910.16 -887.87 -1404.62 -1717.45 -2389.72 -2879.23 -4732.30 -6312.15 -7936.60 -8464.31 -8495.10 -8503.66 -8511.01 -8516.58 -8501.60 -8285.19 -6958.12 -5261.11 -2591.92 -2092.91 -2005.71 -1981.25 -1988.27 -2006.16 -2006.10 -1997.74 -1979.83 -1968.46 -1966.07 -1970.42 -1992.06 -2016.37 -2061.14 -2117.45 -2200.96 -2439.03 -2601.31 -2783.85 -2825.69 -2825.82
-5134.56 -5135.22 -5146.06 -5164.64 -5184.91 -5187.57 -5219.83 -5250.73 -5318.66 -5374.02 -5407.63 -5421.94 -5421.65 -5429.00 -5407.05 -5369.91 -5339.07 -5323.79 -5324.59 -5321.75 -5324.49 -5330.16 -5347.11 -5357.82 -5360.65 -5364.08 -5370.84 -5376.84 -5391.42 -5412.29 -5420.30 -5428.66 -5435.92 -5438.23 -5439.35 -5437.52 -5429.57 -5434.45 -5434.16 -5443.67 -5453.02 -5472.50 -5491.38 -5516.93 -5530.96 -5535.13 -5536.67 -5527.68 -5505.78 -5461.72 -5435.82 -5409.57 -5407.64 -5415.36 -5437.29 -5475.45 -5512.50 -5538.96 -5537.87 -5533.00 -5528.04 -5531.01 -5525.05 -5520.92 -5520.35 -5500.67 -5499.42 -5489.21 -5483.88 -5474.54 -5454.17 -5315.26 -5004.71 -4664.06 -4109.56 -3874.32 -3609.72 -3547.05 -3104.87 -2842.80 -2432.87 -2243.63 -2208.23 -2669.76 -4680.07 -6447.37 -6006.34 -3448.45 -1471.14 -818.88 -922.43 -1307.78 -1510.05 -1798.97 -1648.19 -1595.42 -1691.44 -1612.34 -1552.17 -1520.98 -1418.72 -785.35 -963.81 -1411.80 -1906.62 -2467.46 -3417.97 -5395.25 -7688.67 -8314.81 -8447.29 -8488.23 -8495.46 -8495.18 -8500.00 -8492.97 -8437.90 -7891.53 -5115.18 -2827.72 -2103.18 -1950.82 -1957.52 -1982.87 -1998.78 -2008.50 -1998.97 -1980.95 -1970.53 -1963.90 -1962.86 -1988.08 -2008.92 -2044.75 -2091.81 -2137.91 -2310.44 -2485.22 -2670.96 -2717.95 -2718.08
-5122.02 -5121.94 -5136.30 -5150.30 -5164.88 -5179.62 -5202.46 -5227.03 -5277.91 -5315.49 -5349.41 -5364.79 -5373.88 -5390.68 -5397.61 -5370.08 -5331.96 -5322.10 -5314.42 -5313.63 -5316.48 -5324.96 -5353.84 -5356.50 -5358.14 -5361.08 -5363.72 -5369.28 -5384.39 -5396.78 -5407.08 -5414.47 -5422.32 -5426.86 -5426.03 -5416.71 -5417.15 -5413.72 -5421.34 -5428.05 -5439.98 -5460.51 -5484.28 -5513.43 -5527.86 -5532.59 -5534.37 -5528.84 -5506.26 -5452.56 -5422.88 -5405.32 -5403.41 -5412.70 -5431.67 -5468.89 -5519.90 -5547.87 -5539.73 -5531.64 -5519.37 -5525.78 -5522.43 -5518.29 -5511.18 -5501.94 -5497.47 -5491.56 -5486.30 -5450.79 -5373.28 -5151.24 -4969.65 -4765.54 -4360.42 -3591.34 -3484.34 -3146.04 -2932.42 -2664.89 -2519.19 -2427.27 -2306.76 -2565.40 -4839.83 -6294.63 -5476.68 -2284.27 -777.50 -533.40 -674.44 -1031.54 -1078.06 -1221.67 -1463.68 -1463.97 -1482.17 -1427.11 -1516.52 -1523.91 -1313.58 -972.69 -999.12 -1380.90 -1866.57 -2399.64 -3685.10 -5990.66 -7930.16 -8482.41 -8467.45 -8477.92 -8481.06 -8489.18 -8487.53 -8496.18 -8449.61 -7772.81 -4907.30 -2901.41 -2250.75 -1910.48 -1907.15 -1957.86 -1998.32 -2003.16 -1993.74 -1983.57 -1973.46 -1970.24 -1966.52 -1976.35 -1989.96 -2037.14 -2070.65 -2132.91 -2239.74 -2431.16 -2553.82 -2645.07 -2645.14
-5112.22 -5112.14 -5126.06 -5140.92 -5154.86 -5170.24 -5188.04 -5220.15 -5257.11 -5289.45 -5299.05 -5315.26 -5327.19 -5368.00 -5365.94 -5361.70 -5337.45 -5331.59 -5319.66 -5316.78 -5320.85 -5327.54 -5345.08 -5354.51 -5356.23 -5354.92 -5356.62 -5367.68 -5377.52 -5389.08 -5395.94 -5404.05 -5408.16 -5411.26 -5414.93 -5411.31 -5406.05 -5406.42 -5410.68 -5417.79 -5432.68 -5452.70 -5482.88 -5502.06 -5520.61 -5527.87 -5529.55 -5522.68 -5505.24 -5459.37 -5411.53 -5403.50 -5403.23 -5408.92 -5419.15 -5468.74 -5513.74 -5536.34 -5533.25 -5531.07 -5511.67 -5517.02 -5520.24 -5517.22 -5513.16 -5506.33 -5500.26 -5492.86 -5480.73 -5438.71 -5331.33 -5159.18 -4844.16 -4694.87 -4237.55 -3748.51 -3314.15 -2926.60 -2737.31 -2637.12 -2516.91 -2344.21 -2372.33 -2702.38 -4326.78 -5209.34 -4362.46 -1411.50 -547.76 -317.80 -461.14 -670.46 -843.59 -1038.33 -1290.23 -1349.08 -1391.37 -1411.78 -1449.24 -1374.20 -1101.58 -847.17 -1019.00 -1326.07 -1883.89 -2907.20 -5021.05 -7636.29 -8257.11 -8460.60 -8464.84 -8474.37 -8474.70 -8479.19 -8484.32 -8488.25 -8428.04 -7814.83 -5896.76 -3432.00 -2268.17 -1885.97 -1863.04 -1908.80 -1966.74 -1998.56 -1988.93 -1985.39 -1970.01 -1970.99 -1966.72 -1965.52 -1986.64 -2012.09 -2063.59 -2101.32 -2242.24 -2427.79 -2534.70 -2630.95 -2631.06
-5096.05 -5095.96 -5107.60 -5115.21 -5135.02 -5151.61 -5176.12 -5206.04 -5239.04 -5263.97 -5285.40 -5290.97 -5301.98 -5314.55 -5333.81 -5337.61 -5340.92 -5349.73 -5355.17 -5342.07 -5341.47 -5341.20 -5345.30 -5351.06 -5349.92 -5346.06 -5350.62 -5349.72 -5363.99 -5375.64 -5382.68 -5385.56 -5394.46 -5399.10 -5397.65 -5399.03 -5399.40 -5403.11 -5406.66 -5416.39 -5428.77 -5445.83 -5474.97 -5501.95 -5515.23 -5523.94 -5525.87 -5521.86 -5506.23 -5463.79 -5415.59 -5405.29 -5402.63 -5408.26 -5416.99 -5459.54 -5502.57 -5528.65 -5526.42 -5523.99 -5510.25 -5509.37 -5516.59 -5512.92 -5508.66 -5504.66 -5500.61 -5491.69 -5475.36 -5411.99 -5288.96 -4972.01 -4588.84 -4290.02 -4087.21 -3673.14 -3229.25 -2877.44 -2684.49 -2542.86 -2465.76 -2357.31 -2273.83 -2477.46 -2999.29 -3900.73 -2222.05 -735.73 -209.77 -113.49 -231.06 -552.20 -819.90 -1047.78 -1210.78 -1323.18 -1333.44 -1373.52 -1425.86 -1225.69 -938.56 -639.73 -914.08 -1502.53 -2316.08 -3914.56 -4510.32 -7210.48 -7508.29 -8094.88 -8430.83 -8472.39 -8470.37 -8479.30 -8480.80 -8474.01 -8445.99 -8282.94 -7210.62 -3943.34 -2298.15 -1880.26 -1812.95 -1870.33 -1911.35 -1993.50 -1990.32 -1980.28 -1971.96 -1965.26 -1963.72 -1964.02 -1981.27 -1992.57 -2026.23 -2079.42 -2223.23 -2405.89 -2509.75 -2567.65 -2567.76
-5061.51 -5060.54 -5072.55 -5087.87 -5102.98 -5129.19 -5149.25 -5195.26 -5243.97 -5266.31 -5291.19 -5296.28 -5300.44 -5301.34 -5312.11 -5320.67 -5340.59 -5377.14 -5382.87 -5372.02 -5359.65 -5358.39 -5353.84 -5345.62 -5337.80 -5335.51 -5335.23 -5341.36 -5354.89 -5361.62 -5369.87 -5374.99 -5375.03 -5379.17 -5383.92 -5393.19 -5397.06 -5404.78 -5412.56 -5421.46 -5435.45 -5453.19 -5477.17 -5501.66 -5513.35 -5520.33 -5525.22 -5522.39 -5503.95 -5457.78 -5416.34 -5406.89 -5403.91 -5407.65 -5422.20 -5448.69 -5479.56 -5496.96 -5513.95 -5519.14 -5500.59 -5502.04 -5511.37 -5508.20 -5500.07 -5496.90 -5495.80 -5489.04 -5458.37 -5371.41 -5248.87 -4835.90 -4520.40 -4143.60 -3744.92 -3419.29 -3191.60 -2870.20 -2644.31 -2478.00 -2391.18 -2342.84 -2183.60 -2214.20 -2633.58 -2786.62 -1370.11 -364.66 17.79 124.07 -23.82 -527.27 -906.02 -1179.57 -1229.07 -1293.74 -1313.78 -1341.57 -1354.48 -1201.21 -734.89 -644.94 -1079.84 -1845.92 -2676.40 -4140.42 -5227.03 -6046.53 -6627.21 -7537.12 -8039.45 -8455.97 -8466.13 -8480.24 -8471.16 -8462.02 -8433.88 -8054.33 -6913.36 -4548.72 -2514.12 -1837.13 -1764.29 -1812.58 -1896.34 -1958.47 -1988.13 -1984.83 -1972.64 -1969.16 -1965.09 -1964.81 -1968.33 -1985.01 -2006.13 -2057.21 -2156.64 -2350.53 -2404.25 -2519.02 -2519.09
-5025.49 -5025.41 -5046.48 -5055.98 -5057.05 -5077.27 -5109.34 -5154.01 -5221.41 -5276.33 -5298.30 -5307.38 -5309.49 -5310.03 -5306.77 -5309.27 -5339.29 -5396.51 -5414.78 -5409.31 -5390.35 -5380.82 -5348.06 -5333.71 -5325.67 -5323.73 -5321.80 -5326.10 -5333.05 -5345.59 -5347.01 -5353.14 -5362.37 -5361.00 -5373.22 -5387.80 -5404.50 -5410.70 -5422.34 -5428.72 -5443.30 -5455.61 -5481.68 -5497.94 -5513.58 -5517.92 -5521.97 -5515.71 -5495.76 -5455.81 -5415.49 -5405.22 -5402.81 -5408.27 -5416.14 -5440.79 -5460.21 -5484.70 -5491.69 -5498.56 -5486.35 -5496.77 -5501.64 -5498.10 -5494.06 -5490.03 -5486.63 -5480.51 -5457.41 -5282.17 -5105.72 -4795.62 -4270.09 -4132.92 -3584.46 -3183.74 -3005.91 -2703.73 -2543.02 -2370.51 -2059.39 -2046.71 -2017.31 -1823.01 -1680.78 -1320.28 -879.71 -131.98 66.34 134.14 72.69 -496.65 -984.94 -1153.09 -1224.70 -1236.49 -1271.48 -1296.37 -1256.38 -1082.23 -798.32 -932.90 -1248.12 -1845.24 -3145.92 -3702.49 -4779.84 -5214.82 -5498.83 -6818.06 -8037.86 -8447.35 -8460.03 -8471.52 -8462.34 -8464.60 -8422.68 -8103.07 -7209.35 -4966.88 -2688.94 -1877.58 -1735.14 -1795.90 -1900.76 -1953.88 -1981.14 -1984.26 -1975.13 -1969.43 -1966.47 -1967.80 -1974.78 -1982.66 -2010.81 -2087.59 -2148.03 -2285.69 -2442.85 -2519.25 -2521.06
-4998.49 -4999.25 -5011.63 -5020.39 -5031.76 -5052.91 -5082.27 -5147.37 -5198.77 -5276.90 -5290.61 -5301.39 -5299.90 -5306.25 -5305.05 -5298.66 -5303.48 -5356.88 -5406.56 -5428.94 -5425.03 -5391.35 -5345.22 -5331.86 -5317.85 -5314.35 -5313.06 -5316.10 -5324.70 -5331.54 -5336.61 -5346.25 -5345.57 -5351.22 -5365.20 -5382.35 -5401.49 -5417.47 -5430.47 -5438.12 -5448.11 -5460.81 -5478.34 -5499.71 -5507.41 -5513.75 -5518.49 -5511.25 -5494.22 -5462.97 -5411.88 -5399.28 -5398.49 -5403.99 -5409.09 -5428.87 -5440.58 -5450.82 -5453.77 -5466.70 -5469.70 -5487.66 -5491.52 -5486.77 -5481.09 -5477.39 -5473.22 -5469.18 -5439.92 -5325.76 -5164.49 -4730.84 -4284.45 -3879.21 -3595.63 -3196.24 -2970.27 -2768.93 -2443.01 -2009.00 -1877.17 -1935.01 -1887.16 -1499.02 -1316.46 -1024.55 -511.66 -212.30 151.43 158.64 -41.84 -557.32 -820.97 -1012.29 -1089.77 -1150.92 -1223.82 -1266.82 -1282.30 -940.41 -795.81 -1020.30 -1346.73 -1822.37 -2477.73 -3330.07 -4090.85 -4640.65 -5521.92 -7562.55 -8209.74 -8419.02 -8439.19 -8447.28 -8447.75 -8437.74 -8418.63 -8265.26 -7854.95 -4891.17 -2742.99 -1876.84 -1740.06 -1797.00 -1897.66 -1946.00 -1975.71 -1982.28 -1976.58 -1969.60 -1967.09 -1967.40 -1974.81 -1982.12 -2016.65 -2089.68 -2175.65 -2299.98 -2436.04 -2525.32 -2525.39
-4990.77 -4991.49 -4998.17 -5007.86 -5016.84 -5034.42 -5087.76 -5130.32 -5205.54 -5260.76 -5278.01 -5281.93 -5284.97 -5289.36 -5287.93 -5284.98 -5291.29 -5323.67 -5371.41 -5399.21 -5409.96 -5391.86 -5351.72 -5330.38 -5315.20 -5310.93 -5311.29 -5315.97 -5323.21 -5328.25 -5332.75 -5338.09 -5341.99 -5350.55 -5362.85 -5387.18 -5408.67 -5421.83 -5433.49 -5441.78 -5449.46 -5469.58 -5479.12 -5496.79 -5506.05 -5510.58 -5513.35 -5511.47 -5485.94 -5458.59 -5412.80 -5395.44 -5394.68 -5399.08 -5402.10 -5414.87 -5426.94 -5439.54 -5441.75 -5441.80 -5446.23 -5469.85 -5483.57 -5478.12 -5469.38 -5469.05 -5460.87 -5453.60 -5426.79 -5327.16 -5192.07 -4640.32 -4263.12 -3742.56 -3446.32 -3086.22 -2914.60 -2548.15 -2249.19 -1967.43 -1617.32 -1260.52 -1382.53 -1153.14 -935.02 -730.60 -429.10 -81.91 114.82 150.87 63.95 -538.76 -720.92 -851.28 -991.16 -1016.90 -1116.09 -1231.65 -1067.28 -826.09 -707.33 -765.25 -1072.23 -1728.63 -2403.51 -3399.94 -3902.09 -5177.39 -6909.08 -7886.70 -8389.02 -8412.04 -8415.17 -8409.74 -8416.22 -8414.46 -8383.64 -8333.94 -7754.69 -6075.73 -2820.99 -1898.24 -1769.15 -1799.45 -1866.68 -1920.46 -1962.56 -1984.21 -1977.67 -1974.10 -1968.36 -1972.58 -1977.09 -1988.52 -2020.45 -2072.12 -2192.04 -2315.13 -2404.18 -2527.62 -2527.69
-4989.54 -4989.48 -4995.66 -5003.03 -5012.40 -5024.51 -5070.61 -5105.73 -5190.28 -5225.92 -5261.61 -5266.56 -5269.53 -5274.08 -5268.61 -5268.11 -5267.11 -5284.67 -5308.51 -5358.61 -5392.21 -5380.65 -5356.02 -5333.39 -5324.55 -5315.51 -5315.12 -5318.63 -5326.18 -5332.70 -5337.03 -5339.46 -5344.04 -5349.71 -5369.07 -5382.82 -5407.67 -5420.94 -5436.50 -5443.94 -5453.05 -5466.83 -5476.51 -5493.27 -5497.90 -5504.07 -5507.45 -5499.43 -5479.05 -5454.92 -5417.23 -5404.52 -5395.49 -5404.81 -5411.73 -5415.12 -5421.73 -5428.22 -5427.75 -5425.34 -5436.79 -5460.24 -5469.12 -5466.19 -5461.47 -5455.26 -5447.55 -5431.55 -5410.40 -5305.32 -5080.87 -4703.91 -4261.22 -3806.36 -3376.25 -3168.80 -2657.04 -2433.83 -1990.92 -1656.52 -1411.08 -1163.82 -1053.44 -880.38 -828.57 -660.25 -379.56 -36.95 74.01 85.99 -215.96 -514.37 -597.45 -674.45 -795.48 -771.34 -981.91 -1155.95 -1047.69 -405.42 -231.44 -452.12 -1252.58 -1651.59 -2307.02 -3298.53 -4214.47 -5388.30 -7373.00 -7949.48 -8393.33 -8400.50 -8383.01 -8382.86 -8388.93 -8368.40 -8331.51 -8305.45 -7733.23 -5805.25 -3614.03 -1940.51 -1789.08 -1809.09 -1845.22 -1919.35 -1973.90 -1987.55 -1980.21 -1975.28 -1973.56 -1980.44 -1984.21 -1994.68 -2032.14 -2069.08 -2199.86 -2274.50 -2512.41 -2575.23 -2574.55
-4996.45 -4996.40 -5006.59 -5008.13 -5013.20 -5023.61 -5063.80 -5109.03 -5174.75 -5196.77 -5229.71 -5231.61 -5238.14 -5238.85 -5250.95 -5238.43 -5246.38 -5254.70 -5269.11 -5317.68 -5363.28 -5367.72 -5351.68 -5345.92 -5340.59 -5334.56 -5337.58 -5339.91 -5341.33 -5337.86 -5339.03 -5342.79 -5348.13 -5357.13 -5371.63 -5394.75 -5406.73 -5427.55 -5436.42 -5445.30 -5450.69 -5460.64 -5466.77 -5482.80 -5491.08 -5495.74 -5495.08 -5495.27 -5483.39 -5454.13 -5438.67 -5436.58 -5430.40 -5434.28 -5431.79 -5431.40 -5431.68 -5433.07 -5422.86 -5419.00 -5433.22 -5452.58 -5449.48 -5453.73 -5452.16 -5444.87 -5433.16 -5422.95 -5387.94 -5288.39 -5090.87 -4702.09 -4345.43 -3843.49 -3553.28 -3350.17 -2912.78 -2650.09 -2015.95 -1613.01 -1224.89 -939.28 -800.65 -731.72 -718.71 -507.64 -330.01 -161.18 -192.97 -176.75 -311.88 -437.65 -488.96 -512.22 -529.82 -675.83 -748.44 -960.22 -849.80 -342.31 -260.51 -595.69 -1046.56 -2038.82 -2612.67 -3033.43 -4339.52 -5490.69 -6870.99 -7929.99 -8372.72 -8374.31 -8377.09 -8317.40 -8312.04 -8272.69 -8230.16 -8218.71 -7838.30 -6091.20 -3132.23 -1899.68 -1732.44 -1767.50 -1837.05 -1937.62 -1977.84 -1988.74 -1983.51 -1982.46 -1977.64 -1983.53 -1992.70 -2007.64 -2046.51 -2074.33 -2188.70 -2360.26 -2513.56 -2684.95 -2685.01
-5013.82 -5017.62 -5020.09 -5021.31 -5026.81 -5033.00 -5062.06 -5085.44 -5130.01 -5149.26 -5172.13 -5171.55 -5164.64 -5165.49 -5183.16 -5204.90 -5212.52 -5224.10 -5232.08 -5257.80 -5308.97 -5354.51 -5359.66 -5359.75 -5365.55 -5364.41 -5372.21 -5366.52 -5363.06 -5348.44 -5344.45 -5346.26 -5349.89 -5357.16 -5375.12 -5397.30 -5411.11 -5428.25 -5438.89 -5445.54 -5451.60 -5457.74 -5458.39 -5470.69 -5477.90 -5481.75 -5480.26 -5485.16 -5483.50 -5483.20 -5473.38 -5473.89 -5479.19 -5488.58 -5474.48 -5474.09 -5453.37 -5442.09 -5420.77 -5418.19 -5426.01 -5445.88 -5445.00 -5444.10 -5433.77 -5420.38 -5415.95 -5409.31 -5358.30 -5285.37 -5051.01 -4804.07 -4323.37 -3920.91 -3544.88 -3298.70 -2913.20 -2501.21 -2171.59 -1601.88 -1061.90 -845.38 -725.90 -641.58 -578.49 -531.20 -418.84 -288.77 -330.77 -404.28 -381.58 -378.78 -365.62 -372.36 -374.53 -426.13 -450.63 -363.98 -435.90 -223.41 -386.58 -695.01 -1273.96 -1938.39 -2597.05 -3461.05 -4454.66 -5581.04 -6863.70 -8038.99 -8322.89 -8320.11 -8299.75 -8252.76 -8206.30 -8157.20 -8088.93 -8009.46 -7841.07 -6233.40 -3363.96 -1801.71 -1644.08 -1696.40 -1842.96 -1930.66 -1961.63 -1984.52 -1988.75 -1985.20 -1983.41 -1986.41 -1991.49 -2009.93 -2052.34 -2111.18 -2251.60 -2354.82 -2523.70 -2659.06 -2687.13
-5031.88 -5031.46 -5033.44 -5035.13 -5041.37 -5045.74 -5055.04 -5066.75 -5104.20 -5107.43 -5107.49 -5120.36 -5125.46 -5139.20 -5147.88 -5170.80 -5189.74 -5208.41 -5213.27 -5225.73 -5258.55 -5322.98 -5361.93 -5389.72 -5396.41 -5400.34 -5392.59 -5382.08 -5367.74 -5362.03 -5347.68 -5347.00 -5353.57 -5361.77 -5372.39 -5399.89 -5413.67 -5428.64 -5439.89 -5447.76 -5451.33 -5455.17 -5456.78 -5457.95 -5463.43 -5463.73 -5466.79 -5470.07 -5480.23 -5500.93 -5531.85 -5527.87 -5539.81 -5545.31 -5517.55 -5507.68 -5473.76 -5438.07 -5425.00 -5416.45 -5420.27 -5441.38 -5438.33 -5428.77 -5418.39 -5410.31 -5409.02 -5400.68 -5377.15 -5332.66 -5120.75 -4875.15 -4617.37 -4144.81 -3860.29 -3301.11 -2782.42 -2415.73 -1996.45 -1476.03 -1011.28 -779.99 -656.76 -580.39 -511.24 -459.43 -436.24 -425.37 -409.83 -360.68 -333.52 -265.38 -209.74 -237.67 -234.58 -271.37 -145.33 -93.28 -189.76 -185.27 -353.10 -834.35 -1265.95 -2068.57 -2933.56 -3621.49 -4367.98 -6053.28 -6922.55 -7883.26 -8186.05 -8213.40 -8213.32 -8088.31 -8096.11 -8074.53 -7972.69 -7825.90 -7709.72 -4383.49 -3055.05 -1683.49 -1584.25 -1688.13 -1852.14 -1925.52 -1952.58 -1979.10 -1988.28 -1987.10 -1990.40 -1996.31 -2008.85 -2032.87 -2072.96 -2181.47 -2268.35 -2424.07 -2577.09 -2689.45 -2689.51
-5039.73 -5041.28 -5045.01 -5047.29 -5049.77 -5052.52 -5055.03 -5062.03 -5065.50 -5068.32 -5069.27 -5071.58 -5081.90 -5098.75 -5125.08 -5151.67 -5169.32 -5185.50 -5196.63 -5210.37 -5228.86 -5292.07 -5344.13 -5395.00 -5419.82 -5420.08 -5415.06 -5408.68 -5387.97 -5364.90 -5351.84 -5349.02 -5355.21 -5362.59 -5370.19 -5402.02 -5413.55 -5430.95 -5440.48 -5450.25 -5454.46 -5456.79 -5452.55 -5448.97 -5446.81 -5445.54 -5449.37 -5454.11 -5485.14 -5518.45 -5545.74 -5557.39 -5562.79 -5563.33 -5555.52 -5520.68 -5486.81 -5446.54 -5423.77 -5411.42 -5419.20 -5433.70 -5423.66 -5418.38 -5408.89 -5403.63 -5392.87 -5388.21 -5365.08 -5326.23 -5180.17 -4939.53 -4661.55 -4279.63 -3556.53 -2949.38 -2566.79 -2049.51 -1684.76 -1202.28 -887.50 -685.90 -611.53 -548.06 -491.11 -456.61 -449.50 -402.48 -355.08 -284.58 -102.85 -131.09 -118.22 -53.62 -51.32 -54.22 -7.35 77.84 80.11 103.84 -249.09 -838.32 -1490.98 -1973.82 -2641.86 -3527.15 -4495.94 -5848.77 -7296.29 -7993.33 -8030.95 -7797.94 -7905.16 -7973.14 -7976.70 -7894.42 -7737.82 -7702.75 -7440.92 -5100.98 -2668.18 -1639.92 -1547.26 -1672.62 -1794.27 -1926.60 -1943.67 -1972.46 -1987.29 -1990.07 -1994.75 -2010.61 -2026.21 -2064.89 -2115.87 -2177.58 -2314.17 -2423.03 -2571.31 -2692.45 -2692.51
-5044.60 -5044.54 -5045.54 -5046.94 -5048.93 -5048.89 -5050.51 -5050.66 -5052.41 -5050.78 -5053.76 -5056.89 -5063.59 -5080.27 -5109.23 -5137.57 -5164.41 -5175.88 -5189.42 -5199.18 -5216.03 -5261.93 -5296.85 -5385.93 -5424.99 -5428.27 -5424.42 -5420.11 -5383.70 -5370.77 -5353.57 -5350.44 -5354.46 -5361.60 -5370.74 -5373.18 -5375.86 -5410.82 -5418.40 -5433.84 -5445.15 -5451.95 -5453.66 -5449.93 -5448.14 -5446.08 -5446.39 -5454.28 -5464.91 -5526.39 -5548.55 -5556.30 -5557.43 -5556.99 -5552.87 -5514.92 -5480.19 -5424.51 -5410.94 -5399.90 -5409.48 -5413.87 -5413.11 -5406.69 -5400.61 -5399.38 -5377.96 -5374.66 -5356.62 -5330.97 -5145.16 -4916.42 -4519.08 -4308.48 -3610.32 -2966.69 -2459.32 -1912.85 -1460.31 -1089.16 -838.90 -719.04 -579.72 -543.72 -483.48 -470.00 -434.27 -269.21 -97.72 10.01 123.67 41.55 40.01 41.17 20.83 36.07 97.19 132.76 167.33 141.79 88.89 -424.92 -1511.55 -1756.94 -2303.33 -3410.73 -3829.58 -5378.81 -5579.92 -6335.66 -7086.83 -7012.86 -7474.14 -7729.55 -7760.19 -7670.52 -7545.35 -7520.33 -7062.89 -4781.96 -2562.76 -1695.30 -1502.29 -1625.69 -1742.16 -1895.90 -1948.67 -1978.19 -1985.05 -1990.65 -2007.12 -2025.09 -2057.39 -2106.99 -2167.92 -2273.40 -2350.26 -2480.97 -2566.21 -2694.68 -2694.75
-5041.58 -5041.51 -5042.43 -5040.04 -5042.14 -5043.10 -5046.42 -5047.87 -5051.16 -5054.17 -5053.80 -5058.48 -5062.29 -5084.57 -5104.20 -5134.78 -5155.55 -5174.31 -5182.93 -5194.49 -5206.43 -5226.12 -5288.55 -5308.16 -5399.05 -5421.30 -5415.66 -5407.35 -5391.66 -5370.74 -5352.06 -5347.05 -5346.76 -5344.70 -5316.78 -5305.65 -5270.71 -5229.88 -5294.36 -5316.31 -5375.41 -5405.46 -5425.30 -5436.49 -5448.35 -5447.59 -5453.89 -5455.52 -5480.69 -5513.96 -5532.13 -5554.51 -5546.88 -5551.11 -5540.24 -5517.13 -5474.37 -5420.40 -5407.52 -5396.39 -5401.81 -5410.39 -5410.17 -5405.97 -5399.60 -5386.05 -5372.19 -5365.74 -5343.14 -5270.44 -5074.68 -4676.31 -4381.51 -3956.33 -3711.52 -2829.93 -2259.85 -1742.33 -1345.66 -1089.12 -820.65 -658.26 -579.01 -536.89 -511.55 -448.45 -351.29 -115.93 176.84 212.38 206.89 197.35 171.71 177.46 158.02 102.81 137.66 110.94 98.94 -2.27 137.77 161.20 -206.42 -1249.98 -1953.06 -2089.88 -2063.79 -3240.71 -2494.16 -4618.06 -6248.83 -6652.53 -7099.50 -7400.11 -7479.91 -7292.09 -7257.91 -7198.74 -6621.15 -4553.70 -2594.06 -1540.32 -1484.63 -1623.35 -1738.37 -1831.01 -1938.14 -1988.80 -1986.56 -1993.07 -2008.52 -2022.45 -2084.12 -2095.42 -2238.75 -2330.18 -2377.03 -2523.43 -2617.44 -2686.83 -2699.80
-5035.40 -5035.33 -5032.94 -5031.48 -5032.79 -5035.15 -5041.37 -5054.43 -5076.02 -5066.00 -5080.28 -5082.43 -5086.00 -5090.82 -5116.76 -5141.08 -5158.03 -5179.71 -5188.34 -5199.68 -5207.86 -5213.62 -5229.99 -5279.64 -5355.30 -5384.23 -5382.12 -5391.71 -5377.52 -5347.91 -5333.05 -5333.22 -5289.20 -5259.11 -5187.36 -4945.84 -4589.89 -4780.84 -4874.97 -4883.29 -5110.15 -5209.16 -5292.98 -5361.15 -5399.15 -5419.46 -5451.93 -5468.49 -5479.87 -5493.62 -5515.28 -5513.20 -5527.50 -5516.56 -5523.11 -5490.28 -5454.10 -5422.85 -5405.72 -5398.87 -5403.54 -5412.62 -5407.68 -5400.24 -5391.62 -5379.42 -5372.69 -5355.96 -5321.42 -5242.60 -5029.70 -4679.35 -4389.44 -3910.13 -3533.46 -2875.94 -2274.64 -1875.00 -1357.69 -1132.33 -838.30 -652.90 -539.98 -388.87 -279.53 -284.98 -100.74 104.04 226.15 229.73 234.62 238.12 238.06 222.87 224.08 215.52 128.00 -151.28 -314.67 -261.23 -329.23 -106.19 15.52 43.57 -129.92 -611.39 -914.90 -993.01 -1166.34 -2708.01 -4768.15 -6474.71 -6707.72 -7001.61 -7128.12 -7118.55 -6831.29 -6870.75 -6220.21 -4575.81 -2013.54 -1479.40 -1463.67 -1566.08 -1713.56 -1850.07 -1937.03 -1981.01 -1991.88 -1997.74 -2007.72 -2023.20 -2075.20 -2125.50 -2246.60 -2332.62 -2421.31 -2512.66 -2585.89 -2708.33 -2708.40
-5029.60 -5028.49 -5025.50 -5023.75 -5026.16 -5027.65 -5040.69 -5065.74 -5095.28 -5116.40 -5141.94 -5143.27 -5140.74 -5165.71 -5148.35 -5177.08 -5180.99 -5201.89 -5203.14 -5209.91 -5215.05 -5202.40 -5157.14 -5113.76 -5170.23 -5228.11 -5305.61 -5319.32 -5332.23 -5330.68 -5300.68 -5261.09 -4996.63 -4742.23 -4489.32 -4128.02 -3491.53 -3335.05 -3663.70 -3882.93 -4171.51 -4174.64 -4732.41 -5167.26 -5117.77 -5392.73 -5436.76 -5455.39 -5459.63 -5470.72 -5474.13 -5467.19 -5501.56 -5477.34 -5464.02 -5451.70 -5441.17 -5421.86 -5417.50 -5413.55 -5413.69 -5414.86 -5402.49 -5399.38 -5391.33 -5379.17 -5354.13 -5329.08 -5302.14 -5248.01 -5113.81 -4840.09 -4460.88 -3805.97 -3564.42 -2813.63 -2340.48 -1920.48 -1434.34 -1146.02 -873.70 -679.80 -403.27 -115.61 146.22 44.88 103.74 236.18 236.67 242.78 253.36 246.96 248.41 259.55 268.38 258.09 76.06 -379.85 -1297.70 -1283.28 -1329.22 -1416.54 -1179.32 -278.03 -605.83 -492.51 -310.47 -282.97 -328.23 -677.66 -1585.72 -5183.53 -6466.99 -6722.24 -6855.68 -6823.35 -6531.32 -6384.81 -5895.92 -3643.64 -2405.16 -1343.97 -1399.25 -1553.67 -1682.79 -1863.80 -1929.97 -1989.80 -2002.07 -2000.20 -2006.56 -2026.49 -2081.33 -2129.85 -2230.32 -2327.57 -2473.20 -2629.83 -2670.39 -2780.40 -2780.31
-5039.71 -5039.67 -5046.37 -5031.46 -5031.11 -5034.75 -5050.80 -5085.73 -5131.56 -5185.13 -5186.66 -5191.80 -5197.23 -5195.18 -5206.03 -5207.13 -5212.41 -5223.16 -5232.37 -5244.76 -5229.18 -5177.90 -5119.40 -4833.60 -4515.95 -4427.04 -4837.20 -5028.65 -5023.96 -5232.48 -5108.22 -4750.19 -4466.36 -4007.09 -3431.10 -2891.96 -2548.38 -2529.10 -2701.51 -2666.71 -3009.12 -3493.26 -3426.22 -4104.20 -4443.38 -4830.06 -5389.94 -5384.75 -5421.53 -5422.40 -5413.95 -5411.65 -5388.38 -5394.72 -5405.60 -5402.08 -5417.61 -5427.24 -5426.91 -5425.01 -5426.00 -5410.44 -5396.63 -5389.01 -5383.90 -5374.07 -5357.12 -5320.98 -5267.29 -5137.65 -4938.28 -4547.15 -4256.49 -3864.72 -3063.95 -2634.22 -2197.89 -1707.31 -1394.95 -1196.90 -805.20 -603.92 -196.24 235.70 244.53 190.46 253.79 248.85 247.62 261.95 266.67 270.92 270.11 276.11 282.11 273.74 -173.78 -749.58 -2358.62 -3175.49 -2881.08 -2585.06 -2524.61 -1649.00 -1830.88 -1488.96 -1622.26 -541.85 -446.95 -369.25 -1351.20 -3622.57 -6116.90 -5979.22 -6470.05 -5895.15 -5968.55 -5883.57 -5425.39 -4458.51 -1984.64 -1412.57 -1380.06 -1530.46 -1632.86 -1796.20 -1943.99 -2004.58 -2008.06 -2001.44 -2003.89 -2016.03 -2058.74 -2135.21 -2241.87 -2347.57 -2504.91 -2631.50 -2785.43 -2898.92 -2898.97
-5089.97 -5095.74 -5097.75 -5090.50 -5078.47 -5062.74 -5076.68 -5121.12 -5189.73 -5252.61 -5248.61 -5257.12 -5259.35 -5245.50 -5239.38 -5241.83 -5254.61 -5255.72 -5271.26 -5282.58 -5259.22 -5122.62 -4726.03 -4141.90 -3419.47 -3555.02 -3564.03 -4286.03 -4405.28 -4747.48 -4521.61 -3805.94 -3159.35 -2843.12 -2513.18 -2149.71 -1951.70 -1939.30 -2019.90 -2053.35 -2251.65 -2265.31 -2529.88 -2889.47 -3650.44 -4123.40 -4775.66 -5152.42 -5225.88 -5120.02 -5169.17 -5251.63 -5336.35 -5320.57 -5356.36 -5378.43 -5405.78 -5419.92 -5427.03 -5420.68 -5427.01 -5409.93 -5401.18 -5393.13 -5373.35 -5318.47 -5327.38 -5339.88 -5254.49 -5051.66 -4724.46 -4429.78 -4178.36 -3958.86 -3027.77 -2454.92 -1858.75 -1515.99 -1178.75 -1079.62 -525.49 -44.31 76.74 248.78 264.97 270.07 267.70 266.63 269.42 273.11 282.17 279.02 285.92 293.45 309.69 303.25 1.87 -905.35 -2083.35 -2902.26 -3423.39 -3587.92 -3533.24 -3344.38 -3315.14 -3080.79 -2297.83 -1622.63 -844.32 -875.10 -1745.65 -4337.54 -5080.38 -4527.37 -4466.22 -4350.12 -4089.12 -5086.68 -5627.51 -4577.59 -2066.25 -1427.40 -1403.33 -1608.02 -1741.28 -1822.83 -1953.55 -2008.32 -2011.07 -2003.34 -2000.86 -2033.39 -2054.23 -2107.31 -2228.60 -2469.54 -2668.77 -2812.35 -2958.53 -2972.77 -3002.67
-5197.64 -5186.73 -5172.88 -5162.78 -5142.86 -5139.26 -5148.34 -5193.41 -5209.63 -5293.80 -5302.28 -5300.50 -5302.68 -5321.72 -5344.15 -5316.51 -5337.59 -5317.18 -5309.88 -5316.36 -5272.47 -5080.68 -4345.13 -3284.33 -2569.60 -2454.49 -2888.11 -3233.24 -3204.02 -3665.47 -3869.87 -3217.27 -2331.10 -2047.36 -1943.04 -1763.38 -1474.68 -1557.68 -1502.08 -1777.51 -1750.08 -1973.35 -2131.74 -2386.08 -2693.35 -3049.23 -3996.19 -4498.20 -4574.27 -4646.76 -4802.22 -5039.00 -5022.29 -5192.72 -5294.65 -5362.63 -5362.24 -5399.56 -5404.16 -5410.82 -5414.39 -5422.37 -5412.13 -5422.84 -5390.47 -5336.51 -5212.85 -5253.20 -5156.96 -4752.90 -4554.25 -4161.52 -3752.14 -3454.06 -3082.90 -2233.07 -1441.50 -1218.79 -953.87 -246.06 197.69 244.76 250.76 266.74 273.20 288.45 296.46 289.81 291.47 303.59 301.58 299.20 307.38 323.57 329.23 307.46 259.94 -133.25 -354.90 -1718.00 -2751.41 -3871.22 -3900.45 -3930.20 -4056.46 -4110.91 -3512.10 -2824.42 -2142.32 -1690.31 -1523.98 -2148.49 -2207.03 -2059.57 -2224.04 -1951.23 -2876.57 -3064.96 -3445.28 -4056.13 -2197.47 -1715.09 -1490.18 -1614.57 -1837.79 -1941.13 -1980.94 -2009.56 -2011.19 -2003.79 -2007.13 -2035.63 -2049.51 -2129.09 -2263.06 -2492.34 -2705.42 -2923.70 -2970.38 -3071.80 -3071.86
-5295.36 -5295.22 -5260.39 -5246.82 -5238.30 -5249.73 -5269.38 -5286.72 -5355.31 -5367.23 -5365.49 -5360.87 -5394.39 -5394.24 -5398.96 -5389.40 -5379.02 -5411.84 -5403.45 -5377.25 -5288.71 -5033.59 -4150.56 -3307.68 -2143.00 -2036.57 -2044.94 -2240.29 -2435.24 -2774.75 -2815.54 -2517.62 -2101.67 -1760.57 -1425.87 -858.43 -853.56 -722.36 -910.20 -1142.01 -1369.61 -1843.61 -2006.99 -1955.12 -2027.32 -2268.03 -2763.81 -3268.49 -3750.98 -3498.75 -3588.98 -3905.92 -4272.94 -4601.00 -5005.67 -5113.69 -5319.47 -5326.64 -5263.01 -5351.59 -5356.43 -5384.57 -5339.73 -5321.58 -5252.42 -5040.51 -5018.93 -4413.20 -4080.46 -3723.06 -3147.86 -3307.72 -3345.17 -2731.18 -2269.65 -1781.51 -849.61 -189.73 121.48 205.31 253.34 260.53 276.81 289.64 313.15 314.71 317.53 309.18 311.88 315.31 325.40 330.85 348.22 354.69 353.35 325.85 310.69 85.96 -7.70 -1302.47 -2839.50 -3907.60 -3940.17 -4178.96 -4258.30 -4265.80 -4301.94 -4335.58 -3793.42 -2695.33 -1943.20 -1276.96 -1070.40 -1083.77 -1156.26 -1353.39 -1637.20 -1717.32 -2139.90 -2897.49 -2531.08 -1977.29 -1508.16 -1638.17 -1803.52 -1932.68 -2009.31 -2018.73 -2012.48 -2007.83 -2009.97 -2022.65 -2109.19 -2140.33 -2240.52 -2540.31 -2713.33 -3064.04 -3075.75 -3113.02 -3130.43
-5380.84 -5380.71 -5390.95 -5337.56 -5319.76 -5322.01 -5323.22 -5361.86 -5414.54 -5447.01 -5450.35 -5440.50 -5448.59 -5459.57 -5466.00 -5493.62 -5499.03 -5532.24 -5482.93 -5471.84 -5399.50 -5014.68 -3954.30 -2994.37 -2151.17 -2057.04 -2073.50 -2106.38 -2068.93 -2183.18 -2282.48 -2207.95 -1818.39 -1272.56 -744.63 -378.80 -15.61 43.82 -130.56 -290.08 -330.26 -1290.90 -1923.40 -1609.91 -1323.75 -1983.40 -2232.84 -2248.92 -2494.45 -2554.45 -2739.87 -2871.67 -3315.05 -3658.66 -4227.44 -4794.22 -4925.56 -5076.32 -5106.58 -5184.17 -5145.24 -4901.08 -5070.60 -5046.93 -4781.03 -4458.03 -4376.93 -3556.66 -3395.28 -2614.84 -2528.99 -2267.92 -1910.43 -1604.90 -1034.34 -252.28 232.18 248.35 255.21 259.44 261.75 274.52 298.83 317.27 324.42 325.31 333.41 349.24 343.28 352.75 360.60 381.19 386.33 375.88 366.94 336.73 321.99 283.67 99.05 -757.98 -3049.91 -3514.48 -3862.18 -4083.54 -4093.15 -4152.61 -4349.13 -4707.59 -4661.68 -3984.68 -3150.39 -2483.78 -1437.69 -1029.75 -872.45 -837.73 -1158.39 -1029.18 -1310.43 -2029.08 -2063.89 -1880.64 -1637.38 -1672.58 -1776.44 -1916.22 -1997.06 -2013.15 -2017.54 -2019.02 -2023.60 -2052.76 -2116.33 -2178.55 -2291.59 -2483.68 -2677.55 -2969.38 -3100.20 -3166.36 -3166.42
-5448.15 -5448.03 -5454.68 -5422.40 -5432.20 -5434.06 -5429.39 -5447.99 -5478.78 -5492.17 -5489.63 -5496.83 -5496.92 -5518.41 -5535.58 -5543.89 -5545.95 -5565.83 -5561.07 -5559.02 -5458.88 -5152.33 -4018.86 -3257.63 -2392.71 -2397.07 -2497.34 -2470.93 -2179.61 -2090.77 -2085.09 -1943.79 -1773.64 -680.57 -173.52 236.52 246.78 264.05 252.19 138.18 0.41 -434.13 -946.86 -380.47 -713.46 -1700.12 -1900.36 -2026.65 -2025.53 -2209.88 -2251.99 -2202.69 -2150.75 -3058.97 -3040.40 -3467.89 -3922.41 -4252.51 -4279.99 -4406.13 -4157.74 -4385.99 -4179.33 -4280.36 -3804.64 -3244.84 -2740.64 -2596.52 -2298.05 -2197.51 -2007.28 -1878.05 -1456.60 -1099.83 -142.80 240.24 250.26 261.57 272.71 283.38 288.42 296.21 308.44 327.30 350.78 365.73 379.38 368.00 368.53 388.37 390.34 405.15 408.36 400.45 392.30 346.92 324.06 383.96 204.63 -64.48 -1593.46 -2997.98 -3639.08 -3843.87 -3980.50 -4068.74 -4307.75 -4704.82 -4833.88 -4862.20 -4268.36 -3376.25 -2641.89 -1672.37 -1109.05 -899.51 -803.81 -789.97 -908.15 -1202.40 -1419.14 -1688.82 -1607.99 -1737.64 -1846.32 -1936.57 -2004.93 -2016.62 -2025.16 -2044.22 -2103.14 -2112.34 -2191.66 -2305.59 -2373.57 -2617.85 -2802.78 -3086.63 -3239.01 -3319.64 -3319.89
-5487.28 -5484.74 -5486.74 -5482.08 -5481.40 -5476.52 -5481.43 -5494.60 -5496.96 -5504.28 -5505.96 -5510.90 -5517.79 -5531.50 -5554.46 -5587.52 -5602.87 -5610.37 -5617.09 -5601.68 -5509.13 -5344.39 -4585.73 -3654.27 -3589.57 -3218.85 -3462.56 -3519.42 -2784.49 -2472.12 -2194.99 -1879.67 -1430.29 -522.23 44.87 242.52 273.54 316.79 325.42 286.45 256.08 76.67 78.40 44.51 -78.39 -1089.84 -1515.95 -1743.71 -1800.81 -1952.07 -1950.07 -1962.28 -1935.80 -1830.81 -2222.22 -2621.35 -2807.65 -2898.64 -2970.52 -2919.92 -2948.06 -3164.52 -2883.95 -3082.13 -2803.95 -2489.90 -2480.67 -2266.47 -2210.66 -2084.45 -1881.29 -1152.41 -661.34 -134.90 192.59 290.24 291.33 290.31 290.76 305.84 313.72 319.22 336.39 358.26 369.72 385.78 393.43 392.20 397.87 403.39 415.39 425.92 440.93 435.22 419.84 390.20 365.83 362.02 293.33 21.33 -317.13 -1780.39 -2837.15 -3249.88 -3649.55 -4198.71 -4280.65 -4463.42 -4638.36 -4917.98 -4891.49 -4773.65 -3603.85 -3154.26 -2274.31 -1265.26 -996.81 -782.11 -803.80 -913.72 -1106.70 -1349.72 -1451.70 -1687.21 -1853.96 -1902.47 -1985.34 -2036.09 -2053.82 -2074.82 -2114.33 -2159.93 -2276.96 -2414.15 -2580.02 -2930.54 -3098.91 -3275.02 -3348.85 -3458.11 -3458.24
-5498.23 -5498.17 -5498.85 -5498.25 -5498.17 -5500.80 -5504.40 -5506.11 -5507.26 -5507.50 -5512.84 -5517.44 -5524.19 -5539.63 -5568.49 -5592.56 -5608.41 -5617.80 -5628.01 -5628.73 -5587.93 -5453.65 -5065.43 -4739.54 -4630.20 -4856.06 -4751.09 -4291.42 -3308.81 -2682.16 -2350.81 -2132.96 -1787.97 -1037.52 70.57 206.90 249.96 347.83 380.01 328.38 271.84 241.30 237.22 231.72 236.09 -41.70 -485.45 -535.79 -887.44 -1206.69 -1393.57 -1495.65 -1696.82 -1793.35 -1921.17 -2009.57 -2138.26 -2328.18 -2229.44 -2347.59 -2306.12 -2265.23 -2332.83 -2371.66 -2392.95 -2255.17 -2203.21 -2202.70 -2068.60 -1862.24 -1510.59 -397.79 28.48 269.35 324.31 365.56 325.65 309.48 310.39 318.56 319.72 339.60 349.29 371.34 385.39 405.74 414.97 419.10 428.89 421.06 435.13 472.97 470.51 473.76 462.84 439.79 394.61 342.40 343.59 156.89 -253.40 -798.15 -1504.18 -1737.05 -3000.41 -3948.74 -4294.25 -4272.25 -4492.72 -4727.32 -4820.26 -4937.64 -4840.72 -4461.68 -3425.04 -2755.48 -2261.78 -1267.09 -1091.57 -983.86 -954.11 -1018.16 -1204.68 -1518.00 -1687.65 -1866.08 -1988.48 -2058.42 -2070.72 -2075.60 -2107.00 -2198.11 -2343.61 -2532.23 -2699.28 -2929.52 -3223.69 -3335.51 -3427.36 -3497.43 -3516.12
-5494.90 -5495.56 -5496.21 -5497.58 -5498.86 -5500.82 -5503.03 -5506.26 -5506.97 -5508.96 -5514.48 -5519.65 -5527.69 -5544.57 -5568.01 -5600.32 -5609.99 -5624.42 -5627.74 -5629.41 -5615.35 -5572.33 -5476.69 -5369.12 -5373.58 -5397.93 -5235.53 -5043.42 -4403.63 -3627.84 -2788.03 -2277.81 -1540.96 -870.79 185.45 225.70 240.51 277.69 354.09 350.30 318.58 266.43 266.13 249.92 246.25 245.75 198.86 152.61 -108.59 -465.57 -475.34 -663.36 -1180.95 -1468.76 -1494.79 -1524.70 -1708.06 -1875.89 -1965.46 -2026.39 -1989.44 -2028.90 -2097.10 -2091.85 -2205.72 -2195.96 -2212.50 -2158.61 -1808.98 -1373.61 -825.18 95.75 270.48 292.71 333.31 378.17 319.29 320.20 324.74 327.05 337.38 362.92 369.15 390.53 406.03 417.43 430.89 446.01 447.66 457.27 484.61 492.98 494.78 499.18 488.09 455.18 436.96 421.98 465.97 512.73 47.14 -30.20 -77.89 -1031.32 -1717.89 -2869.60 -4074.05 -4136.25 -4226.93 -4550.07 -4550.76 -4758.84 -4910.11 -4951.59 -4682.50 -4070.56 -3556.94 -2875.97 -1965.66 -1184.17 -973.14 -852.03 -1057.24 -1284.59 -1595.89 -1803.80 -1988.09 -2044.74 -2067.19 -2074.93 -2110.09 -2210.64 -2349.80 -2453.60 -2677.57 -2826.04 -3029.22 -3240.22 -3412.80 -3508.03 -3530.22
-5487.43 -5487.38 -5486.69 -5489.47 -5494.30 -5494.74 -5497.33 -5501.53 -5505.39 -5510.27 -5513.30 -5521.61 -5529.94 -5542.16 -5571.15 -5593.40 -5606.90 -5617.15 -5620.68 -5627.54 -5618.82 -5587.38 -5529.35 -5516.11 -5505.55 -5503.65 -5502.82 -5363.95 -5154.99 -4780.50 -3610.76 -2444.16 -1352.69 -462.61 174.72 223.46 242.99 254.20 305.62 363.93 349.35 278.88 280.53 274.39 257.08 246.52 261.31 256.18 241.10 234.81 176.87 -98.23 -714.72 -856.09 -1062.62 -1189.95 -1307.04 -1442.01 -1544.64 -1724.44 -1676.15 -1558.10 -1691.83 -1851.48 -1903.04 -2013.06 -2196.10 -2002.46 -914.63 -346.99 -2.72 263.96 330.46 345.56 352.35 337.76 329.87 331.73 336.73 349.79 357.12 366.87 377.25 399.81 416.51 430.08 448.69 462.00 468.80 478.66 496.84 498.55 514.66 529.23 521.90 526.78 507.38 492.96 439.21 560.76 351.43 196.77 102.54 -186.95 -726.12 -2354.40 -4057.63 -4009.10 -4165.79 -4366.73 -4568.70 -4799.08 -4954.56 -5124.76 -5239.32 -5073.53 -4918.19 -4421.85 -3286.20 -2008.25 -1251.25 -839.01 -963.42 -1207.57 -1393.18 -1727.78 -1798.17 -1968.93 -2020.79 -2056.50 -2084.29 -2133.14 -2224.16 -2296.98 -2513.80 -2785.92 -3037.85 -3187.67 -3390.21 -3527.50 -3527.56
-5477.39 -5478.55 -5479.69 -5480.33 -5479.75 -5487.74 -5488.06 -5498.98 -5506.97 -5515.20 -5524.76 -5533.38 -5544.40 -5551.48 -5565.92 -5583.37 -5589.43 -5604.17 -5609.52 -5610.02 -5592.17 -5583.90 -5554.71 -5544.13 -5545.74 -5546.44 -5536.21 -5514.91 -5451.01 -5179.92 -3874.11 -2766.73 -1796.28 -526.59 142.68 199.64 234.61 262.61 288.55 338.25 368.86 313.60 288.49 295.46 295.54 302.62 333.57 296.95 276.54 244.13 234.23 175.84 13.14 -378.65 -517.46 -702.42 -680.56 -959.28 -1005.32 -1067.00 -1215.85 -1087.52 -1045.66 -1329.47 -1118.05 -1603.40 -1482.43 -1027.89 -546.13 -18.27 257.40 302.72 325.49 345.71 331.56 335.08 337.27 338.24 341.78 357.87 373.28 377.59 395.19 415.21 427.18 440.79 456.99 473.01 487.40 498.73 509.42 523.05 539.56 548.00 557.06 558.07 531.74 476.53 423.06 415.32 293.89 289.21 209.44 -190.00 -465.76 -2914.69 -3789.14 -3899.81 -4042.26 -4295.44 -4636.29 -4717.84 -4845.74 -5068.77 -5241.56 -5301.09 -5232.55 -4942.64 -4184.51 -2999.77 -1374.32 -804.01 -838.94 -1024.83 -1157.12 -1393.41 -1679.72 -1928.50 -1968.76 -1984.88 -2072.32 -2095.98 -2165.01 -2238.62 -2361.74 -2579.94 -2872.72 -3216.65 -3359.23 -3446.65 -3450.47
-5464.26 -5464.21 -5463.36 -5468.48 -5471.99 -5476.87 -5480.27 -5499.29 -5516.86 -5539.02 -5541.75 -5551.43 -5559.93 -5565.56 -5565.06 -5562.08 -5566.95 -5566.90 -5580.16 -5575.21 -5575.20 -5563.83 -5557.84 -5558.53 -5561.07 -5561.72 -5570.69 -5564.84 -5459.77 -5226.78 -4113.55 -2888.70 -1452.90 -290.97 151.90 213.14 229.22 252.80 283.64 318.47 349.19 348.44 355.20 347.75 369.54 346.55 399.97 322.05 300.50 280.07 241.77 229.78 134.95 -37.39 -173.81 -340.70 -399.57 -385.17 -508.59 -610.07 -529.59 -471.97 -505.52 -576.87 -344.64 -465.76 -561.95 -22.99 205.06 277.92 275.97 298.64 324.23 329.75 331.95 336.07 339.88 347.77 354.32 366.30 376.38 388.46 405.39 425.05 443.72 456.65 471.96 486.10 507.08 514.08 531.31 555.47 560.22 576.48 577.88 588.46 550.40 514.54 476.80 335.99 312.86 432.48 262.91 -68.58 -853.88 -2779.38 -3360.37 -3819.01 -3850.95 -3992.76 -4361.14 -4509.98 -4784.62 -4987.84 -5199.07 -5317.35 -5348.26 -5170.30 -4615.90 -2794.02 -1496.53 -722.68 -715.66 -793.66 -1064.96 -1283.38 -1525.18 -1768.46 -1832.79 -1962.12 -2068.36 -2132.91 -2178.53 -2261.28 -2422.15 -2624.94 -2871.14 -3035.23 -3246.06 -3415.60 -3415.67
-5448.82 -5448.77 -5449.03 -5451.99 -5453.29 -5460.21 -5468.09 -5498.46 -5534.85 -5547.48 -5560.50 -5571.43 -5578.03 -5576.55 -5561.54 -5542.25 -5536.05 -5534.76 -5530.80 -5538.34 -5544.36 -5550.71 -5557.35 -5562.16 -5565.72 -5571.46 -5583.14 -5601.00 -5538.66 -5191.84 -3858.65 -2251.33 -343.58 -7.65 198.88 206.75 231.84 264.56 293.09 340.66 368.06 371.36 366.97 410.81 472.44 536.13 495.18 377.41 315.34 291.19 257.76 237.71 225.72 167.23 -18.36 -156.66 -215.72 -190.88 -262.08 -237.83 -189.31 -128.17 27.88 -9.73 46.72 251.73 267.71 189.36 287.90 320.43 314.12 311.94 318.73 323.39 335.23 337.69 346.36 353.27 360.26 372.17 382.87 397.96 411.56 430.53 449.56 462.92 491.69 505.88 518.98 529.58 547.15 558.87 561.70 598.55 614.99 621.91 538.98 479.44 420.09 406.01 413.62 490.10 407.40 137.34 -786.95 -1897.83 -2843.23 -3338.64 -3800.79 -4013.10 -4212.74 -4438.64 -4696.05 -4863.30 -5126.94 -5281.79 -5365.56 -5305.45 -4735.23 -3121.92 -1633.28 -553.40 -531.75 -597.14 -900.43 -1173.75 -1441.75 -1590.66 -1701.00 -1892.67 -2046.64 -2079.95 -2130.51 -2262.12 -2444.49 -2655.36 -2790.11 -3069.77 -3233.44 -3411.68 -3411.75
-5431.45 -5431.40 -5429.26 -5434.27 -5443.15 -5448.40 -5460.86 -5486.56 -5528.87 -5543.89 -5562.14 -5568.87 -5577.42 -5573.28 -5556.80 -5526.54 -5510.77 -5506.51 -5516.40 -5524.09 -5530.41 -5547.12 -5555.29 -5561.62 -5567.38 -5571.66 -5561.37 -5486.76 -5380.24 -3435.54 -2443.23 -861.11 -198.45 174.38 220.23 223.15 236.26 267.58 333.26 364.56 393.94 406.32 406.39 453.46 546.01 590.19 595.42 413.26 336.33 284.59 277.74 261.17 226.89 215.57 135.93 19.96 -67.94 -93.28 -75.83 61.22 131.96 184.66 209.01 245.53 250.42 268.19 309.99 314.21 329.76 318.52 319.55 310.32 314.32 324.67 335.46 339.51 345.18 351.84 360.05 377.25 386.75 406.92 425.50 446.54 462.53 478.61 502.21 510.85 529.74 544.00 555.79 565.66 582.32 611.19 628.29 618.38 574.01 486.12 449.77 472.58 431.79 560.95 545.80 237.58 -58.45 -559.35 -1329.16 -2648.63 -3708.16 -3985.01 -4230.08 -4500.77 -4613.50 -4853.32 -4974.75 -5228.98 -5366.47 -5308.85 -4761.21 -3629.43 -2048.91 -599.85 -460.81 -515.22 -797.89 -963.87 -1263.08 -1457.45 -1648.88 -1835.70 -1974.12 -2041.78 -2090.64 -2190.45 -2329.13 -2592.55 -2866.86 -3109.76 -3239.77 -3408.37 -3408.43
-5411.41 -5413.38 -5415.29 -5417.63 -5421.49 -5428.96 -5448.98 -5469.59 -5502.93 -5532.74 -5550.53 -5558.54 -5568.08 -5568.51 -5545.63 -5520.96 -5506.41 -5503.19 -5510.40 -5516.48 -5528.09 -5544.94 -5553.00 -5555.57 -5556.16 -5515.74 -5415.31 -4573.37 -3782.08 -2823.09 -1246.65 -681.54 13.47 175.96 223.45 229.90 246.86 279.23 322.81 370.30 424.01 451.76 433.00 445.21 531.13 672.50 584.84 478.41 320.72 293.96 282.49 256.58 233.99 225.43 216.03 113.89 52.40 17.16 105.69 155.98 197.30 238.72 246.42 248.72 296.43 323.30 352.74 350.73 331.16 317.82 310.00 310.65 313.92 324.86 331.43 342.52 347.80 356.03 366.45 385.10 391.09 417.66 431.23 448.93 471.47 488.84 508.57 520.62 534.24 550.69 568.60 580.78 593.18 620.39 636.29 606.22 573.89 569.15 563.28 557.61 483.73 549.20 592.78 416.42 225.37 -69.54 -448.48 -2765.88 -3871.86 -4265.95 -4339.67 -4479.87 -4623.09 -4796.48 -4943.20 -5184.84 -5312.99 -5299.17 -5051.66 -3798.84 -1824.09 -583.80 -424.54 -474.68 -572.01 -962.80 -1173.75 -1383.90 -1529.57 -1724.78 -1840.03 -1955.91 -2033.92 -2093.73 -2184.73 -2431.14 -2642.15 -2830.22 -3102.38 -3231.14 -3229.76
-5387.87 -5387.82 -5388.30 -5394.67 -5403.00 -5407.82 -5423.68 -5448.23 -5481.71 -5517.37 -5531.29 -5545.97 -5551.42 -5545.12 -5524.90 -5512.00 -5499.83 -5499.84 -5509.13 -5518.29 -5526.86 -5542.01 -5542.10 -5545.05 -5453.65 -5409.28 -5192.95 -4151.63 -3328.92 -1922.61 -832.68 -83.98 171.74 223.62 227.29 238.60 250.70 299.15 320.37 349.81 431.37 466.83 473.13 502.49 538.71 685.22 591.97 420.03 354.10 323.33 277.43 263.98 247.74 237.83 231.30 193.59 143.99 137.13 169.73 241.69 249.97 258.74 279.32 314.29 337.76 333.16 340.73 307.68 300.10 301.70 306.28 309.45 314.63 324.34 334.35 340.47 350.15 361.86 368.70 385.25 394.70 419.87 435.75 456.38 476.96 497.42 516.43 525.87 551.16 566.84 577.65 593.60 610.28 632.11 655.82 640.76 642.56 622.47 616.21 584.36 547.26 538.88 444.75 395.95 226.87 41.41 -191.26 -757.09 -3001.29 -4278.77 -4374.98 -4509.77 -4616.79 -4826.78 -4970.22 -5151.57 -5281.40 -5256.52 -4899.92 -4437.86 -1798.13 -697.14 -371.94 -413.51 -459.77 -906.60 -1108.38 -1350.83 -1591.38 -1583.77 -1769.43 -1873.50 -1959.18 -2052.38 -2159.02 -2372.47 -2526.99 -2810.36 -3012.41 -3141.30 -3141.34
-5360.20 -5360.15 -5355.59 -5366.12 -5370.40 -5384.41 -5386.95 -5427.29 -5450.81 -5466.79 -5482.64 -5511.99 -5523.74 -5529.06 -5515.16 -5496.76 -5496.79 -5503.38 -5511.15 -5521.57 -5524.09 -5516.76 -5450.87 -5432.81 -5158.93 -4625.44 -4192.37 -3488.55 -2649.88 -1178.95 -378.06 158.67 201.15 231.03 243.68 250.01 262.36 291.96 314.62 356.86 411.12 468.93 502.34 524.49 562.76 621.63 535.36 477.87 356.93 325.73 294.89 269.85 259.93 246.01 239.73 232.97 193.06 185.19 233.59 252.36 261.62 284.41 333.86 338.00 316.95 309.56 310.67 291.22 284.67 287.98 297.73 307.86 312.96 325.16 332.08 338.54 349.66 362.75 371.44 382.58 405.05 433.95 442.58 465.36 484.62 507.80 522.92 539.04 562.97 580.99 597.42 619.00 624.74 647.11 674.98 686.96 694.84 687.80 671.67 662.93 683.61 573.88 440.94 628.34 348.63 219.61 -147.98 -1146.54 -2967.31 -3728.13 -4180.82 -4339.70 -4622.69 -4800.94 -5005.43 -5139.23 -5231.15 -5202.78 -5033.14 -3577.58 -1994.69 -712.28 -366.45 -333.11 -461.24 -668.26 -1050.03 -1187.06 -1284.52 -1510.50 -1755.78 -1826.93 -1925.97 -2010.96 -2162.70 -2245.20 -2540.21 -2758.21 -2873.90 -2956.13 -2956.05
-5328.59 -5328.54 -5329.44 -5334.88 -5340.73 -5350.63 -5368.28 -5379.34 -5404.82 -5423.98 -5441.82 -5475.51 -5477.25 -5496.93 -5496.41 -5493.36 -5496.26 -5507.40 -5508.97 -5499.63 -5481.64 -5424.20 -5329.53 -5046.42 -4252.32 -4005.51 -2954.01 -2581.34 -1563.07 -421.42 130.06 194.36 228.77 248.73 255.26 260.02 289.82 303.69 312.59 366.45 402.68 439.47 478.27 513.73 551.59 565.11 550.18 490.97 425.27 340.79 300.51 275.92 266.43 254.92 251.93 246.32 245.73 247.59 250.16 278.81 303.19 341.16 349.05 320.97 298.90 283.88 275.94 276.17 282.20 282.97 296.48 302.51 314.22 319.41 328.88 341.18 355.84 365.03 375.90 384.15 415.31 435.99 449.07 481.59 494.08 520.84 544.26 552.17 573.61 603.39 611.37 628.89 634.24 653.40 671.59 693.99 726.06 738.72 753.19 708.86 618.94 529.41 469.55 767.17 429.15 111.78 -243.20 -1258.68 -2838.83 -3500.52 -3850.30 -4182.22 -4506.13 -4639.77 -5018.43 -5100.63 -5157.60 -5140.14 -4920.37 -3587.92 -2042.30 -562.09 -283.97 -291.47 -380.51 -638.28 -874.25 -1002.50 -1140.11 -1395.42 -1704.88 -1751.55 -1849.09 -2010.36 -2147.42 -2250.08 -2350.52 -2609.33 -2739.74 -2903.72 -2903.79
-5293.67 -5296.64 -5294.68 -5308.21 -5311.80 -5316.21 -5324.04 -5354.88 -5367.56 -5384.58 -5386.23 -5415.13 -5440.75 -5452.94 -5467.97 -5480.12 -5490.87 -5498.38 -5504.00 -5422.54 -5318.83 -5055.00 -4534.01 -4013.38 -3497.29 -2705.07 -2285.60 -1900.68 -1241.05 -422.44 87.44 220.68 249.36 259.00 263.19 278.56 297.26 310.55 315.83 365.67 381.73 414.31 450.47 488.81 519.02 526.08 532.94 531.31 470.47 346.43 300.44 279.74 272.40 265.45 258.20 255.16 253.39 255.41 277.81 335.86 377.95 352.28 297.39 284.27 267.67 262.90 258.06 262.89 275.93 275.87 289.53 296.26 305.98 318.82 329.39 343.36 350.94 364.77 379.10 395.03 426.77 436.40 449.11 486.36 503.67 528.98 563.29 577.71 592.08 608.87 626.44 635.44 649.56 657.59 687.51 713.84 726.84 751.38 737.93 681.88 591.35 579.10 567.53 744.74 620.98 261.01 -125.57 -1204.37 -2636.45 -3496.09 -3987.37 -4054.36 -4222.57 -4468.03 -4761.72 -5103.47 -5112.88 -5105.55 -4844.14 -3555.61 -1878.35 -468.66 -246.87 -217.03 -334.88 -537.95 -677.50 -827.08 -1200.09 -1366.48 -1400.96 -1567.75 -1774.66 -1907.93 -2051.36 -2176.55 -2338.57 -2525.37 -2620.87 -2692.02 -2691.93
-5255.58 -5255.53 -5254.74 -5261.18 -5255.69 -5286.87 -5292.04 -5308.16 -5318.73 -5340.26 -5363.02 -5389.26 -5407.57 -5434.21 -5448.99 -5446.28 -5464.48 -5455.52 -5277.47 -5219.00 -4814.55 -4345.94 -3779.15 -2933.81 -2497.20 -2104.72 -1906.80 -1591.38 -843.62 90.83 222.56 248.61 252.89 268.30 279.92 287.69 300.53 313.23 316.10 357.16 387.80 421.63 456.00 490.00 501.48 498.15 465.67 464.36 388.28 361.07 319.94 296.19 282.65 275.39 270.04 267.75 264.33 272.19 313.83 344.30 333.64 305.17 288.70 270.25 257.11 255.41 255.93 261.56 264.77 270.73 279.43 295.04 303.05 311.15 329.59 341.07 353.14 365.31 383.35 412.26 422.97 441.70 472.07 485.18 508.01 537.29 560.62 584.81 600.85 614.62 634.70 647.79 661.96 672.57 690.10 718.71 730.37 741.42 718.65 641.78 606.74 669.75 712.44 835.06 558.88 238.41 76.83 -408.03 -1637.71 -3026.58 -3766.41 -4087.20 -4185.24 -4473.32 -4697.59 -4991.00 -5054.48 -5034.39 -4737.29 -3598.32 -1372.50 -639.74 -228.19 -193.20 -211.13 -403.37 -605.55 -718.88 -942.27 -1085.16 -1281.75 -1494.03 -1753.67 -1880.22 -2038.21 -2159.09 -2325.66 -2446.64 -2553.96 -2635.53 -2635.60
-5214.60 -5214.55 -5207.83 -5219.25 -5225.91 -5232.48 -5235.23 -5274.36 -5287.48 -5315.93 -5338.70 -5358.58 -5392.52 -5408.92 -5407.66 -5399.01 -5278.10 -5151.28 -4818.69 -4253.47 -3720.90 -3471.14 -2615.09 -2172.66 -2123.04 -1876.40 -1415.88 -1039.05 -113.59 226.43 251.41 258.31 273.89 286.54 293.48 303.77 314.85 319.51 342.00 359.50 398.44 419.23 468.57 475.71 447.16 451.82 441.47 417.99 399.75 369.02 336.05 312.71 288.92 281.82 281.30 279.45 273.30 286.24 320.97 344.68 327.43 300.08 278.65 262.49 255.55 254.89 255.20 258.61 261.36 267.18 273.10 282.12 295.25 305.68 328.35 341.77 353.88 355.61 385.91 408.98 426.90 445.14 472.63 492.06 516.20 539.71 559.55 587.24 606.09 623.24 635.15 657.37 674.95 697.74 711.31 722.03 745.64 771.74 766.56 709.43 725.59 766.99 777.11 802.70 410.18 226.38 192.41 -183.79 -1527.82 -3133.04 -3841.08 -4127.33 -4356.24 -4601.45 -4786.75 -4963.56 -5021.92 -4949.91 -4493.06 -3538.14 -1255.07 -441.72 -161.32 -163.30 -198.28 -303.98 -466.31 -515.17 -761.56 -1088.30 -1342.34 -1385.46 -1702.37 -1950.48 -2056.02 -2161.70 -2256.31 -2418.95 -2466.19 -2524.39 -2524.39
-5171.09 -5173.60 -5169.73 -5167.28 -5176.72 -5180.17 -5205.24 -5223.78 -5261.24 -5277.68 -5302.66 -5333.90 -5341.32 -5328.00 -5317.38 -5082.78 -4789.42 -4130.00 -3641.94 -3339.03 -3211.13 -2303.94 -2131.92 -1914.73 -1834.68 -1425.20 -763.76 -234.68 222.96 249.98 257.99 278.49 295.87 305.08 331.12 330.62 330.75 340.89 362.60 375.82 409.00 438.55 454.20 442.82 429.20 417.39 409.84 405.09 390.07 373.04 344.34 325.11 302.56 291.17 289.59 289.32 292.47 317.39 342.98 322.52 306.06 286.68 266.36 258.48 255.09 254.76 254.91 256.61 259.68 262.02 269.93 282.05 290.99 305.86 321.45 343.23 349.95 366.90 401.37 408.69 435.49 460.85 474.13 498.35 521.26 550.06 569.03 598.48 614.94 625.47 651.47 665.71 676.53 698.90 715.47 729.61 742.95 758.95 768.82 733.81 702.58 703.12 795.17 859.43 618.42 230.77 15.47 -873.35 -1654.05 -2884.20 -3703.72 -4138.29 -4438.05 -4641.33 -4846.12 -4936.59 -4973.58 -4905.77 -4487.28 -2942.13 -1210.87 -348.97 -160.40 -149.40 -195.80 -257.51 -329.64 -490.27 -734.41 -1045.82 -1195.79 -1395.00 -1709.59 -1940.69 -2077.43 -2137.08 -2231.16 -2319.08 -2432.82 -2498.44 -2498.52
-5126.23 -5126.18 -5117.69 -5129.34 -5135.15 -5140.61 -5154.96 -5177.10 -5187.21 -5222.45 -5232.22 -5248.95 -5225.83 -5050.54 -4662.06 -4237.45 -3585.00 -3218.33 -2714.11 -2362.01 -2036.66 -1868.37 -1842.56 -1742.11 -1553.30 -1162.41 -182.53 227.69 239.64 257.49 271.60 293.39 302.37 345.49 363.18 351.26 352.79 356.94 378.29 394.64 415.58 447.76 464.15 449.93 424.07 408.21 399.02 384.90 366.64 362.78 347.37 328.84 309.45 307.59 303.96 302.66 304.29 317.14 332.79 313.28 305.36 283.70 275.44 264.48 257.08 254.83 254.77 255.30 256.28 259.75 267.17 278.47 285.65 300.71 314.61 334.05 348.51 366.31 396.35 402.63 451.10 460.89 474.57 503.07 520.14 553.36 576.81 593.98 614.97 627.62 646.58 674.62 685.72 708.28 721.90 735.45 707.58 710.51 730.98 682.65 595.31 678.42 788.15 841.06 575.28 222.65 -248.62 -1233.12 -2158.10 -3052.44 -3638.92 -4201.66 -4426.13 -4528.51 -4737.54 -4793.62 -4826.44 -4692.32 -4423.42 -2572.37 -1491.01 -257.31 -121.64 -124.65 -192.96 -252.79 -346.48 -521.47 -673.05 -923.48 -1192.38 -1347.72 -1735.67 -1918.05 -2057.90 -2178.34 -2227.35 -2334.77 -2438.51 -2496.44 -2495.02
-5083.57 -5083.52 -5073.98 -5073.40 -5084.11 -5099.69 -5123.56 -5137.22 -5153.65 -5185.88 -5174.37 -5036.40 -4752.76 -4614.01 -4131.86 -3476.53 -3002.33 -2438.73 -2139.83 -2022.23 -1833.81 -1765.44 -1769.02 -1720.99 -1453.28 -716.49 12.55 238.14 253.25 262.77 281.12 298.05 321.42 351.45 387.89 384.31 381.38 388.43 386.85 410.48 434.99 447.28 474.31 454.81 427.13 402.25 385.91 376.10 360.85 355.02 344.52 325.93 320.75 325.85 317.51 320.55 322.50 333.32 331.91 317.83 314.62 294.91 278.61 266.77 260.55 254.96 254.81 255.10 255.69 257.95 262.07 273.96 286.85 300.83 311.83 327.58 347.06 365.14 391.65 408.58 439.47 455.89 475.06 503.08 520.61 552.36 570.23 585.39 609.28 631.22 638.34 667.38 680.32 702.51 726.90 733.74 707.61 656.93 618.14 612.45 542.45 666.55 707.52 817.45 601.79 209.07 53.71 -890.20 -1777.95 -3310.69 -4033.40 -4156.49 -4429.74 -4519.57 -4622.49 -4674.81 -4744.93 -4505.06 -3903.08 -2264.29 -553.58 -170.34 -84.95 -121.77 -168.27 -247.61 -346.21 -484.85 -660.83 -806.61 -1049.35 -1333.81 -1586.52 -1879.39 -2035.42 -2158.94 -2270.57 -2311.43 -2429.73 -2489.79 -2489.87
-5048.02 -5047.96 -5031.96 -5031.69 -5028.89 -5041.97 -5084.70 -5097.56 -5124.84 -5126.25 -5079.91 -4834.03 -4217.32 -3518.96 -2778.42 -2643.02 -2378.52 -2249.08 -2073.74 -1946.46 -1818.91 -1760.82 -1792.08 -1699.30 -1257.09 -577.42 0.64 242.69 256.59 269.17 293.26 310.05 321.68 361.58 391.37 410.84 425.25 414.27 412.07 421.83 445.57 463.81 475.70 463.49 420.30 399.59 384.00 363.21 357.83 349.58 343.60 340.42 340.84 337.84 327.73 330.53 333.13 355.80 370.31 342.47 337.40 299.92 283.55 269.69 262.84 255.19 255.02 255.16 255.82 257.05 262.66 267.98 282.12 299.41 309.04 322.11 335.97 356.03 379.83 397.71 426.31 444.88 472.55 488.62 532.72 548.85 567.81 585.32 604.79 629.12 643.22 655.25 672.31 699.49 723.18 744.06 745.06 697.96 633.52 565.40 493.37 572.49 581.65 770.13 412.23 223.02 -85.95 -511.62 -1579.22 -2480.86 -3051.45 -4178.93 -4432.83 -4468.79 -4579.58 -4654.17 -4643.62 -4275.45 -3184.10 -1652.65 -406.97 -71.63 -60.96 -128.63 -175.26 -269.02 -366.71 -463.83 -587.17 -781.26 -1019.13 -1200.62 -1548.24 -1778.69 -1998.36 -2189.04 -2342.42 -2420.47 -2532.26 -2560.07 -2560.20
-5026.41 -5024.84 -5009.66 -5002.42 -5005.11 -5017.14 -5039.60 -5063.25 -5050.22 -5048.77 -4877.20 -4508.59 -3419.94 -2816.27 -2309.82 -2066.13 -2103.50 -2157.42 -2100.60 -1945.79 -1852.24 -1803.39 -1779.18 -1628.18 -1114.68 -313.30 223.48 247.99 261.06 274.24 296.15 312.79 340.30 385.33 414.60 426.28 439.67 432.33 429.22 435.29 446.70 468.55 468.68 449.63 402.20 385.84 376.09 362.33 353.93 344.15 343.10 339.95 338.47 343.90 351.41 370.16 388.95 405.52 419.31 369.60 379.26 352.03 293.97 283.27 271.78 257.45 255.27 255.35 255.69 256.26 261.15 267.35 279.37 290.82 305.10 314.55 323.59 347.11 367.50 389.89 410.67 437.19 472.56 494.81 520.83 541.72 555.18 582.85 605.22 620.47 634.81 654.79 672.03 689.06 725.11 746.83 760.44 679.06 631.33 596.78 518.47 433.82 411.37 544.85 393.92 172.19 -63.39 -305.87 -767.82 -913.20 -2397.94 -4102.21 -4091.39 -4324.37 -4525.84 -4570.76 -4451.67 -3845.52 -1958.13 -622.88 -125.70 -35.97 -45.70 -105.38 -154.49 -257.03 -363.21 -479.08 -629.65 -759.51 -1087.41 -1318.43 -1601.04 -1820.08 -1992.88 -2139.61 -2337.05 -2498.68 -2676.68 -2715.01 -2715.21
-5029.71 -5029.62 -5003.81 -4970.96 -4957.34 -4961.54 -4902.68 -4891.63 -4873.92 -4448.71 -3967.11 -3515.41 -2812.16 -1941.45 -1744.47 -1678.98 -1818.32 -1953.71 -2048.49 -1824.82 -1733.29 -1744.17 -1751.26 -1611.38 -1062.05 -84.63 189.31 243.17 261.27 275.12 299.05 315.74 334.55 353.28 405.28 440.62 467.22 453.36 448.53 457.41 462.38 464.99 451.65 436.21 386.03 366.78 355.39 346.13 344.28 341.77 336.20 332.04 331.02 338.05 350.75 369.11 407.33 437.36 456.59 455.37 439.64 372.24 315.23 286.45 274.71 262.61 256.94 255.62 255.83 256.35 259.30 266.74 276.94 284.62 295.45 310.24 323.48 343.70 357.03 383.61 402.60 428.94 458.48 481.12 499.43 530.04 551.55 574.14 601.53 616.35 633.98 653.19 671.39 688.93 718.24 742.29 759.14 770.49 699.11 581.62 577.63 508.72 507.53 406.99 228.63 176.53 101.32 -118.62 -535.12 -975.05 -2090.27 -3691.07 -3775.54 -4167.03 -4392.63 -4427.02 -4066.31 -3375.22 -1319.51 -226.65 -47.89 1.88 -69.41 -112.64 -141.15 -226.54 -296.13 -470.89 -603.86 -841.95 -1238.12 -1471.23 -1716.94 -1906.15 -2027.81 -2085.43 -2311.72 -2401.20 -2761.42 -2829.13 -2829.30
-5000.71 -4997.31 -4873.01 -4647.17 -4600.97 -4609.78 -4437.64 -4038.53 -3838.95 -3445.29 -2770.22 -2070.31 -1983.75 -1709.47 -1583.09 -1599.00 -1657.30 -1698.31 -1685.31 -1338.03 -1455.27 -1418.62 -1437.93 -1469.51 -1415.93 -248.07 189.24 242.65 258.73 272.85 300.63 329.79 358.94 386.65 420.82 454.47 486.71 480.87 469.99 479.02 476.55 455.89 427.12 404.44 366.28 355.00 343.74 340.29 338.52 327.36 327.18 326.33 326.76 329.69 337.99 341.05 375.91 407.33 455.49 476.00 470.77 410.54 370.84 292.71 284.12 267.89 262.76 258.39 256.34 256.69 256.88 262.07 272.78 281.47 290.26 302.27 316.42 327.63 356.84 373.81 394.11 417.32 436.84 461.77 490.43 511.71 539.45 557.94 593.49 613.44 634.89 651.53 667.54 685.87 715.27 734.53 764.60 774.97 710.26 626.71 567.94 660.26 752.84 377.70 213.46 143.79 63.81 -131.12 -376.77 -1210.70 -1862.21 -3239.95 -3538.91 -3933.25 -4344.21 -4403.40 -3376.82 -2326.32 -613.58 -184.57 17.76 -8.00 -63.85 -108.73 -147.05 -216.62 -328.37 -516.31 -670.31 -933.21 -1315.68 -1612.84 -1794.39 -1893.10 -2025.57 -2144.24 -2289.98 -2448.13 -2743.02 -3025.81 -3026.08
-4435.30 -4435.88 -3997.60 -3900.82 -3751.66 -3355.49 -3159.31 -2698.00 -2251.79 -1937.23 -1955.88 -1739.42 -1600.61 -1595.66 -1617.66 -1639.41 -1638.45 -1551.92 -1422.79 -1072.02 -771.55 -726.98 -948.65 -1144.06 -1010.22 46.89 173.14 238.53 257.06 271.95 298.36 350.92 394.49 435.73 450.06 487.41 519.66 507.17 498.73 498.04 483.29 451.89 423.43 401.60 371.13 352.92 342.90 330.50 326.81 319.66 316.90 316.30 318.22 322.39 326.27 335.95 349.07 364.66 412.17 449.20 473.16 468.13 409.29 335.29 294.44 279.95 263.10 263.19 258.77 256.96 257.17 263.27 270.63 279.48 288.88 302.92 317.06 323.92 345.93 355.41 375.34 402.23 421.83 441.28 483.97 506.57 531.14 552.19 585.34 609.24 628.57 648.53 665.57 684.12 712.43 732.55 767.88 782.56 756.37 718.58 715.26 906.49 553.34 268.94 202.33 140.55 62.75 -242.64 -677.85 -1386.17 -2182.42 -2338.55 -3090.21 -3687.67 -4085.75 -4171.29 -3151.79 -1553.96 -364.80 -79.04 43.88 -9.42 -68.21 -115.42 -141.07 -184.38 -313.08 -482.68 -789.84 -1128.45 -1243.15 -1499.96 -1719.51 -1941.54 -2121.02 -2249.22 -2451.47 -2574.20 -2806.53 -2999.85 -2999.89
-2851.72 -2853.90 -2785.21 -2428.36 -2485.11 -1874.21 -1836.58 -1614.12 -1586.44 -1464.80 -1430.64 -1484.99 -1539.40 -1614.22 -1651.36 -1696.20 -1682.56 -1557.84 -1275.93 -984.08 -389.90 -416.51 -459.78 -706.36 -335.22 100.55 186.78 236.12 254.62 270.76 287.44 355.48 381.28 411.78 453.37 497.44 543.16 568.51 549.16 544.82 533.37 495.04 440.60 400.71 366.62 349.98 332.76 320.53 317.91 308.78 310.45 308.67 308.06 310.00 314.01 326.09 329.91 346.68 363.40 409.04 434.85 424.69 363.98 328.86 314.21 293.38 270.72 266.45 261.66 258.82 257.46 260.21 267.93 272.99 287.15 296.77 303.19 316.72 328.67 346.09 362.98 395.70 419.97 432.72 470.06 501.14 524.82 552.12 567.30 605.45 629.69 648.94 676.17 692.91 720.98 749.45 748.16 743.95 728.70 734.89 899.19 786.54 334.09 261.39 211.17 132.47 64.08 -87.79 -666.14 -1031.79 -1325.66 -1878.76 -2586.00 -3096.94 -3879.53 -3155.07 -2536.96 -1185.98 -274.27 32.80 35.93 -16.29 -68.37 -102.51 -118.32 -164.97 -294.63 -499.10 -791.15 -1144.50 -1341.57 -1426.77 -1778.77 -2015.06 -2208.22 -2350.13 -2527.05 -2765.32 -2838.29 -2993.16 -2993.24
-1584.27 -1586.48 -1597.69 -1684.60 -1518.09 -1459.90 -1379.83 -1325.86 -1325.09 -1341.99 -1400.51 -1457.03 -1558.64 -1615.49 -1670.33 -1720.68 -1731.08 -1643.76 -1465.69 -1062.71 -474.55 -175.81 -202.17 -261.12 -60.79 101.53 195.99 231.12 244.21 267.49 280.33 337.89 392.43 433.96 495.89 527.10 550.18 573.06 562.78 544.77 540.16 516.67 467.70 385.29 362.85 342.75 321.38 309.29 305.60 295.01 300.29 298.84 295.94 300.58 306.91 310.56 320.14 330.96 354.18 364.45 402.04 413.23 396.78 350.96 320.25 302.84 286.32 275.50 267.58 263.16 257.72 259.88 266.35 273.13 280.98 289.92 296.57 310.63 318.07 344.48 363.30 381.79 403.53 421.05 476.62 485.69 510.84 540.56 568.65 589.52 626.62 645.22 682.35 710.96 732.03 751.33 733.86 696.74 663.70 724.21 870.76 521.46 305.23 274.70 196.24 127.84 45.05 -32.90 -202.76 -472.51 -793.69 -1446.78 -2064.28 -1883.94 -1972.65 -2156.65 -1578.76 -424.15 -7.56 42.77 34.75 -25.75 -62.39 -101.14 -114.79 -168.36 -291.85 -520.70 -771.27 -997.35 -1229.59 -1599.66 -1905.78 -2121.41 -2256.96 -2388.10 -2637.59 -2778.91 -2911.90 -2990.11 -2990.19
-1305.23 -1305.79 -1310.95 -1298.31 -1265.72 -1262.75 -1283.46 -1302.76 -1320.57 -1350.78 -1420.37 -1477.77 -1558.46 -1609.27 -1682.81 -1744.86 -1745.76 -1684.09 -1545.97 -1004.36 -865.90 -411.80 -199.27 -86.08 29.87 81.24 162.06 226.14 239.25 258.80 281.86 302.82 358.41 384.93 478.63 515.50 503.32 528.32 505.14 500.77 523.17 507.20 448.14 354.15 320.34 305.73 297.24 293.26 283.61 284.01 285.86 282.38 284.33 290.91 293.29 304.83 312.36 322.74 335.80 360.28 402.57 413.56 399.46 372.82 327.55 308.98 291.95 278.80 270.90 266.10 259.87 258.08 263.70 269.60 274.73 287.79 297.86 309.89 316.30 341.97 359.02 368.03 402.49 420.97 446.50 475.95 504.59 537.58 559.08 595.50 604.37 663.28 680.53 703.78 717.90 742.79 753.32 655.87 603.51 812.52 722.68 321.83 280.16 241.15 163.99 117.33 68.47 -0.55 -149.28 -237.36 -842.54 -1212.34 -1429.17 -1506.66 -1603.84 -1312.73 -553.66 -133.26 54.51 51.59 9.46 -42.17 -69.87 -102.87 -130.44 -173.56 -364.25 -519.83 -888.56 -1087.24 -1491.54 -1787.94 -1892.42 -2110.97 -2269.03 -2336.35 -2598.70 -2769.71 -2858.17 -2935.27 -2935.20
-1340.33 -1340.01 -1320.79 -1294.99 -1296.39 -1314.01 -1322.78 -1331.20 -1352.73 -1393.58 -1445.45 -1493.70 -1566.50 -1633.75 -1684.16 -1742.55 -1751.58 -1717.99 -1498.16 -1147.98 -701.17 -444.00 -216.28 -17.64 51.86 72.90 154.21 212.83 229.90 243.76 260.66 292.44 319.84 362.13 375.69 378.85 434.22 463.88 441.55 407.22 418.91 419.81 360.31 343.83 292.72 287.14 277.96 273.22 274.59 272.28 271.35 270.66 277.39 285.49 287.77 294.05 302.69 316.63 326.22 344.72 361.48 395.82 402.68 362.86 331.89 313.01 297.66 287.07 292.82 275.33 263.45 259.80 260.66 265.30 274.09 289.34 296.88 309.25 318.92 334.66 347.93 370.73 399.12 426.55 447.10 477.69 502.10 526.21 548.53 582.83 606.95 656.58 681.54 702.57 703.47 697.64 713.94 675.52 627.42 661.01 386.67 343.47 272.23 242.79 163.04 108.27 41.75 -60.11 -131.07 -292.80 -747.08 -1012.14 -1359.67 -1383.20 -1264.09 -900.04 -423.04 -33.30 76.36 74.23 6.48 -32.74 -90.67 -123.53 -158.81 -221.39 -459.84 -601.17 -848.99 -1234.54 -1535.63 -1841.07 -1987.95 -2102.83 -2257.02 -2389.72 -2510.62 -2667.68 -2783.99 -2933.77 -2933.87
-1394.94 -1394.78 -1365.64 -1350.17 -1338.76 -1347.16 -1362.96 -1399.03 -1392.98 -1430.58 -1481.10 -1527.58 -1585.17 -1633.40 -1702.42 -1737.58 -1742.79 -1633.55 -1433.76 -1120.25 -731.80 -448.12 -267.86 -52.42 -7.42 58.49 68.72 171.20 213.43 230.28 258.44 269.59 283.83 312.80 328.17 367.45 400.72 408.17 382.07 351.46 367.79 346.87 313.87 315.38 286.80 265.57 264.26 260.55 261.20 262.02 263.33 266.62 271.36 278.40 279.54 286.32 295.39 314.70 324.24 336.45 371.30 385.29 401.48 377.77 365.41 328.50 325.80 322.46 315.57 298.98 267.19 260.04 258.91 266.82 275.40 287.88 296.65 305.58 320.64 334.59 357.28 378.92 400.26 421.38 459.97 475.49 499.38 525.91 555.45 586.85 606.08 646.42 675.60 681.24 651.61 631.36 673.58 719.23 870.27 561.50 334.98 295.96 266.08 250.00 159.81 82.76 -19.66 -72.19 -201.23 -341.66 -731.73 -1139.01 -1292.51 -1350.58 -1212.47 -750.26 -260.02 107.92 145.64 121.71 20.79 -42.24 -104.31 -133.67 -201.23 -300.30 -410.65 -634.80 -907.31 -1173.46 -1439.57 -1768.03 -1944.64 -2029.55 -2222.10 -2368.87 -2489.52 -2660.73 -2770.51 -2933.61 -2933.69
-1445.04 -1445.12 -1422.93 -1398.09 -1402.52 -1396.02 -1410.51 -1428.78 -1423.71 -1460.25 -1542.35 -1589.12 -1637.28 -1681.18 -1717.95 -1739.54 -1707.69 -1573.32 -1362.08 -1018.97 -493.90 -329.08 -234.40 -204.46 -114.00 1.55 48.64 104.86 171.58 211.78 249.47 252.06 257.31 267.04 303.60 356.80 334.01 328.81 319.34 307.27 299.31 278.28 279.90 276.27 243.90 248.66 247.97 248.88 250.76 252.93 253.52 260.75 268.27 273.90 276.26 279.93 289.85 304.99 326.25 339.91 388.70 411.62 423.47 404.18 389.96 354.84 361.73 365.27 325.26 318.05 270.10 261.54 263.58 272.98 280.05 290.19 297.61 306.89 322.68 333.13 361.79 379.14 392.11 412.84 437.24 477.08 504.08 534.62 563.71 603.56 627.83 652.42 644.26 612.70 628.63 608.32 636.56 816.30 887.43 530.94 393.02 265.91 263.75 252.73 165.80 59.59 -6.46 -81.02 -153.42 -350.61 -687.50 -1160.51 -1309.02 -1320.72 -1282.25 -973.43 -87.55 44.28 149.85 131.37 35.62 -45.97 -101.04 -136.84 -199.64 -336.28 -458.89 -719.04 -995.85 -1128.12 -1247.54 -1543.22 -1809.94 -2072.41 -2164.76 -2296.98 -2465.73 -2654.69 -2797.54 -2934.52 -2934.61
-1490.24 -1490.28 -1472.53 -1447.74 -1447.85 -1464.46 -1490.24 -1513.62 -1557.57 -1586.31 -1601.76 -1643.68 -1686.31 -1727.37 -1743.63 -1736.74 -1671.58 -1510.37 -1124.09 -715.00 -411.65 -238.07 -223.66 -226.69 -186.33 -53.74 11.16 46.75 147.21 206.90 227.96 239.90 247.27 256.08 267.99 269.86 276.91 292.77 291.19 271.81 270.66 267.30 253.56 231.13 237.48 237.86 239.77 240.40 239.69 243.29 247.88 254.02 265.09 266.38 272.02 277.59 282.40 309.79 325.73 345.90 385.33 401.54 408.29 409.01 400.11 380.14 378.20 363.73 327.14 291.09 269.72 260.34 269.25 274.34 280.40 291.67 299.04 310.95 324.24 351.47 371.22 388.43 405.52 420.16 444.40 478.05 509.83 537.34 562.32 610.40 642.51 656.08 639.98 596.73 547.56 546.26 685.20 958.44 582.36 415.17 286.91 260.28 257.11 228.43 91.64 15.18 -45.17 -97.48 -144.76 -337.58 -560.26 -1209.62 -1273.51 -1346.22 -1305.80 -972.28 -424.71 -103.11 86.12 93.54 23.73 -43.09 -110.41 -147.91 -208.47 -283.68 -482.41 -695.58 -957.87 -1085.06 -1324.22 -1498.71 -1767.83 -2027.03 -2138.45 -2243.83 -2390.74 -2683.84 -2829.21 -2942.60 -2942.18
-1540.67 -1540.68 -1519.40 -1513.20 -1498.92 -1506.64 -1525.66 -1561.28 -1599.99 -1625.25 -1664.18 -1716.29 -1746.49 -1761.14 -1768.35 -1737.51 -1656.05 -1445.35 -944.78 -665.98 -403.88 -227.59 -203.21 -232.04 -222.27 -111.69 -51.84 -12.85 116.48 180.29 193.09 219.95 241.13 246.80 257.42 258.89 253.00 258.48 250.17 247.36 252.24 251.46 239.84 220.97 224.39 226.46 230.34 231.72 231.95 236.96 241.25 251.32 261.32 263.63 269.88 274.94 277.95 307.89 331.72 349.50 366.73 375.08 371.77 375.01 388.10 371.92 351.57 345.23 303.42 269.82 261.48 259.84 268.48 275.74 281.97 293.55 303.10 319.96 333.36 346.03 372.18 386.85 414.20 423.74 462.19 478.54 511.09 543.49 568.15 586.35 644.60 663.37 631.76 596.29 550.78 501.58 687.89 663.86 360.91 332.20 285.66 253.63 251.62 175.32 67.18 -7.47 -75.69 -103.95 -171.87 -401.11 -735.78 -1183.67 -1345.15 -1355.98 -1325.11 -1125.23 -756.45 -317.88 -171.05 79.54 -1.35 -76.48 -124.13 -162.13 -198.20 -319.24 -532.37 -771.70 -935.24 -1131.20 -1376.50 -1598.47 -1751.50 -1957.39 -2099.28 -2279.68 -2552.73 -2867.18 -3034.49 -3126.54 -3126.33
-1597.35 -1597.34 -1577.01 -1579.61 -1569.33 -1558.99 -1564.30 -1578.56 -1618.48 -1628.39 -1689.78 -1732.61 -1769.85 -1797.03 -1797.30 -1754.89 -1641.85 -1496.38 -1041.64 -720.15 -463.71 -281.10 -226.20 -216.40 -229.46 -183.63 -168.83 -32.03 -17.43 34.40 90.16 138.77 220.47 234.65 237.58 239.32 239.72 239.47 239.52 238.05 215.53 209.32 197.94 205.00 209.49 207.11 221.42 222.63 223.55 230.32 237.08 243.82 253.15 261.73 268.58 272.01 295.61 323.53 336.02 344.15 339.17 330.16 329.00 338.63 339.40 321.85 325.11 280.19 274.92 263.46 260.99 264.58 275.79 278.44 284.79 297.81 307.83 326.05 336.44 356.30 378.81 398.09 415.63 429.07 456.43 490.27 518.50 541.28 571.36 605.60 642.89 666.93 622.98 546.33 499.07 536.63 545.59 369.60 354.36 309.92 270.38 232.49 199.14 141.92 55.83 -24.50 -81.71 -129.27 -181.41 -543.55 -906.80 -1160.21 -1344.27 -1357.87 -1355.83 -1299.08 -1154.67 -616.60 -318.67 -131.57 -58.36 -108.91 -136.82 -184.83 -264.22 -415.15 -657.63 -875.63 -1003.61 -1207.95 -1456.42 -1607.83 -1826.37 -2001.09 -2118.97 -2350.89 -2622.04 -2909.54 -3169.97 -3281.28 -3281.33
-1655.77 -1655.75 -1644.90 -1626.08 -1605.12 -1618.45 -1628.63 -1638.24 -1666.71 -1687.02 -1734.74 -1713.14 -1699.81 -1769.72 -1791.60 -1771.70 -1704.35 -1610.42 -1311.67 -1053.24 -627.64 -433.95 -317.31 -248.08 -245.94 -263.10 -208.87 -112.53 -48.82 -5.61 31.86 118.65 178.74 199.66 217.16 185.36 223.41 205.50 225.68 189.13 168.58 177.42 170.43 157.10 170.69 182.60 213.16 220.03 223.10 225.86 236.71 245.24 256.12 265.48 272.59 287.26 306.78 327.20 338.50 332.02 303.01 294.10 308.41 308.48 280.85 278.59 275.47 275.40 262.38 260.31 261.12 269.88 275.66 286.70 295.54 304.94 316.31 333.22 343.80 360.21 389.70 400.68 416.13 436.59 465.78 492.65 520.05 543.81 577.77 624.00 640.59 648.84 650.02 620.92 664.86 659.23 373.62 351.20 338.55 293.78 237.16 175.02 135.11 82.29 12.16 -34.26 -89.04 -143.94 -183.22 -524.66 -930.47 -1272.77 -1337.64 -1356.79 -1364.54 -1358.80 -1332.90 -1138.05 -662.57 -388.74 -138.16 -131.86 -149.62 -180.52 -346.05 -581.23 -648.21 -997.30 -1078.79 -1243.63 -1505.20 -1721.65 -1910.93 -2007.56 -2110.45 -2313.40 -2610.57 -2880.88 -3188.48 -3292.83 -3293.08
-1718.58 -1720.37 -1715.92 -1649.98 -1627.58 -1695.51 -1693.40 -1708.50 -1761.04 -1755.20 -1773.61 -1774.00 -1773.63 -1805.76 -1789.44 -1787.80 -1735.58 -1638.79 -1441.56 -1237.32 -1014.73 -688.59 -477.15 -298.42 -240.44 -237.17 -250.10 -226.19 -196.66 -32.92 5.80 72.26 133.00 133.35 124.53 100.90 132.61 130.54 164.23 150.52 140.14 137.57 126.75 127.07 132.91 145.25 198.81 199.87 214.12 226.05 232.17 251.26 256.66 273.60 276.64 316.15 332.34 333.88 328.25 313.56 276.08 273.43 274.40 268.42 261.80 248.59 244.65 247.65 260.18 258.83 261.85 269.52 279.57 294.68 305.11 316.13 331.87 337.40 356.89 374.52 393.92 405.36 423.52 456.39 473.80 486.32 527.50 546.96 568.64 618.35 628.86 610.17 612.51 637.53 559.14 422.59 343.70 317.74 287.71 236.90 198.07 155.06 136.83 75.34 1.70 -52.24 -98.85 -150.93 -238.02 -559.13 -1022.44 -1253.21 -1342.40 -1357.06 -1375.27 -1395.34 -1373.28 -1280.33 -874.25 -458.63 -189.68 -147.56 -165.84 -214.80 -322.50 -522.88 -678.07 -996.81 -1282.75 -1473.73 -1593.50 -1721.89 -1883.69 -1984.25 -2074.86 -2261.82 -2552.95 -2744.96 -3046.92 -3161.62 -3161.70
-1797.25 -1797.24 -1773.07 -1759.57 -1757.27 -1758.60 -1797.99 -1777.51 -1778.50 -1795.58 -1812.87 -1815.25 -1817.39 -1814.13 -1809.82 -1811.18 -1791.16 -1761.14 -1643.58 -1553.04 -1251.51 -885.98 -630.58 -394.27 -253.98 -216.48 -234.60 -246.56 -261.54 -118.05 -44.89 28.82 53.68 106.62 88.26 60.60 72.94 116.73 136.02 141.82 140.40 136.48 112.60 86.79 99.54 129.92 161.62 184.53 199.26 228.37 232.46 252.33 270.01 309.60 318.42 361.87 355.87 330.00 306.78 281.63 272.20 259.40 248.34 239.34 239.28 237.73 237.44 240.00 245.03 251.61 260.88 268.94 285.24 297.63 310.77 326.57 336.22 349.84 361.98 382.40 401.78 416.38 445.52 469.72 480.83 497.08 531.68 551.44 574.83 612.78 620.15 597.86 539.56 634.04 541.91 309.84 290.62 283.13 253.13 217.63 157.91 118.57 77.05 30.39 -48.48 -81.23 -120.52 -175.61 -375.21 -659.74 -1108.32 -1279.73 -1344.70 -1358.61 -1378.16 -1413.55 -1417.33 -1344.68 -953.81 -626.11 -224.64 -159.85 -169.07 -229.83 -318.85 -549.46 -879.01 -1116.66 -1422.34 -1572.27 -1676.22 -1763.73 -1934.40 -1996.35 -2088.62 -2263.01 -2527.37 -2781.49 -2942.92 -3162.30 -3162.38
-1883.18 -1885.90 -1865.19 -1814.56 -1833.45 -1847.67 -1857.06 -1831.65 -1817.68 -1800.42 -1819.08 -1824.33 -1822.31 -1827.39 -1820.81 -1779.75 -1802.05 -1787.90 -1753.64 -1591.09 -1490.78 -1160.80 -630.82 -443.74 -253.14 -198.86 -203.06 -212.64 -229.18 -151.32 -77.57 -69.80 -9.96 41.61 35.31 6.41 34.90 43.36 58.33 109.09 96.64 91.09 79.47 66.40 84.69 126.46 148.97 191.54 219.99 233.76 237.42 255.91 291.62 334.95 377.25 386.87 353.74 332.06 287.28 271.06 261.64 241.44 237.47 233.54 233.09 234.36 233.35 236.13 239.29 246.55 257.76 269.07 290.99 298.25 312.43 327.77 339.42 359.74 371.65 386.27 405.86 426.53 439.23 471.01 492.03 500.83 528.14 566.83 588.96 609.90 577.15 569.33 557.23 476.61 399.96 291.11 248.33 240.98 231.88 190.29 148.63 92.91 43.44 -0.63 -48.27 -93.62 -149.25 -197.78 -341.88 -759.28 -1215.94 -1300.95 -1345.28 -1364.80 -1391.10 -1436.79 -1439.29 -1389.27 -1011.57 -632.16 -267.12 -162.47 -172.69 -226.26 -357.35 -591.33 -735.76 -1102.31 -1415.14 -1618.49 -1744.07 -1839.46 -1932.40 -2049.99 -2170.41 -2338.41 -2456.20 -2883.31 -3044.65 -3191.57 -3191.49
-1947.44 -1947.39 -1922.90 -1904.75 -1949.59 -1952.40 -1923.17 -1908.68 -1844.87 -1814.37 -1819.18 -1828.37 -1825.31 -1831.48 -1828.56 -1766.85 -1789.35 -1816.39 -1809.05 -1723.71 -1609.80 -1243.72 -852.36 -556.19 -294.91 -207.67 -190.66 -197.15 -205.67 -169.45 -139.65 -140.98 -124.99 -97.99 -42.46 -60.99 -60.72 -51.95 3.05 36.05 -22.31 13.54 29.74 46.96 63.23 92.27 164.65 205.01 224.49 238.04 242.39 272.23 321.44 363.86 389.36 367.42 335.80 296.41 274.64 263.34 249.31 234.29 229.80 223.76 223.61 224.67 226.16 233.77 237.30 247.32 253.79 277.47 290.35 304.68 316.88 330.75 346.17 377.49 382.20 397.29 413.31 428.37 449.11 474.28 496.48 510.14 531.14 553.43 598.02 594.23 554.66 524.81 616.85 419.23 313.32 296.38 213.16 202.84 197.38 151.21 99.39 64.62 15.80 -53.41 -95.71 -116.28 -155.17 -178.06 -512.05 -850.89 -1187.54 -1346.46 -1345.34 -1370.11 -1406.82 -1448.06 -1452.11 -1375.45 -917.26 -561.19 -217.23 -153.62 -184.64 -276.03 -340.01 -550.11 -1056.26 -1205.18 -1545.86 -1742.64 -1808.44 -1907.48 -1976.02 -2060.83 -2144.98 -2314.89 -2620.15 -2965.07 -3159.27 -3387.97 -3388.06
-1982.08 -1981.99 -1969.21 -1975.97 -1978.33 -1971.17 -1961.78 -1928.59 -1873.61 -1833.04 -1835.90 -1841.24 -1845.34 -1857.77 -1843.10 -1797.86 -1784.70 -1818.50 -1810.27 -1777.56 -1566.03 -1292.70 -873.20 -534.90 -271.13 -230.55 -210.69 -242.46 -253.72 -255.03 -241.69 -196.40 -213.08 -183.02 -144.76 -132.77 -140.21 -147.42 -157.22 -158.82 -126.13 -76.71 -10.21 23.25 46.74 110.09 161.50 202.31 235.54 243.18 264.86 306.52 334.64 381.08 404.50 375.78 332.17 302.16 266.65 250.57 238.40 234.46 225.10 222.86 220.74 221.45 223.74 227.29 234.43 243.00 252.25 268.04 289.72 305.46 321.62 331.06 357.88 378.60 388.79 404.03 423.32 436.03 461.61 476.21 507.30 519.61 529.64 564.49 591.06 583.84 573.27 493.11 369.53 308.92 293.23 217.75 181.70 172.16 168.16 133.18 83.01 -0.15 -33.03 -68.55 -107.53 -124.43 -153.38 -258.35 -535.45 -804.62 -1138.10 -1314.07 -1355.89 -1372.96 -1414.14 -1449.48 -1421.70 -1317.48 -825.36 -537.71 -162.62 -148.82 -186.74 -400.46 -586.57 -773.13 -1235.89 -1594.67 -1720.67 -1854.21 -1884.99 -1977.84 -2041.44 -2052.60 -2154.14 -2357.32 -2646.38 -2971.31 -3282.83 -3384.74 -3391.29
-1957.18 -1957.13 -1955.31 -1982.69 -2024.33 -2016.85 -1995.98 -1955.70 -1900.72 -1855.83 -1856.55 -1872.13 -1881.23 -1885.42 -1867.01 -1847.07 -1809.55 -1835.70 -1823.14 -1758.32 -1502.29 -1323.03 -877.09 -530.79 -354.26 -376.78 -494.70 -422.73 -412.85 -439.48 -372.14 -328.23 -375.22 -217.51 -226.61 -196.32 -194.03 -196.24 -200.64 -183.97 -130.52 -90.15 -50.31 -19.66 -0.18 42.68 160.00 217.55 242.02 247.23 283.40 306.38 361.55 397.46 393.95 357.03 315.66 284.27 260.14 243.29 234.28 229.33 216.44 192.42 198.55 208.14 219.32 220.38 228.23 233.22 250.08 268.38 284.86 300.17 321.67 329.68 367.17 378.52 390.53 412.48 420.96 447.13 461.35 472.25 504.70 518.89 535.25 565.20 590.80 581.60 558.48 502.71 344.27 291.17 249.19 186.37 168.03 157.80 138.27 103.74 25.85 -11.28 -27.50 -78.84 -96.04 -129.74 -164.92 -311.75 -587.46 -947.43 -1166.95 -1325.23 -1360.28 -1379.98 -1408.30 -1448.43 -1439.76 -1230.08 -786.68 -402.82 -180.67 -166.57 -239.30 -476.26 -883.67 -1244.08 -1567.02 -1811.14 -1867.92 -1943.26 -1956.38 -1996.02 -2044.40 -2074.99 -2141.79 -2248.77 -2518.90 -2988.25 -3357.37 -3465.18 -3465.26
-1996.12 -2003.45 -2017.80 -2018.64 -2042.00 -2049.50 -2027.28 -1983.95 -1933.10 -1904.89 -1893.10 -1897.90 -1913.79 -1899.87 -1885.45 -1877.37 -1858.83 -1873.30 -1834.03 -1737.14 -1541.69 -1232.41 -915.87 -701.26 -663.81 -666.72 -677.72 -744.45 -840.75 -768.76 -802.94 -819.97 -794.89 -665.91 -409.12 -255.89 -234.29 -236.03 -220.86 -189.48 -135.12 -97.12 -83.37 -66.00 3.76 58.30 170.15 219.95 240.27 259.74 314.84 341.03 373.43 401.02 370.23 326.85 302.14 278.95 257.24 244.56 233.87 225.31 212.30 182.94 184.18 196.10 201.61 214.61 224.95 226.79 239.04 267.15 281.93 293.92 321.00 341.29 356.08 373.83 384.41 400.61 415.75 443.31 460.20 478.40 503.26 518.18 557.09 575.77 584.22 577.45 519.54 483.97 347.60 279.63 250.81 183.03 159.00 142.93 123.84 92.46 22.54 -18.47 -50.83 -61.50 -95.25 -134.57 -166.60 -321.73 -548.52 -1007.92 -1274.07 -1339.08 -1362.80 -1381.59 -1424.76 -1454.43 -1396.06 -1310.50 -608.67 -212.64 -164.67 -259.17 -378.19 -602.59 -1054.31 -1544.67 -1728.06 -1898.84 -1942.49 -1975.37 -1995.58 -2006.21 -2020.92 -2082.59 -2224.34 -2363.93 -2654.95 -2950.42 -3303.76 -3446.36 -3446.50
-2024.27 -2024.17 -1997.55 -2004.29 -2038.84 -2042.32 -2033.53 -1996.95 -1962.42 -1941.24 -1954.25 -1938.47 -1946.60 -1939.92 -1915.62 -1868.40 -1834.85 -1881.84 -1878.32 -1788.15 -1653.55 -1337.11 -1124.14 -1007.67 -969.78 -1043.51 -1100.45 -1181.86 -1199.25 -1343.40 -1308.74 -1188.91 -1314.70 -1105.84 -565.09 -299.62 -262.46 -261.82 -258.60 -230.62 -236.55 -198.95 -163.47 -105.97 -24.82 101.61 183.31 225.55 236.75 278.42 330.35 361.72 398.30 363.83 355.35 307.34 281.75 276.55 251.44 235.58 229.65 218.23 190.45 164.46 172.58 183.67 197.91 211.89 221.37 223.39 241.07 260.44 273.17 288.55 313.76 336.40 350.08 369.29 387.33 399.25 415.05 424.16 457.91 470.16 501.00 522.61 556.55 580.23 597.43 611.64 652.30 518.46 366.43 276.71 255.77 197.42 148.86 125.44 102.58 85.10 13.13 -21.89 -61.91 -74.23 -114.02 -170.51 -262.03 -424.56 -669.81 -1001.27 -1277.83 -1304.07 -1362.35 -1392.26 -1440.74 -1455.03 -1394.72 -1055.74 -468.85 -223.88 -173.08 -298.19 -532.51 -714.92 -1085.63 -1509.90 -1645.84 -1871.16 -1973.45 -2000.73 -1995.99 -2005.63 -2079.70 -2152.05 -2355.58 -2474.12 -2787.30 -3000.69 -3224.37 -3350.65 -3350.73
-1992.91 -1992.87 -1998.42 -2014.67 -2034.36 -2039.49 -2036.67 -2016.34 -1990.13 -1996.11 -2007.22 -1979.58 -1977.29 -1970.48 -1940.58 -1900.33 -1884.84 -1936.36 -1917.92 -1838.29 -1744.04 -1612.90 -1507.90 -1474.30 -1446.79 -1661.36 -1702.45 -1712.52 -1803.29 -1772.81 -1816.64 -1810.81 -1759.93 -1313.20 -837.60 -465.63 -293.01 -280.98 -293.13 -301.51 -304.03 -270.61 -205.20 -135.55 -70.65 70.85 185.97 227.69 253.92 296.48 322.27 349.52 368.98 328.37 301.91 275.84 256.48 253.37 244.97 226.56 220.13 179.48 158.88 158.95 162.63 164.09 185.70 194.67 220.88 222.55 243.22 253.60 275.58 303.10 323.18 335.46 347.54 371.37 387.73 404.13 413.75 432.66 457.34 467.38 504.55 513.45 553.36 570.82 595.43 603.62 659.39 479.12 332.09 284.83 253.17 199.61 149.67 108.04 80.69 41.43 3.78 -38.96 -89.18 -122.32 -158.99 -251.42 -341.92 -565.80 -816.95 -995.14 -1153.88 -1268.84 -1354.32 -1392.56 -1448.58 -1460.75 -1370.22 -872.38 -432.30 -230.45 -196.02 -290.76 -553.86 -949.52 -1184.03 -1468.59 -1711.88 -1856.63 -1969.12 -2006.47 -2013.07 -2021.42 -2081.19 -2167.90 -2348.58 -2595.66 -2774.78 -2996.81 -3164.81 -3350.23 -3350.30
-2034.99 -2034.93 -2007.07 -1994.34 -2022.02 -2042.44 -2045.72 -2030.42 -2028.58 -2022.06 -2025.53 -2020.76 -2016.29 -2009.90 -1977.73 -1960.80 -1957.42 -1961.94 -1946.68 -1934.95 -1898.28 -1833.33 -1809.17 -1792.69 -1838.48 -1881.74 -1936.04 -1951.29 -2062.49 -2078.90 -2127.35 -2100.66 -2009.15 -1883.48 -1535.48 -899.13 -399.46 -312.55 -346.35 -318.69 -310.96 -296.23 -220.77 -205.07 -73.94 81.02 166.23 230.16 239.81 270.79 309.80 325.10 312.89 282.84 272.21 256.62 252.93 244.99 234.11 221.95 209.12 170.26 154.13 151.74 151.92 147.83 148.86 165.20 204.43 225.16 239.84 249.23 273.11 289.28 301.17 337.48 345.10 367.40 384.50 401.44 411.15 428.29 456.68 465.83 504.53 516.32 533.48 558.82 587.81 617.12 513.02 341.29 314.37 267.06 228.77 180.65 129.00 92.90 51.08 10.22 -38.70 -150.64 -168.71 -251.11 -275.56 -328.14 -586.58 -712.00 -860.84 -954.10 -1112.56 -1207.26 -1325.07 -1392.37 -1444.15 -1461.02 -1231.52 -1005.85 -478.25 -213.34 -242.88 -441.85 -649.44 -1040.31 -1243.03 -1499.33 -1690.72 -1846.12 -1970.60 -2012.87 -2011.95 -2031.34 -2085.79 -2146.82 -2311.88 -2528.96 -2775.47 -3013.93 -3165.56 -3351.35 -3351.42
-2049.09 -2049.03 -2033.60 -2002.65 -1999.28 -2035.03 -2057.55 -2055.91 -2053.54 -2047.53 -2052.20 -2029.59 -2017.96 -2000.27 -2019.96 -2013.86 -1995.38 -1992.53 -1992.76 -1975.34 -2003.88 -2030.20 -2013.79 -2028.74 -2049.33 -2080.01 -2088.67 -2148.47 -2172.64 -2167.17 -2164.42 -2187.02 -2182.51 -2023.19 -1619.52 -1168.41 -693.09 -498.24 -428.99 -395.90 -365.02 -323.98 -263.50 -230.41 -134.23 12.52 145.83 230.56 238.70 266.00 285.20 293.41 277.79 259.64 256.17 251.24 245.59 237.93 222.73 202.21 183.09 166.45 155.88 151.85 148.92 145.72 141.14 147.42 184.99 213.19 237.96 244.98 274.83 285.12 296.41 326.35 341.43 353.29 375.86 401.36 410.93 429.97 447.24 468.31 489.25 506.10 508.19 523.68 630.31 588.37 393.32 285.01 282.06 225.79 187.65 166.46 133.08 82.54 43.55 6.03 -161.76 -209.86 -259.49 -349.64 -435.80 -570.94 -690.34 -822.17 -889.96 -915.47 -956.25 -1092.37 -1257.51 -1345.90 -1457.10 -1470.09 -1327.75 -738.53 -439.94 -191.02 -320.68 -535.67 -700.00 -1117.01 -1388.38 -1596.65 -1861.53 -1932.99 -1961.97 -1975.52 -1994.52 -2025.99 -2093.86 -2180.73 -2282.34 -2508.72 -2790.36 -3088.80 -3283.89 -3413.47 -3413.36
-2065.57 -2065.51 -2068.07 -2053.72 -2041.89 -2033.31 -2051.68 -2061.85 -2055.88 -2064.22 -2057.02 -2012.01 -2015.54 -1994.66 -2044.79 -2036.79 -2026.46 -2016.83 -2014.27 -2029.52 -2039.67 -2062.00 -2084.42 -2124.04 -2123.51 -2157.25 -2183.32 -2203.69 -2203.14 -2189.71 -2159.85 -2167.32 -2184.68 -2098.61 -1755.13 -1467.30 -1035.89 -667.05 -510.99 -455.38 -458.80 -334.01 -263.31 -228.66 -163.13 -10.27 142.66 230.27 237.66 249.53 269.60 272.38 260.00 256.38 246.11 240.79 239.49 225.18 205.70 161.69 152.91 156.26 159.81 154.74 151.37 146.75 144.55 139.62 164.61 195.29 224.19 244.89 256.12 282.81 297.34 304.50 333.61 348.88 376.57 387.66 402.87 424.68 437.94 455.41 481.73 486.30 471.07 486.21 598.22 615.35 371.57 280.31 232.54 196.39 162.48 137.44 110.07 46.26 -19.09 -125.74 -406.75 -380.25 -504.99 -676.54 -695.25 -786.44 -823.05 -889.32 -889.52 -896.88 -940.54 -991.82 -1145.89 -1323.39 -1404.22 -1396.31 -1147.74 -712.84 -278.58 -186.77 -321.91 -530.53 -782.59 -1111.89 -1451.57 -1666.93 -1899.67 -1937.46 -1950.78 -1959.81 -1983.55 -2024.98 -2078.17 -2180.79 -2327.99 -2689.62 -2933.97 -3243.81 -3441.99 -3645.10 -3645.17
-2080.20 -2080.14 -2084.14 -2087.55 -2093.75 -2067.83 -2070.39 -2068.05 -2054.79 -2072.25 -2078.70 -2041.69 -2045.28 -2090.60 -2094.25 -2080.47 -2067.23 -2062.09 -2065.10 -2056.00 -2086.94 -2110.82 -2144.15 -2165.56 -2166.42 -2188.97 -2197.73 -2203.15 -2200.67 -2190.11 -2167.34 -2158.98 -2140.48 -2107.43 -1977.79 -1684.73 -1095.91 -831.83 -571.69 -488.59 -430.48 -334.62 -277.05 -222.04 -153.07 -111.88 73.40 219.90 234.94 242.50 263.09 263.29 242.38 242.17 238.73 228.36 220.13 207.38 193.46 151.52 137.22 148.04 159.10 157.88 157.60 150.32 147.55 144.42 158.17 173.59 198.68 231.61 245.50 269.07 282.00 297.17 323.35 345.36 364.53 379.09 390.27 409.81 419.65 453.90 464.64 459.85 435.75 595.80 559.27 399.96 285.47 255.11 205.25 160.61 122.29 103.80 28.42 -68.86 -166.92 -320.75 -522.95 -699.44 -788.60 -864.85 -851.89 -867.36 -891.64 -884.83 -878.89 -877.80 -887.45 -879.38 -969.21 -1068.25 -1122.81 -1041.39 -981.46 -514.07 -185.66 -268.78 -400.80 -714.81 -1016.94 -1220.53 -1493.04 -1768.15 -1915.66 -1934.02 -1940.71 -1942.65 -1988.58 -2037.33 -2083.37 -2174.83 -2441.98 -2769.65 -3263.45 -3490.52 -3595.76 -3675.58 -3675.57
-2093.57 -2093.51 -2095.11 -2102.26 -2107.17 -2110.93 -2115.88 -2108.90 -2081.69 -2116.54 -2136.36 -2127.79 -2135.32 -2117.73 -2138.47 -2131.88 -2123.50 -2129.50 -2119.03 -2127.15 -2140.58 -2149.91 -2169.22 -2180.66 -2186.16 -2200.85 -2206.38 -2205.48 -2211.37 -2190.73 -2154.43 -2144.99 -2137.01 -2119.87 -2045.56 -1783.96 -1353.63 -867.69 -649.42 -501.87 -442.83 -347.49 -278.99 -216.08 -170.56 -96.89 65.61 128.33 224.11 231.85 236.52 235.01 227.32 227.90 194.09 175.17 155.67 146.07 103.24 68.44 82.22 96.77 142.73 168.27 177.46 155.09 149.40 148.65 149.62 149.47 180.57 219.66 244.49 263.84 273.23 287.25 305.55 327.51 346.47 377.57 379.90 398.06 415.62 427.34 439.33 414.28 370.58 738.91 378.35 274.18 249.23 186.95 146.63 120.77 103.45 15.93 -123.12 -312.36 -385.01 -619.85 -768.06 -833.62 -893.67 -916.18 -906.69 -893.84 -891.06 -866.10 -832.00 -788.40 -719.51 -697.95 -689.52 -557.40 -520.67 -519.53 -327.51 -185.60 -165.61 -253.55 -457.75 -819.21 -1047.44 -1345.96 -1593.33 -1834.54 -1893.81 -1910.30 -1930.04 -1936.92 -1988.96 -2039.26 -2163.77 -2217.75 -2426.42 -2970.95 -3229.01 -3576.41 -3725.22 -3777.22 -3777.27
-2108.75 -2110.43 -2113.04 -2113.49 -2116.64 -2121.47 -2130.91 -2126.53 -2150.69 -2178.72 -2171.55 -2176.67 -2174.55 -2191.25 -2193.24 -2200.40 -2195.49 -2217.64 -2209.99 -2213.51 -2215.72 -2192.23 -2193.53 -2190.18 -2197.97 -2202.93 -2211.97 -2208.84 -2213.47 -2187.63 -2157.94 -2165.88 -2134.98 -2090.09 -1997.37 -1807.03 -1429.97 -1109.84 -756.26 -547.77 -459.24 -340.51 -298.59 -248.16 -176.26 -94.97 -23.61 29.27 171.89 212.61 214.79 151.59 166.87 100.72 54.00 -6.08 -13.32 31.06 3.60 22.27 15.70 58.20 127.60 160.07 179.73 172.11 161.08 157.25 154.09 151.79 184.05 222.24 235.78 250.24 265.17 285.04 302.35 311.44 326.45 345.72 350.11 368.17 403.57 411.49 416.81 406.64 447.66 430.13 286.06 261.80 199.79 136.41 87.95 58.89 25.06 -75.19 -362.13 -501.01 -556.10 -596.15 -846.34 -882.30 -905.26 -908.55 -887.50 -873.19 -769.86 -731.43 -654.58 -608.22 -417.33 -273.22 -52.01 -137.45 -152.51 -161.20 -66.70 -84.32 -138.39 -290.80 -457.05 -861.33 -1131.42 -1396.57 -1602.26 -1787.52 -1860.29 -1883.65 -1898.56 -1919.07 -1959.30 -2077.56 -2240.91 -2303.31 -2565.27 -2841.70 -3368.77 -3614.13 -3765.89 -3801.57 -3801.05
-2124.10 -2124.05 -2123.08 -2128.52 -2133.31 -2134.17 -2147.06 -2165.57 -2187.86 -2198.48 -2209.27 -2210.91 -2214.97 -2219.81 -2234.85 -2237.80 -2231.08 -2250.60 -2259.75 -2247.78 -2246.36 -2231.55 -2226.14 -2213.97 -2218.02 -2220.75 -2224.10 -2223.73 -2212.15 -2194.60 -2171.20 -2157.20 -2119.34 -2036.87 -1905.46 -1656.55 -1503.83 -1189.83 -824.07 -606.18 -498.07 -352.00 -331.70 -275.77 -189.35 -133.69 -112.06 -52.90 63.53 86.86 102.82 52.23 7.50 3.06 -10.80 -14.73 -11.27 -3.32 -4.15 -3.69 -1.96 0.92 63.79 159.28 184.64 199.83 200.37 169.33 165.76 156.63 170.53 184.52 231.06 243.94 253.52 274.51 287.76 293.74 304.15 313.03 334.69 344.00 375.09 386.87 398.78 398.71 582.57 649.92 258.57 224.21 150.26 109.24 -13.91 -53.43 -211.88 -295.74 -601.28 -679.33 -696.63 -750.09 -880.52 -891.53 -899.96 -878.48 -840.19 -730.09 -552.11 -464.27 -230.94 -115.74 -100.15 74.41 46.87 99.74 42.57 36.70 -80.49 -160.54 -258.54 -360.34 -659.64 -878.00 -1287.22 -1573.99 -1686.90 -1822.17 -1852.30 -1864.12 -1868.58 -1890.72 -1955.44 -2086.38 -2301.71 -2347.28 -2642.35 -3008.09 -3452.12 -3681.21 -3802.49 -3818.49 -3818.56
-2138.13 -2138.07 -2139.16 -2142.05 -2150.17 -2149.18 -2158.94 -2179.54 -2203.65 -2224.72 -2225.74 -2230.53 -2234.27 -2242.01 -2253.57 -2263.32 -2266.27 -2269.27 -2271.80 -2258.42 -2252.77 -2251.18 -2252.51 -2243.80 -2237.44 -2237.40 -2229.06 -2230.28 -2220.90 -2205.69 -2185.30 -2136.97 -2102.82 -2018.33 -1894.29 -1634.36 -1418.49 -1229.53 -902.08 -687.70 -509.67 -380.07 -334.23 -283.15 -224.60 -156.78 -134.56 -87.88 -50.24 -40.49 -29.30 -45.92 -38.74 -21.03 -24.56 -12.85 -8.25 -4.37 -0.56 0.07 -0.94 7.50 31.12 76.41 151.56 181.56 207.44 199.41 183.67 159.13 154.86 163.77 228.67 236.06 244.61 260.42 274.38 286.24 290.20 298.73 311.42 327.71 335.99 339.54 357.85 383.16 522.51 1158.29 258.18 192.31 113.76 38.23 -85.34 -173.38 -288.62 -535.20 -715.88 -833.05 -832.81 -862.12 -876.47 -851.29 -797.65 -692.07 -579.48 -373.92 -183.49 -48.31 33.47 103.65 122.48 156.98 150.14 139.77 94.86 -20.78 -218.53 -365.92 -426.69 -605.19 -801.20 -1091.15 -1329.20 -1614.06 -1768.10 -1844.08 -1864.56 -1856.27 -1848.44 -1919.29 -2079.67 -2225.33 -2442.26 -2627.66 -2929.57 -3234.54 -3525.04 -3772.56 -3803.20 -3817.27 -3817.33
