-4809.06 -4808.97 -4829.67 -4836.72 -4834.97 -4854.69 -4886.88 -4931.85 -5001.04 -5058.88 -5084.99 -5098.14 -5105.82 -5111.53 -5116.94 -5127.24 -5167.17 -5232.14 -5257.97 -5259.17 -5251.81 -5248.60 -5224.80 -5215.37 -5211.45 -5211.65 -5210.44 -5213.56 -5218.09 -5225.67 -5224.59 -5225.88 -5228.75 -5224.18 -5231.96 -5243.54 -5258.79 -5263.11 -5275.30 -5281.49 -5298.29 -5312.39 -5340.67 -5359.52 -5378.01 -5385.02 -5393.76 -5389.52 -5372.48 -5333.86 -5294.61 -5284.32 -5281.48 -5285.46 -5292.00 -5314.33 -5332.92 -5356.75 -5348.40 -5350.34 -5350.89 -5340.08 -5322.47 -5303.46 -5285.54 -5272.28 -5261.74 -5252.95 -5228.94 -5027.94 -4830.15 -4499.75 -3969.95 -3842.77 -3339.95 -2963.56 -2784.19 -2494.92 -2341.38 -2173.72 -1861.74 -1864.74 -1858.51 -1687.13 -1553.19 -1189.95 -726.24 35.76 143.10 149.43 145.13 -400.78 -912.57 -1080.84 -1162.34 -1172.79 -1213.54 -1245.78 -1227.78 -1091.57 -811.87 -948.32 -1268.73 -1885.89 -3229.46 -3778.40 -4814.05 -5249.94 -5530.94 -6590.91 -8020.26 -8463.96 -8468.40 -8486.69 -8486.57 -8502.01 -8478.08 -8194.85 -7322.48 -5069.29 -2814.57 -2041.40 -1926.73 -2002.26 -2132.27 -2205.27 -2245.02 -2253.60 -2245.67 -2237.68 -2222.77 -2211.26 -2197.64 -2185.30 -2194.50 -2241.16 -2270.51 -2367.27 -2485.71 -2564.42 -2569.90
-4774.99 -4775.07 -4786.67 -4794.91 -4805.90 -4827.30 -4857.68 -4924.82 -4978.33 -5060.25 -5077.99 -5093.88 -5098.43 -5110.53 -5118.21 -5117.29 -5131.62 -5193.43 -5251.25 -5283.48 -5287.19 -5259.77 -5222.24 -5212.84 -5203.47 -5201.89 -5202.00 -5204.73 -5210.93 -5214.03 -5216.28 -5220.14 -5216.85 -5218.00 -5228.37 -5243.15 -5260.06 -5275.27 -5287.68 -5295.81 -5306.85 -5320.26 -5340.11 -5364.37 -5375.07 -5383.64 -5391.18 -5386.76 -5371.51 -5341.77 -5291.50 -5279.42 -5278.27 -5282.63 -5286.70 -5303.69 -5313.95 -5321.07 -5322.04 -5331.65 -5332.59 -5322.48 -5301.20 -5289.41 -5271.78 -5259.41 -5249.87 -5241.19 -5208.94 -5083.69 -4891.31 -4437.24 -3995.10 -3608.04 -3335.36 -2961.05 -2741.78 -2545.50 -2233.19 -1813.87 -1684.43 -1752.36 -1704.90 -1341.71 -1176.65 -887.90 -291.22 -20.07 158.89 169.59 27.12 -431.69 -722.93 -925.83 -1005.97 -1065.86 -1154.25 -1200.80 -1225.38 -930.74 -808.72 -1039.49 -1363.05 -1852.89 -2553.03 -3415.92 -4140.91 -4675.00 -5399.70 -7026.63 -8087.44 -8418.27 -8441.30 -8462.18 -8474.46 -8485.26 -8484.13 -8354.53 -7954.72 -5006.98 -2874.17 -2034.14 -1923.61 -2001.38 -2129.65 -2192.62 -2231.65 -2245.64 -2237.49 -2222.76 -2209.66 -2195.23 -2185.23 -2177.97 -2189.77 -2241.99 -2313.01 -2406.71 -2509.52 -2573.54 -2573.60
-4760.92 -4761.11 -4767.83 -4777.94 -4787.55 -4806.69 -4863.06 -4907.31 -4986.43 -5045.22 -5068.32 -5078.19 -5086.41 -5096.48 -5103.24 -5107.02 -5120.33 -5161.46 -5216.86 -5255.13 -5272.75 -5260.69 -5227.84 -5211.80 -5200.54 -5198.23 -5200.04 -5204.02 -5208.86 -5211.86 -5213.47 -5214.34 -5215.09 -5220.05 -5228.98 -5250.63 -5270.54 -5282.90 -5293.51 -5302.77 -5311.30 -5333.89 -5344.46 -5364.48 -5376.11 -5383.23 -5388.82 -5388.29 -5365.24 -5338.87 -5294.47 -5276.86 -5275.96 -5280.39 -5284.05 -5293.08 -5303.82 -5310.19 -5310.88 -5311.87 -5309.86 -5301.89 -5290.15 -5279.59 -5261.58 -5251.32 -5238.73 -5224.40 -5194.71 -5091.92 -4937.72 -4379.27 -4011.11 -3493.21 -3191.45 -2838.52 -2675.92 -2328.25 -2039.78 -1768.08 -1431.14 -1081.22 -1198.93 -975.12 -780.42 -583.62 -255.60 73.87 154.11 155.41 108.47 -475.67 -654.45 -774.02 -890.72 -913.34 -1022.87 -1150.60 -1038.47 -830.01 -715.76 -779.56 -1037.69 -1727.53 -2444.74 -3476.98 -3940.82 -4989.10 -6345.85 -7436.30 -8358.93 -8408.21 -8417.82 -8438.22 -8464.54 -8471.83 -8459.17 -8426.33 -7857.69 -6184.51 -2940.94 -2057.08 -1956.30 -1999.01 -2091.05 -2162.53 -2212.29 -2237.62 -2224.44 -2209.23 -2196.60 -2181.64 -2172.91 -2169.83 -2182.98 -2220.83 -2323.76 -2433.22 -2505.98 -2584.96 -2585.00
-4753.74 -4753.67 -4761.11 -4769.46 -4780.01 -4794.44 -4844.48 -4882.05 -4971.75 -5010.47 -5053.66 -5065.58 -5073.35 -5086.24 -5086.54 -5093.16 -5101.00 -5124.26 -5158.35 -5214.82 -5256.64 -5251.46 -5230.67 -5214.04 -5208.66 -5201.97 -5202.44 -5205.44 -5211.05 -5215.41 -5216.69 -5216.22 -5217.28 -5220.53 -5237.02 -5249.90 -5273.09 -5285.48 -5301.36 -5308.33 -5316.88 -5333.33 -5343.81 -5364.03 -5371.32 -5380.68 -5385.44 -5380.70 -5362.10 -5339.08 -5303.37 -5295.73 -5284.15 -5297.54 -5303.10 -5303.88 -5303.44 -5305.91 -5302.23 -5300.02 -5294.84 -5287.27 -5278.61 -5265.28 -5248.73 -5234.15 -5225.42 -5207.56 -5177.80 -5063.64 -4832.21 -4452.04 -4025.50 -3574.20 -3139.02 -2931.90 -2433.54 -2223.51 -1798.88 -1473.83 -1230.43 -985.89 -870.74 -708.63 -675.24 -512.36 -241.98 74.12 126.82 121.94 -153.88 -505.46 -540.53 -561.23 -735.98 -703.00 -887.90 -1098.68 -1024.65 -377.90 -206.58 -437.96 -1231.90 -1623.05 -2333.18 -3361.78 -4153.71 -5285.53 -7119.58 -7907.54 -8389.62 -8415.03 -8404.42 -8421.22 -8446.37 -8436.44 -8406.44 -8399.57 -7848.45 -5919.70 -3731.81 -2107.03 -1968.49 -2016.78 -2070.73 -2165.80 -2221.81 -2232.81 -2216.51 -2205.46 -2187.27 -2181.78 -2175.30 -2170.07 -2184.65 -2210.40 -2326.60 -2395.13 -2608.67 -2660.74 -2657.58
-4754.75 -4754.69 -4766.37 -4769.58 -4777.71 -4790.75 -4836.89 -4885.41 -4956.91 -4983.54 -5024.65 -5030.83 -5044.57 -5050.68 -5072.69 -5066.15 -5081.96 -5099.39 -5118.91 -5174.96 -5226.89 -5236.70 -5226.38 -5224.48 -5222.96 -5218.58 -5222.42 -5224.38 -5223.92 -5219.07 -5218.66 -5219.02 -5221.46 -5228.34 -5240.98 -5262.55 -5273.76 -5294.62 -5303.23 -5313.06 -5319.40 -5330.90 -5339.05 -5357.80 -5368.55 -5375.65 -5378.48 -5381.22 -5372.17 -5344.17 -5341.30 -5346.88 -5339.96 -5345.11 -5337.72 -5319.73 -5320.17 -5311.82 -5304.20 -5298.47 -5288.59 -5280.59 -5270.76 -5257.09 -5241.89 -5228.86 -5216.67 -5201.35 -5154.87 -5047.25 -4845.57 -4462.70 -4120.72 -3619.64 -3322.56 -3125.34 -2700.93 -2442.21 -1834.61 -1442.33 -1052.21 -765.67 -631.94 -577.78 -591.51 -415.35 -235.40 -130.82 -133.15 -41.12 -193.43 -251.81 -279.72 -256.77 -459.96 -632.61 -667.22 -897.81 -797.25 -269.54 -151.49 -568.89 -1095.85 -2153.95 -2753.25 -3099.10 -4334.32 -5557.82 -7075.48 -8243.23 -8396.00 -8389.20 -8393.70 -8343.23 -8379.95 -8351.35 -8314.18 -8321.34 -7960.24 -6220.78 -3284.53 -2067.31 -1913.63 -1977.01 -2050.13 -2172.68 -2220.68 -2227.48 -2216.56 -2204.67 -2186.31 -2176.19 -2170.89 -2173.81 -2193.30 -2214.31 -2316.17 -2473.30 -2613.11 -2773.38 -2773.44
-4765.79 -4768.91 -4773.77 -4777.65 -4787.06 -4795.28 -4832.14 -4860.09 -4909.48 -4936.67 -4966.49 -4971.94 -4971.67 -4979.94 -5005.24 -5032.30 -5047.87 -5067.86 -5081.75 -5114.42 -5171.61 -5223.76 -5231.89 -5235.37 -5245.25 -5246.12 -5253.90 -5247.98 -5243.39 -5227.99 -5221.45 -5221.26 -5223.31 -5229.06 -5245.44 -5266.39 -5280.15 -5297.30 -5308.62 -5316.51 -5324.89 -5331.96 -5334.76 -5350.35 -5361.38 -5367.69 -5370.41 -5379.28 -5385.77 -5395.15 -5385.86 -5387.80 -5368.49 -5353.61 -5342.78 -5329.26 -5318.00 -5322.36 -5309.32 -5300.77 -5287.58 -5277.28 -5265.47 -5250.84 -5230.78 -5219.32 -5212.39 -5202.30 -5131.01 -5038.86 -4799.02 -4590.89 -4116.54 -3704.71 -3320.60 -3078.17 -2707.51 -2298.30 -1976.19 -1431.05 -895.22 -678.79 -577.12 -535.99 -539.22 -445.09 -291.04 -201.31 -102.70 -59.24 3.21 -72.66 -31.21 -40.08 -205.27 -403.49 -385.25 -328.04 -439.87 -187.64 -302.52 -630.53 -1263.43 -1953.71 -2640.67 -3469.46 -4453.57 -5744.55 -7158.67 -8244.30 -8329.25 -8305.26 -8297.34 -8255.86 -8258.72 -8221.44 -8172.81 -8128.77 -7962.47 -6359.84 -3519.27 -1976.76 -1834.38 -1904.81 -2060.21 -2154.28 -2194.03 -2214.81 -2214.88 -2200.58 -2188.11 -2180.27 -2165.69 -2173.73 -2201.68 -2251.91 -2378.32 -2473.98 -2630.05 -2755.30 -2780.47
-4776.47 -4776.63 -4781.62 -4786.10 -4795.19 -4804.47 -4818.73 -4836.13 -4883.95 -4892.14 -4899.93 -4920.00 -4932.59 -4955.67 -4969.19 -4999.94 -5023.58 -5052.68 -5061.36 -5081.03 -5118.33 -5189.17 -5231.73 -5261.98 -5272.77 -5277.93 -5270.93 -5260.32 -5245.33 -5238.29 -5223.05 -5221.13 -5226.15 -5233.30 -5243.18 -5271.20 -5285.05 -5301.44 -5313.49 -5322.12 -5327.94 -5333.44 -5338.95 -5342.54 -5352.85 -5355.98 -5364.22 -5375.24 -5400.07 -5397.18 -5396.78 -5380.22 -5370.74 -5369.17 -5356.38 -5344.89 -5324.84 -5326.36 -5313.72 -5302.03 -5287.35 -5268.78 -5261.16 -5247.88 -5232.75 -5217.77 -5212.56 -5197.74 -5159.97 -5095.91 -4853.55 -4644.74 -4379.63 -3937.31 -3644.48 -3081.78 -2581.63 -2230.46 -1829.60 -1315.87 -849.37 -637.25 -557.96 -445.80 -412.68 -181.90 -106.48 -9.37 105.99 109.81 110.84 115.05 118.41 113.32 -31.08 -188.84 -48.69 -17.86 -192.36 -192.72 -373.92 -812.70 -1219.43 -2061.76 -2971.34 -3621.72 -4267.03 -5942.84 -6996.53 -7911.14 -8196.58 -8197.55 -8193.59 -8112.12 -8136.86 -8123.20 -8054.49 -7962.39 -7861.61 -4537.48 -3228.22 -1875.80 -1784.22 -1899.38 -2076.78 -2164.64 -2202.14 -2208.11 -2210.96 -2200.01 -2191.41 -2188.17 -2179.67 -2192.99 -2223.24 -2319.58 -2400.75 -2546.88 -2687.46 -2790.33 -2790.39
-4775.18 -4776.24 -4782.51 -4788.40 -4795.91 -4803.00 -4814.39 -4828.74 -4839.13 -4847.86 -4855.78 -4864.61 -4884.47 -4909.60 -4944.26 -4977.59 -5000.62 -5025.08 -5042.95 -5062.84 -5085.08 -5154.53 -5210.09 -5264.59 -5292.12 -5293.44 -5289.00 -5282.38 -5261.01 -5238.47 -5224.99 -5221.85 -5227.16 -5234.45 -5242.11 -5274.80 -5287.23 -5306.25 -5317.43 -5329.62 -5336.66 -5345.00 -5341.88 -5342.83 -5344.92 -5349.23 -5362.08 -5367.53 -5413.97 -5410.32 -5400.97 -5383.33 -5384.82 -5374.41 -5361.33 -5359.54 -5348.88 -5331.72 -5320.24 -5301.60 -5285.47 -5273.67 -5253.31 -5249.70 -5229.41 -5214.11 -5199.85 -5193.23 -5154.34 -5086.47 -4871.48 -4653.28 -4356.73 -3986.30 -3348.01 -2765.41 -2408.18 -1911.76 -1551.83 -1070.74 -769.63 -620.43 -587.46 -348.31 -158.26 23.52 116.75 123.09 127.15 126.90 132.86 130.22 139.35 151.11 141.27 74.02 88.83 97.83 80.72 103.87 -289.78 -845.11 -1445.39 -1949.16 -2658.39 -3565.88 -4419.49 -5732.47 -7259.48 -7965.75 -8032.92 -7864.42 -8005.45 -8017.09 -8026.98 -7945.88 -7841.40 -7852.75 -7553.67 -5257.65 -2853.36 -1837.80 -1753.89 -1886.30 -2018.00 -2162.39 -2188.00 -2203.06 -2211.66 -2202.24 -2200.08 -2201.16 -2206.20 -2227.66 -2267.46 -2320.45 -2447.88 -2552.01 -2690.84 -2800.39 -2800.45
-4768.48 -4768.40 -4775.45 -4779.36 -4787.58 -4788.96 -4798.80 -4805.97 -4818.39 -4822.88 -4834.84 -4847.56 -4862.25 -4885.87 -4922.96 -4958.15 -4993.39 -5008.87 -5032.01 -5046.13 -5066.37 -5118.77 -5155.99 -5249.91 -5291.19 -5295.13 -5293.50 -5290.26 -5253.80 -5241.60 -5225.15 -5221.78 -5225.91 -5233.89 -5244.08 -5248.08 -5251.39 -5289.31 -5299.19 -5318.27 -5330.88 -5344.14 -5350.92 -5351.23 -5357.30 -5359.60 -5368.94 -5391.19 -5410.96 -5410.53 -5393.66 -5373.67 -5359.84 -5357.25 -5355.37 -5361.62 -5361.73 -5328.03 -5320.34 -5302.29 -5284.22 -5276.83 -5258.51 -5236.34 -5221.57 -5213.49 -5198.55 -5191.40 -5166.59 -5117.48 -4826.06 -4536.35 -4096.29 -3943.30 -3301.49 -2624.91 -2225.26 -1787.39 -1313.74 -958.59 -776.52 -701.69 -313.62 -88.03 101.53 118.83 128.80 133.32 147.38 158.13 174.97 158.38 170.75 180.96 167.23 167.25 162.34 136.73 122.47 116.52 92.86 -392.86 -1423.81 -1683.09 -2229.16 -3408.76 -3834.09 -5414.22 -5668.26 -6433.88 -7210.97 -7266.92 -7660.45 -7788.38 -7816.42 -7764.05 -7697.11 -7671.29 -7131.54 -4925.58 -2743.72 -1889.70 -1720.36 -1854.23 -1978.81 -2138.16 -2188.72 -2210.33 -2209.94 -2209.23 -2213.24 -2223.58 -2238.83 -2277.90 -2324.96 -2418.91 -2491.50 -2618.53 -2696.86 -2811.17 -2811.23
-4750.86 -4750.78 -4756.77 -4750.92 -4761.21 -4767.94 -4783.09 -4791.60 -4804.11 -4816.90 -4826.42 -4839.27 -4851.85 -4884.61 -4908.35 -4947.73 -4976.45 -5003.06 -5013.99 -5034.91 -5052.08 -5076.11 -5142.86 -5163.18 -5258.59 -5283.71 -5278.91 -5272.46 -5258.61 -5238.98 -5221.14 -5217.06 -5217.93 -5217.47 -5191.37 -5182.94 -5150.13 -5113.31 -5180.33 -5204.24 -5270.41 -5305.34 -5330.06 -5350.47 -5362.43 -5374.93 -5392.92 -5399.85 -5431.32 -5416.72 -5402.44 -5367.76 -5368.61 -5365.96 -5368.93 -5369.98 -5374.31 -5333.28 -5319.79 -5300.42 -5287.55 -5272.58 -5258.82 -5235.15 -5223.03 -5210.67 -5205.13 -5195.01 -5165.73 -5033.79 -4756.17 -4254.04 -3908.73 -3520.29 -3311.29 -2385.48 -1885.21 -1555.64 -1197.62 -1005.62 -838.81 -536.18 -235.17 46.19 114.16 124.39 148.69 180.25 200.80 194.14 192.61 200.41 205.81 218.24 217.17 193.48 180.55 141.01 120.33 -5.44 57.09 109.12 -211.47 -1208.20 -1884.51 -1884.28 -2005.89 -3241.15 -2468.88 -4623.64 -6303.21 -6800.60 -7322.38 -7547.92 -7607.15 -7472.77 -7466.66 -7430.69 -6830.94 -4695.73 -2758.06 -1738.56 -1696.55 -1856.84 -1977.85 -2073.86 -2181.56 -2219.60 -2215.34 -2214.15 -2215.62 -2221.89 -2273.36 -2278.84 -2404.51 -2482.32 -2524.58 -2665.95 -2753.92 -2816.26 -2826.52
-4726.69 -4726.61 -4724.26 -4724.29 -4733.78 -4745.05 -4760.80 -4781.64 -4813.86 -4816.26 -4840.79 -4852.02 -4867.66 -4880.25 -4913.13 -4945.95 -4972.57 -4998.45 -5015.67 -5030.35 -5043.30 -5055.35 -5076.34 -5129.87 -5208.99 -5240.68 -5240.09 -5253.26 -5240.76 -5211.89 -5200.12 -5202.14 -5160.44 -5132.48 -5063.27 -4825.72 -4473.96 -4666.45 -4766.83 -4778.30 -5013.39 -5116.77 -5207.38 -5284.54 -5333.35 -5356.61 -5399.15 -5432.78 -5450.68 -5441.63 -5424.69 -5395.50 -5376.60 -5386.42 -5385.69 -5389.60 -5375.24 -5352.08 -5332.36 -5318.74 -5300.73 -5276.85 -5261.39 -5239.72 -5229.59 -5219.27 -5213.16 -5205.17 -5146.46 -5021.23 -4684.96 -4250.88 -3913.67 -3382.34 -3018.68 -2385.75 -1924.93 -1640.36 -1255.98 -1071.51 -451.10 -254.66 -18.98 102.07 141.45 140.94 180.47 217.63 232.27 254.87 247.52 263.50 258.54 238.57 248.17 226.67 170.45 120.19 99.78 -50.59 -247.19 -173.74 30.87 69.11 -122.48 -567.09 -911.66 -985.26 -1132.63 -2647.97 -4778.74 -6523.85 -6829.59 -7248.14 -7337.81 -7344.29 -7097.82 -7130.12 -6460.87 -4634.19 -2176.85 -1688.65 -1695.11 -1828.72 -1970.70 -2096.78 -2182.47 -2222.17 -2222.34 -2223.29 -2221.43 -2224.19 -2263.81 -2310.32 -2418.55 -2494.95 -2579.72 -2663.11 -2727.48 -2846.11 -2846.17
-4699.18 -4696.32 -4696.31 -4698.50 -4713.37 -4717.00 -4743.21 -4778.62 -4822.16 -4853.19 -4886.33 -4899.66 -4907.17 -4942.39 -4934.67 -4972.78 -4983.16 -5012.55 -5019.55 -5035.11 -5044.33 -5037.81 -4995.09 -4954.72 -5017.26 -5079.37 -5159.96 -5175.46 -5192.36 -5193.06 -5164.75 -5128.90 -4866.48 -4616.82 -4367.85 -4009.94 -3378.71 -3226.81 -3562.80 -3786.89 -4085.19 -4093.77 -4657.39 -5097.82 -5061.71 -5341.69 -5402.26 -5429.62 -5452.17 -5434.35 -5441.46 -5403.13 -5384.69 -5395.93 -5396.19 -5400.21 -5383.58 -5369.65 -5354.99 -5335.27 -5320.18 -5295.01 -5269.44 -5248.88 -5231.74 -5223.00 -5217.45 -5204.37 -5138.62 -5047.05 -4798.26 -4431.07 -3998.48 -3284.69 -3071.96 -2332.94 -1968.71 -1689.55 -1257.17 -763.13 -42.35 43.43 128.61 160.20 187.00 204.96 222.63 258.21 283.81 309.53 306.67 310.81 323.15 342.75 325.80 354.48 150.00 59.33 -35.77 -614.45 -1426.49 -1564.13 -1218.39 -245.65 -603.70 -501.00 -325.30 -297.85 -343.74 -674.51 -1533.52 -5206.05 -6644.14 -7053.63 -7123.91 -7107.01 -6851.21 -6725.03 -6388.96 -3707.19 -2505.53 -1560.76 -1641.53 -1818.07 -1942.61 -2119.03 -2183.88 -2238.57 -2241.58 -2230.22 -2227.48 -2238.18 -2278.76 -2318.87 -2407.47 -2495.74 -2639.66 -2794.34 -2822.10 -2927.56 -2927.46
-4683.71 -4683.64 -4690.63 -4686.79 -4689.02 -4696.56 -4730.04 -4775.39 -4836.10 -4901.19 -4916.06 -4934.60 -4953.03 -4960.58 -4979.61 -4992.91 -5005.75 -5021.95 -5039.52 -5058.07 -5048.04 -5002.73 -4950.81 -4669.07 -4354.11 -4270.21 -4686.61 -4881.00 -4877.26 -5091.65 -4970.46 -4616.36 -4335.74 -3881.45 -3310.38 -2779.14 -2441.06 -2430.21 -2610.51 -2583.06 -2929.53 -3422.41 -3363.38 -4050.95 -4402.23 -4792.13 -5365.61 -5376.96 -5420.46 -5416.93 -5421.23 -5403.25 -5394.37 -5400.15 -5386.10 -5387.17 -5383.74 -5367.50 -5349.69 -5338.39 -5331.63 -5309.18 -5265.51 -5245.21 -5230.06 -5219.72 -5218.33 -5191.98 -5104.96 -4864.97 -4560.08 -4063.66 -3753.38 -3349.22 -2648.80 -2090.95 -1667.93 -1324.91 -960.53 -740.93 113.89 120.27 142.93 186.79 209.32 247.72 313.64 348.29 439.81 495.58 458.79 445.45 467.08 438.73 515.32 570.09 169.96 -97.45 -1230.72 -3806.77 -3245.87 -2819.48 -2663.92 -1702.58 -1865.60 -1528.45 -1681.05 -571.49 -478.23 -396.83 -1324.14 -3560.08 -6528.15 -6740.98 -6881.42 -6588.99 -6443.22 -6219.71 -5732.88 -4624.53 -2089.44 -1587.74 -1597.43 -1760.05 -1876.74 -2039.86 -2196.31 -2255.79 -2252.44 -2239.31 -2231.78 -2236.14 -2268.40 -2332.38 -2430.80 -2530.57 -2682.11 -2807.17 -2958.52 -3058.54 -3058.58
-4704.98 -4708.57 -4710.05 -4706.49 -4706.69 -4707.44 -4729.96 -4798.55 -4872.38 -4946.34 -4962.39 -4977.41 -4996.14 -4995.51 -5004.60 -5015.02 -5036.88 -5045.38 -5066.33 -5084.08 -5067.14 -4937.63 -4547.91 -3968.33 -3250.61 -3392.69 -3403.49 -4132.97 -4255.17 -4602.43 -4378.99 -3669.07 -3027.58 -2718.09 -2397.29 -2042.81 -1856.89 -1850.92 -1944.58 -1990.80 -2191.74 -2216.65 -2484.33 -2862.44 -3638.01 -4110.54 -4769.72 -5153.32 -5239.07 -5144.80 -5200.17 -5279.58 -5360.18 -5334.48 -5354.09 -5361.41 -5373.73 -5362.70 -5362.83 -5350.30 -5338.26 -5330.38 -5270.34 -5281.83 -5231.43 -5223.18 -5217.21 -5208.53 -5058.80 -4735.69 -4279.74 -3901.81 -3627.17 -3370.52 -2636.94 -1623.74 -831.06 -583.62 -34.62 -268.61 138.54 150.71 149.97 205.11 237.76 297.49 387.77 568.18 752.25 799.26 750.84 718.43 798.40 657.05 808.02 689.72 335.19 -354.49 -1290.85 -2923.70 -3727.54 -3946.88 -3796.22 -3540.93 -3423.93 -3162.81 -2380.73 -1690.42 -896.54 -909.46 -1727.92 -4951.22 -6238.45 -6231.05 -6199.19 -6117.67 -5754.11 -5854.62 -5480.86 -4467.53 -2160.52 -1600.69 -1598.63 -1830.86 -1983.88 -2073.67 -2204.73 -2259.45 -2259.27 -2245.17 -2234.08 -2259.10 -2271.77 -2317.35 -2431.35 -2660.47 -2857.69 -2996.65 -3136.35 -3145.74 -3176.60
-4775.36 -4767.81 -4758.22 -4752.80 -4745.78 -4754.09 -4774.86 -4840.25 -4876.63 -4973.58 -4996.49 -5010.46 -5028.14 -5057.99 -5088.99 -5075.65 -5102.42 -5096.91 -5098.19 -5110.84 -5073.77 -4888.59 -4160.32 -3105.44 -2396.51 -2284.73 -2723.67 -3074.74 -3048.93 -3515.49 -3724.44 -3078.21 -2199.70 -1924.92 -1832.03 -1662.45 -1387.37 -1482.84 -1377.76 -1729.58 -1675.83 -1953.68 -2117.45 -2376.29 -2708.47 -3063.97 -4017.79 -4519.59 -4595.80 -4681.62 -4835.94 -5067.51 -5044.31 -5201.99 -5292.27 -5343.12 -5334.69 -5358.01 -5354.40 -5356.51 -5347.47 -5324.27 -5267.18 -5233.72 -5228.43 -5234.83 -5162.85 -5192.79 -5068.74 -4681.94 -4222.60 -3765.36 -3512.25 -3278.61 -2440.39 -632.87 -224.41 -102.91 120.15 157.65 184.72 196.09 200.17 229.76 241.56 324.30 404.21 572.46 779.62 812.47 909.24 922.36 941.54 894.76 894.37 596.57 444.82 201.93 132.04 -1294.03 -2685.29 -4566.80 -4439.58 -4250.47 -4249.82 -4212.97 -3612.34 -2922.79 -2240.18 -1775.56 -1624.25 -2624.90 -2772.45 -2801.08 -3054.55 -2598.62 -3865.16 -4121.51 -3986.41 -4408.38 -2241.42 -1839.76 -1694.48 -1836.55 -2092.77 -2203.75 -2238.39 -2264.03 -2261.86 -2247.93 -2243.08 -2265.95 -2275.71 -2343.95 -2472.39 -2696.08 -2902.04 -3117.55 -3161.12 -3252.97 -3253.05
-4840.00 -4839.89 -4816.49 -4810.27 -4811.46 -4831.13 -4863.69 -4904.66 -4994.10 -5027.16 -5039.17 -5058.25 -5101.65 -5116.52 -5133.87 -5136.50 -5139.15 -5179.56 -5181.25 -5161.71 -5081.24 -4832.21 -3956.14 -3117.89 -1961.48 -1860.27 -1873.82 -2075.03 -2275.93 -2620.01 -2665.92 -2376.86 -1968.69 -1641.72 -1282.72 -652.33 -660.89 -524.04 -638.89 -925.18 -1230.28 -1856.41 -2048.03 -1990.80 -2055.72 -2304.39 -2791.00 -3283.78 -3776.72 -3543.73 -3636.04 -3944.67 -4302.31 -4617.03 -5006.87 -5105.50 -5294.81 -5289.59 -5217.31 -5297.74 -5302.65 -5329.17 -5246.12 -5225.11 -5178.99 -4937.93 -4956.06 -4351.14 -4033.59 -3714.73 -3167.19 -3287.31 -3444.22 -2651.90 -1561.71 -282.10 -13.02 143.67 143.14 172.96 206.74 219.36 243.66 271.34 297.11 323.70 376.43 461.94 495.64 536.46 609.60 798.60 850.24 903.39 899.83 667.48 579.51 207.25 149.80 -500.30 -1799.54 -3780.78 -4483.31 -4779.17 -4657.32 -4458.84 -4448.46 -4483.16 -3947.67 -2820.77 -2088.49 -1399.57 -1240.12 -1300.19 -1428.99 -1712.42 -2052.09 -2239.01 -2735.95 -3597.80 -2868.64 -2129.63 -1707.75 -1878.55 -2050.02 -2187.31 -2267.25 -2274.30 -2263.35 -2253.44 -2246.90 -2256.23 -2338.32 -2367.88 -2459.57 -2749.06 -2918.50 -3262.66 -3270.40 -3302.67 -3319.75
-4892.23 -4892.13 -4898.81 -4870.81 -4866.71 -4887.73 -4899.56 -4968.31 -5030.80 -5088.55 -5107.80 -5122.38 -5145.52 -5167.62 -5191.51 -5230.51 -5245.48 -5286.71 -5252.71 -5248.72 -5182.45 -4807.62 -3754.71 -2800.22 -1964.02 -1874.54 -1897.04 -1936.93 -1903.62 -2022.90 -2129.02 -2063.28 -1687.01 -1141.69 -581.75 -212.99 92.68 160.48 -62.50 -105.05 -233.93 -1132.87 -1698.20 -1633.92 -1358.91 -2024.30 -2273.23 -2290.36 -2547.18 -2618.78 -2799.23 -2921.74 -3352.68 -3688.55 -4239.06 -4791.93 -4910.50 -5042.42 -5061.91 -5131.26 -5088.69 -4842.89 -5015.21 -4996.06 -4725.03 -4392.81 -4307.00 -3484.50 -3333.39 -2553.68 -2539.53 -2347.20 -1652.59 -810.57 -222.45 68.17 122.75 157.50 183.87 202.47 235.78 250.47 272.75 304.36 314.33 348.25 394.45 402.03 453.57 492.24 509.14 593.14 643.34 756.20 816.26 810.33 717.99 491.34 264.35 121.20 -1759.45 -2083.00 -3430.88 -4682.43 -4490.50 -4455.29 -4513.84 -4845.31 -4827.99 -4157.39 -3319.35 -2657.36 -1588.16 -1170.15 -1022.18 -996.15 -1437.07 -1371.34 -1900.28 -2751.87 -2522.28 -2040.29 -1798.77 -1900.39 -2020.32 -2162.68 -2248.82 -2266.05 -2266.27 -2264.38 -2264.99 -2292.69 -2355.80 -2417.47 -2528.46 -2724.84 -2902.50 -3176.43 -3315.06 -3364.68 -3364.75
-4927.74 -4927.65 -4932.33 -4923.03 -4942.89 -4957.25 -4981.06 -5030.38 -5078.90 -5112.48 -5132.88 -5160.98 -5183.15 -5220.57 -5249.60 -5276.21 -5284.22 -5318.73 -5320.37 -5327.58 -5236.26 -4937.24 -3812.15 -3056.54 -2201.09 -2211.42 -2315.54 -2295.39 -2008.86 -1924.47 -1931.86 -1803.93 -1643.68 -529.20 -71.45 237.53 243.81 232.64 178.00 146.10 146.09 -40.31 -426.80 -214.84 -765.98 -1741.54 -1974.84 -2122.12 -2121.53 -2299.05 -2325.21 -2265.82 -2205.43 -3090.60 -3065.19 -3480.39 -3912.31 -4224.46 -4237.99 -4355.55 -4101.28 -4325.70 -4117.79 -4219.36 -3739.69 -3177.37 -2675.00 -2530.57 -2244.37 -2157.45 -1978.21 -1820.53 -1202.32 -666.51 126.79 133.02 142.32 201.25 253.15 230.30 262.22 274.40 294.01 314.41 341.32 359.62 400.10 407.24 429.91 477.88 498.12 517.68 537.76 589.97 628.50 752.35 745.11 620.37 280.99 139.02 -520.80 -411.83 -900.70 -3555.92 -4771.02 -4572.47 -4535.57 -4867.95 -5022.19 -5074.98 -4486.62 -3592.16 -2841.94 -1847.72 -1272.60 -1071.37 -1010.24 -1037.91 -1297.51 -1751.37 -2119.02 -2060.03 -1849.83 -1959.69 -2091.07 -2194.29 -2265.64 -2273.44 -2273.79 -2286.41 -2335.91 -2345.02 -2416.62 -2538.96 -2617.04 -2873.66 -3079.96 -3353.22 -3482.62 -3531.24 -3531.50
-4937.88 -4938.83 -4940.82 -4948.64 -4965.41 -4984.51 -5012.36 -5049.45 -5080.69 -5115.05 -5140.10 -5167.46 -5187.81 -5221.47 -5259.65 -5307.63 -5336.61 -5353.50 -5372.24 -5363.10 -5283.63 -5123.69 -4374.01 -3450.73 -3389.53 -3028.17 -3277.20 -3337.74 -2607.99 -2298.73 -2035.85 -1756.11 -1285.79 -289.41 106.35 259.30 305.10 267.04 256.15 248.06 219.49 179.62 176.45 173.00 -145.73 -1139.99 -1478.58 -1718.60 -1840.08 -2064.89 -2050.82 -2042.85 -1989.80 -1888.99 -2228.28 -2596.50 -2790.58 -2868.86 -2930.60 -2869.93 -2890.56 -3104.87 -2822.03 -3018.39 -2739.35 -2424.43 -2432.10 -2256.22 -2215.40 -2111.47 -1873.85 -816.93 -21.87 146.34 160.58 200.86 184.55 227.71 261.63 275.82 292.46 310.12 326.91 349.30 362.11 379.25 398.30 412.39 429.24 463.83 471.53 501.78 504.38 512.89 506.27 636.25 747.90 707.24 405.96 160.46 135.39 112.51 -583.24 -2231.14 -3966.85 -4876.88 -4713.81 -4684.90 -4820.73 -5122.22 -5125.87 -5025.87 -3837.11 -3387.30 -2487.00 -1459.43 -1213.16 -1027.29 -1066.63 -1243.43 -1519.13 -1782.76 -1810.49 -1919.88 -2122.62 -2189.38 -2263.92 -2289.01 -2293.63 -2310.71 -2342.44 -2378.38 -2484.90 -2598.41 -2755.51 -3064.09 -3264.31 -3466.69 -3591.55 -3678.62 -3678.75
-4923.38 -4926.15 -4928.31 -4942.73 -4957.47 -4996.93 -5018.05 -5044.21 -5075.01 -5100.95 -5144.14 -5162.57 -5192.20 -5225.04 -5270.85 -5306.97 -5337.29 -5358.60 -5377.75 -5386.64 -5357.05 -5230.30 -4849.97 -4530.79 -4427.51 -4659.33 -4561.53 -4105.90 -3128.03 -2510.49 -2200.13 -2029.40 -1600.01 -658.89 194.87 257.52 302.49 331.24 332.08 276.27 231.80 203.74 200.91 189.29 178.31 6.77 -230.09 -414.12 -786.20 -1179.46 -1436.30 -1574.78 -1787.26 -1845.64 -1928.77 -1979.08 -2133.62 -2297.13 -2188.08 -2293.91 -2249.92 -2205.72 -2273.37 -2312.59 -2336.99 -2215.06 -2207.55 -2246.52 -1934.51 -1790.86 -1388.38 -86.98 160.83 182.76 229.39 312.66 268.53 240.68 292.08 313.19 312.95 337.07 344.98 369.23 376.77 394.31 404.54 414.22 431.31 452.65 458.03 453.84 467.46 468.03 471.78 463.58 594.64 856.34 548.33 182.22 158.85 150.66 86.11 -915.51 -2549.78 -4314.82 -4763.24 -4547.64 -4669.98 -4915.56 -5053.10 -5197.52 -5112.88 -4734.07 -3676.05 -2993.29 -2509.91 -1507.89 -1346.98 -1277.97 -1294.08 -1397.48 -1630.78 -1836.16 -1975.51 -2140.50 -2205.02 -2272.89 -2297.19 -2307.67 -2331.95 -2409.59 -2540.03 -2709.75 -2860.96 -3013.80 -3272.14 -3446.45 -3668.97 -3751.63 -3774.44
-4899.21 -4902.17 -4906.91 -4920.30 -4941.50 -4971.40 -5001.43 -5042.36 -5073.59 -5094.44 -5134.49 -5160.32 -5189.64 -5228.96 -5267.25 -5316.66 -5335.91 -5369.00 -5376.04 -5386.06 -5383.17 -5347.40 -5260.63 -5158.82 -5169.51 -5199.52 -5042.70 -4853.83 -4217.16 -3460.49 -2656.93 -2194.44 -1298.01 -416.27 191.24 205.20 284.57 322.53 347.98 318.92 274.02 241.82 223.66 207.96 194.17 169.48 154.03 147.33 -125.09 -452.75 -434.50 -572.15 -1179.32 -1578.18 -1575.68 -1589.20 -1755.69 -1887.47 -1922.93 -1973.65 -1934.77 -1972.40 -2042.42 -2052.49 -2185.66 -2199.50 -2328.38 -2167.49 -1230.97 -859.30 -379.84 93.44 184.37 197.76 243.21 332.28 293.85 260.53 306.26 324.09 340.60 380.33 381.29 389.15 396.38 407.72 420.89 431.30 441.32 444.40 447.23 452.87 454.26 454.10 438.02 414.95 433.35 630.44 267.39 355.39 233.12 182.61 166.18 -404.35 -718.27 -1917.37 -4680.41 -4646.24 -4480.25 -4744.06 -4767.13 -5020.23 -5186.27 -5244.08 -4971.44 -4344.20 -3833.37 -3148.51 -2232.93 -1451.36 -1252.90 -1156.14 -1415.02 -1621.34 -1865.21 -2003.06 -2172.15 -2235.73 -2279.98 -2292.07 -2327.94 -2419.09 -2539.75 -2626.89 -2822.38 -2941.97 -3112.08 -3358.45 -3671.70 -3783.66 -3808.32
-4876.14 -4876.09 -4879.73 -4897.44 -4928.34 -4956.11 -4984.54 -5024.56 -5066.54 -5099.02 -5125.66 -5164.33 -5195.59 -5223.39 -5274.33 -5310.89 -5334.50 -5359.37 -5368.89 -5387.60 -5387.46 -5362.32 -5312.67 -5305.91 -5301.13 -5305.11 -5307.16 -5172.30 -4968.05 -4614.64 -3510.43 -2336.37 -1041.60 -220.03 183.96 205.55 266.30 304.30 330.87 339.25 320.02 281.84 258.12 242.49 219.63 197.61 186.48 175.57 157.41 148.26 140.54 23.01 -588.54 -945.21 -1167.59 -1277.40 -1379.85 -1489.34 -1548.62 -1683.15 -1634.42 -1519.41 -1659.01 -1804.11 -1840.55 -2044.99 -2371.35 -1404.71 -15.50 133.95 166.67 193.38 241.84 256.11 300.96 358.26 337.22 310.61 331.44 357.04 371.58 386.24 390.91 403.72 418.50 424.87 439.71 441.15 444.27 444.38 447.95 447.62 448.39 442.28 426.74 399.66 338.77 383.64 466.75 617.98 372.49 251.57 204.54 155.10 117.06 -564.60 -3328.22 -4588.96 -4461.37 -4588.89 -4774.85 -5050.43 -5214.91 -5364.53 -5517.88 -5361.82 -5221.03 -4723.49 -3580.06 -2284.12 -1519.72 -1117.21 -1206.18 -1468.10 -1602.28 -1927.83 -1987.85 -2142.68 -2161.54 -2241.58 -2288.52 -2341.72 -2423.05 -2487.41 -2669.44 -2917.17 -3177.11 -3367.97 -3642.98 -3807.81 -3807.87
-4856.19 -4858.93 -4866.77 -4880.57 -4901.11 -4939.95 -4968.14 -5019.78 -5063.14 -5106.20 -5139.53 -5180.26 -5219.40 -5240.42 -5270.19 -5301.43 -5323.05 -5347.69 -5364.24 -5372.09 -5365.44 -5361.36 -5340.77 -5336.66 -5343.74 -5347.55 -5340.77 -5321.81 -5268.84 -5037.18 -3750.51 -2554.72 -1423.99 168.46 176.77 201.36 249.90 296.23 319.13 343.91 349.76 305.13 281.82 282.27 267.35 241.03 217.66 189.66 178.81 171.11 152.31 142.18 128.72 -368.75 -499.25 -587.01 -543.22 -957.72 -1044.22 -1069.68 -1197.71 -1063.40 -1030.12 -1215.82 -952.25 -1552.45 -1096.73 -244.05 56.18 150.06 182.57 209.10 232.80 273.52 309.81 338.90 344.41 341.41 348.76 371.88 395.38 396.25 420.69 422.34 429.06 439.36 448.41 451.17 456.68 453.24 456.59 453.36 448.61 438.94 436.92 410.65 380.51 405.55 493.93 721.85 725.44 448.04 255.08 162.30 143.69 -510.59 -2767.24 -4775.27 -4556.68 -4513.83 -4837.30 -4926.70 -5063.47 -5285.13 -5498.85 -5570.34 -5526.61 -5250.20 -4495.51 -3290.19 -1630.47 -1020.14 -984.45 -1175.31 -1317.48 -1558.02 -1798.25 -2038.77 -2067.68 -2108.18 -2266.16 -2301.03 -2362.32 -2422.26 -2536.16 -2729.73 -3002.75 -3412.04 -3624.96 -3714.76 -3714.29
-4839.76 -4839.71 -4849.39 -4873.28 -4894.23 -4938.83 -4958.60 -5025.93 -5074.33 -5143.05 -5168.59 -5206.71 -5233.97 -5264.76 -5276.39 -5290.67 -5302.98 -5314.94 -5338.71 -5342.83 -5350.91 -5346.09 -5348.74 -5354.33 -5362.05 -5363.63 -5376.09 -5373.88 -5296.85 -5104.60 -4052.11 -2441.51 -933.93 164.04 190.08 239.02 276.30 297.42 324.11 355.60 353.68 333.82 346.69 324.97 293.60 276.89 246.56 209.67 192.28 187.08 154.04 150.32 142.90 135.24 127.24 17.67 -72.21 -213.47 -557.45 -628.56 -371.96 -284.54 -430.20 -414.76 -110.42 -320.52 -361.95 131.38 142.74 177.65 189.46 221.00 266.12 277.48 309.50 327.52 344.95 363.05 374.42 397.61 408.78 417.27 436.79 441.96 452.25 457.84 468.34 471.84 474.73 468.46 467.69 459.23 450.16 442.95 441.56 430.20 440.24 444.51 458.78 656.70 703.05 537.33 287.36 211.08 168.50 -141.35 -2304.24 -4531.86 -4418.96 -4310.70 -4554.72 -4704.09 -4996.54 -5227.57 -5471.02 -5585.92 -5619.79 -5478.35 -4935.89 -3070.76 -1744.48 -901.67 -862.41 -944.92 -1193.08 -1330.56 -1569.01 -1843.25 -1927.34 -2088.77 -2242.38 -2332.48 -2361.65 -2429.08 -2607.85 -2824.21 -3076.20 -3228.65 -3496.17 -3676.42 -3676.49
-4829.07 -4829.01 -4841.13 -4864.40 -4885.30 -4927.93 -4965.00 -5043.20 -5123.98 -5152.85 -5200.22 -5242.72 -5262.34 -5283.88 -5283.57 -5276.08 -5282.64 -5291.43 -5299.39 -5313.59 -5328.27 -5340.90 -5354.59 -5363.32 -5370.31 -5377.92 -5392.47 -5414.92 -5380.09 -5100.07 -3854.63 -1335.55 152.60 169.19 208.12 235.16 270.81 313.48 329.00 358.29 363.97 368.96 375.99 371.53 337.09 364.19 329.34 272.27 233.48 206.95 168.58 162.54 155.83 147.96 128.44 124.52 124.35 128.89 5.66 42.63 139.55 129.98 146.95 152.90 156.67 172.20 187.47 179.11 199.25 211.98 226.16 245.61 275.13 295.21 332.94 337.69 363.77 376.86 386.92 408.76 422.23 437.58 448.64 456.82 470.87 469.65 485.85 487.93 492.84 490.02 480.41 465.06 457.67 448.09 444.38 447.47 454.39 471.65 514.14 546.10 752.04 746.56 547.67 284.45 173.25 136.85 -692.85 -2627.92 -4446.60 -4379.69 -4450.42 -4654.51 -4909.86 -5111.45 -5402.41 -5553.98 -5618.68 -5575.48 -5040.30 -3391.43 -1861.30 -706.30 -680.48 -748.05 -1000.40 -1195.33 -1424.20 -1596.34 -1702.49 -1976.01 -2207.18 -2252.98 -2301.71 -2445.65 -2637.97 -2869.69 -3022.50 -3312.70 -3483.87 -3671.70 -3671.76
-4825.91 -4825.85 -4838.79 -4859.15 -4892.04 -4921.09 -4980.72 -5033.04 -5122.71 -5163.61 -5217.69 -5240.71 -5278.05 -5293.63 -5289.76 -5274.13 -5269.23 -5279.19 -5295.70 -5312.66 -5321.64 -5343.90 -5356.75 -5369.19 -5377.09 -5383.18 -5374.98 -5319.43 -5232.64 -3387.17 -2168.48 -293.86 172.53 196.47 235.14 275.16 296.84 327.75 351.58 361.98 375.96 394.69 408.39 405.62 429.03 406.22 419.32 304.98 248.41 212.59 202.01 190.51 175.72 171.49 154.72 148.93 141.54 139.29 147.62 176.52 177.86 174.04 187.10 190.86 185.03 189.90 236.37 226.07 216.34 242.51 239.73 265.28 281.16 303.53 334.35 342.85 360.68 380.73 391.28 413.44 425.71 446.92 459.92 473.71 482.42 489.18 505.92 507.89 508.32 514.92 500.40 483.07 477.16 454.15 446.86 449.65 454.24 485.71 530.26 583.19 718.15 768.00 680.10 411.81 214.86 178.58 157.59 121.70 -2829.09 -4549.36 -4524.18 -4726.17 -4833.23 -5103.92 -5249.91 -5509.23 -5588.55 -5552.51 -5044.11 -3901.54 -2279.65 -764.91 -604.71 -648.61 -847.61 -981.42 -1202.24 -1420.72 -1635.29 -1889.62 -2096.30 -2191.35 -2250.53 -2368.74 -2520.34 -2796.77 -3090.12 -3351.65 -3490.33 -3668.69 -3668.76
-4830.82 -4831.85 -4845.56 -4865.69 -4894.44 -4929.93 -4988.13 -5051.64 -5111.76 -5167.42 -5217.12 -5249.46 -5282.68 -5296.43 -5291.84 -5278.20 -5273.05 -5281.95 -5299.06 -5313.05 -5330.18 -5351.90 -5364.77 -5372.92 -5373.00 -5336.57 -5242.53 -4456.95 -3702.84 -2728.73 -745.63 -57.43 183.55 196.54 246.27 281.81 315.75 347.35 364.58 400.93 390.20 435.14 438.11 442.16 487.90 518.03 414.13 365.68 296.78 254.74 223.02 208.95 191.60 177.82 172.85 170.13 167.49 165.09 180.00 181.89 192.49 202.72 222.55 225.28 231.20 248.82 282.74 253.16 269.46 277.78 272.68 272.30 284.33 308.00 324.22 352.89 364.52 381.71 396.90 422.96 431.08 452.86 463.39 478.72 491.31 502.38 514.86 524.64 526.18 527.62 518.48 512.13 499.71 459.00 453.70 456.24 459.16 467.86 516.31 534.70 649.68 802.21 825.80 508.71 303.07 208.83 182.61 -853.58 -2798.37 -4781.17 -4637.65 -4704.02 -4843.92 -5045.74 -5218.72 -5475.17 -5540.84 -5534.28 -5317.58 -4056.90 -2034.33 -738.95 -568.28 -556.23 -600.74 -855.73 -964.22 -1259.63 -1486.33 -1727.14 -1879.31 -2048.90 -2169.83 -2250.76 -2364.15 -2624.68 -2857.43 -3066.18 -3353.23 -3489.91 -3489.73
-4843.44 -4843.37 -4864.38 -4871.24 -4918.97 -4947.23 -5020.72 -5059.02 -5123.77 -5189.01 -5230.23 -5259.55 -5290.98 -5299.31 -5292.91 -5285.30 -5286.99 -5291.43 -5309.53 -5324.04 -5337.81 -5358.03 -5363.84 -5366.09 -5280.97 -5238.41 -5034.49 -4062.20 -3268.08 -1703.55 -268.19 169.94 202.32 220.04 240.74 281.77 305.82 356.35 379.15 402.96 418.68 447.11 462.81 492.39 503.14 503.02 424.30 339.90 299.48 277.60 235.91 224.45 208.68 198.18 189.59 181.74 179.71 181.02 185.60 201.18 227.87 251.23 263.11 286.72 289.71 293.58 298.84 295.30 294.99 288.58 282.00 286.00 297.30 313.06 337.80 351.52 367.74 387.74 397.04 422.44 434.44 455.89 469.93 487.21 500.55 515.29 526.26 538.41 547.95 546.56 537.39 522.32 506.99 497.24 475.17 462.86 457.29 471.05 511.81 551.20 604.72 771.60 897.82 631.71 355.59 213.09 181.74 126.47 -2522.53 -4770.30 -4710.25 -4731.20 -4830.15 -5080.98 -5261.45 -5424.45 -5504.68 -5481.20 -5168.00 -4710.11 -2018.14 -864.94 -485.89 -486.61 -506.88 -787.91 -963.21 -1269.68 -1517.33 -1527.35 -1752.43 -1894.31 -2045.96 -2197.04 -2332.57 -2571.89 -2744.94 -3056.63 -3273.48 -3407.53 -3407.57
-4862.67 -4862.58 -4884.95 -4898.75 -4931.17 -4972.57 -5011.72 -5070.39 -5118.14 -5182.82 -5211.06 -5255.78 -5279.97 -5297.24 -5298.47 -5289.70 -5291.99 -5310.21 -5324.05 -5340.66 -5348.10 -5345.44 -5283.49 -5265.57 -4994.37 -4477.06 -4069.29 -3414.56 -2464.56 -601.01 148.87 177.45 201.86 233.14 260.85 286.83 313.87 344.83 368.55 394.27 424.99 463.38 507.23 509.49 531.63 500.37 415.41 368.55 309.33 279.10 254.58 237.89 225.60 209.44 199.15 193.69 192.33 191.38 214.78 227.69 251.79 289.84 317.69 322.87 317.60 310.76 298.96 296.17 295.91 294.92 294.39 307.57 312.50 328.03 339.25 350.28 366.33 389.57 400.99 418.87 442.23 469.42 479.73 503.10 516.88 533.83 541.55 556.50 563.97 565.80 565.56 548.48 533.86 513.55 485.68 468.62 461.30 472.23 513.15 522.76 563.11 678.04 859.17 773.17 471.30 286.49 183.65 -238.53 -2034.73 -4081.98 -4552.86 -4570.53 -4811.49 -5020.18 -5282.35 -5379.55 -5442.39 -5427.24 -5284.20 -3834.72 -2221.59 -888.24 -511.18 -443.54 -518.58 -645.68 -972.42 -1108.36 -1206.50 -1447.56 -1717.08 -1821.17 -2007.13 -2152.75 -2337.14 -2437.11 -2766.99 -3006.56 -3131.92 -3222.77 -3222.70
-4886.49 -4886.40 -4908.08 -4924.69 -4961.58 -4987.01 -5031.80 -5072.76 -5127.89 -5162.95 -5196.46 -5244.18 -5261.49 -5285.27 -5296.58 -5299.10 -5311.66 -5332.85 -5331.95 -5331.50 -5317.66 -5263.38 -5170.66 -4889.91 -4106.16 -3866.62 -2870.66 -2394.75 -1042.92 150.53 166.13 185.59 209.40 251.49 272.58 296.77 330.82 348.33 371.40 400.23 421.96 439.11 472.53 477.54 514.41 500.62 412.77 368.54 328.68 283.57 267.67 248.80 238.87 223.71 221.25 218.53 215.68 229.57 251.66 276.91 289.97 318.08 339.02 331.98 315.38 305.49 298.99 296.33 295.56 295.18 301.80 308.03 318.44 331.01 340.89 357.60 377.91 389.91 405.87 421.02 452.67 471.33 483.88 510.80 522.97 543.88 560.27 566.13 580.10 593.63 587.69 578.32 550.23 531.04 497.53 479.03 467.59 460.58 486.12 516.22 559.76 620.96 890.35 904.98 386.44 194.77 132.85 91.06 -2418.90 -4188.33 -4227.33 -4437.37 -4728.94 -4870.26 -5272.19 -5363.14 -5402.18 -5378.41 -5172.42 -3843.35 -2266.00 -742.48 -443.70 -412.26 -470.77 -632.37 -811.06 -965.52 -1100.39 -1316.73 -1635.93 -1753.64 -1912.78 -2167.65 -2323.84 -2442.32 -2562.66 -2854.15 -2994.50 -3168.73 -3168.80
-4913.95 -4913.81 -4927.97 -4960.62 -4978.69 -5003.85 -5053.45 -5089.49 -5119.72 -5165.08 -5189.79 -5226.45 -5250.68 -5269.77 -5292.32 -5306.24 -5320.59 -5330.99 -5337.17 -5264.68 -5164.61 -4904.91 -4386.68 -3869.29 -3359.45 -2597.47 -2226.25 -1621.62 -651.40 166.28 179.34 201.59 237.12 273.88 285.16 323.12 338.77 353.76 372.80 391.18 414.50 424.75 445.00 468.17 471.74 462.30 432.28 413.19 352.63 296.81 271.26 254.08 246.82 239.86 232.37 233.10 221.85 237.16 285.79 317.81 325.33 325.46 317.64 307.06 302.85 301.32 298.25 296.09 295.16 294.84 301.32 308.63 317.72 332.19 343.78 357.74 368.09 387.25 411.33 422.29 456.73 467.94 479.68 513.49 527.89 547.39 574.06 586.05 599.60 609.83 603.59 599.35 573.06 548.86 530.21 497.70 473.50 462.61 484.65 512.88 536.29 601.93 762.17 746.53 444.75 188.97 131.47 91.92 -1906.20 -4072.26 -4282.99 -4299.53 -4515.10 -4758.39 -5043.76 -5364.13 -5366.73 -5355.75 -5108.03 -3816.85 -2102.47 -649.45 -410.10 -375.27 -445.04 -557.90 -639.13 -832.92 -1164.81 -1299.84 -1468.67 -1688.69 -1911.77 -2059.28 -2224.60 -2367.65 -2557.74 -2766.20 -2874.36 -2957.68 -2957.59
-4944.06 -4943.97 -4964.49 -4987.89 -5009.02 -5052.36 -5067.15 -5106.82 -5141.43 -5178.86 -5199.88 -5225.50 -5249.14 -5272.84 -5295.54 -5298.41 -5309.21 -5302.04 -5131.68 -5073.44 -4671.09 -4204.91 -3640.55 -2806.99 -2384.25 -2026.08 -1896.56 -1487.93 -175.80 180.93 186.91 206.94 247.53 286.54 319.47 328.00 353.76 362.21 368.03 387.74 406.62 422.30 441.99 466.28 460.70 437.56 409.76 398.61 330.55 310.11 284.51 270.71 257.23 250.03 245.85 254.17 251.26 269.32 305.49 330.80 339.79 321.96 312.45 305.50 301.76 299.50 296.74 295.45 294.74 295.23 300.89 311.58 317.74 326.82 344.52 353.58 372.12 388.90 410.92 432.00 445.60 472.39 497.33 510.44 527.73 551.52 571.06 597.89 609.20 617.47 621.27 610.30 589.16 556.47 538.85 501.62 482.27 468.99 480.08 507.09 521.49 546.10 679.42 788.04 445.50 206.12 149.98 73.91 -1328.42 -3591.79 -4061.16 -4308.35 -4455.82 -4781.05 -5003.19 -5264.06 -5322.63 -5299.01 -4999.11 -3846.09 -1569.29 -821.58 -391.21 -349.64 -362.19 -537.53 -701.32 -781.40 -1018.66 -1259.77 -1481.39 -1644.64 -1896.01 -2040.31 -2215.26 -2355.53 -2547.54 -2683.27 -2809.01 -2904.13 -2904.21
-4975.05 -4974.96 -4997.13 -5012.05 -5038.33 -5077.90 -5101.36 -5131.50 -5155.49 -5187.48 -5211.58 -5237.30 -5262.74 -5278.30 -5277.12 -5262.74 -5142.89 -5014.37 -4682.99 -4120.09 -3587.87 -3337.89 -2487.52 -2063.48 -2023.78 -1841.38 -1270.28 -603.93 171.02 187.87 236.32 269.68 277.50 287.51 322.11 347.22 360.92 379.77 387.59 395.92 418.83 430.44 452.01 452.55 419.56 413.57 389.62 373.88 330.21 306.45 289.48 278.24 263.59 255.47 258.28 267.32 268.29 281.49 322.46 335.61 337.40 324.69 312.54 305.49 302.83 299.04 297.00 295.10 294.98 296.43 299.12 307.76 317.93 324.10 344.15 353.43 371.47 383.42 409.38 428.94 445.15 460.76 487.12 511.04 529.87 554.65 568.71 607.07 617.76 627.88 628.73 612.44 589.85 548.42 532.08 511.12 482.72 464.33 459.34 477.75 487.93 472.86 646.73 746.01 365.03 206.49 182.94 -630.49 -2358.57 -3795.71 -4178.27 -4312.63 -4597.79 -4893.05 -5091.78 -5242.14 -5291.83 -5229.38 -4761.32 -3785.19 -1441.46 -608.45 -319.39 -326.57 -351.96 -461.68 -600.26 -689.57 -966.81 -1337.32 -1571.76 -1599.05 -1855.37 -2118.24 -2250.73 -2384.24 -2484.32 -2662.49 -2721.88 -2791.11 -2791.10
-5006.20 -5006.21 -5021.55 -5048.41 -5076.66 -5106.53 -5127.30 -5156.42 -5173.60 -5199.54 -5222.59 -5243.27 -5247.21 -5230.15 -5206.35 -4968.58 -4673.24 -4010.15 -3522.27 -3214.66 -3085.66 -2186.01 -2025.86 -1823.94 -1801.85 -1211.29 -439.21 145.34 171.24 208.58 255.16 293.16 308.17 315.40 340.44 368.85 368.98 381.20 399.44 406.60 420.43 442.44 447.94 425.79 398.99 387.68 367.94 353.48 324.10 310.62 292.09 283.46 273.31 263.09 269.57 274.15 293.35 324.46 334.52 331.49 322.51 314.58 308.31 304.81 302.05 299.43 296.87 294.98 295.26 296.52 300.14 312.75 317.17 328.75 338.15 351.52 362.92 382.68 409.65 424.69 449.67 469.48 481.69 507.78 533.69 554.27 575.95 623.47 627.54 632.22 629.79 619.64 586.91 545.41 527.55 508.39 489.13 458.40 446.72 443.48 445.49 419.15 512.70 591.56 388.20 198.65 5.30 -932.06 -2146.93 -3679.44 -4205.90 -4402.98 -4641.23 -4905.45 -5136.72 -5212.98 -5243.57 -5189.04 -4756.28 -3136.85 -1353.24 -499.95 -313.47 -306.00 -371.07 -447.30 -529.77 -708.23 -946.86 -1288.08 -1448.61 -1627.90 -1923.64 -2149.41 -2288.70 -2360.91 -2467.64 -2562.82 -2686.05 -2765.94 -2766.01
-5039.40 -5039.31 -5062.54 -5079.46 -5095.52 -5130.55 -5157.19 -5175.53 -5197.61 -5214.66 -5216.98 -5204.35 -5168.93 -4980.66 -4584.78 -4148.74 -3488.65 -3114.07 -2607.30 -2253.50 -1927.45 -1760.26 -1755.24 -1693.99 -1418.44 -692.69 -16.06 164.67 174.87 229.34 258.16 292.52 315.43 360.18 364.38 367.52 379.60 388.62 405.96 412.45 421.81 437.56 444.71 433.98 397.92 367.32 353.51 332.52 315.77 308.70 294.09 286.31 276.31 274.43 281.20 285.25 298.61 326.31 338.72 328.10 323.22 312.49 311.11 304.82 301.41 299.95 296.46 294.85 295.43 297.68 301.94 311.63 315.10 326.26 339.05 350.70 365.95 386.70 408.22 414.55 458.37 468.82 482.24 510.03 529.06 551.61 579.78 610.70 627.45 631.68 627.36 609.04 584.51 557.52 525.12 508.09 472.96 456.86 433.06 413.10 411.59 397.26 387.53 387.12 320.01 193.43 0.89 -302.22 -1005.84 -3125.14 -4225.00 -4498.65 -4641.80 -4762.04 -5007.40 -5069.58 -5101.42 -4954.46 -4655.99 -2744.47 -1628.82 -380.04 -248.75 -247.66 -346.89 -428.64 -554.67 -753.11 -908.78 -1166.90 -1464.07 -1628.37 -1977.71 -2154.13 -2283.90 -2405.79 -2467.04 -2585.76 -2691.46 -2764.89 -2766.39
-5076.96 -5076.86 -5097.31 -5116.65 -5132.64 -5160.17 -5190.59 -5204.30 -5211.30 -5216.96 -5191.64 -5060.55 -4724.92 -4573.71 -4074.34 -3406.55 -2923.71 -2349.09 -2049.71 -1925.34 -1731.69 -1669.20 -1703.45 -1711.47 -1353.73 -248.70 68.88 166.76 205.32 239.57 271.34 303.54 345.53 368.05 410.35 389.49 393.64 408.89 407.87 419.21 423.93 432.46 451.14 434.77 400.73 361.89 334.09 320.52 306.20 297.80 293.12 285.56 281.57 288.64 290.41 294.79 307.32 325.14 330.85 334.08 331.44 316.60 311.26 305.29 301.82 299.01 296.18 295.04 295.08 297.87 301.82 309.69 318.57 328.80 337.51 349.42 368.04 384.88 405.90 419.81 445.52 459.51 481.73 506.29 527.22 553.23 568.36 603.40 626.86 630.37 625.41 606.30 575.98 565.11 515.61 503.16 474.68 459.89 440.83 410.39 376.10 362.58 350.15 327.28 268.84 180.48 156.76 73.70 -382.58 -3533.36 -4586.93 -4475.53 -4680.86 -4769.54 -4887.70 -4957.69 -5042.20 -4759.70 -4115.62 -2432.39 -696.29 -295.32 -204.12 -228.42 -301.33 -423.02 -555.98 -727.94 -916.64 -1056.82 -1321.92 -1626.78 -1863.85 -2129.19 -2273.63 -2398.06 -2524.76 -2575.72 -2708.92 -2770.33 -2770.41
-5121.75 -5121.64 -5140.89 -5154.27 -5191.51 -5216.34 -5229.82 -5239.23 -5233.74 -5232.43 -5152.17 -4885.92 -4241.22 -3523.88 -2756.48 -2600.64 -2324.98 -2182.15 -1996.60 -1864.20 -1730.25 -1674.61 -1741.06 -1726.01 -977.57 -193.93 41.57 168.83 234.69 279.65 304.73 315.77 330.31 356.81 391.04 403.97 423.69 420.08 421.97 430.32 434.28 448.79 457.28 438.39 390.68 361.69 335.95 309.05 300.45 292.71 291.45 286.31 286.84 301.35 302.86 302.06 311.00 335.48 340.73 345.66 339.35 322.24 313.11 304.62 301.98 297.42 295.37 294.72 294.87 296.39 302.47 306.80 316.36 327.57 334.97 347.37 360.31 377.80 397.32 413.78 438.14 454.38 484.01 495.75 542.01 558.76 574.90 602.10 619.28 625.93 618.01 602.46 579.90 566.21 528.91 506.01 486.68 463.25 447.91 404.04 385.17 349.23 317.52 285.63 213.62 187.20 137.46 91.67 -453.82 -2153.69 -3354.62 -4397.68 -4698.56 -4727.02 -4832.82 -4909.66 -4922.93 -4529.73 -3427.43 -1840.67 -549.54 -196.02 -178.43 -227.56 -300.82 -445.32 -567.72 -699.47 -847.11 -1039.15 -1303.59 -1502.88 -1844.27 -2059.55 -2266.42 -2470.89 -2637.79 -2715.61 -2833.37 -2871.32 -2871.48
-5180.04 -5180.60 -5197.67 -5214.18 -5240.18 -5255.32 -5287.03 -5285.57 -5240.80 -5211.38 -4993.27 -4599.13 -3485.25 -2841.53 -2312.25 -2050.80 -2069.55 -2105.02 -2036.88 -1870.93 -1773.10 -1729.38 -1729.12 -1685.09 -657.89 92.64 137.53 185.10 229.25 275.88 288.62 316.61 342.89 372.22 404.50 415.63 433.52 433.84 437.90 446.47 455.52 453.96 440.30 416.75 367.90 346.05 326.59 305.39 294.27 282.22 280.70 282.84 285.48 301.83 314.12 332.50 356.37 371.38 383.14 382.79 360.15 329.45 316.65 309.43 303.72 297.21 294.53 294.27 294.09 296.17 302.26 306.16 315.07 322.74 333.41 342.64 351.86 370.92 389.38 406.54 426.49 451.40 483.99 503.91 530.28 552.45 565.86 597.29 608.67 611.24 610.50 592.14 574.19 560.34 526.51 510.73 498.05 453.07 439.80 405.18 386.47 361.07 323.03 267.92 225.16 171.83 120.81 107.70 67.61 -344.68 -2390.95 -4341.12 -4361.17 -4571.73 -4749.25 -4796.43 -4704.73 -4116.39 -2176.78 -768.86 -248.70 -153.89 -154.34 -205.51 -269.23 -435.22 -588.87 -754.51 -880.64 -1019.09 -1385.16 -1631.87 -1903.04 -2122.44 -2302.32 -2456.54 -2650.43 -2823.71 -3002.29 -3050.09 -3050.30
-5261.05 -5260.90 -5271.31 -5261.67 -5264.25 -5269.23 -5213.77 -5175.38 -5116.36 -4673.80 -4166.82 -3652.82 -2918.24 -2008.94 -1783.37 -1684.42 -1805.04 -1924.18 -1998.03 -1765.60 -1669.48 -1681.84 -1723.59 -1596.55 -814.81 109.66 142.15 176.96 218.60 256.93 288.24 315.62 336.03 358.50 386.72 413.57 444.78 451.77 457.79 455.47 450.87 424.25 398.19 395.82 352.20 323.67 296.69 280.68 278.00 275.71 268.95 265.64 277.19 280.17 309.48 332.40 360.93 388.19 410.70 415.74 386.76 337.97 323.47 311.81 303.86 296.58 293.99 293.08 292.75 295.36 299.31 305.15 314.66 319.42 328.21 340.39 354.50 371.62 383.07 404.15 421.58 445.46 473.89 494.56 509.75 542.14 562.23 587.38 599.84 603.47 595.73 584.31 568.83 547.01 526.56 511.73 495.73 461.31 437.72 373.67 354.39 321.89 288.45 251.66 214.15 183.56 137.32 92.33 -63.00 -590.14 -1851.22 -4011.74 -4110.10 -4411.21 -4602.94 -4613.60 -4275.46 -3622.99 -1485.15 -346.94 -157.86 -98.83 -167.42 -206.46 -240.55 -364.62 -456.17 -667.59 -847.82 -1120.61 -1545.91 -1779.00 -2012.54 -2200.44 -2338.44 -2402.94 -2645.16 -2745.32 -3103.75 -3180.15 -3180.33
-5303.86 -5302.15 -5215.88 -5026.99 -4999.03 -4998.56 -4817.34 -4397.32 -4164.53 -3706.01 -3000.93 -2247.53 -2128.89 -1803.64 -1648.54 -1625.81 -1664.56 -1687.94 -1652.93 -1297.88 -1403.89 -1378.08 -1432.60 -1361.38 -957.31 -56.00 167.88 186.86 223.79 262.12 289.21 324.49 349.00 376.94 396.97 418.40 469.59 490.64 470.77 450.32 439.12 415.52 367.36 345.00 335.17 305.18 276.50 271.48 270.22 256.43 256.77 250.97 259.85 264.56 295.83 294.25 332.98 374.15 413.03 423.99 398.54 355.37 343.14 311.32 303.36 296.82 292.57 290.38 290.30 293.30 295.32 300.82 311.12 318.19 326.00 335.61 346.25 362.46 382.91 407.70 424.45 439.16 458.08 482.53 504.93 535.06 552.25 566.37 585.66 584.90 577.82 571.68 561.10 542.72 525.70 512.73 484.54 452.96 423.78 373.78 346.05 293.85 258.48 224.54 198.61 169.73 136.22 93.19 -130.87 -980.46 -1669.71 -3595.25 -3954.20 -4263.61 -4563.46 -4595.96 -3569.67 -2517.73 -721.58 -284.17 -68.90 -99.58 -153.75 -200.55 -243.33 -328.06 -484.86 -723.24 -919.43 -1231.59 -1623.28 -1953.27 -2141.37 -2224.70 -2371.53 -2474.03 -2629.33 -2805.57 -3104.18 -3428.26 -3428.59
-4802.16 -4802.67 -4407.45 -4339.78 -4206.07 -3816.88 -3594.60 -3107.85 -2637.90 -2267.18 -2211.31 -1937.19 -1770.25 -1714.77 -1705.75 -1699.85 -1665.74 -1552.19 -1399.45 -1040.46 -733.10 -690.62 -956.97 -1122.62 -642.74 148.57 178.01 191.10 223.52 262.75 291.18 326.80 363.69 396.95 417.76 455.29 499.37 511.27 492.06 461.71 433.63 405.42 356.68 327.63 308.06 278.19 276.54 262.46 256.11 250.02 247.96 247.28 251.50 260.74 275.79 279.85 295.03 341.96 390.73 405.82 399.93 378.65 353.59 320.03 304.27 296.32 289.88 288.18 288.63 289.91 292.79 302.69 311.20 319.15 329.75 338.40 350.16 366.14 380.22 399.26 422.51 439.12 457.78 471.63 506.92 534.06 544.41 555.93 566.39 569.46 566.69 563.58 554.28 542.71 528.14 514.94 471.07 435.51 405.12 358.07 318.83 271.09 234.36 205.50 175.33 159.00 133.59 -74.42 -617.37 -1263.62 -2405.82 -3035.66 -3939.81 -4306.38 -4504.57 -4604.05 -3427.87 -1686.50 -439.73 -148.18 -23.79 -75.29 -146.88 -208.48 -237.94 -288.58 -497.33 -761.31 -1106.19 -1462.01 -1588.41 -1863.75 -2094.59 -2321.69 -2466.66 -2589.43 -2817.06 -2960.48 -3230.72 -3460.90 -3461.00
-3271.53 -3273.64 -3240.05 -2925.94 -2990.37 -2395.09 -2335.38 -2069.46 -2005.12 -1823.75 -1739.01 -1724.21 -1737.07 -1749.27 -1753.96 -1774.72 -1725.40 -1574.76 -1266.50 -965.85 -360.62 -388.39 -460.78 -677.78 -62.53 153.58 177.70 200.22 225.59 251.93 276.58 304.15 326.33 362.71 412.68 469.00 517.68 531.02 520.59 505.35 470.39 417.52 345.02 320.26 290.27 273.80 266.98 257.74 251.17 245.31 245.19 244.32 244.81 249.55 259.40 269.40 271.18 308.58 338.22 376.51 390.40 369.99 339.30 314.29 307.64 298.03 288.95 287.22 286.20 287.58 289.77 296.82 307.12 314.94 328.31 337.32 351.60 370.54 381.17 400.06 418.48 443.33 466.20 479.12 498.45 527.39 537.06 547.48 551.28 558.40 552.31 545.75 537.31 535.16 525.69 475.85 452.06 400.70 361.94 353.70 318.98 276.27 234.02 185.05 164.48 150.03 124.99 -579.70 -1085.69 -1818.46 -2706.91 -3247.84 -4353.48 -4666.12 -4783.43 -4243.67 -3049.85 -1376.10 -357.59 -23.80 -17.73 -57.91 -131.95 -196.81 -229.58 -309.81 -528.15 -809.33 -1129.51 -1487.77 -1697.01 -1794.15 -2136.05 -2382.20 -2576.74 -2717.73 -2916.93 -3206.23 -3287.01 -3474.69 -3474.80
-2040.92 -2043.06 -2096.65 -2213.03 -2062.40 -1997.90 -1901.81 -1814.56 -1752.45 -1730.39 -1727.35 -1739.87 -1758.57 -1778.88 -1795.54 -1814.68 -1798.69 -1678.08 -1482.09 -1056.91 -454.21 -153.80 -199.98 -221.90 128.47 145.85 174.25 196.98 225.78 249.87 270.41 281.75 320.55 368.26 433.44 469.52 480.79 508.08 489.14 476.19 456.36 427.09 365.56 313.49 283.17 268.73 258.75 251.95 245.45 240.80 241.04 240.98 241.98 245.89 253.53 258.56 269.46 279.77 312.85 335.03 366.48 376.76 361.55 319.48 300.83 296.37 287.61 284.78 283.85 285.25 288.80 294.24 304.30 315.06 325.99 340.70 347.92 364.28 378.53 402.39 419.93 440.46 458.32 473.79 502.89 513.94 528.87 538.36 543.56 542.93 532.28 525.97 521.66 512.20 502.43 478.00 439.20 418.03 375.46 339.48 287.23 269.25 219.78 189.52 157.25 140.73 -130.39 -918.78 -1127.03 -1670.26 -2465.69 -4082.91 -5086.44 -4869.56 -4814.67 -4355.34 -2559.70 -770.56 -99.12 -11.87 -12.07 -74.60 -130.80 -209.59 -228.52 -335.87 -525.79 -841.57 -1109.97 -1361.39 -1605.65 -1975.10 -2273.55 -2479.29 -2634.06 -2807.69 -3103.23 -3255.05 -3414.68 -3491.84 -3491.96
-1781.80 -1782.30 -1827.76 -1838.96 -1830.71 -1824.72 -1824.09 -1812.63 -1773.64 -1758.69 -1760.64 -1771.19 -1790.16 -1801.20 -1824.56 -1847.08 -1816.16 -1730.69 -1573.57 -1003.38 -859.63 -393.92 -188.60 -4.58 134.34 141.32 169.84 208.62 231.18 238.01 260.69 275.51 316.04 343.78 417.11 436.21 429.03 442.53 412.97 414.40 427.05 394.63 357.02 296.18 265.27 263.67 258.36 248.50 242.24 240.69 240.12 239.61 240.83 245.24 248.74 255.38 262.41 274.51 284.66 322.70 359.71 368.33 352.57 330.67 304.10 296.76 286.60 283.00 281.75 282.58 286.69 290.43 302.52 313.30 323.08 342.67 356.33 372.92 385.39 406.45 424.60 434.51 461.28 475.46 490.39 510.73 522.82 530.09 528.60 523.15 521.32 517.60 515.19 493.87 468.05 446.97 438.68 389.48 355.84 324.99 274.50 244.70 200.44 175.91 149.64 124.76 -38.21 -784.10 -1332.55 -1531.14 -3238.93 -4425.44 -5061.87 -5129.57 -4935.76 -3865.62 -1581.91 -523.68 -56.08 6.42 -20.42 -78.67 -142.99 -198.26 -244.05 -328.83 -584.89 -817.78 -1193.88 -1433.96 -1870.02 -2169.46 -2265.62 -2469.69 -2654.45 -2742.67 -3086.38 -3291.13 -3379.77 -3463.70 -3463.70
-1820.89 -1820.55 -1836.33 -1844.41 -1856.61 -1868.66 -1863.46 -1835.09 -1814.82 -1792.58 -1788.92 -1792.82 -1807.87 -1822.43 -1836.71 -1857.63 -1831.68 -1778.22 -1532.84 -1160.79 -696.45 -436.09 -218.69 52.21 137.20 143.97 173.89 189.11 210.22 225.71 244.08 271.25 303.44 329.89 330.42 349.61 382.47 391.02 364.96 341.58 339.24 330.09 292.36 276.24 260.96 255.81 251.91 244.84 241.03 239.96 239.80 239.91 241.52 244.90 249.03 253.32 259.88 270.27 275.53 296.82 321.64 350.95 348.49 323.06 304.30 295.17 288.37 282.14 280.35 280.04 282.62 287.32 303.56 311.21 321.66 346.94 357.11 376.30 389.71 408.29 422.67 444.05 469.04 486.28 499.48 513.04 517.82 520.80 520.50 512.65 510.59 503.88 499.08 483.73 451.39 427.76 415.32 376.93 337.34 297.34 250.77 226.48 190.69 165.22 141.19 125.94 -335.31 -1172.45 -1304.21 -1710.79 -3164.69 -4028.70 -5207.99 -5277.75 -4792.08 -3534.68 -1799.23 -399.94 -58.80 11.00 -35.03 -78.37 -134.96 -186.17 -240.71 -318.79 -604.29 -794.00 -1075.39 -1570.58 -1918.27 -2210.78 -2361.76 -2470.85 -2644.76 -2799.78 -2972.00 -3188.70 -3330.92 -3478.99 -3479.17
-1863.99 -1863.66 -1868.34 -1881.36 -1883.84 -1889.72 -1886.31 -1877.30 -1845.88 -1820.54 -1827.24 -1820.92 -1826.17 -1835.49 -1854.58 -1864.17 -1844.54 -1692.25 -1474.83 -1144.69 -737.86 -445.48 -268.51 8.24 91.45 144.74 154.91 174.72 196.13 207.86 238.46 254.31 269.83 285.95 297.95 323.44 318.25 309.30 314.99 310.75 315.03 295.18 275.31 269.59 256.18 249.78 247.89 243.14 240.95 240.07 240.06 240.37 242.14 245.29 249.33 253.06 259.07 268.28 272.71 284.18 322.51 339.27 350.74 330.28 321.07 299.12 299.65 288.27 281.43 277.78 280.35 283.86 298.27 311.50 320.50 342.23 355.90 368.85 388.74 410.08 432.32 454.50 470.55 484.70 501.91 505.21 512.21 517.49 512.40 498.63 496.53 496.37 493.14 482.50 456.96 429.07 364.54 384.32 314.42 254.86 228.38 203.55 176.80 144.39 129.52 -302.66 -1153.14 -1263.18 -1419.97 -1799.30 -3116.76 -4506.79 -5064.19 -5237.57 -4728.27 -3114.83 -1463.85 -173.32 -8.83 26.44 -27.45 -70.34 -130.23 -177.07 -257.33 -336.48 -482.59 -792.04 -1113.34 -1464.36 -1779.72 -2120.53 -2297.53 -2400.34 -2619.10 -2791.71 -2939.61 -3157.08 -3297.85 -3495.37 -3495.55
-1889.89 -1890.13 -1895.86 -1902.23 -1911.07 -1910.99 -1908.25 -1898.18 -1863.88 -1843.35 -1870.23 -1879.15 -1875.30 -1876.52 -1874.51 -1862.83 -1801.32 -1643.31 -1412.81 -1049.41 -502.54 -329.08 -233.85 -203.05 -67.83 99.89 147.99 166.81 177.52 194.46 232.28 232.92 242.39 261.83 293.95 315.61 287.50 293.76 296.59 291.24 287.73 273.46 267.00 261.11 248.62 247.31 244.39 241.15 240.49 240.88 241.72 242.62 244.17 247.53 249.97 252.41 258.53 263.24 275.28 290.62 334.50 358.20 375.91 351.40 343.73 335.57 322.50 298.11 278.33 273.95 278.75 282.07 296.55 311.68 323.59 341.15 353.34 366.66 388.09 405.13 432.43 451.31 466.63 478.71 494.49 503.47 506.54 501.96 498.52 494.40 485.39 477.32 474.47 457.63 433.52 397.32 371.94 347.87 257.71 221.23 205.83 175.26 166.73 135.37 88.83 -678.28 -1132.01 -1186.00 -1264.90 -1810.51 -2947.38 -4681.02 -5153.66 -5174.99 -4976.22 -3910.22 -890.22 -422.56 -8.43 46.25 -16.66 -77.17 -138.57 -191.22 -264.88 -393.93 -596.02 -936.76 -1256.51 -1432.83 -1575.34 -1907.42 -2171.85 -2453.56 -2562.99 -2722.47 -2911.10 -3126.91 -3304.25 -3506.45 -3506.46
-1902.71 -1902.65 -1908.42 -1917.77 -1922.53 -1928.97 -1932.45 -1935.64 -1937.92 -1933.99 -1914.60 -1910.50 -1906.15 -1919.40 -1906.21 -1857.59 -1773.31 -1583.23 -1173.61 -746.20 -428.36 -241.48 -224.75 -230.99 -180.60 61.45 122.62 150.30 158.49 177.64 187.43 208.58 224.96 235.58 262.39 264.20 263.76 276.99 275.49 265.67 267.58 265.22 255.15 248.52 246.41 243.17 241.92 240.93 240.75 242.89 243.65 245.57 246.69 247.94 251.01 253.01 257.83 262.28 270.85 293.91 332.26 344.69 349.98 349.81 336.58 322.51 314.81 286.47 273.75 267.78 275.24 279.20 297.78 305.60 319.42 341.27 351.82 368.26 386.04 415.86 433.49 454.01 465.15 481.87 493.07 498.74 500.56 491.28 489.80 479.55 470.51 469.25 455.36 434.47 400.64 342.85 314.87 302.09 245.64 225.42 170.16 157.95 133.74 26.00 -459.45 -1028.98 -1097.22 -1124.98 -1230.15 -1830.02 -2532.46 -5002.25 -5146.14 -5287.29 -5124.74 -3945.81 -2074.88 -945.61 -205.47 -27.36 -49.53 -81.25 -152.11 -208.73 -282.57 -384.32 -636.67 -896.98 -1220.06 -1371.07 -1656.33 -1857.96 -2146.72 -2423.61 -2554.14 -2678.04 -2853.61 -3174.63 -3357.72 -3527.50 -3527.25
-1915.61 -1915.55 -1922.13 -1931.96 -1934.42 -1938.99 -1937.72 -1950.74 -1959.25 -1960.94 -1961.74 -1962.99 -1963.18 -1950.91 -1922.88 -1860.96 -1757.17 -1522.44 -992.54 -702.65 -425.17 -236.89 -203.79 -235.86 -223.80 -18.90 82.74 118.83 142.79 167.55 169.31 188.79 212.59 221.31 245.61 252.84 242.62 247.03 243.91 240.88 241.26 242.79 247.52 239.64 239.91 236.21 238.00 240.71 242.38 245.02 246.52 247.49 249.46 251.47 253.25 253.76 257.36 259.92 267.32 287.10 299.48 316.59 318.18 301.23 291.18 279.91 267.79 267.19 264.34 261.85 267.68 276.62 294.24 303.92 313.05 338.42 353.95 373.23 389.11 403.11 431.53 443.96 465.42 475.02 493.55 494.17 493.41 490.13 480.43 472.79 461.07 448.13 430.47 417.28 391.93 331.08 293.08 253.02 235.62 195.03 152.69 134.80 -24.89 -465.13 -658.80 -995.70 -1055.57 -1119.21 -1321.70 -2040.34 -3232.76 -4908.35 -5280.00 -5304.15 -5200.12 -4483.83 -3204.10 -1643.07 -1096.16 -56.13 -101.72 -113.69 -163.35 -223.61 -270.16 -422.48 -663.86 -956.61 -1172.43 -1423.86 -1720.59 -1977.26 -2142.57 -2364.84 -2535.00 -2749.74 -3046.94 -3384.58 -3558.56 -3651.95 -3651.74
-1931.91 -1931.85 -1940.72 -1952.75 -1953.92 -1949.89 -1934.61 -1928.16 -1950.06 -1926.73 -1952.40 -1968.12 -1975.90 -1964.17 -1950.83 -1873.74 -1736.89 -1574.16 -1092.87 -759.02 -488.63 -293.00 -228.03 -216.27 -229.98 -136.25 -85.91 115.02 125.39 136.04 155.70 165.20 193.90 198.85 209.60 219.19 225.38 229.35 233.18 231.53 222.92 221.01 223.46 229.68 230.69 226.68 233.79 240.18 243.05 247.35 248.86 253.23 254.55 254.66 257.23 258.13 260.24 264.16 274.71 274.01 265.48 262.56 266.62 263.60 265.17 259.37 262.91 253.95 250.67 254.43 261.58 270.43 283.82 299.18 313.78 329.07 346.48 364.21 382.17 410.52 432.40 450.50 465.70 477.90 493.33 493.64 491.72 488.01 472.05 461.83 452.07 426.96 414.98 408.29 381.29 323.04 280.80 241.09 211.45 166.63 133.24 120.24 -124.87 -700.87 -869.18 -974.15 -1030.38 -1177.53 -1337.03 -2497.75 -3847.16 -4749.12 -5285.59 -5323.05 -5317.56 -5095.89 -4514.31 -2627.98 -1564.98 -683.41 -166.00 -147.08 -180.22 -244.96 -333.50 -505.48 -814.45 -1111.79 -1254.25 -1514.17 -1829.53 -1993.88 -2221.45 -2416.78 -2564.81 -2829.48 -3121.13 -3424.78 -3691.67 -3808.32 -3808.38
-1950.07 -1950.01 -1962.67 -1964.98 -1935.08 -1957.14 -1958.64 -1951.38 -1959.96 -1961.28 -1970.36 -1926.59 -1888.76 -1935.90 -1929.98 -1887.56 -1799.06 -1685.86 -1367.01 -1097.47 -652.64 -447.56 -322.31 -247.57 -250.48 -255.97 -128.79 -54.19 63.48 129.42 137.08 157.87 178.93 186.99 200.94 196.49 207.82 205.85 221.67 213.71 208.25 213.42 217.17 214.29 221.21 219.38 223.82 234.10 242.33 246.87 252.76 255.45 256.59 258.05 261.27 264.14 263.69 275.77 279.04 266.60 248.22 243.56 252.74 254.36 246.11 244.68 246.50 247.94 242.82 248.10 259.82 267.03 274.73 298.58 307.69 323.25 340.77 356.06 371.33 406.53 438.44 448.23 459.67 481.28 496.68 496.04 493.14 486.87 473.79 449.09 441.55 410.26 368.13 351.05 351.68 289.94 247.58 215.58 195.52 165.19 131.88 61.18 -325.85 -882.22 -932.70 -956.78 -1036.19 -1228.89 -1342.02 -2379.00 -3841.42 -5049.23 -5274.68 -5334.21 -5349.96 -5284.76 -5109.89 -4403.46 -2672.23 -1570.46 -388.99 -216.73 -201.05 -239.69 -420.09 -679.57 -796.67 -1291.24 -1380.42 -1565.14 -1874.42 -2119.79 -2312.55 -2407.22 -2531.20 -2768.84 -3115.99 -3404.98 -3702.20 -3818.00 -3818.25
-1974.86 -1976.91 -1988.12 -1940.56 -1926.27 -1986.35 -1989.89 -1990.90 -2011.02 -2003.42 -1988.91 -1973.53 -1945.07 -1955.10 -1920.54 -1896.87 -1825.40 -1707.86 -1495.23 -1279.76 -1044.14 -704.68 -485.07 -298.73 -240.58 -233.51 -227.96 -218.36 -148.03 71.55 129.69 138.79 166.59 171.73 172.54 175.30 186.03 180.11 177.12 188.97 191.76 193.50 198.91 199.40 205.43 209.85 227.84 232.31 242.31 249.32 254.62 259.22 259.96 262.00 263.28 271.06 275.24 282.82 276.45 254.96 234.85 233.78 236.05 236.06 235.64 231.25 232.88 234.72 239.07 242.01 250.30 260.13 271.86 286.74 303.36 320.40 339.05 352.56 376.73 398.36 425.28 444.22 463.23 489.57 501.37 502.50 496.33 490.21 477.04 447.30 428.81 383.20 342.72 333.38 300.93 259.16 226.27 191.13 157.19 107.83 85.38 -40.71 -281.86 -799.25 -956.18 -977.64 -1093.29 -1261.36 -1491.67 -2558.04 -4190.99 -4988.14 -5290.79 -5337.42 -5365.66 -5370.81 -5208.41 -4852.26 -3353.71 -1652.17 -494.06 -225.43 -223.34 -276.78 -390.39 -625.30 -845.66 -1245.15 -1558.27 -1806.75 -1965.94 -2109.52 -2278.08 -2377.95 -2482.44 -2699.25 -3041.75 -3259.63 -3560.44 -3678.51 -3678.60
-2018.71 -2018.67 -2007.42 -2007.58 -2009.44 -2016.59 -2045.58 -2023.23 -2011.34 -2003.68 -2000.90 -1991.09 -1974.17 -1956.56 -1926.90 -1914.29 -1871.35 -1830.07 -1695.55 -1596.97 -1281.54 -905.40 -640.27 -396.85 -251.46 -210.67 -230.94 -239.83 -264.75 -56.51 91.30 131.55 139.39 158.20 164.03 167.68 170.38 169.34 167.80 168.98 171.81 176.67 179.74 188.38 200.28 206.81 223.87 234.53 238.80 252.83 259.02 266.24 270.12 282.70 298.01 303.96 290.32 273.99 258.26 242.29 234.51 228.61 224.16 220.88 221.67 222.63 226.46 229.06 232.81 234.67 242.95 254.50 267.64 272.03 296.59 317.02 332.33 353.70 370.50 395.91 419.63 442.78 470.40 494.26 503.32 507.39 501.67 493.08 472.66 433.87 411.06 371.95 342.44 292.78 267.70 236.94 203.68 174.23 133.36 11.45 -156.35 -417.56 -797.57 -964.75 -1015.30 -1051.45 -1169.16 -1346.75 -1961.51 -2911.12 -4508.97 -5112.01 -5314.38 -5341.09 -5368.41 -5397.60 -5335.89 -5042.33 -3436.18 -2151.21 -561.62 -263.53 -250.60 -336.99 -474.35 -762.27 -1112.33 -1364.68 -1689.42 -1880.69 -2016.80 -2126.78 -2311.59 -2385.18 -2500.09 -2699.24 -2995.79 -3279.26 -3449.30 -3673.17 -3673.26
-2073.78 -2076.31 -2066.73 -2032.97 -2061.29 -2078.57 -2078.81 -2044.13 -2022.02 -1987.10 -1988.11 -1983.98 -1963.00 -1952.04 -1931.82 -1874.93 -1880.83 -1857.13 -1806.48 -1629.66 -1522.81 -1182.12 -639.58 -447.58 -249.73 -190.81 -195.21 -203.06 -227.33 -112.73 19.03 35.49 130.17 141.76 140.73 139.69 152.16 155.24 148.99 149.53 150.76 158.03 168.85 176.68 192.16 202.97 215.87 231.74 242.53 254.05 258.15 270.05 280.20 288.66 314.25 332.14 307.49 275.96 253.60 242.72 232.16 223.36 219.06 215.84 215.72 217.68 221.21 220.72 227.90 229.26 235.17 244.71 258.88 264.62 284.82 308.55 326.75 354.67 369.80 393.52 412.74 445.98 459.42 493.26 507.58 511.71 500.04 474.33 450.05 402.28 364.84 335.92 318.21 278.67 234.56 215.35 153.57 130.63 95.43 -66.52 -442.93 -774.00 -989.38 -979.86 -1015.42 -1089.80 -1224.67 -1354.20 -1650.06 -3041.10 -4893.92 -5212.15 -5338.58 -5346.95 -5374.58 -5422.90 -5356.68 -5137.67 -3574.91 -2083.71 -686.66 -270.80 -272.94 -390.65 -646.38 -898.07 -1010.10 -1357.92 -1672.09 -1892.44 -2071.09 -2197.34 -2301.54 -2436.80 -2580.36 -2775.15 -2903.88 -3372.70 -3546.27 -3695.11 -3695.01
-2112.42 -2112.36 -2100.91 -2087.22 -2131.71 -2134.93 -2117.85 -2094.45 -2019.20 -1981.61 -1973.45 -1966.26 -1953.59 -1944.44 -1926.72 -1852.29 -1859.93 -1880.32 -1859.18 -1762.73 -1642.22 -1265.40 -864.94 -562.96 -293.60 -200.94 -179.89 -183.12 -194.23 -157.07 -132.78 -139.75 -79.53 -5.12 99.54 39.71 28.84 98.75 108.75 137.60 134.07 137.50 141.39 159.31 177.78 188.15 205.09 222.45 237.01 252.56 261.90 278.78 292.93 312.22 337.41 353.86 307.41 264.19 253.36 242.03 230.14 220.69 214.81 208.55 208.40 209.89 212.59 218.73 216.92 221.90 228.93 241.45 248.87 268.01 285.26 304.88 324.50 356.26 369.20 399.44 418.64 440.72 460.01 493.15 509.77 506.40 482.72 476.08 418.71 368.05 336.56 378.90 290.09 230.94 194.99 183.91 136.26 98.17 70.13 -357.00 -972.90 -994.27 -965.52 -1018.55 -1095.29 -1143.51 -1242.54 -1290.80 -2079.34 -3278.89 -4639.14 -5351.63 -5361.80 -5364.34 -5387.09 -5424.29 -5357.57 -4985.12 -3170.43 -1795.35 -508.91 -269.10 -308.69 -470.24 -620.81 -891.66 -1307.27 -1458.27 -1802.35 -2020.14 -2146.25 -2255.80 -2333.68 -2447.70 -2550.57 -2740.49 -3078.60 -3450.69 -3664.23 -3904.75 -3904.85
-2124.44 -2124.32 -2121.25 -2134.30 -2141.24 -2136.92 -2124.04 -2089.51 -2028.58 -1974.31 -1966.96 -1966.75 -1960.16 -1957.85 -1935.39 -1877.88 -1851.68 -1876.75 -1854.43 -1817.82 -1595.75 -1314.90 -886.79 -542.11 -269.51 -226.14 -199.93 -228.29 -237.64 -237.90 -230.43 -199.58 -231.07 -182.63 -109.45 -129.57 -147.23 -99.36 -42.48 -34.28 67.93 123.48 127.84 138.07 165.99 185.41 193.79 200.42 231.63 253.46 270.02 289.14 307.02 343.41 351.64 331.30 289.80 271.39 247.24 238.80 225.30 221.05 209.92 206.18 206.58 206.24 207.07 207.88 209.71 212.69 222.96 231.46 244.06 263.01 283.41 295.99 320.74 342.61 359.69 392.57 422.81 443.18 467.87 491.58 496.95 488.12 463.48 405.50 397.12 350.43 314.73 343.67 266.67 186.48 157.42 132.84 110.88 83.05 -177.57 -795.31 -1099.43 -1020.96 -1004.30 -1034.15 -1129.44 -1176.01 -1244.12 -1531.78 -2272.44 -3174.04 -4423.93 -5199.82 -5366.79 -5373.26 -5393.54 -5400.15 -5188.82 -4732.37 -2765.84 -1669.23 -364.49 -309.68 -372.77 -571.01 -778.07 -1005.10 -1447.99 -1804.03 -1943.48 -2117.28 -2194.36 -2324.17 -2398.19 -2426.75 -2560.05 -2791.84 -3119.03 -3462.39 -3785.16 -3885.11 -3890.44
-2078.82 -2078.76 -2086.62 -2117.21 -2160.94 -2157.07 -2137.05 -2094.19 -2032.05 -1984.61 -1974.06 -1980.00 -1981.98 -1975.91 -1946.79 -1917.08 -1872.41 -1887.39 -1865.76 -1794.12 -1528.34 -1345.20 -891.03 -537.87 -355.63 -375.04 -487.71 -411.83 -397.70 -421.56 -353.94 -328.81 -393.03 -225.24 -223.10 -180.99 -181.77 -211.43 -226.73 -178.43 -26.75 113.04 119.46 127.71 149.38 162.31 182.67 204.61 238.51 255.93 270.31 290.47 336.37 368.54 347.92 310.83 272.34 259.88 250.42 235.02 220.49 218.25 208.30 199.13 198.80 200.17 204.18 202.48 203.93 204.02 213.69 221.71 237.18 252.00 276.76 290.36 318.95 333.19 356.06 393.23 418.03 445.23 463.75 473.13 490.64 484.37 464.88 431.35 397.90 360.22 377.14 264.35 223.91 163.04 129.30 121.97 85.93 -69.07 -468.26 -1084.08 -1096.14 -1051.63 -1033.46 -1075.83 -1120.97 -1206.10 -1300.41 -1766.54 -2813.08 -3898.77 -4575.68 -5277.40 -5370.89 -5374.47 -5392.42 -5405.55 -5285.21 -4359.43 -2598.97 -1193.77 -406.32 -316.99 -498.91 -653.96 -1040.17 -1406.81 -1757.25 -2008.14 -2071.30 -2228.81 -2263.81 -2334.41 -2407.88 -2453.48 -2536.65 -2657.90 -2963.29 -3471.66 -3858.91 -3968.83 -3968.91
-2100.89 -2108.10 -2129.31 -2136.79 -2163.43 -2173.95 -2149.55 -2107.40 -2049.05 -2012.85 -1995.41 -1993.87 -2000.84 -1982.96 -1959.21 -1938.70 -1913.01 -1921.51 -1872.71 -1770.74 -1567.06 -1251.38 -928.76 -708.89 -666.33 -665.90 -672.50 -735.83 -828.76 -753.18 -783.14 -797.11 -769.77 -645.17 -391.41 -232.07 -201.87 -200.98 -199.36 -182.44 -106.27 -28.89 75.28 110.10 148.15 158.74 178.33 199.68 256.68 269.26 288.59 300.49 322.08 362.88 347.63 308.06 281.33 258.00 249.26 229.78 219.97 213.95 201.61 196.52 194.58 194.13 192.99 194.61 198.28 197.57 204.42 216.31 228.49 243.39 270.77 285.76 312.27 330.85 349.86 374.20 403.39 439.34 455.99 466.37 481.51 474.04 452.82 428.95 383.61 336.37 422.02 353.68 216.05 142.07 122.82 102.99 -47.62 -483.02 -983.71 -1178.21 -1063.79 -1052.44 -1082.46 -1077.20 -1144.42 -1237.30 -1325.66 -1935.64 -2754.41 -4438.72 -5133.14 -5361.50 -5364.96 -5378.85 -5413.91 -5398.86 -5067.72 -4693.56 -2042.06 -546.97 -303.28 -336.84 -436.86 -679.83 -1131.28 -1685.62 -1902.69 -2107.43 -2152.37 -2228.05 -2294.03 -2330.74 -2370.12 -2448.96 -2585.04 -2739.38 -3107.60 -3418.70 -3781.91 -3914.81 -3915.04
-2115.61 -2115.51 -2096.35 -2109.62 -2145.08 -2144.85 -2140.01 -2104.04 -2064.67 -2037.50 -2043.36 -2022.96 -2024.84 -2014.45 -1982.48 -1924.21 -1883.56 -1924.43 -1916.37 -1818.37 -1676.46 -1354.68 -1136.52 -1015.77 -972.82 -1042.34 -1097.53 -1174.76 -1188.63 -1329.39 -1292.31 -1168.85 -1296.60 -1093.27 -540.67 -267.36 -224.88 -209.16 -196.49 -165.35 -173.35 -154.35 -104.74 16.29 124.86 157.80 177.59 201.13 235.69 259.06 296.59 327.59 359.35 333.38 333.46 304.65 277.41 260.28 240.87 222.19 219.08 204.25 197.73 193.16 190.58 189.85 187.45 190.61 190.64 190.15 200.72 211.39 217.23 233.89 255.78 271.34 299.48 321.99 346.05 364.97 394.82 413.02 443.29 451.70 449.68 448.59 439.46 403.29 366.59 340.48 310.93 240.60 204.96 122.96 117.07 88.40 -280.85 -604.20 -1176.99 -1112.20 -1047.72 -1075.88 -1117.44 -1130.01 -1224.02 -1383.21 -1761.36 -2531.45 -3508.83 -4651.76 -5223.01 -5291.61 -5366.68 -5397.16 -5420.52 -5334.84 -5043.59 -3859.30 -1602.98 -551.96 -282.43 -316.19 -529.05 -728.12 -1111.12 -1629.01 -1797.45 -2066.13 -2196.27 -2257.61 -2304.98 -2328.62 -2419.78 -2489.55 -2678.46 -2793.60 -3133.13 -3338.39 -3608.40 -3698.73 -3698.81
-2074.24 -2074.20 -2085.64 -2102.71 -2125.40 -2133.06 -2127.00 -2108.05 -2081.28 -2077.90 -2085.60 -2054.65 -2047.75 -2034.76 -1995.00 -1951.40 -1931.86 -1973.02 -1951.37 -1863.20 -1765.07 -1628.76 -1519.91 -1480.78 -1450.66 -1661.04 -1699.89 -1705.94 -1791.92 -1757.35 -1796.15 -1792.15 -1741.42 -1297.88 -804.85 -410.97 -252.80 -235.52 -234.52 -236.20 -226.94 -194.61 -160.56 12.80 102.63 149.10 174.40 190.19 226.49 233.50 276.57 315.49 338.28 300.34 282.62 268.79 244.23 242.06 230.98 214.57 207.05 197.03 193.05 188.60 187.52 183.97 183.43 181.41 183.24 185.52 190.78 199.42 212.08 235.78 242.98 266.65 286.63 317.66 345.01 367.19 387.59 404.04 427.26 430.55 423.79 424.53 405.07 396.94 349.99 308.61 285.58 233.01 194.74 134.87 85.50 -32.59 -629.29 -980.54 -1102.86 -1048.10 -1060.35 -1132.31 -1205.99 -1262.13 -1394.61 -1835.55 -2161.05 -3320.93 -4399.66 -4945.26 -5202.77 -5309.72 -5381.99 -5407.00 -5430.24 -5330.34 -4952.98 -3251.45 -1498.98 -517.24 -249.12 -302.70 -540.44 -986.39 -1242.83 -1580.54 -1870.94 -2051.84 -2212.84 -2286.87 -2321.60 -2349.59 -2419.07 -2499.39 -2666.28 -2900.16 -3082.72 -3303.63 -3481.63 -3690.53 -3690.61
-2107.51 -2107.44 -2084.90 -2073.15 -2104.39 -2123.48 -2126.81 -2113.11 -2107.75 -2094.93 -2095.36 -2087.89 -2078.26 -2066.52 -2029.32 -2006.41 -1998.95 -1996.81 -1975.43 -1958.56 -1919.94 -1846.73 -1819.31 -1798.74 -1841.42 -1882.19 -1933.71 -1942.54 -2045.74 -2076.82 -2120.03 -2076.83 -1986.97 -1866.21 -1526.19 -845.36 -351.59 -263.19 -287.84 -274.81 -273.18 -235.77 -193.76 -180.31 114.29 146.58 165.27 190.49 232.86 235.27 279.85 303.28 284.64 266.46 261.44 242.17 228.81 220.93 214.69 201.04 197.81 192.57 187.71 184.33 181.26 179.55 179.82 177.58 177.18 181.27 186.70 193.98 209.13 223.86 230.55 268.73 282.38 313.61 341.04 364.20 379.99 397.08 409.62 408.16 394.05 376.93 384.11 356.59 341.32 313.50 262.92 194.20 177.00 134.75 -5.20 -445.76 -1157.08 -1126.43 -1072.38 -1071.59 -1160.31 -1447.97 -1468.58 -1886.67 -2093.47 -2385.52 -3713.04 -4222.53 -4894.56 -5179.38 -5317.95 -5344.29 -5402.27 -5430.26 -5435.69 -5303.52 -4402.66 -3602.76 -1677.73 -545.05 -300.93 -464.60 -647.18 -1081.52 -1353.36 -1652.47 -1868.83 -2059.35 -2228.49 -2305.96 -2323.43 -2358.94 -2410.53 -2473.02 -2628.88 -2832.89 -3072.42 -3313.26 -3476.40 -3682.91 -3682.98
-2114.34 -2114.28 -2102.92 -2072.64 -2072.40 -2106.82 -2128.78 -2125.97 -2122.62 -2113.86 -2114.20 -2087.19 -2073.14 -2050.77 -2064.78 -2053.20 -2029.99 -2022.45 -2018.42 -1996.45 -2019.67 -2041.85 -2022.12 -2034.56 -2052.24 -2079.37 -2084.47 -2133.83 -2148.91 -2192.43 -2203.44 -2172.95 -2152.60 -1992.70 -1609.10 -1128.53 -619.24 -446.35 -380.40 -342.57 -315.71 -279.40 -234.10 -215.96 96.83 141.22 145.86 180.47 208.64 222.69 266.31 282.33 253.33 245.03 254.04 230.82 212.36 206.38 195.06 184.06 185.74 183.56 182.54 177.79 176.07 174.45 173.01 169.78 171.91 176.57 183.40 188.94 209.08 217.71 228.15 258.87 279.32 295.62 327.81 356.20 376.08 392.80 397.30 400.08 388.51 355.49 340.10 332.20 303.74 279.65 229.19 187.47 161.52 125.46 -156.59 -564.54 -1050.93 -1110.75 -1110.10 -1223.14 -1602.94 -1829.21 -1995.32 -2450.46 -3005.57 -3711.08 -4372.84 -4986.37 -5297.36 -5392.36 -5381.79 -5394.40 -5435.54 -5446.97 -5427.17 -5359.83 -4717.69 -2591.89 -1464.75 -401.03 -392.59 -535.73 -690.84 -1111.82 -1459.99 -1699.04 -2058.34 -2183.22 -2245.25 -2283.31 -2316.94 -2353.90 -2421.14 -2499.49 -2594.79 -2820.25 -3089.89 -3390.24 -3599.31 -3744.01 -3743.89
-2125.02 -2124.96 -2131.44 -2117.90 -2106.46 -2097.87 -2116.62 -2125.52 -2117.40 -2123.34 -2111.87 -2062.70 -2063.35 -2038.20 -2084.67 -2071.80 -2058.45 -2043.86 -2036.33 -2047.17 -2052.79 -2072.30 -2091.89 -2128.08 -2125.74 -2155.19 -2172.85 -2184.55 -2211.79 -2238.94 -2215.39 -2194.79 -2200.29 -2086.94 -1728.82 -1455.54 -1002.15 -654.99 -486.05 -419.77 -435.42 -316.01 -249.26 -193.82 -27.19 124.68 143.01 173.96 213.67 219.09 262.04 256.12 227.73 224.33 212.84 206.01 203.35 190.04 178.28 175.75 175.22 174.26 175.91 172.91 168.08 167.72 165.47 167.57 167.08 170.81 177.31 187.17 195.49 213.18 227.31 243.21 275.64 294.55 328.37 341.18 368.22 381.60 386.17 377.50 371.11 338.78 318.73 293.78 261.44 241.12 196.82 173.72 147.29 -49.27 -574.98 -813.69 -1031.90 -1215.28 -1482.33 -1919.68 -3056.48 -2885.99 -3331.91 -4017.40 -4377.63 -4818.97 -5040.88 -5416.84 -5408.41 -5523.85 -5560.98 -5519.10 -5432.17 -5394.45 -5309.41 -5095.57 -4081.67 -2458.87 -868.60 -434.21 -428.04 -615.50 -871.44 -1135.04 -1499.64 -1770.69 -2120.99 -2208.89 -2246.85 -2268.77 -2307.82 -2353.15 -2409.85 -2508.15 -2668.44 -3021.75 -3252.32 -3547.44 -3763.19 -3986.59 -3986.66
-2136.24 -2136.18 -2141.84 -2146.14 -2151.82 -2126.10 -2129.09 -2125.68 -2111.71 -2127.29 -2129.80 -2088.61 -2090.11 -2130.69 -2129.80 -2112.36 -2094.85 -2086.11 -2083.49 -2071.95 -2098.83 -2119.02 -2149.01 -2168.13 -2167.16 -2183.86 -2188.21 -2205.41 -2231.13 -2245.04 -2213.38 -2196.44 -2204.42 -2168.02 -1945.11 -1647.50 -1074.95 -816.42 -555.93 -463.61 -408.91 -317.98 -270.25 -229.41 -61.79 57.25 122.72 158.84 180.91 197.56 233.73 236.12 189.21 198.93 194.94 181.44 177.99 171.05 169.71 164.52 163.54 162.74 162.24 160.34 159.38 161.14 163.06 164.00 164.89 165.77 170.96 179.90 188.69 207.79 229.45 244.13 274.18 298.76 312.99 336.52 353.78 367.72 366.92 361.40 341.98 330.08 304.64 273.90 225.35 203.03 172.97 150.48 -120.96 -537.72 -1021.43 -1042.55 -1243.35 -1665.64 -2165.10 -2926.60 -3940.59 -4576.15 -4757.38 -4982.55 -5078.88 -5273.95 -5436.43 -5568.89 -5064.27 -4904.92 -5312.64 -5058.25 -5076.59 -4795.70 -4633.46 -4001.63 -3656.43 -1854.33 -652.29 -460.91 -529.79 -859.56 -1194.04 -1418.42 -1728.15 -1994.53 -2201.97 -2234.25 -2251.52 -2263.79 -2323.74 -2378.10 -2421.33 -2512.07 -2778.01 -3105.53 -3571.85 -3797.22 -3923.23 -4016.69 -4016.67
-2147.28 -2147.23 -2149.25 -2155.65 -2160.35 -2163.80 -2167.69 -2159.16 -2132.16 -2165.04 -2181.63 -2169.89 -2174.47 -2154.90 -2170.78 -2162.41 -2148.42 -2152.08 -2136.84 -2141.52 -2152.22 -2157.12 -2172.65 -2181.82 -2184.55 -2192.67 -2197.04 -2210.60 -2228.18 -2221.49 -2213.95 -2197.70 -2161.45 -2124.75 -2039.15 -1751.24 -1335.77 -836.87 -623.31 -477.35 -423.71 -335.39 -261.56 -203.97 -129.86 43.63 136.16 139.89 159.70 175.58 185.94 185.23 154.65 162.74 154.80 155.66 158.71 160.24 154.58 149.58 151.34 150.57 151.59 152.61 153.45 159.20 160.83 159.95 160.05 162.53 168.53 176.18 190.68 208.39 222.15 245.09 262.13 291.74 307.45 337.35 349.56 356.37 358.43 351.15 337.46 319.15 281.22 299.51 201.30 166.24 135.39 126.77 -225.75 -657.67 -1141.57 -1282.93 -1853.18 -2809.14 -3476.13 -4664.12 -4940.70 -5118.55 -5309.99 -5392.12 -5503.51 -5613.36 -5650.15 -5772.36 -4742.13 -3016.81 -2541.14 -2017.96 -3110.08 -2260.68 -2038.69 -2106.61 -1441.73 -818.98 -520.10 -422.10 -603.81 -990.27 -1250.15 -1606.35 -1865.14 -2113.52 -2200.07 -2226.24 -2250.68 -2267.17 -2329.55 -2391.62 -2532.47 -2570.42 -2754.43 -3330.54 -3573.60 -3885.06 -4055.69 -4125.44 -4125.49
-2160.01 -2161.35 -2163.22 -2163.64 -2167.01 -2171.07 -2178.88 -2173.76 -2194.55 -2220.84 -2212.91 -2215.43 -2210.77 -2224.12 -2224.79 -2230.37 -2221.83 -2241.17 -2229.19 -2230.88 -2227.75 -2198.72 -2196.34 -2189.66 -2193.53 -2194.67 -2200.98 -2207.12 -2221.88 -2218.17 -2210.32 -2191.01 -2161.04 -2137.81 -2067.66 -1848.74 -1464.73 -1079.17 -705.14 -515.34 -433.25 -325.26 -275.84 -189.29 -134.55 35.63 100.77 125.99 147.08 146.79 162.36 144.47 145.33 147.05 146.86 144.34 144.71 147.43 136.87 142.70 140.88 144.97 146.12 144.37 145.04 152.44 154.93 154.96 157.57 161.86 168.30 176.64 191.84 204.51 221.67 245.63 263.09 283.15 304.56 320.59 334.95 343.61 349.12 341.37 327.74 297.29 265.44 229.43 182.30 167.88 123.92 91.66 -499.26 -1007.16 -1489.84 -1807.51 -3000.38 -3674.05 -4559.44 -4766.40 -5257.60 -5348.40 -5468.18 -5658.16 -5234.02 -4892.41 -3954.34 -3109.63 -2454.95 -454.58 -189.79 -199.77 122.71 112.99 -77.07 -871.99 -554.83 -482.07 -439.02 -504.52 -719.74 -1167.36 -1438.75 -1710.16 -1911.55 -2093.88 -2181.08 -2208.10 -2230.35 -2258.49 -2320.72 -2445.75 -2619.81 -2682.68 -2932.65 -3220.96 -3748.57 -3990.83 -4121.61 -4155.71 -4155.03
-2173.22 -2173.16 -2171.71 -2175.98 -2179.81 -2180.27 -2190.92 -2208.09 -2229.09 -2238.58 -2246.76 -2245.83 -2247.69 -2251.88 -2260.63 -2253.98 -2243.07 -2269.07 -2258.20 -2247.36 -2251.67 -2234.20 -2227.34 -2210.74 -2210.04 -2208.02 -2217.59 -2222.38 -2227.16 -2226.74 -2208.78 -2185.92 -2154.16 -2091.75 -1972.09 -1713.78 -1558.95 -1220.52 -786.21 -562.75 -464.06 -328.96 -315.51 -211.35 -168.32 -109.16 2.46 54.95 122.86 111.03 119.65 135.74 136.08 114.42 86.38 87.79 106.48 132.91 108.21 46.36 99.63 129.91 136.13 138.08 140.17 146.81 153.26 153.90 156.52 160.80 168.94 173.42 188.94 202.03 212.27 240.79 257.48 274.09 293.48 308.18 328.55 333.06 338.02 333.75 327.91 298.32 288.27 216.64 167.31 142.88 105.37 61.82 -1177.37 -1329.99 -2051.02 -2627.43 -4147.81 -4547.34 -4858.91 -5100.16 -5333.18 -5475.73 -5612.49 -4799.26 -3216.70 -2603.80 -1596.41 -468.62 130.86 147.81 146.66 159.03 142.51 145.90 132.14 6.72 -233.17 -401.15 -532.37 -653.29 -1011.09 -1241.88 -1638.62 -1899.66 -2010.99 -2146.49 -2184.79 -2197.96 -2206.04 -2238.67 -2323.60 -2471.53 -2679.30 -2725.57 -3041.17 -3416.29 -3856.36 -4065.74 -4157.61 -4174.32 -4174.39
-2185.07 -2185.01 -2185.47 -2187.52 -2193.86 -2192.36 -2200.50 -2220.57 -2244.10 -2261.84 -2261.51 -2263.30 -2265.21 -2273.74 -2266.42 -2257.40 -2261.58 -2266.43 -2254.83 -2243.79 -2239.22 -2245.91 -2251.99 -2238.37 -2231.71 -2234.79 -2231.36 -2228.98 -2227.63 -2223.55 -2207.81 -2172.55 -2133.84 -2050.16 -1939.27 -1689.60 -1475.36 -1304.27 -943.29 -692.33 -498.12 -364.63 -332.21 -269.05 -259.59 -205.08 -150.16 -38.10 33.54 65.42 39.47 1.79 38.68 73.94 23.40 27.21 48.32 -29.35 47.93 -11.11 15.93 122.66 125.58 126.28 131.30 136.74 148.54 150.94 153.25 159.86 170.80 173.43 190.62 196.95 216.23 237.22 254.10 280.97 290.24 298.14 310.13 324.86 328.91 326.60 323.73 316.75 315.09 216.78 135.11 123.65 104.17 -608.08 -1391.16 -1567.20 -2044.30 -3630.40 -4561.59 -4935.26 -4960.69 -5095.73 -5248.26 -5003.80 -4102.10 -1722.36 -524.02 -115.11 131.17 176.50 174.14 173.36 190.45 195.17 186.44 162.67 145.07 69.00 -139.37 -543.53 -720.00 -918.47 -1120.85 -1433.81 -1674.17 -1945.44 -2095.94 -2174.69 -2195.65 -2193.66 -2189.53 -2260.72 -2452.65 -2649.84 -2873.95 -3023.85 -3338.35 -3644.06 -3924.26 -4134.84 -4159.13 -4172.62 -4172.68
-2197.38 -2197.32 -2197.12 -2201.65 -2200.65 -2208.90 -2212.42 -2231.90 -2253.70 -2272.11 -2276.15 -2279.48 -2286.48 -2294.03 -2278.53 -2263.15 -2263.31 -2266.82 -2258.25 -2252.74 -2244.71 -2244.12 -2260.73 -2251.41 -2241.45 -2243.53 -2241.59 -2231.72 -2229.42 -2224.47 -2215.47 -2189.34 -2119.12 -2044.40 -1841.77 -1719.71 -1447.94 -1184.78 -862.93 -618.73 -534.53 -426.84 -368.52 -289.96 -267.24 -242.13 -206.85 -151.89 -120.17 -58.80 -73.69 -96.97 -64.08 -30.05 -83.73 -67.67 -61.79 -56.25 -29.72 -44.21 -4.21 87.06 109.13 118.23 126.74 133.37 141.37 146.06 152.56 157.28 167.78 175.91 184.82 196.63 220.17 232.68 240.83 271.76 283.79 290.88 298.91 309.19 320.19 320.02 318.58 313.12 387.09 325.53 173.50 -188.58 -568.08 -920.89 -1277.46 -1490.49 -2331.17 -3316.26 -4161.23 -4138.25 -4187.55 -3351.87 -3539.09 -2953.90 -1352.37 123.89 155.28 159.82 170.62 186.12 199.74 215.92 228.01 224.28 203.25 172.71 155.23 128.92 -152.49 -568.36 -900.04 -1064.31 -1351.93 -1493.18 -1750.22 -2053.86 -2140.08 -2172.33 -2186.98 -2190.39 -2182.84 -2199.26 -2471.68 -2910.57 -3138.95 -3255.70 -3582.41 -3930.80 -4051.66 -4152.61 -4167.46 -4171.36 -4171.43
-2211.12 -2212.84 -2214.59 -2214.74 -2216.65 -2218.30 -2227.45 -2248.35 -2267.75 -2289.32 -2282.72 -2285.78 -2291.09 -2294.99 -2278.61 -2264.93 -2259.60 -2260.64 -2262.44 -2258.95 -2248.98 -2249.94 -2259.10 -2253.74 -2243.93 -2244.71 -2245.24 -2237.84 -2232.65 -2227.88 -2218.68 -2200.75 -2145.46 -2051.77 -1868.21 -1623.79 -1421.89 -1060.92 -937.72 -667.24 -526.85 -434.25 -351.04 -271.21 -260.32 -219.78 -190.36 -179.11 -137.00 -124.20 -118.28 -102.23 -95.73 -87.55 -71.41 -60.40 -46.00 -30.59 -23.28 -10.81 14.62 36.85 82.74 105.26 114.20 124.32 135.46 142.52 149.06 156.60 166.57 175.62 187.05 195.78 212.07 232.71 247.01 260.77 267.87 283.13 294.10 296.65 301.12 310.33 305.83 270.60 326.45 272.67 146.57 -238.80 -842.39 -1017.29 -1233.33 -1501.72 -2085.55 -2789.26 -3037.90 -3054.31 -2690.78 -2111.92 -791.72 -31.75 101.59 153.95 188.86 205.04 227.78 253.36 276.88 257.75 237.06 207.40 189.09 165.10 147.84 126.48 -76.93 -803.90 -1282.11 -1401.80 -1528.43 -1631.70 -1800.70 -2019.28 -2171.33 -2185.44 -2194.52 -2185.36 -2179.57 -2204.71 -2400.28 -2778.30 -3381.33 -3638.30 -3886.12 -4027.86 -4102.40 -4157.29 -4167.04 -4171.24 -4171.30
-2227.02 -2226.97 -2233.42 -2229.51 -2235.30 -2234.80 -2245.12 -2264.04 -2287.51 -2288.63 -2289.00 -2292.87 -2294.74 -2297.98 -2287.77 -2262.23 -2269.36 -2262.36 -2256.20 -2249.07 -2248.34 -2250.67 -2256.70 -2251.80 -2246.84 -2246.47 -2245.71 -2245.17 -2242.18 -2238.49 -2235.88 -2186.44 -2073.56 -1964.21 -1745.61 -1514.87 -1308.63 -1076.66 -811.88 -682.77 -545.56 -449.98 -376.14 -287.02 -254.18 -212.77 -196.49 -171.80 -145.24 -139.38 -123.08 -111.80 -98.30 -88.05 -73.26 -63.01 -43.65 -22.12 -7.02 3.45 8.15 13.47 27.76 62.41 98.86 111.89 131.31 143.12 149.38 154.08 163.38 175.17 184.56 197.79 210.83 225.16 238.83 243.84 257.62 261.61 271.44 286.42 284.76 278.17 276.44 260.75 242.79 225.88 156.85 -67.91 -830.43 -1355.04 -1294.16 -1406.11 -1643.18 -1788.15 -1914.41 -1844.47 -1190.78 -343.86 150.92 155.20 198.04 215.49 238.12 245.80 258.79 289.60 286.33 253.23 217.63 201.96 185.32 144.45 130.75 99.15 -274.74 -1225.81 -1504.27 -1672.22 -1850.84 -1873.44 -1982.76 -2127.45 -2181.74 -2195.11 -2192.34 -2183.43 -2178.62 -2201.31 -2389.30 -2821.06 -3443.08 -3756.41 -4064.90 -4135.72 -4154.18 -4163.06 -4169.29 -4173.97 -4174.03
-2242.61 -2244.13 -2246.91 -2248.33 -2249.30 -2251.58 -2253.53 -2278.70 -2286.97 -2287.56 -2293.42 -2293.47 -2293.11 -2293.26 -2282.27 -2259.74 -2243.25 -2242.72 -2235.54 -2234.55 -2249.81 -2252.14 -2254.07 -2257.98 -2254.92 -2249.18 -2248.76 -2248.41 -2248.06 -2247.72 -2241.17 -2208.72 -2038.43 -1854.91 -1704.89 -1474.79 -1176.16 -884.66 -825.74 -675.43 -551.49 -470.14 -372.97 -283.95 -234.80 -223.44 -190.37 -172.64 -155.67 -141.39 -129.00 -125.13 -110.00 -94.43 -82.33 -67.42 -51.91 -23.69 -2.80 10.58 17.19 22.60 22.69 43.71 85.87 107.89 129.32 135.90 144.47 151.17 162.93 172.24 181.92 192.35 203.73 213.54 218.83 236.21 246.61 258.55 262.05 271.43 270.27 261.53 257.89 227.45 197.76 164.68 149.59 -98.59 -824.88 -1418.17 -1456.08 -1483.39 -1580.90 -1622.01 -1618.46 -1356.47 -238.88 147.95 189.69 214.26 235.13 249.92 271.69 285.97 278.99 254.25 229.14 221.32 189.86 177.28 149.79 125.48 114.29 95.61 -576.78 -1433.97 -1773.14 -1905.34 -1925.50 -2006.39 -2127.40 -2156.09 -2191.13 -2195.52 -2188.47 -2182.42 -2178.13 -2199.63 -2317.06 -2727.90 -3474.71 -3845.05 -4118.39 -4156.44 -4168.18 -4172.05 -4173.88 -4178.94 -4179.01
-2256.35 -2257.69 -2258.44 -2260.29 -2260.78 -2265.46 -2273.56 -2299.34 -2309.40 -2296.80 -2295.61 -2294.24 -2295.10 -2291.81 -2280.26 -2250.89 -2219.40 -2208.20 -2213.30 -2228.29 -2250.38 -2267.40 -2259.74 -2261.97 -2258.35 -2250.83 -2249.19 -2249.09 -2248.08 -2243.92 -2227.22 -2139.47 -2017.88 -1798.86 -1662.24 -1415.24 -1210.69 -975.76 -799.80 -683.79 -558.88 -470.84 -351.87 -289.88 -248.79 -204.40 -192.74 -175.75 -164.42 -152.80 -142.58 -132.37 -118.41 -109.49 -89.29 -64.59 -47.98 -27.17 3.24 13.91 22.01 31.14 37.97 48.47 65.84 93.99 128.68 134.87 143.42 149.49 157.49 166.19 176.12 180.90 193.33 208.71 209.50 226.34 237.80 244.28 245.87 248.67 255.47 252.05 229.97 214.98 194.76 176.00 140.64 41.06 -771.82 -1327.61 -1528.00 -1545.53 -1556.00 -1519.71 -1370.16 -727.08 -111.87 195.92 254.49 270.24 285.59 297.38 268.71 259.15 232.93 231.91 198.31 187.55 156.36 136.29 126.81 116.34 105.75 83.93 -45.34 -1357.62 -1759.49 -1947.28 -2015.86 -2101.63 -2138.45 -2190.71 -2196.14 -2194.67 -2187.47 -2182.42 -2177.91 -2199.92 -2281.26 -2718.43 -3581.69 -3995.92 -4160.06 -4167.75 -4170.00 -4173.23 -4176.10 -4182.83 -4182.89
-2268.74 -2268.68 -2271.21 -2269.30 -2269.95 -2272.27 -2285.56 -2309.18 -2316.15 -2301.00 -2298.60 -2297.50 -2297.31 -2292.03 -2290.61 -2251.93 -2227.19 -2213.62 -2220.44 -2235.99 -2266.77 -2278.24 -2277.17 -2268.24 -2259.42 -2253.01 -2250.26 -2250.06 -2247.06 -2230.16 -2206.31 -2124.03 -1942.82 -1780.39 -1595.00 -1373.00 -1236.63 -974.17 -789.22 -646.85 -575.69 -474.27 -404.03 -341.41 -267.49 -225.18 -203.11 -184.05 -168.38 -161.21 -146.77 -139.54 -129.06 -109.18 -85.14 -62.27 -42.22 -22.45 4.86 13.97 24.50 32.33 43.52 53.42 61.99 74.81 104.87 124.10 140.41 149.04 152.04 160.91 169.07 173.92 184.22 197.42 204.89 212.15 221.37 228.46 233.40 240.27 242.03 240.85 215.31 206.46 184.21 163.64 140.73 118.32 -206.06 -1192.54 -1514.00 -1559.62 -1541.55 -1412.52 -1104.44 -333.60 130.64 265.21 309.31 310.24 281.92 273.47 239.30 230.99 211.87 176.62 147.81 140.03 135.73 121.77 117.51 113.15 87.47 -598.04 -848.14 -1422.89 -1933.79 -1972.66 -2079.36 -2148.02 -2184.85 -2195.28 -2199.06 -2197.44 -2191.09 -2183.00 -2178.66 -2189.82 -2370.00 -2844.62 -3415.58 -3999.94 -4154.17 -4161.22 -4171.46 -4181.89 -4182.88 -4189.16 -4189.22
-2280.22 -2280.16 -2280.48 -2281.59 -2284.22 -2287.69 -2299.30 -2319.74 -2313.16 -2302.90 -2300.76 -2298.22 -2295.93 -2287.44 -2286.46 -2269.22 -2246.41 -2238.83 -2239.51 -2263.47 -2287.00 -2283.46 -2276.91 -2270.05 -2258.41 -2254.95 -2254.63 -2253.77 -2249.22 -2222.33 -2155.88 -2084.27 -1886.63 -1736.00 -1620.36 -1320.89 -1218.05 -1010.76 -830.56 -680.50 -545.65 -491.96 -440.07 -365.68 -303.95 -241.15 -207.63 -189.03 -169.69 -164.27 -153.97 -139.89 -124.34 -112.25 -90.01 -65.21 -41.10 -23.56 1.92 20.59 30.65 38.10 51.89 58.91 68.72 75.55 92.07 121.22 133.65 142.97 149.00 156.16 165.32 171.32 177.23 182.66 196.70 201.77 203.10 214.80 216.39 218.41 213.83 203.81 204.98 186.09 179.59 150.46 131.09 116.52 -266.72 -818.89 -1492.00 -1524.72 -1486.60 -1199.15 -778.76 -3.00 137.57 281.65 305.00 302.79 275.32 245.18 214.83 205.47 173.85 150.12 140.78 128.80 123.17 118.24 113.52 94.19 -325.38 -1169.55 -1373.37 -1700.35 -1938.89 -1983.15 -2089.75 -2159.90 -2188.56 -2195.29 -2200.25 -2203.55 -2197.35 -2189.09 -2180.81 -2198.31 -2322.00 -2980.86 -3502.77 -3980.34 -4143.94 -4163.53 -4183.73 -4188.16 -4191.55 -4195.60 -4196.50
-2288.22 -2288.16 -2289.31 -2291.66 -2292.13 -2292.67 -2302.53 -2316.26 -2312.95 -2303.89 -2301.46 -2302.26 -2298.96 -2293.58 -2288.59 -2288.19 -2284.05 -2269.60 -2275.22 -2281.90 -2291.02 -2285.88 -2275.83 -2269.59 -2260.43 -2258.07 -2258.99 -2258.36 -2250.88 -2224.70 -2127.83 -2049.51 -1911.54 -1796.86 -1657.40 -1408.81 -1258.11 -994.70 -928.75 -746.56 -590.43 -510.63 -435.67 -366.60 -318.60 -260.21 -233.63 -201.05 -173.73 -163.41 -156.04 -132.30 -119.81 -100.58 -80.28 -55.01 -33.17 -10.81 7.15 26.82 35.63 44.82 51.16 60.10 70.49 79.56 88.10 116.73 134.42 137.42 144.49 149.38 155.59 163.08 169.48 173.59 180.87 190.71 195.56 198.96 197.80 193.85 195.71 193.57 176.53 171.03 155.03 141.09 118.25 104.66 -140.77 -408.22 -1052.73 -1374.70 -1301.44 -897.75 -429.05 -3.58 161.99 252.28 271.50 276.70 245.37 211.22 193.14 174.40 142.69 123.19 126.16 120.48 112.47 109.56 89.21 -360.24 -1042.47 -1605.97 -1749.62 -1905.20 -1966.21 -2066.62 -2113.57 -2131.50 -2178.12 -2197.90 -2202.72 -2207.46 -2210.19 -2201.18 -2193.50 -2195.57 -2386.22 -2887.99 -3682.18 -3961.38 -4125.78 -4164.50 -4187.30 -4189.39 -4194.10 -4197.86 -4197.92
-2289.99 -2289.98 -2290.90 -2291.65 -2291.86 -2292.81 -2297.92 -2309.37 -2315.60 -2316.88 -2309.63 -2308.22 -2303.89 -2297.75 -2291.63 -2287.10 -2285.67 -2279.12 -2282.53 -2290.69 -2294.74 -2290.35 -2282.62 -2276.22 -2265.16 -2263.39 -2262.90 -2256.13 -2249.80 -2203.69 -2134.31 -2069.02 -1930.73 -1825.74 -1675.37 -1423.53 -1168.01 -1026.26 -837.55 -721.57 -628.72 -524.94 -417.49 -365.31 -293.46 -270.75 -235.05 -200.72 -179.15 -164.99 -153.70 -150.04 -128.70 -100.03 -83.21 -58.57 -29.31 -12.49 10.73 23.68 39.09 45.06 50.99 61.36 71.11 79.54 88.05 113.24 125.21 137.69 138.44 144.60 149.10 156.18 161.23 164.49 170.73 174.25 175.01 178.57 180.41 178.80 170.13 166.40 156.48 145.90 146.59 133.19 116.34 98.98 45.93 -80.92 -515.64 -962.73 -888.26 -522.58 -152.81 68.36 160.26 238.24 230.14 235.74 211.13 164.93 162.02 136.91 122.17 120.22 111.04 110.15 103.38 86.54 -283.66 -837.03 -1216.01 -1578.54 -1803.45 -1938.09 -1980.55 -2080.58 -2117.33 -2130.95 -2162.95 -2193.83 -2199.37 -2208.87 -2215.06 -2216.80 -2217.70 -2235.14 -2426.04 -2671.68 -3367.75 -3988.65 -4124.90 -4151.91 -4187.73 -4196.74 -4198.11 -4201.62 -4201.68
-2290.33 -2290.87 -2292.34 -2292.77 -2292.25 -2293.27 -2295.17 -2300.41 -2308.56 -2313.25 -2318.34 -2311.82 -2306.63 -2304.56 -2292.26 -2286.60 -2288.96 -2292.01 -2293.41 -2301.03 -2297.29 -2295.70 -2290.89 -2283.92 -2275.99 -2273.46 -2270.00 -2261.42 -2249.74 -2209.01 -2168.60 -2075.48 -1951.30 -1737.22 -1601.35 -1363.76 -1138.49 -981.07 -877.36 -802.18 -679.80 -568.94 -471.40 -367.71 -319.88 -275.81 -254.62 -221.17 -191.28 -177.12 -167.61 -163.38 -120.58 -94.66 -76.08 -51.91 -28.16 -8.30 9.38 22.64 33.18 41.77 49.20 58.32 70.69 74.31 87.95 100.38 121.35 131.23 137.08 136.84 142.90 148.68 150.09 159.82 163.05 163.22 159.31 165.24 167.20 159.70 159.17 139.94 141.12 137.75 129.23 113.02 100.55 72.18 53.05 -31.73 -304.83 -273.87 -369.47 -244.99 6.53 114.66 148.46 134.50 151.25 199.87 185.02 147.67 122.65 125.16 116.08 110.38 106.51 95.89 90.78 -350.47 -905.38 -1211.13 -1383.60 -1608.30 -1819.47 -1915.27 -2030.65 -2085.42 -2123.90 -2146.07 -2173.09 -2183.16 -2191.33 -2199.83 -2214.49 -2221.74 -2235.55 -2249.81 -2428.89 -2666.85 -3326.84 -3908.41 -4137.36 -4141.39 -4172.72 -4185.84 -4197.38 -4205.89 -4205.15
-2298.22 -2298.15 -2297.07 -2299.12 -2297.18 -2298.57 -2299.40 -2300.17 -2301.49 -2304.11 -2310.05 -2318.03 -2315.47 -2311.58 -2304.93 -2295.94 -2299.07 -2306.97 -2305.97 -2311.63 -2311.03 -2301.89 -2302.37 -2290.80 -2285.08 -2282.28 -2279.51 -2275.16 -2264.14 -2230.70 -2204.20 -2090.63 -1874.03 -1746.45 -1540.19 -1377.13 -1142.75 -1019.09 -893.67 -811.00 -682.29 -567.90 -492.57 -411.69 -344.07 -290.36 -267.99 -234.05 -211.97 -204.83 -177.61 -156.85 -129.52 -86.06 -51.93 -39.70 -16.00 0.33 16.65 22.67 31.22 38.63 49.28 56.11 65.05 70.56 78.48 94.51 114.43 122.92 129.02 134.50 137.06 140.75 141.42 148.58 149.22 152.31 148.91 143.48 145.37 136.30 136.31 134.15 133.95 113.63 109.22 100.42 79.21 62.79 33.56 -1.16 -91.82 -116.54 -112.63 3.29 107.12 96.25 36.61 -91.33 -68.51 52.30 74.16 107.68 89.08 107.51 108.22 87.07 42.39 -217.55 -617.41 -929.39 -1188.87 -1339.26 -1435.50 -1638.24 -1829.18 -1919.63 -2028.40 -2091.99 -2123.48 -2156.39 -2166.57 -2177.66 -2188.68 -2195.38 -2205.72 -2218.51 -2241.39 -2265.68 -2402.25 -2528.71 -3041.60 -3789.83 -4072.19 -4142.18 -4180.66 -4197.91 -4204.19 -4207.17 -4207.72
-2309.77 -2309.70 -2308.25 -2309.56 -2304.51 -2312.48 -2312.21 -2308.03 -2310.88 -2308.91 -2312.27 -2322.64 -2321.71 -2317.68 -2316.88 -2309.52 -2315.37 -2314.83 -2311.91 -2325.34 -2322.46 -2315.78 -2313.38 -2307.63 -2302.03 -2296.60 -2286.28 -2279.03 -2279.02 -2255.07 -2208.02 -2104.20 -1962.62 -1802.41 -1596.15 -1453.49 -1163.78 -1088.53 -1002.27 -842.78 -759.87 -619.11 -504.35 -401.33 -360.57 -303.24 -285.65 -251.72 -225.82 -205.85 -168.25 -150.56 -124.47 -97.73 -34.44 -17.81 -4.07 11.13 16.62 23.60 30.54 39.10 44.22 51.82 60.30 66.44 74.38 88.49 100.57 117.26 122.14 126.11 131.67 132.97 134.88 136.22 144.85 138.03 133.18 135.21 133.64 126.69 124.68 124.37 107.73 97.15 81.41 81.16 67.69 42.43 27.03 -1.27 -43.86 -42.10 -9.34 53.30 72.74 3.84 -67.81 -147.92 -191.70 -268.01 -243.87 -204.34 -230.12 -142.52 -164.64 -267.24 -178.11 -765.88 -1013.50 -1194.53 -1283.11 -1387.23 -1535.22 -1643.18 -1932.42 -1984.09 -2062.48 -2106.73 -2134.26 -2145.58 -2159.49 -2167.71 -2184.22 -2194.44 -2204.25 -2214.51 -2236.92 -2265.46 -2393.46 -2632.05 -3143.35 -3552.15 -3836.10 -4127.98 -4179.88 -4194.55 -4209.17 -4213.05 -4214.15
