-4768.48 -4768.40 -4775.45 -4779.36 -4787.58 -4788.96 -4798.80 -4805.97 -4818.39 -4822.88 -4834.84 -4847.56 -4862.25 -4885.87 -4922.96 -4958.15 -4993.39 -5008.87 -5032.01 -5046.13 -5066.37 -5118.77 -5155.99 -5249.91 -5291.19 -5295.13 -5293.50 -5290.26 -5253.80 -5241.60 -5225.15 -5221.78 -5225.91 -5233.89 -5244.08 -5248.09 -5251.39 -5289.32 -5299.20 -5318.26 -5330.87 -5344.10 -5350.90 -5351.49 -5357.85 -5360.55 -5367.94 -5381.14 -5398.24 -5460.40 -5486.32 -5493.75 -5494.48 -5489.24 -5482.35 -5439.61 -5396.54 -5330.91 -5312.45 -5296.58 -5297.65 -5299.45 -5293.43 -5284.33 -5273.65 -5268.58 -5246.62 -5240.21 -5221.80 -5196.29 -5008.24 -4777.32 -4381.77 -4166.95 -3465.60 -2818.26 -2307.51 -1761.38 -1325.15 -1002.88 -644.70 -374.99 -210.65 -118.42 90.99 115.40 126.18 130.22 143.68 156.34 178.01 161.84 171.40 181.36 166.79 165.70 160.76 133.91 125.80 124.69 99.15 -404.70 -1440.31 -1662.00 -2277.70 -3409.44 -3834.00 -5390.86 -5597.94 -6359.00 -7114.98 -7050.25 -7518.92 -7784.39 -7824.93 -7747.49 -7642.76 -7641.26 -7203.20 -4943.52 -2747.10 -1894.85 -1721.50 -1856.31 -1980.18 -2136.53 -2187.13 -2211.75 -2208.60 -2207.66 -2210.26 -2219.14 -2236.44 -2278.03 -2327.04 -2420.87 -2491.50 -2618.54 -2697.40 -2818.66 -2818.71
-4750.86 -4750.78 -4756.77 -4750.92 -4761.21 -4767.94 -4783.09 -4791.60 -4804.11 -4816.90 -4826.42 -4839.27 -4851.85 -4884.61 -4908.35 -4947.73 -4976.45 -5003.06 -5013.99 -5034.91 -5052.08 -5076.11 -5142.86 -5163.18 -5258.59 -5283.71 -5278.91 -5272.46 -5258.61 -5238.98 -5221.14 -5217.06 -5217.93 -5217.47 -5191.37 -5182.95 -5150.15 -5113.32 -5180.33 -5204.24 -5270.37 -5305.28 -5330.03 -5350.67 -5362.96 -5375.87 -5391.90 -5393.58 -5427.47 -5466.28 -5484.24 -5499.21 -5500.80 -5495.05 -5478.69 -5448.95 -5403.64 -5336.14 -5314.25 -5295.69 -5298.66 -5301.51 -5296.32 -5288.29 -5277.84 -5265.00 -5250.20 -5239.72 -5218.29 -5145.19 -4949.74 -4546.09 -4248.94 -3819.79 -3571.37 -2684.85 -2114.86 -1597.08 -1254.14 -1014.00 -526.64 63.81 91.02 101.05 111.47 123.49 147.01 177.07 198.06 193.76 196.93 208.24 207.37 218.70 216.57 192.71 179.99 141.11 122.74 -11.12 63.59 114.85 -212.18 -1166.74 -1910.58 -2087.98 -2069.58 -3252.21 -2514.54 -4644.54 -6284.29 -6696.45 -7149.68 -7459.02 -7550.98 -7379.41 -7360.07 -7322.06 -6768.80 -4720.83 -2780.91 -1750.33 -1702.62 -1859.95 -1980.31 -2075.03 -2180.88 -2224.58 -2216.87 -2213.78 -2215.24 -2223.61 -2271.02 -2276.95 -2407.64 -2487.55 -2527.58 -2665.93 -2755.10 -2820.91 -2832.24
-4726.69 -4726.61 -4724.26 -4724.29 -4733.78 -4745.05 -4760.80 -4781.64 -4813.86 -4816.26 -4840.79 -4852.02 -4867.66 -4880.25 -4913.13 -4945.95 -4972.57 -4998.45 -5015.67 -5030.35 -5043.30 -5055.35 -5076.34 -5129.87 -5208.99 -5240.68 -5240.09 -5253.26 -5240.76 -5211.89 -5200.13 -5202.14 -5160.45 -5132.49 -5063.28 -4825.74 -4473.96 -4666.45 -4766.81 -4778.27 -5013.38 -5116.75 -5207.49 -5284.91 -5334.29 -5357.68 -5399.11 -5426.81 -5439.90 -5463.56 -5483.52 -5485.96 -5492.98 -5475.36 -5472.60 -5434.22 -5388.71 -5347.31 -5323.45 -5310.32 -5307.01 -5310.91 -5301.98 -5291.79 -5282.33 -5266.76 -5258.01 -5242.05 -5207.09 -5125.64 -4910.10 -4556.92 -4263.44 -3779.41 -3398.78 -2741.23 -2144.06 -1766.82 -1324.40 -1144.29 -577.63 65.09 98.25 117.10 122.31 126.08 177.40 216.67 230.77 238.09 242.83 268.55 262.19 238.02 244.97 223.38 168.55 117.72 95.81 -102.95 -307.99 -168.72 26.83 65.62 -116.98 -607.12 -924.53 -1007.98 -1187.85 -2738.64 -4809.38 -6523.77 -6762.84 -7072.25 -7211.08 -7213.60 -6943.61 -6996.86 -6378.00 -4750.85 -2212.92 -1693.50 -1689.36 -1804.96 -1959.54 -2096.67 -2182.19 -2221.77 -2222.57 -2223.39 -2222.49 -2228.19 -2268.39 -2311.26 -2421.55 -2502.61 -2583.92 -2664.93 -2729.99 -2849.96 -2850.01
-4699.18 -4696.32 -4696.31 -4698.50 -4713.37 -4717.00 -4743.21 -4778.62 -4822.16 -4853.19 -4886.33 -4899.66 -4907.17 -4942.39 -4934.67 -4972.78 -4983.16 -5012.55 -5019.55 -5035.11 -5044.33 -5037.81 -4995.09 -4954.72 -5017.26 -5079.37 -5159.96 -5175.46 -5192.36 -5193.06 -5164.76 -5128.91 -4866.49 -4616.83 -4367.85 -4009.94 -3378.67 -3226.71 -3562.70 -3786.81 -4085.27 -4094.11 -4658.00 -5098.74 -5063.83 -5343.18 -5402.87 -5428.10 -5439.92 -5452.95 -5459.09 -5452.40 -5473.63 -5447.42 -5427.05 -5405.90 -5386.66 -5356.98 -5344.95 -5331.84 -5326.27 -5320.57 -5305.41 -5299.10 -5288.32 -5274.98 -5250.05 -5223.77 -5196.49 -5140.03 -5003.09 -4725.98 -4340.57 -3684.17 -3439.68 -2703.31 -2263.10 -1855.38 -1488.16 -1038.02 -497.43 -167.61 112.89 129.24 165.36 177.61 215.37 257.36 286.46 305.76 309.42 315.03 327.04 344.70 321.39 350.42 147.55 95.33 -8.46 -671.36 -1442.25 -1538.81 -1201.26 -254.87 -603.79 -498.73 -323.88 -301.85 -358.44 -715.92 -1631.48 -5236.83 -6533.56 -6802.23 -6942.59 -6923.46 -6651.97 -6525.34 -6055.34 -3828.45 -2602.16 -1566.73 -1632.75 -1796.51 -1931.02 -2114.14 -2179.52 -2236.06 -2240.68 -2229.66 -2227.33 -2239.10 -2282.92 -2324.75 -2415.03 -2504.21 -2642.96 -2796.57 -2826.26 -2932.08 -2931.98
-4683.71 -4683.64 -4690.63 -4686.79 -4689.02 -4696.56 -4730.04 -4775.39 -4836.10 -4901.19 -4916.06 -4934.60 -4953.03 -4960.58 -4979.61 -4992.91 -5005.75 -5021.95 -5039.52 -5058.07 -5048.04 -5002.73 -4950.81 -4669.07 -4354.11 -4270.20 -4686.61 -4881.00 -4877.26 -5091.65 -4970.47 -4616.39 -4335.76 -3881.45 -3310.34 -2779.04 -2440.87 -2429.81 -2610.08 -2582.74 -2929.54 -3423.09 -3365.00 -4054.18 -4403.16 -4796.77 -5366.80 -5375.77 -5413.70 -5418.77 -5411.48 -5408.77 -5385.03 -5382.38 -5382.55 -5370.93 -5373.45 -5369.02 -5361.58 -5351.98 -5345.33 -5323.70 -5306.99 -5296.06 -5290.47 -5276.73 -5260.58 -5220.98 -5169.94 -5037.82 -4831.79 -4437.41 -4141.76 -3753.39 -2991.12 -2590.76 -2187.76 -1705.26 -1346.91 -1139.21 -76.38 70.79 137.29 181.88 190.03 214.95 305.02 352.22 444.24 500.73 464.08 447.96 467.53 441.37 512.83 561.04 218.37 45.95 -1206.26 -3778.81 -3239.20 -2791.20 -2620.21 -1680.54 -1870.33 -1526.82 -1681.00 -576.56 -487.38 -414.33 -1403.59 -3683.63 -6191.42 -6065.81 -6568.49 -6009.27 -6100.73 -6029.31 -5599.03 -4643.42 -2192.03 -1633.43 -1617.48 -1778.98 -1884.82 -2051.83 -2197.41 -2253.32 -2251.48 -2238.69 -2231.32 -2236.38 -2270.61 -2338.62 -2437.85 -2537.19 -2684.88 -2805.66 -2957.85 -3061.68 -3061.73
-4704.98 -4708.57 -4710.05 -4706.49 -4706.69 -4707.44 -4729.96 -4798.55 -4872.38 -4946.34 -4962.39 -4977.41 -4996.14 -4995.51 -5004.60 -5015.02 -5036.88 -5045.38 -5066.33 -5084.08 -5067.14 -4937.63 -4547.91 -3968.33 -3250.61 -3392.69 -3403.49 -4132.97 -4255.18 -4602.46 -4379.02 -3669.11 -3027.58 -2718.02 -2397.43 -2042.88 -1856.38 -1850.20 -1943.97 -1990.45 -2191.41 -2216.33 -2485.08 -2855.00 -3619.54 -4111.31 -4773.77 -5153.68 -5236.00 -5139.10 -5188.85 -5267.36 -5341.31 -5318.69 -5344.03 -5355.24 -5369.85 -5372.57 -5367.53 -5353.75 -5352.87 -5330.46 -5317.87 -5307.30 -5285.49 -5230.93 -5239.64 -5252.10 -5162.45 -4957.23 -4627.21 -4330.32 -4082.72 -3882.85 -3006.90 -2432.09 -1750.95 -1203.83 -505.97 -555.99 134.47 150.86 152.81 192.67 213.91 274.85 374.49 586.31 758.80 803.72 754.62 721.41 801.72 661.30 807.05 677.78 318.41 -392.04 -1538.63 -3063.04 -3817.96 -3947.11 -3757.81 -3484.10 -3418.19 -3172.04 -2381.38 -1695.19 -902.62 -934.87 -1807.08 -4407.17 -5160.14 -4621.67 -4575.81 -4473.73 -4229.27 -5244.91 -5806.35 -4771.49 -2278.84 -1657.90 -1641.69 -1858.93 -1996.94 -2080.45 -2210.09 -2260.75 -2258.80 -2244.57 -2233.66 -2258.54 -2271.65 -2319.40 -2433.71 -2665.33 -2860.64 -2995.03 -3137.01 -3146.26 -3177.85
-4775.36 -4767.81 -4758.22 -4752.80 -4745.78 -4754.09 -4774.86 -4840.25 -4876.63 -4973.58 -4996.49 -5010.46 -5028.14 -5057.99 -5088.99 -5075.65 -5102.42 -5096.91 -5098.19 -5110.84 -5073.77 -4888.59 -4160.31 -3105.44 -2396.51 -2284.73 -2723.67 -3074.75 -3048.95 -3515.53 -3724.49 -3078.24 -2199.60 -1924.84 -1832.45 -1662.85 -1386.49 -1484.76 -1387.27 -1732.41 -1669.93 -1948.71 -2114.55 -2372.31 -2690.91 -3054.43 -4008.15 -4513.76 -4601.36 -4679.08 -4833.52 -5064.14 -5041.42 -5201.13 -5290.47 -5342.10 -5335.77 -5357.76 -5352.13 -5349.46 -5345.70 -5348.45 -5335.32 -5343.85 -5310.36 -5255.41 -5133.59 -5171.51 -5071.90 -4667.30 -4463.33 -4076.93 -3684.39 -3451.95 -2976.17 -1762.18 -692.90 -341.08 67.75 157.24 175.62 189.96 202.97 213.10 209.99 302.33 380.82 570.89 778.05 798.99 905.86 926.01 946.40 897.89 892.09 585.58 432.68 195.63 127.89 -1466.18 -2826.12 -4570.15 -4395.40 -4214.11 -4251.22 -4252.99 -3636.07 -2944.90 -2248.12 -1790.05 -1601.30 -2229.96 -2295.36 -2160.88 -2342.22 -2084.18 -3025.42 -3228.59 -3631.12 -4249.57 -2417.57 -1945.49 -1735.36 -1866.77 -2095.84 -2200.58 -2239.16 -2264.10 -2260.76 -2247.68 -2243.24 -2265.88 -2275.15 -2345.96 -2474.78 -2699.05 -2907.52 -3117.15 -3161.06 -3255.88 -3255.95
-4840.00 -4839.89 -4816.49 -4810.27 -4811.46 -4831.13 -4863.69 -4904.66 -4994.10 -5027.16 -5039.17 -5058.25 -5101.65 -5116.52 -5133.87 -5136.50 -5139.15 -5179.56 -5181.25 -5161.71 -5081.24 -4832.21 -3956.14 -3117.89 -1961.48 -1860.28 -1873.82 -2075.04 -2275.96 -2620.05 -2665.89 -2376.76 -1968.44 -1641.94 -1284.64 -651.80 -652.89 -531.09 -665.73 -943.63 -1222.31 -1839.34 -2030.00 -1969.32 -2043.00 -2303.66 -2801.35 -3306.18 -3789.91 -3545.11 -3635.19 -3945.62 -4304.28 -4619.85 -5009.72 -5107.33 -5296.52 -5290.67 -5217.15 -5294.62 -5293.13 -5314.91 -5268.71 -5248.27 -5179.25 -4966.10 -4943.93 -4338.05 -4002.93 -3644.30 -3076.80 -3240.13 -3290.51 -2680.88 -2002.48 -913.03 135.01 157.58 158.79 180.32 198.91 213.42 242.14 257.31 268.11 283.77 336.23 427.93 438.14 537.28 612.97 796.15 850.12 899.90 896.40 664.84 569.87 201.22 145.89 -535.36 -1910.67 -3977.88 -4705.10 -4792.08 -4610.32 -4457.60 -4467.00 -4506.32 -3957.33 -2837.67 -2064.30 -1377.57 -1171.77 -1193.17 -1284.79 -1492.97 -1788.85 -1894.41 -2332.14 -3101.18 -2749.21 -2208.41 -1754.05 -1892.46 -2062.14 -2192.44 -2267.49 -2273.76 -2262.44 -2253.61 -2247.08 -2256.36 -2336.07 -2364.33 -2459.58 -2751.10 -2921.94 -3266.15 -3273.35 -3305.90 -3323.04
-4892.23 -4892.13 -4898.81 -4870.81 -4866.71 -4887.73 -4899.56 -4968.31 -5030.80 -5088.55 -5107.80 -5122.38 -5145.52 -5167.62 -5191.51 -5230.51 -5245.48 -5286.71 -5252.71 -5248.72 -5182.45 -4807.61 -3754.71 -2800.22 -1964.02 -1874.54 -1897.05 -1936.95 -1903.64 -2022.90 -2128.93 -2062.86 -1685.73 -1140.79 -583.31 -209.68 94.94 157.87 -58.41 -37.90 -201.04 -1142.07 -1877.76 -1586.63 -1316.91 -2019.83 -2307.49 -2326.77 -2560.66 -2615.49 -2797.53 -2921.79 -3350.29 -3683.14 -4237.62 -4790.63 -4908.20 -5042.82 -5062.72 -5131.05 -5086.11 -4837.67 -5004.08 -4977.91 -4711.10 -4388.70 -4305.42 -3486.50 -3322.36 -2546.78 -2477.79 -2246.74 -1885.71 -1423.59 -585.61 -87.25 172.84 190.53 199.09 209.62 229.18 243.90 265.47 285.54 293.74 314.78 360.23 388.61 418.20 480.67 501.20 584.96 633.79 748.09 815.23 813.88 688.83 418.02 225.77 119.93 -1895.72 -2275.85 -3708.54 -4824.16 -4591.07 -4411.79 -4516.87 -4886.65 -4851.06 -4173.28 -3323.23 -2639.15 -1567.32 -1154.41 -1008.61 -984.97 -1321.42 -1210.35 -1507.06 -2237.50 -2291.44 -2116.14 -1882.07 -1926.21 -2032.90 -2174.29 -2253.74 -2267.57 -2266.69 -2263.72 -2262.73 -2287.05 -2346.15 -2404.71 -2513.17 -2701.73 -2891.42 -3176.42 -3305.62 -3366.91 -3366.98
-4927.74 -4927.65 -4932.33 -4923.03 -4942.89 -4957.25 -4981.06 -5030.38 -5078.90 -5112.48 -5132.88 -5160.98 -5183.15 -5220.57 -5249.60 -5276.21 -5284.22 -5318.73 -5320.37 -5327.58 -5236.26 -4937.24 -3812.15 -3056.55 -2201.10 -2211.43 -2315.55 -2295.40 -2008.85 -1924.42 -1931.40 -1801.78 -1640.13 -527.95 -70.74 238.33 239.74 229.51 187.73 170.80 161.59 -43.53 -552.92 -214.21 -712.64 -1640.65 -1947.67 -2147.74 -2132.11 -2293.98 -2322.85 -2266.05 -2208.04 -3079.37 -3052.91 -3466.29 -3907.99 -4224.87 -4238.95 -4356.03 -4100.94 -4324.25 -4116.08 -4214.67 -3738.02 -3179.42 -2678.62 -2535.80 -2249.30 -2162.43 -1963.27 -1776.31 -1280.67 -897.65 155.55 160.91 189.77 210.55 238.98 239.06 256.76 264.19 283.90 304.17 324.92 336.76 390.91 397.72 417.78 465.02 485.59 505.06 524.50 589.37 636.91 746.01 696.20 621.42 327.46 136.83 -574.07 -481.54 -1029.58 -3677.12 -4723.46 -4482.32 -4501.19 -4884.21 -5029.12 -5079.09 -4482.83 -3573.39 -2820.02 -1829.74 -1256.31 -1056.47 -975.15 -973.36 -1106.37 -1415.79 -1644.22 -1925.08 -1853.38 -1989.01 -2099.98 -2191.27 -2257.04 -2266.35 -2272.12 -2286.35 -2340.13 -2346.92 -2422.41 -2532.80 -2597.81 -2838.99 -3021.34 -3301.99 -3451.60 -3527.20 -3527.45
-4937.88 -4938.83 -4940.82 -4948.64 -4965.41 -4984.51 -5012.36 -5049.45 -5080.69 -5115.05 -5140.10 -5167.46 -5187.81 -5221.47 -5259.65 -5307.63 -5336.61 -5353.50 -5372.24 -5363.10 -5283.63 -5123.69 -4374.02 -3450.73 -3389.54 -3028.18 -3277.20 -3337.73 -2607.91 -2298.64 -2035.42 -1754.18 -1284.00 -306.94 107.34 255.41 298.68 269.47 254.51 230.21 210.64 169.72 163.29 163.06 -119.60 -1003.54 -1334.48 -1782.26 -1869.34 -2060.87 -2047.53 -2042.90 -1995.09 -1890.48 -2237.86 -2618.05 -2789.29 -2869.84 -2932.14 -2870.75 -2891.00 -3105.25 -2822.96 -3019.26 -2741.51 -2427.42 -2431.00 -2246.18 -2204.49 -2104.36 -1851.97 -793.33 -22.77 154.28 192.84 226.29 233.45 238.15 253.16 276.53 286.11 303.07 320.22 338.86 346.29 367.24 388.25 399.75 418.31 454.24 460.98 488.87 491.16 504.25 515.02 632.19 738.41 728.09 417.26 156.62 132.44 105.82 -683.30 -2770.82 -4181.04 -4665.55 -4558.67 -4651.92 -4824.34 -5128.26 -5126.43 -5022.68 -3822.71 -3368.18 -2465.36 -1438.59 -1178.26 -971.84 -1003.94 -1127.15 -1332.20 -1584.45 -1693.13 -1934.65 -2102.98 -2151.09 -2233.67 -2280.90 -2295.09 -2311.87 -2349.89 -2392.41 -2506.27 -2641.62 -2805.10 -3153.51 -3320.22 -3494.57 -3566.57 -3671.62 -3671.75
-4923.38 -4926.15 -4928.31 -4942.73 -4957.47 -4996.93 -5018.05 -5044.21 -5075.01 -5100.95 -5144.14 -5162.57 -5192.20 -5225.04 -5270.85 -5306.97 -5337.29 -5358.60 -5377.75 -5386.64 -5357.05 -5230.30 -4849.97 -4530.80 -4427.53 -4659.34 -4561.52 -4105.86 -3127.91 -2510.46 -2200.49 -2030.19 -1641.05 -713.79 197.11 252.88 297.97 330.09 325.37 268.71 233.39 194.06 189.33 181.00 174.42 67.45 -90.51 -466.52 -829.14 -1194.02 -1439.71 -1571.33 -1777.42 -1844.60 -1947.58 -2016.70 -2134.55 -2296.27 -2189.51 -2294.72 -2250.57 -2206.31 -2274.78 -2314.59 -2338.36 -2212.74 -2192.78 -2221.86 -1985.32 -1859.60 -1369.68 25.46 159.82 180.67 238.01 310.31 302.32 281.57 289.26 304.69 304.06 330.86 336.69 360.23 366.00 383.84 394.15 402.39 420.30 444.98 447.93 441.71 455.17 456.37 470.98 477.05 598.68 851.23 550.39 190.36 138.72 121.70 58.95 -1615.17 -3278.79 -4381.39 -4580.44 -4466.50 -4674.24 -4933.01 -5057.31 -5196.30 -5108.48 -4722.54 -3665.66 -2983.41 -2490.29 -1473.98 -1301.83 -1200.63 -1176.89 -1247.13 -1439.80 -1758.76 -1930.31 -2107.51 -2227.56 -2295.83 -2305.02 -2308.34 -2336.02 -2425.71 -2569.89 -2757.23 -2923.86 -3153.12 -3446.33 -3557.07 -3647.61 -3715.87 -3734.55
-4899.21 -4902.17 -4906.91 -4920.30 -4941.50 -4971.40 -5001.43 -5042.36 -5073.59 -5094.44 -5134.49 -5160.32 -5189.64 -5228.96 -5267.25 -5316.66 -5335.91 -5369.00 -5376.04 -5386.06 -5383.18 -5347.40 -5260.64 -5158.83 -5169.52 -5199.50 -5042.63 -4853.66 -4216.89 -3460.48 -2655.72 -2193.00 -1251.35 -310.00 196.65 216.85 286.40 324.45 346.94 326.77 277.00 242.44 219.46 193.35 184.53 172.48 161.81 151.70 -128.85 -463.06 -445.45 -587.39 -1176.93 -1553.23 -1556.43 -1569.36 -1725.72 -1868.19 -1926.60 -1975.97 -1935.29 -1972.88 -2043.65 -2053.25 -2182.73 -2190.67 -2289.98 -2178.94 -1434.98 -1061.94 -428.16 126.11 176.70 189.81 239.55 332.40 351.41 320.55 325.86 331.01 346.57 380.98 380.56 383.46 385.94 394.20 408.32 419.28 429.87 437.62 439.61 441.28 442.12 442.92 440.47 426.63 445.10 631.11 272.60 368.44 202.60 158.74 170.87 -798.57 -1732.26 -3063.58 -4491.01 -4444.78 -4427.66 -4756.50 -4772.48 -5019.84 -5183.64 -5235.67 -4967.34 -4346.57 -3829.50 -3138.47 -2209.15 -1410.50 -1197.98 -1076.20 -1286.83 -1516.21 -1829.59 -2034.83 -2221.24 -2276.25 -2296.35 -2301.76 -2333.63 -2434.19 -2572.91 -2675.96 -2900.20 -3048.94 -3252.30 -3463.32 -3635.70 -3730.24 -3752.55
-4876.14 -4876.09 -4879.73 -4897.44 -4928.34 -4956.11 -4984.54 -5024.56 -5066.54 -5099.02 -5125.66 -5164.33 -5195.59 -5223.39 -5274.33 -5310.89 -5334.50 -5359.37 -5368.89 -5387.60 -5387.46 -5362.32 -5312.68 -5305.92 -5301.14 -5305.05 -5307.02 -5171.83 -4967.42 -4614.02 -3508.24 -2324.39 -1015.25 -173.58 186.46 209.97 269.45 294.91 320.56 340.68 319.08 281.14 255.14 243.95 221.31 196.56 176.24 175.71 157.05 144.89 138.03 18.10 -629.80 -940.72 -1132.18 -1265.06 -1382.26 -1480.54 -1545.01 -1688.57 -1636.68 -1520.93 -1660.24 -1799.22 -1824.73 -2021.19 -2324.76 -1583.79 -165.81 130.32 153.06 175.27 207.61 231.33 291.49 346.95 369.91 344.77 350.00 369.04 378.34 387.86 388.51 397.77 406.80 411.38 427.59 428.63 432.58 436.82 440.03 440.31 440.85 441.04 431.79 402.20 343.78 384.29 464.86 611.50 358.02 254.69 214.90 156.37 83.95 -1512.18 -4625.57 -4393.87 -4380.97 -4557.45 -4770.02 -5041.23 -5221.94 -5411.22 -5544.85 -5385.60 -5242.50 -4741.12 -3575.34 -2261.70 -1482.63 -1060.71 -1186.02 -1434.10 -1619.60 -1950.79 -2019.35 -2188.52 -2235.35 -2273.34 -2299.66 -2349.14 -2441.97 -2515.22 -2733.99 -3007.34 -3260.61 -3411.10 -3615.50 -3752.79 -3752.85
-4856.19 -4858.93 -4866.77 -4880.57 -4901.11 -4939.95 -4968.14 -5019.78 -5063.14 -5106.20 -5139.53 -5180.26 -5219.40 -5240.42 -5270.19 -5301.43 -5323.05 -5347.69 -5364.24 -5372.09 -5365.44 -5361.37 -5340.77 -5336.65 -5343.69 -5347.41 -5340.44 -5321.23 -5268.16 -5037.39 -3757.14 -2596.57 -1492.88 170.37 180.75 205.82 252.17 288.16 312.53 348.07 349.49 302.93 279.31 285.51 263.51 241.72 210.61 189.86 175.38 163.36 148.89 141.12 128.93 -329.39 -462.01 -548.54 -522.00 -957.11 -1023.21 -1071.87 -1199.64 -1065.55 -1032.44 -1191.64 -925.79 -1567.32 -1167.53 -431.33 -13.21 153.77 179.47 210.88 242.42 289.89 335.02 346.19 360.52 357.40 359.82 380.34 394.57 395.65 409.29 410.49 414.79 424.32 434.37 438.40 444.34 442.65 444.88 444.43 442.19 439.65 439.09 407.86 380.99 409.33 492.38 714.44 734.00 458.62 271.32 167.43 123.26 -884.16 -3259.43 -4621.75 -4452.64 -4489.16 -4839.12 -4950.62 -5103.82 -5349.45 -5546.20 -5617.04 -5566.83 -5279.17 -4505.10 -3283.58 -1606.73 -1019.91 -1053.33 -1242.05 -1373.31 -1607.46 -1890.64 -2139.14 -2178.36 -2192.17 -2283.36 -2306.39 -2377.09 -2451.92 -2577.64 -2798.49 -3094.00 -3440.57 -3584.92 -3673.81 -3678.04
-4839.76 -4839.71 -4849.39 -4873.28 -4894.23 -4938.83 -4958.60 -5025.93 -5074.33 -5143.05 -5168.59 -5206.71 -5233.97 -5264.76 -5276.39 -5290.67 -5302.98 -5314.94 -5338.71 -5342.84 -5350.91 -5346.09 -5348.74 -5354.30 -5361.93 -5363.45 -5375.70 -5373.50 -5298.26 -5108.16 -4063.74 -2417.93 -971.54 168.52 188.22 234.86 277.50 292.03 320.07 353.24 349.57 320.93 321.92 314.06 295.18 265.57 247.83 206.25 191.62 184.21 159.59 150.28 142.19 135.83 126.93 35.95 -38.43 -157.68 -507.90 -654.29 -371.20 -284.50 -430.87 -399.35 -100.45 -363.35 -418.87 134.07 163.44 182.90 190.22 231.75 277.53 297.56 318.25 332.89 349.67 366.35 374.82 391.51 400.11 407.98 420.63 425.34 434.74 439.97 450.14 456.00 461.38 456.67 456.50 450.58 443.19 438.88 438.81 428.79 442.94 447.12 455.04 674.21 754.77 565.39 284.08 162.52 86.19 -194.76 -2434.22 -4594.92 -4377.62 -4295.37 -4572.65 -4730.16 -5041.15 -5266.95 -5505.45 -5636.96 -5683.90 -5513.45 -4947.93 -3070.17 -1731.71 -933.87 -925.13 -1001.82 -1273.33 -1486.31 -1729.19 -1969.16 -2032.25 -2165.11 -2267.17 -2336.82 -2384.16 -2472.31 -2634.63 -2842.29 -3091.21 -3258.23 -3472.65 -3644.96 -3645.03
-4829.07 -4829.01 -4841.13 -4864.40 -4885.30 -4927.93 -4965.00 -5043.20 -5123.98 -5152.85 -5200.22 -5242.72 -5262.34 -5283.88 -5283.57 -5276.08 -5282.64 -5291.43 -5299.39 -5313.59 -5328.27 -5340.91 -5354.58 -5363.25 -5370.17 -5377.67 -5392.43 -5415.54 -5383.30 -5108.28 -3885.13 -1231.23 147.10 168.35 204.09 220.91 271.11 309.09 335.26 363.49 352.85 350.17 360.89 357.52 342.87 367.01 326.54 267.01 226.91 208.44 178.69 167.47 156.28 147.96 128.40 124.47 123.57 127.88 23.36 32.88 137.49 132.81 146.20 152.78 157.41 191.40 204.64 179.00 200.17 201.13 241.15 255.26 275.66 289.38 327.10 337.53 357.98 370.77 381.83 395.89 404.08 418.61 429.69 438.19 449.72 450.42 468.21 472.07 477.89 477.03 468.72 456.46 449.87 442.53 442.03 454.27 456.53 471.07 515.17 549.63 793.54 758.78 490.66 208.47 103.27 -214.70 -1335.85 -2881.01 -4369.07 -4360.88 -4457.69 -4661.21 -4944.85 -5137.32 -5427.24 -5598.44 -5700.75 -5649.57 -5069.36 -3406.60 -1871.52 -757.36 -734.10 -796.49 -1100.05 -1371.60 -1635.21 -1782.51 -1889.80 -2082.02 -2240.33 -2276.60 -2331.47 -2466.63 -2653.13 -2869.45 -3008.56 -3292.12 -3460.31 -3642.48 -3642.54
-4825.91 -4825.85 -4838.79 -4859.15 -4892.04 -4921.09 -4980.72 -5033.04 -5122.71 -5163.61 -5217.69 -5240.71 -5278.05 -5293.63 -5289.76 -5274.13 -5269.23 -5279.19 -5295.70 -5312.66 -5321.64 -5343.90 -5356.74 -5369.11 -5376.92 -5382.99 -5375.29 -5322.03 -5237.00 -3403.22 -2107.19 -243.00 166.43 194.81 240.01 280.42 296.59 326.65 351.78 371.29 384.80 387.10 397.95 402.64 432.60 402.26 409.34 293.17 237.85 224.40 208.38 192.85 175.69 172.63 154.06 148.95 142.36 139.82 144.67 170.91 173.68 174.02 184.22 188.00 183.72 203.62 245.93 234.35 232.82 232.82 253.78 260.48 275.83 295.83 323.77 334.69 351.13 365.82 379.79 395.85 405.41 424.25 438.89 451.75 460.10 466.89 484.40 487.59 493.88 499.63 486.42 471.32 466.58 447.71 441.71 452.46 456.26 480.71 528.85 587.34 730.80 764.48 648.71 344.40 200.96 48.42 -151.82 -526.96 -3072.22 -4519.73 -4521.79 -4730.12 -4849.64 -5128.04 -5270.23 -5547.52 -5701.13 -5654.24 -5095.59 -3928.75 -2298.27 -803.98 -658.42 -711.63 -991.34 -1153.38 -1447.97 -1638.81 -1830.12 -2019.23 -2161.48 -2231.80 -2285.45 -2391.33 -2534.56 -2803.67 -3082.93 -3332.44 -3467.48 -3640.40 -3640.46
-4830.82 -4831.85 -4845.56 -4865.69 -4894.44 -4929.93 -4988.13 -5051.64 -5111.76 -5167.42 -5217.12 -5249.46 -5282.68 -5296.43 -5291.84 -5278.20 -5273.05 -5281.95 -5299.07 -5313.05 -5330.19 -5351.90 -5364.75 -5372.80 -5372.83 -5336.68 -5243.68 -4452.87 -3699.59 -2724.65 -665.27 -33.08 183.45 192.03 254.00 284.08 305.40 336.71 351.55 387.21 404.15 445.16 413.42 448.05 493.54 509.36 408.66 367.73 287.65 257.16 231.82 208.80 191.31 180.87 173.79 170.73 168.97 162.23 173.53 177.14 189.54 201.54 224.58 227.03 221.29 243.69 281.35 273.67 284.12 260.96 252.76 264.49 278.36 298.83 311.89 340.40 353.52 365.76 381.00 401.54 409.19 428.68 440.59 455.30 467.27 477.85 488.49 498.80 507.03 512.30 504.58 499.36 490.15 454.11 449.77 456.09 456.36 461.76 508.79 528.58 647.46 800.41 828.39 494.08 300.32 199.24 149.96 -1189.76 -3044.46 -4898.03 -4678.36 -4718.72 -4863.54 -5070.82 -5240.04 -5505.07 -5648.84 -5643.45 -5395.74 -4104.64 -2065.78 -784.94 -620.18 -666.58 -760.43 -1146.44 -1351.26 -1558.07 -1702.55 -1899.90 -2017.28 -2138.10 -2223.00 -2289.08 -2385.59 -2639.86 -2857.16 -3052.41 -3329.36 -3463.45 -3463.00
-4843.44 -4843.37 -4864.38 -4871.24 -4918.97 -4947.23 -5020.72 -5059.02 -5123.77 -5189.01 -5230.23 -5259.55 -5290.98 -5299.31 -5292.91 -5285.30 -5286.99 -5291.43 -5309.53 -5324.04 -5337.81 -5358.03 -5363.78 -5365.95 -5280.74 -5238.63 -5035.64 -4050.43 -3275.92 -1668.07 -243.75 171.91 196.72 209.08 243.76 296.74 311.74 336.97 356.90 396.54 424.22 455.60 445.03 478.22 513.21 481.82 409.38 344.24 297.60 279.77 237.93 223.89 208.38 196.90 187.77 182.18 180.93 178.78 181.51 197.75 226.79 248.88 263.10 291.83 287.50 288.02 296.47 288.86 286.87 278.64 272.14 278.58 289.19 300.85 323.61 338.67 351.98 369.47 376.83 399.94 412.67 432.06 446.76 460.48 474.21 487.81 496.46 509.49 528.23 530.11 522.70 509.74 498.71 493.86 470.45 461.49 456.47 464.82 504.12 544.03 601.05 776.37 916.55 649.03 343.76 211.19 180.08 124.51 -2614.18 -4863.45 -4767.22 -4755.47 -4861.57 -5102.20 -5267.78 -5470.48 -5614.22 -5602.78 -5241.10 -4765.34 -2037.83 -900.02 -561.83 -600.19 -642.78 -1082.66 -1281.48 -1518.12 -1758.48 -1751.80 -1941.66 -2049.24 -2141.85 -2243.89 -2357.37 -2581.08 -2741.02 -3031.17 -3240.78 -3375.88 -3375.92
-4862.67 -4862.58 -4884.95 -4898.75 -4931.17 -4972.57 -5011.72 -5070.39 -5118.14 -5182.82 -5211.06 -5255.78 -5279.97 -5297.24 -5298.47 -5289.70 -5291.99 -5310.21 -5324.05 -5340.67 -5348.10 -5345.41 -5283.38 -5265.38 -4994.06 -4476.89 -4070.65 -3411.89 -2479.15 -582.01 159.27 180.94 197.24 231.88 261.89 293.21 328.36 337.04 345.04 390.92 419.17 448.23 485.05 491.23 528.80 494.75 418.43 373.94 299.41 280.53 259.43 236.52 225.45 207.36 195.51 192.40 191.37 190.68 212.66 225.30 250.73 286.27 312.03 323.28 314.79 307.34 294.55 290.58 288.79 285.62 283.30 294.06 298.44 311.10 320.24 330.08 345.95 368.57 378.84 395.23 419.24 445.88 454.36 468.77 485.85 500.44 507.88 522.26 532.79 545.32 549.41 535.82 524.13 509.96 484.70 471.10 461.48 469.52 508.96 515.99 557.80 678.95 875.85 719.13 406.25 268.50 181.87 -182.30 -1807.93 -4029.51 -4548.38 -4604.44 -4876.19 -5072.48 -5311.75 -5459.43 -5570.94 -5550.93 -5379.54 -3876.04 -2239.84 -914.30 -554.50 -514.34 -638.40 -842.11 -1215.06 -1349.86 -1447.15 -1675.49 -1923.45 -1997.66 -2104.78 -2197.35 -2360.41 -2450.18 -2755.33 -2980.68 -3102.56 -3192.33 -3192.25
-4886.49 -4886.40 -4908.08 -4924.69 -4961.58 -4987.01 -5031.80 -5072.76 -5127.89 -5162.95 -5196.46 -5244.18 -5261.49 -5285.27 -5296.58 -5299.10 -5311.66 -5332.85 -5331.96 -5331.51 -5317.65 -5263.32 -5170.53 -4889.71 -4106.22 -3866.82 -2872.30 -2398.24 -1049.96 161.36 170.90 183.89 211.50 257.59 273.83 308.92 340.74 352.23 370.37 394.77 425.67 450.00 474.57 483.14 514.73 498.42 411.71 362.55 312.52 282.81 270.03 246.67 236.35 220.42 216.86 214.44 210.75 223.71 247.44 272.56 287.71 314.95 334.91 327.87 310.53 300.44 293.43 290.29 289.10 286.69 289.25 293.70 302.43 313.01 320.43 334.89 354.31 365.05 381.73 397.41 425.25 443.30 457.07 477.26 492.49 506.56 525.65 531.69 545.54 571.87 570.87 566.97 544.69 527.16 492.76 479.09 469.96 459.28 484.16 511.43 552.75 619.74 900.15 851.94 379.82 196.57 131.18 -178.60 -2520.05 -4232.25 -4244.41 -4444.14 -4766.76 -4924.27 -5334.72 -5430.40 -5499.90 -5488.92 -5264.58 -3885.79 -2287.08 -755.82 -466.55 -468.86 -554.00 -803.26 -1036.98 -1158.62 -1295.45 -1550.60 -1867.12 -1919.50 -2024.00 -2195.44 -2342.38 -2456.70 -2564.94 -2832.99 -2969.93 -3141.95 -3142.02
-4913.95 -4913.81 -4927.97 -4960.62 -4978.69 -5003.85 -5053.45 -5089.49 -5119.72 -5165.08 -5189.79 -5226.45 -5250.68 -5269.77 -5292.32 -5306.24 -5320.59 -5330.99 -5337.17 -5264.68 -5164.58 -4904.84 -4386.57 -3869.35 -3360.00 -2600.16 -2232.13 -1631.00 -662.54 163.93 180.11 201.29 242.28 270.98 286.03 330.49 345.42 364.18 375.51 388.05 413.01 421.79 455.32 478.62 495.07 490.21 427.31 392.55 333.78 288.82 271.43 251.85 244.74 238.70 229.20 228.19 233.98 238.43 283.36 313.31 323.94 323.93 313.17 302.07 297.68 296.08 292.24 288.24 286.79 285.50 288.83 294.04 300.96 313.34 322.33 334.08 342.10 357.72 382.85 393.50 426.00 438.27 451.76 479.73 494.63 508.20 536.46 549.06 563.60 577.47 585.13 585.85 569.23 547.61 528.52 499.05 476.08 462.13 481.77 510.69 532.02 601.51 777.38 770.76 472.90 195.38 129.66 -158.17 -2181.46 -4129.62 -4333.28 -4310.49 -4485.30 -4758.72 -5074.81 -5441.41 -5457.26 -5456.36 -5186.57 -3851.06 -2115.35 -656.90 -424.25 -388.43 -500.89 -699.48 -833.83 -978.57 -1352.11 -1519.46 -1556.04 -1732.33 -1949.62 -2088.98 -2246.53 -2381.76 -2555.17 -2751.28 -2853.20 -2932.78 -2932.69
-4944.06 -4943.97 -4964.49 -4987.89 -5009.02 -5052.36 -5067.15 -5106.82 -5141.43 -5178.86 -5199.88 -5225.50 -5249.14 -5272.84 -5295.54 -5298.42 -5309.21 -5302.04 -5131.68 -5073.44 -4671.07 -4204.80 -3640.41 -2807.53 -2386.50 -2032.92 -1909.20 -1462.84 -185.15 177.38 195.43 225.43 250.93 282.72 317.93 328.15 352.77 367.62 376.19 389.73 406.81 422.16 442.24 474.82 483.69 465.19 429.27 404.64 341.95 309.13 283.73 267.95 255.04 248.63 244.27 247.88 245.26 277.07 307.60 331.32 336.94 319.86 308.52 300.47 296.51 293.76 289.77 286.83 285.29 284.66 288.06 295.46 299.23 307.34 322.40 329.30 344.43 358.29 379.69 399.54 412.01 441.90 466.02 474.39 494.05 511.55 533.12 553.44 570.08 584.04 596.21 598.72 584.21 557.46 540.53 502.82 483.41 469.66 478.02 504.29 517.29 543.20 677.09 790.13 450.43 207.02 22.36 -340.28 -1584.77 -3620.57 -4092.53 -4337.19 -4446.10 -4770.50 -5019.16 -5328.58 -5400.91 -5383.69 -5074.43 -3891.96 -1587.72 -829.49 -399.55 -358.56 -371.54 -558.98 -755.39 -866.52 -1089.62 -1233.62 -1434.25 -1656.59 -1927.49 -2061.55 -2234.55 -2366.07 -2544.95 -2672.67 -2789.51 -2879.41 -2879.48
-4975.05 -4974.96 -4997.13 -5012.05 -5038.33 -5077.90 -5101.36 -5131.50 -5155.49 -5187.48 -5211.58 -5237.30 -5262.74 -5278.30 -5277.12 -5262.75 -5142.89 -5014.37 -4682.99 -4120.08 -3587.82 -3337.75 -2487.23 -2063.41 -2024.76 -1849.77 -1214.35 -543.05 169.56 185.45 228.55 266.16 274.56 289.65 314.64 339.74 359.10 370.90 386.08 393.72 414.16 427.36 453.59 460.94 431.36 414.15 398.52 376.71 335.79 302.31 287.03 276.87 260.55 250.92 252.92 263.09 265.19 293.61 327.94 336.31 334.72 322.55 309.33 300.27 297.47 293.23 289.75 285.89 284.69 283.87 285.26 290.96 296.03 303.64 321.85 328.43 343.35 353.42 377.45 396.78 411.18 427.18 452.50 473.28 491.56 511.80 530.94 553.56 576.02 591.93 597.69 603.56 584.31 548.03 534.36 510.69 481.46 463.30 456.80 475.55 487.64 469.99 644.09 745.95 365.78 205.85 180.59 -607.86 -2302.50 -3644.62 -4166.13 -4384.36 -4631.51 -4902.43 -5111.78 -5301.27 -5367.57 -5296.60 -4819.53 -3827.73 -1461.52 -617.32 -322.82 -319.49 -352.08 -454.01 -611.18 -657.45 -904.90 -1235.30 -1495.10 -1546.70 -1876.41 -2136.20 -2253.61 -2373.27 -2476.71 -2651.19 -2705.90 -2772.12 -2772.11
-5006.20 -5006.21 -5021.55 -5048.41 -5076.66 -5106.53 -5127.30 -5156.42 -5173.60 -5199.54 -5222.59 -5243.27 -5247.21 -5230.15 -5206.35 -4968.58 -4673.24 -4010.16 -3522.27 -3214.64 -3085.62 -2185.96 -2026.48 -1824.70 -1798.92 -1214.68 -373.39 144.16 173.07 210.73 254.70 301.47 317.94 333.96 342.23 357.03 366.75 379.62 391.13 397.99 413.82 437.32 446.72 428.60 399.55 377.51 368.00 351.87 322.79 310.65 289.25 282.01 271.26 265.25 269.50 271.89 290.50 327.42 342.15 332.48 320.91 311.92 304.28 299.87 296.56 293.53 289.27 285.66 284.37 283.40 285.38 293.10 296.17 306.26 316.17 327.86 334.83 353.15 377.35 392.16 415.49 433.66 444.02 465.83 493.40 514.83 529.39 560.74 576.39 590.58 601.57 602.57 584.22 543.87 528.02 505.30 486.38 456.69 444.40 440.22 443.11 416.70 512.87 588.56 382.96 197.94 114.03 -798.62 -2067.80 -3551.42 -4127.83 -4457.20 -4721.20 -4942.89 -5170.48 -5274.71 -5318.12 -5249.78 -4810.00 -3203.57 -1408.99 -514.40 -316.87 -299.49 -340.34 -398.56 -469.30 -629.45 -875.94 -1192.22 -1347.54 -1557.94 -1886.54 -2130.39 -2279.28 -2347.41 -2458.89 -2556.51 -2678.85 -2750.89 -2750.96
-5039.40 -5039.31 -5062.54 -5079.46 -5095.52 -5130.55 -5157.19 -5175.53 -5197.61 -5214.66 -5216.98 -5204.35 -5168.93 -4980.66 -4584.78 -4148.74 -3488.65 -3114.07 -2607.29 -2253.46 -1927.33 -1760.13 -1757.23 -1688.59 -1429.78 -776.06 -54.53 174.59 188.13 225.57 268.70 317.80 332.48 367.62 368.26 375.90 383.91 387.05 400.22 410.10 415.69 437.49 448.95 437.31 398.93 367.55 354.66 332.48 318.90 311.66 292.00 282.54 274.45 272.41 276.80 280.65 294.52 324.94 336.94 326.48 319.90 309.75 307.65 301.65 297.13 294.74 289.48 285.62 283.78 282.94 285.56 291.67 294.42 303.26 314.40 324.59 336.31 354.54 374.74 380.41 419.62 431.51 443.20 466.48 483.57 509.35 531.55 552.82 574.20 588.78 594.69 591.26 577.20 549.78 521.22 504.46 471.77 455.20 432.21 413.68 412.88 394.25 380.13 381.44 316.52 192.90 88.18 -285.33 -1008.85 -3076.92 -4213.07 -4588.25 -4746.22 -4838.21 -5060.20 -5125.27 -5163.46 -5021.72 -4738.93 -2815.68 -1695.11 -412.25 -266.64 -265.51 -330.10 -387.76 -480.62 -658.35 -813.45 -1071.43 -1349.88 -1512.68 -1915.84 -2113.08 -2264.15 -2397.05 -2457.75 -2577.23 -2686.84 -2753.50 -2753.29
-5076.96 -5076.86 -5097.31 -5116.65 -5132.64 -5160.17 -5190.59 -5204.30 -5211.30 -5216.96 -5191.64 -5060.55 -4724.92 -4573.71 -4074.34 -3406.55 -2923.70 -2349.07 -2049.67 -1925.29 -1731.62 -1669.10 -1706.03 -1700.87 -1351.42 -298.99 66.40 184.36 213.30 237.11 276.11 311.42 346.25 373.24 406.45 405.54 395.35 399.16 406.91 421.94 429.98 429.77 453.84 436.00 400.42 357.71 329.57 319.16 306.73 297.92 293.17 280.28 278.11 278.31 284.57 288.93 297.89 319.76 330.70 330.62 324.08 314.99 308.90 302.95 299.31 294.81 290.39 286.41 283.66 282.45 283.75 289.53 296.86 305.48 312.49 321.66 337.52 352.30 371.20 383.81 405.28 419.62 435.92 458.80 472.98 500.08 517.68 543.03 570.85 590.45 593.31 583.52 566.81 553.42 513.16 499.23 473.99 459.72 440.30 413.15 375.61 354.03 337.36 312.45 262.81 179.84 156.26 77.49 -384.77 -3432.77 -4483.48 -4395.93 -4766.80 -4835.42 -4938.52 -4998.45 -5076.42 -4820.18 -4190.63 -2488.80 -712.23 -311.82 -220.73 -253.58 -297.92 -377.03 -477.36 -619.22 -802.84 -955.24 -1208.08 -1506.64 -1770.83 -2078.47 -2247.62 -2382.00 -2508.99 -2557.77 -2688.15 -2755.15 -2755.23
-5121.75 -5121.64 -5140.89 -5154.27 -5191.51 -5216.34 -5229.82 -5239.23 -5233.74 -5232.43 -5152.17 -4885.93 -4241.22 -3523.88 -2756.48 -2600.64 -2324.96 -2182.11 -1996.54 -1864.17 -1730.36 -1674.97 -1745.26 -1709.08 -969.82 -207.40 50.18 196.68 243.55 258.47 283.15 314.26 328.95 353.13 386.26 397.81 411.51 416.14 423.39 425.49 432.39 438.49 453.60 433.01 387.22 356.35 331.26 309.35 300.57 293.53 294.88 288.85 289.56 293.10 290.94 303.35 311.27 333.29 348.69 339.08 333.63 318.53 310.84 302.16 299.38 293.04 289.14 285.40 282.30 281.91 283.95 286.88 294.88 304.73 310.75 319.75 330.51 344.74 361.22 372.99 393.31 406.94 428.61 440.86 482.25 496.74 519.25 545.29 572.55 588.10 588.08 583.71 564.96 551.04 522.33 501.59 483.60 459.32 443.80 404.39 383.10 348.21 323.69 283.49 213.03 186.74 138.34 88.49 -505.22 -2163.45 -3235.14 -4198.35 -4723.79 -4802.69 -4889.09 -4968.26 -4959.86 -4570.89 -3438.39 -1847.08 -553.41 -201.37 -187.09 -252.40 -299.05 -394.32 -495.78 -596.43 -729.54 -934.06 -1184.83 -1376.67 -1745.07 -1988.52 -2219.97 -2425.37 -2591.09 -2676.66 -2798.78 -2833.75 -2833.89
-5180.04 -5180.60 -5197.67 -5214.18 -5240.18 -5255.32 -5287.03 -5285.57 -5240.80 -5211.38 -4993.27 -4599.13 -3485.25 -2841.53 -2312.25 -2050.79 -2069.52 -2104.97 -2036.86 -1871.49 -1773.89 -1731.66 -1729.87 -1659.75 -680.65 55.89 150.77 204.08 237.12 267.34 290.38 316.27 341.06 366.40 399.43 401.43 433.40 438.44 438.95 446.01 450.65 450.64 436.28 410.75 361.35 340.13 323.43 304.62 294.87 284.34 281.93 284.70 287.17 298.46 306.71 327.32 345.34 372.33 382.03 359.95 355.11 330.17 317.71 307.72 301.07 292.88 287.57 283.97 282.30 281.34 283.68 286.32 293.62 300.29 309.77 316.19 324.11 339.35 352.90 367.40 380.14 399.46 428.43 445.11 470.70 490.23 505.88 542.93 551.52 567.02 572.57 570.70 558.53 546.57 520.21 506.45 493.57 448.52 430.33 394.86 373.36 345.65 324.91 269.49 224.97 172.35 123.16 107.72 60.16 -370.88 -2397.60 -4178.55 -4379.77 -4648.14 -4827.30 -4873.13 -4744.61 -4109.40 -2154.21 -770.47 -250.25 -155.24 -161.78 -220.91 -271.44 -379.13 -491.36 -613.45 -774.64 -914.65 -1262.48 -1506.80 -1806.12 -2039.97 -2226.95 -2386.92 -2590.23 -2766.65 -2954.90 -2998.38 -2998.59
-5261.05 -5260.90 -5271.31 -5261.67 -5264.25 -5269.23 -5213.77 -5175.38 -5116.36 -4673.80 -4166.82 -3652.82 -2918.24 -2008.94 -1783.36 -1684.40 -1805.00 -1924.14 -1998.27 -1764.70 -1669.96 -1689.98 -1722.79 -1584.55 -793.97 106.15 152.73 191.93 227.15 260.95 295.50 317.99 338.01 355.68 381.50 395.05 438.35 455.21 461.52 465.33 458.53 436.32 401.04 382.79 347.56 325.17 297.51 282.33 279.68 280.20 275.40 264.24 275.13 286.02 303.99 318.97 345.71 384.15 401.55 403.94 385.58 341.06 327.49 310.47 300.34 292.66 288.38 284.05 281.51 280.07 282.01 286.22 293.00 297.08 305.56 314.84 324.62 337.29 346.62 364.13 375.86 391.46 419.10 435.64 450.19 482.38 500.67 535.15 541.82 558.18 562.51 562.03 552.85 538.91 519.98 504.11 490.64 458.87 437.80 351.19 326.11 313.52 287.52 249.40 210.01 182.95 140.26 92.40 -83.11 -675.26 -2017.20 -4161.43 -4193.43 -4481.85 -4689.66 -4714.43 -4330.82 -3610.95 -1477.17 -347.31 -160.16 -103.45 -177.77 -221.54 -253.13 -347.36 -421.79 -609.41 -754.05 -1004.59 -1421.77 -1667.57 -1931.08 -2136.12 -2273.16 -2338.53 -2582.78 -2680.19 -3051.38 -3123.52 -3123.70
-5303.86 -5302.15 -5215.88 -5026.99 -4999.03 -4998.56 -4817.34 -4397.32 -4164.53 -3706.01 -3000.93 -2247.53 -2128.89 -1803.64 -1648.53 -1625.79 -1664.51 -1687.90 -1653.55 -1294.31 -1399.73 -1379.02 -1436.50 -1360.07 -934.73 -41.62 170.25 194.68 227.76 261.84 298.90 323.91 345.11 374.45 383.63 395.09 440.84 473.08 477.94 474.29 463.95 435.65 376.13 360.77 349.28 308.49 277.46 271.58 272.02 259.30 260.22 247.50 259.60 276.69 288.50 287.32 321.47 367.34 413.39 424.94 401.05 356.47 341.67 311.96 302.12 293.52 288.10 283.56 281.13 278.75 279.35 283.53 290.68 296.92 303.35 309.52 320.34 329.75 346.98 361.49 373.53 385.32 402.65 425.16 443.36 466.88 487.72 502.22 533.15 550.50 555.93 553.52 547.68 536.80 517.87 503.93 476.40 448.76 423.29 361.27 327.35 284.43 249.17 211.70 185.92 157.99 130.28 91.61 -159.75 -1139.34 -1837.97 -3731.88 -4036.99 -4301.17 -4663.93 -4715.58 -3614.12 -2519.16 -734.76 -289.80 -77.30 -105.95 -162.65 -211.46 -255.72 -334.45 -456.16 -655.57 -824.49 -1107.31 -1505.34 -1823.06 -2018.47 -2127.90 -2283.30 -2413.19 -2570.91 -2740.70 -3041.37 -3332.85 -3333.13
-4802.16 -4802.67 -4407.45 -4339.78 -4206.07 -3816.88 -3594.60 -3107.85 -2637.90 -2267.18 -2211.31 -1937.19 -1770.25 -1714.77 -1705.75 -1699.82 -1665.68 -1552.19 -1401.75 -1040.98 -730.22 -688.78 -955.04 -1122.99 -617.72 154.02 179.68 193.62 226.64 260.39 297.72 328.99 360.61 402.45 415.60 428.16 480.57 500.67 493.54 489.20 470.18 432.01 382.27 348.06 318.84 277.23 272.19 258.28 257.15 252.79 249.08 245.73 252.27 268.53 277.32 282.01 296.76 325.06 376.23 406.79 398.97 375.69 346.65 318.81 305.83 296.38 285.66 283.76 280.09 277.45 278.25 284.59 290.26 297.63 304.83 312.18 322.30 331.74 343.68 354.43 373.14 387.04 401.25 415.45 446.29 463.17 480.13 498.00 522.41 540.92 543.57 547.54 544.44 536.58 520.94 506.68 460.81 421.57 396.66 359.90 344.70 272.26 218.65 190.71 160.43 143.35 125.17 -95.80 -726.46 -1512.67 -2666.31 -3268.17 -4073.46 -4394.97 -4619.83 -4655.84 -3473.51 -1722.74 -470.04 -167.49 -38.65 -95.89 -160.36 -215.86 -247.57 -299.25 -442.46 -629.52 -956.37 -1315.02 -1444.39 -1719.22 -1955.49 -2198.45 -2390.13 -2531.63 -2749.65 -2879.61 -3128.59 -3321.19 -3321.24
-3271.53 -3273.64 -3240.05 -2925.94 -2990.37 -2395.09 -2335.38 -2069.46 -2005.12 -1823.75 -1739.01 -1724.21 -1737.07 -1749.27 -1753.95 -1774.70 -1725.36 -1574.77 -1267.50 -964.68 -359.36 -388.20 -462.78 -662.84 -56.65 155.43 178.67 201.33 227.00 251.95 281.75 325.49 350.54 378.19 401.68 438.63 498.37 527.75 517.27 504.84 463.24 417.81 366.55 333.86 293.67 275.32 262.40 255.12 251.79 246.91 245.53 242.49 244.63 248.75 259.34 277.48 279.05 303.90 325.75 370.83 381.65 362.33 331.23 314.37 307.92 299.34 286.23 283.31 277.84 276.22 276.76 281.10 288.09 294.25 304.80 310.84 320.46 333.56 343.08 354.74 370.20 391.29 407.62 421.22 439.26 460.92 474.06 494.44 501.85 524.38 527.77 531.77 533.44 530.48 518.24 467.19 439.94 384.81 347.33 339.57 321.60 263.92 204.48 170.16 144.03 128.48 113.36 -742.86 -1343.12 -2083.39 -2884.12 -3434.03 -4475.80 -4818.42 -4873.32 -4206.02 -3068.05 -1403.51 -382.11 -42.32 -36.00 -93.76 -153.21 -196.84 -221.23 -282.26 -429.00 -649.06 -965.70 -1336.48 -1553.84 -1656.67 -2030.74 -2284.30 -2494.22 -2649.39 -2839.49 -3089.81 -3169.08 -3330.03 -3330.14
-2040.92 -2043.06 -2096.65 -2213.03 -2062.40 -1997.90 -1901.81 -1814.56 -1752.45 -1730.39 -1727.35 -1739.87 -1758.57 -1778.88 -1795.53 -1814.67 -1798.66 -1678.08 -1482.14 -1056.01 -453.82 -155.51 -203.69 -217.82 128.92 150.38 183.47 202.85 228.46 254.00 274.44 299.71 344.49 379.75 429.74 467.99 495.69 513.33 488.02 463.80 445.53 410.24 351.57 312.34 284.19 270.87 255.53 249.58 245.70 241.72 241.98 241.82 243.11 245.65 253.16 262.24 272.12 284.44 311.47 327.06 359.28 368.51 354.94 316.33 302.04 297.72 286.40 282.74 277.57 275.69 276.09 279.30 286.00 293.95 301.92 312.87 318.29 330.53 340.99 356.29 372.37 388.85 403.30 416.72 443.16 453.18 467.72 485.98 499.35 505.02 516.38 513.94 519.80 517.21 503.60 470.84 429.36 408.41 367.39 328.01 269.36 255.74 176.08 162.62 138.45 119.99 -207.00 -1181.09 -1385.55 -1937.23 -2640.75 -4115.97 -5169.82 -4953.64 -4782.72 -4324.21 -2576.82 -792.16 -113.24 -25.41 -28.24 -95.51 -141.24 -194.92 -216.32 -288.27 -426.65 -676.95 -950.49 -1193.93 -1450.97 -1848.79 -2172.56 -2404.22 -2559.76 -2706.41 -2968.52 -3113.46 -3259.96 -3343.86 -3343.98
-1781.80 -1782.30 -1827.76 -1838.96 -1830.71 -1824.72 -1824.09 -1812.63 -1773.64 -1758.69 -1760.64 -1771.19 -1790.16 -1801.20 -1824.56 -1847.07 -1816.15 -1730.68 -1573.59 -1003.14 -859.48 -397.26 -190.17 -6.93 134.86 144.84 177.69 212.58 230.93 236.53 257.06 272.10 302.08 323.21 413.43 453.52 438.41 441.23 413.40 411.68 422.03 390.22 352.01 295.41 263.37 262.92 253.48 244.41 242.05 241.24 241.06 241.21 242.41 245.77 250.48 257.31 264.34 275.99 286.56 320.66 358.21 366.09 348.31 326.14 304.90 298.02 285.67 280.74 276.29 274.62 275.33 276.97 284.05 290.24 298.08 314.18 323.99 337.09 344.87 360.45 377.04 383.87 409.17 420.58 434.16 447.58 468.06 478.82 488.99 497.22 500.63 510.01 515.03 508.29 490.47 443.60 431.31 381.95 348.40 320.79 261.46 228.45 185.53 148.68 124.85 110.49 -88.81 -990.80 -1494.80 -1643.75 -3341.40 -4428.53 -5057.89 -5129.29 -4919.70 -3846.18 -1593.55 -536.49 -61.89 -4.13 -44.77 -105.81 -145.19 -193.37 -234.61 -291.53 -505.71 -678.45 -1081.02 -1297.17 -1731.47 -2048.04 -2172.04 -2412.21 -2589.06 -2670.01 -2943.88 -3126.55 -3220.43 -3306.72 -3306.70
-1820.89 -1820.55 -1836.33 -1844.41 -1856.61 -1868.66 -1863.46 -1835.09 -1814.82 -1792.58 -1788.92 -1792.82 -1807.87 -1822.43 -1836.71 -1857.62 -1831.67 -1778.21 -1532.84 -1160.81 -696.59 -435.80 -212.90 52.22 137.99 145.44 177.03 192.95 205.85 221.30 235.46 261.31 276.95 313.84 329.46 340.23 377.30 395.65 379.04 364.65 350.42 326.58 291.68 273.34 258.82 253.75 245.15 241.91 240.60 240.54 240.53 241.36 243.31 246.21 251.21 256.08 264.41 272.87 279.46 302.00 324.05 349.02 343.35 319.44 305.31 296.70 288.04 279.69 276.51 274.23 273.73 275.52 284.55 289.07 297.26 317.29 325.10 338.38 350.24 367.70 377.25 393.98 416.14 430.27 447.08 460.18 468.16 471.56 480.21 483.72 487.21 494.05 497.38 491.44 463.79 437.35 412.31 371.68 326.92 288.09 236.72 202.60 155.31 140.46 123.50 101.08 -402.47 -1333.41 -1401.91 -1727.53 -3167.49 -4031.51 -5207.98 -5281.91 -4792.12 -3541.82 -1809.75 -399.78 -53.60 29.98 -38.98 -90.02 -165.78 -213.50 -265.34 -340.50 -610.52 -767.25 -1044.08 -1460.72 -1779.05 -2113.79 -2281.77 -2415.15 -2591.56 -2739.85 -2873.50 -3044.00 -3167.17 -3323.52 -3323.71
-1863.99 -1863.66 -1868.34 -1881.36 -1883.84 -1889.71 -1886.31 -1877.29 -1845.87 -1820.53 -1827.24 -1820.92 -1826.16 -1835.49 -1854.58 -1864.17 -1844.54 -1692.24 -1474.82 -1144.69 -737.90 -445.78 -265.73 9.06 93.47 145.65 154.34 178.78 200.91 210.65 230.07 243.04 257.62 290.27 299.89 316.39 312.19 315.00 330.51 318.03 318.63 293.83 273.89 265.61 254.78 249.10 244.62 241.06 240.17 240.73 241.59 242.12 244.13 247.08 251.47 255.50 263.34 272.20 277.66 291.01 322.47 336.48 346.35 325.51 319.34 300.90 293.62 283.39 277.50 272.62 272.26 274.79 281.83 289.94 296.78 314.15 325.94 335.37 356.03 368.83 386.29 405.06 418.80 427.47 451.64 459.91 465.22 469.36 473.11 473.20 478.37 484.96 486.14 477.94 436.30 407.73 368.57 387.25 317.90 246.70 211.28 174.48 149.34 130.17 100.16 -436.39 -1298.24 -1351.01 -1446.37 -1835.81 -3133.05 -4484.84 -5054.57 -5243.01 -4738.36 -3114.77 -1460.31 -141.46 56.31 87.44 -15.11 -92.02 -175.51 -220.09 -312.69 -425.05 -553.68 -811.16 -1113.70 -1408.07 -1689.73 -2053.05 -2252.45 -2357.25 -2580.93 -2738.01 -2871.90 -3052.27 -3169.88 -3341.75 -3341.85
-1889.89 -1890.13 -1895.86 -1902.23 -1911.07 -1911.00 -1908.25 -1898.17 -1863.86 -1843.35 -1870.24 -1879.17 -1875.31 -1876.52 -1874.51 -1862.82 -1801.32 -1643.31 -1412.81 -1049.42 -502.54 -328.94 -234.97 -209.85 -68.69 103.28 148.36 166.63 181.67 194.45 221.28 238.79 248.27 257.10 285.62 317.23 284.14 288.86 290.26 291.81 287.28 272.95 263.77 256.86 249.36 247.40 242.34 239.77 240.67 241.64 243.02 244.04 245.71 249.54 252.38 254.91 261.47 268.14 284.38 296.86 334.19 357.76 370.62 345.40 345.25 332.28 314.76 295.21 275.03 270.60 271.85 273.85 282.17 291.93 301.20 315.86 327.59 337.79 358.02 365.85 395.52 411.87 420.58 432.03 444.66 458.41 462.92 465.05 466.19 464.49 465.94 465.45 465.16 452.51 429.14 375.42 362.21 346.00 258.69 213.77 199.75 141.94 131.91 122.20 -254.56 -1002.06 -1241.68 -1234.22 -1299.04 -1887.82 -3087.15 -4663.64 -5146.68 -5185.35 -4987.63 -3914.95 -879.44 -405.38 42.46 97.26 2.82 -94.76 -168.08 -220.71 -307.12 -469.52 -614.79 -909.09 -1216.25 -1367.43 -1514.21 -1842.48 -2124.94 -2420.00 -2528.51 -2679.45 -2861.75 -3067.42 -3214.95 -3360.12 -3360.13
-1902.71 -1902.65 -1908.42 -1917.78 -1922.54 -1929.01 -1932.59 -1935.84 -1938.05 -1933.99 -1914.62 -1910.53 -1906.16 -1919.40 -1906.20 -1857.58 -1773.31 -1583.23 -1173.62 -746.24 -428.40 -241.28 -223.53 -231.34 -185.87 66.10 124.04 150.01 158.90 177.89 188.00 213.32 223.06 237.54 260.02 260.77 261.75 275.56 274.04 269.12 269.09 263.31 251.23 247.72 247.34 243.63 239.09 239.75 241.39 243.45 244.33 246.37 248.26 249.37 252.49 255.42 260.47 268.26 281.27 297.42 323.12 337.14 341.48 348.04 343.77 324.80 308.02 283.57 273.15 268.27 271.11 272.88 284.53 290.10 300.23 317.15 329.46 343.00 358.11 389.46 407.74 417.55 432.32 439.05 448.62 458.34 460.28 459.36 459.44 456.43 456.29 456.82 452.06 442.87 413.16 367.58 324.31 291.90 235.28 213.98 159.59 136.10 126.84 -1.07 -756.42 -1128.57 -1154.94 -1166.01 -1256.76 -1991.79 -2873.34 -4947.55 -5116.87 -5297.38 -5126.17 -3943.17 -2061.36 -930.01 -169.59 24.02 -21.57 -88.35 -177.41 -232.87 -317.37 -410.10 -639.87 -879.62 -1175.88 -1328.71 -1605.65 -1800.40 -2100.28 -2385.38 -2514.77 -2637.99 -2803.15 -3106.97 -3259.51 -3383.39 -3382.93
-1915.62 -1915.55 -1922.13 -1931.97 -1934.45 -1939.07 -1937.55 -1951.28 -1959.41 -1960.93 -1961.78 -1963.06 -1963.23 -1950.91 -1922.85 -1860.94 -1757.17 -1522.44 -992.57 -702.71 -425.22 -236.85 -202.37 -232.40 -235.12 -21.46 73.60 112.44 145.95 169.64 173.03 189.90 214.94 224.30 246.18 250.09 241.02 249.06 244.81 239.29 234.45 235.72 244.11 240.83 241.82 237.26 234.46 239.68 241.44 244.64 246.89 248.01 250.17 252.48 254.18 255.53 260.38 264.65 274.33 289.03 296.31 308.43 306.32 298.08 296.40 281.77 267.30 267.52 266.99 263.36 266.25 271.10 281.97 289.83 300.10 318.55 333.60 352.80 366.01 381.13 409.81 418.46 439.27 442.72 460.05 463.46 463.20 458.49 456.54 454.48 443.10 439.13 431.56 415.04 383.87 359.17 310.56 243.72 226.09 185.20 138.06 131.22 -69.73 -528.14 -772.16 -1073.72 -1109.16 -1147.05 -1352.52 -2266.60 -3463.68 -4842.50 -5276.13 -5316.37 -5204.66 -4472.19 -3187.82 -1630.38 -1081.12 -10.99 -86.57 -128.34 -188.50 -250.15 -302.20 -455.43 -697.05 -969.05 -1153.89 -1383.29 -1665.74 -1917.61 -2092.34 -2323.94 -2485.44 -2691.00 -2978.72 -3303.50 -3479.78 -3579.63 -3579.40
-1931.91 -1931.84 -1940.71 -1952.75 -1953.98 -1949.88 -1933.55 -1927.08 -1950.06 -1926.47 -1952.21 -1967.59 -1975.85 -1965.04 -1951.04 -1873.71 -1736.88 -1574.17 -1092.91 -759.09 -488.76 -292.98 -226.97 -213.31 -235.51 -171.74 -125.42 108.94 124.52 135.94 157.34 167.23 201.55 209.23 211.21 217.93 226.98 231.25 231.56 226.96 217.52 215.88 222.16 230.25 231.69 227.39 232.43 238.09 242.09 246.98 249.01 253.07 254.43 254.86 258.01 259.77 262.99 267.63 278.56 279.21 270.83 265.38 263.45 266.36 267.40 259.61 264.53 260.83 260.73 258.12 262.35 268.05 277.24 287.79 301.52 315.70 328.22 350.48 366.02 390.09 412.38 427.52 440.91 446.78 461.58 469.02 471.09 466.65 459.05 449.24 439.75 417.33 405.81 390.49 368.25 330.97 276.76 229.72 209.60 174.68 133.89 126.02 -295.14 -705.02 -887.78 -1053.57 -1113.94 -1200.40 -1367.52 -2556.66 -3865.04 -4697.34 -5292.47 -5338.78 -5329.50 -5096.17 -4507.69 -2622.40 -1556.57 -669.60 -166.57 -166.52 -203.55 -275.18 -377.23 -558.09 -829.99 -1079.66 -1241.69 -1473.81 -1756.77 -1926.52 -2171.21 -2375.22 -2517.14 -2771.21 -3053.89 -3352.38 -3623.04 -3742.98 -3743.03
-1950.05 -1949.99 -1962.63 -1964.95 -1934.99 -1956.47 -1958.47 -1951.74 -1960.20 -1961.14 -1970.34 -1926.22 -1888.02 -1936.16 -1929.99 -1887.53 -1799.05 -1685.87 -1367.03 -1097.52 -652.80 -447.53 -321.78 -245.70 -244.09 -273.15 -148.56 -54.37 64.69 128.61 140.32 162.08 179.19 189.71 196.96 196.17 213.51 209.18 217.79 207.33 205.60 210.73 213.40 214.95 222.64 222.11 230.12 236.00 242.30 246.78 252.72 255.40 257.08 258.99 263.32 266.07 266.13 278.06 281.60 269.88 250.07 245.39 257.18 260.32 249.99 246.71 250.45 253.57 252.56 252.50 261.19 266.47 272.47 290.26 298.45 312.92 328.17 346.25 360.62 388.66 417.63 427.77 441.52 451.65 472.44 474.28 476.00 475.21 469.41 448.62 439.31 400.18 369.08 348.32 344.22 281.74 240.51 212.41 191.55 168.30 137.29 14.72 -471.88 -874.54 -981.32 -1020.82 -1108.15 -1242.12 -1373.93 -2493.68 -3843.34 -5039.03 -5281.63 -5351.39 -5363.98 -5284.86 -5114.74 -4403.77 -2669.21 -1553.82 -389.41 -231.32 -222.12 -267.59 -464.98 -727.21 -817.11 -1207.75 -1314.31 -1509.57 -1797.00 -2051.30 -2267.96 -2381.05 -2510.36 -2733.49 -3047.88 -3329.57 -3647.98 -3759.21 -3759.45
-1974.81 -1976.85 -1988.01 -1940.89 -1926.49 -1986.35 -1990.21 -1991.68 -2010.90 -2003.44 -1989.46 -1974.12 -1944.88 -1955.05 -1920.57 -1896.85 -1825.40 -1707.87 -1495.26 -1279.82 -1044.26 -704.85 -485.06 -297.43 -236.23 -234.04 -232.39 -222.43 -155.95 61.85 139.45 147.63 162.53 168.58 171.61 175.08 187.15 179.57 176.39 188.88 190.85 191.06 197.54 201.27 205.01 208.15 231.85 233.76 242.69 249.46 255.02 259.35 260.40 262.75 264.75 278.16 281.28 286.33 279.01 257.95 234.38 232.99 237.18 237.78 238.41 235.48 239.51 242.47 246.59 248.07 253.20 259.82 269.73 282.31 296.27 311.14 330.56 344.64 369.02 390.11 411.31 427.64 444.91 468.64 484.07 484.96 480.29 477.56 471.79 447.68 429.83 377.83 331.95 308.89 298.58 257.81 221.85 192.42 175.43 88.78 51.51 -162.43 -484.25 -867.49 -1010.25 -1035.25 -1127.30 -1272.70 -1547.63 -2626.12 -4190.46 -4975.22 -5304.20 -5355.56 -5381.44 -5379.41 -5215.91 -4855.29 -3351.41 -1643.95 -501.77 -244.19 -244.49 -305.25 -439.18 -674.19 -853.64 -1207.25 -1522.77 -1749.90 -1892.57 -2047.62 -2241.13 -2359.05 -2472.32 -2680.89 -2992.20 -3194.34 -3506.84 -3628.68 -3628.77
-2018.64 -2018.60 -2007.75 -2008.18 -2009.98 -2016.81 -2045.60 -2023.49 -2011.21 -2003.43 -2000.92 -1991.25 -1974.22 -1956.48 -1926.90 -1914.31 -1871.40 -1830.11 -1695.58 -1597.00 -1281.63 -905.56 -640.44 -396.79 -249.07 -207.92 -228.29 -241.20 -273.45 -77.68 86.94 136.61 141.14 157.58 162.68 168.35 171.65 170.02 167.99 169.03 170.47 176.17 178.65 186.44 198.73 201.91 224.66 234.94 239.08 253.96 259.30 266.73 270.56 282.30 296.26 311.12 297.56 276.75 261.51 243.73 234.13 228.06 223.08 219.82 222.37 225.32 231.68 234.45 235.52 239.60 246.08 255.68 265.07 269.06 290.44 308.04 323.15 349.27 363.65 391.52 412.45 432.39 455.20 479.72 488.22 491.51 489.09 474.81 461.63 432.77 411.12 371.56 333.84 296.17 271.15 229.57 218.51 190.32 149.15 -50.95 -350.25 -630.69 -880.51 -993.58 -1051.41 -1084.37 -1187.48 -1356.80 -2009.79 -2968.78 -4498.25 -5088.17 -5324.29 -5360.74 -5387.70 -5412.85 -5352.27 -5051.41 -3462.08 -2175.98 -583.03 -279.68 -252.50 -328.65 -437.44 -703.05 -1075.83 -1328.14 -1664.68 -1852.47 -1976.72 -2086.49 -2298.20 -2374.97 -2488.83 -2681.57 -2962.61 -3229.44 -3398.24 -3626.37 -3626.46
-2073.73 -2076.26 -2066.85 -2033.09 -2061.19 -2078.16 -2078.50 -2044.37 -2022.03 -1987.04 -1988.38 -1984.07 -1962.95 -1952.02 -1931.78 -1874.85 -1880.44 -1856.68 -1806.50 -1629.68 -1522.85 -1182.23 -639.75 -447.66 -249.67 -190.17 -193.27 -200.22 -222.89 -123.74 6.41 31.09 129.19 140.00 137.16 138.35 152.73 157.08 150.91 149.78 150.65 156.89 164.17 171.40 189.48 198.88 213.26 234.87 244.13 256.02 259.04 269.66 279.73 287.83 311.63 333.90 312.63 281.62 256.82 243.62 230.75 223.70 219.28 216.24 216.82 220.24 225.64 229.05 231.37 233.26 238.65 245.57 257.22 262.97 280.27 301.83 321.00 353.32 365.36 388.12 413.90 441.32 450.87 482.89 494.75 501.84 499.04 465.03 427.40 400.31 368.29 340.40 312.25 266.13 223.68 195.94 161.77 138.57 -8.66 -329.59 -641.30 -849.53 -988.63 -991.32 -1037.47 -1107.92 -1247.25 -1388.92 -1902.13 -3339.57 -4871.52 -5161.58 -5323.57 -5365.44 -5399.85 -5444.00 -5384.98 -5159.53 -3619.82 -2133.61 -722.02 -275.41 -257.27 -326.67 -492.08 -750.75 -916.19 -1319.30 -1658.33 -1890.81 -2047.36 -2169.37 -2287.02 -2426.06 -2567.14 -2757.37 -2881.73 -3325.43 -3494.25 -3649.78 -3649.71
-2112.41 -2112.34 -2100.94 -2087.24 -2131.36 -2134.76 -2117.56 -2094.30 -2019.15 -1981.63 -1973.57 -1966.22 -1953.52 -1944.36 -1926.88 -1852.40 -1860.07 -1880.40 -1859.18 -1762.73 -1642.23 -1265.47 -865.06 -563.13 -293.74 -200.94 -179.68 -182.28 -192.00 -159.06 -137.58 -147.28 -86.84 -11.05 96.87 34.77 27.56 105.27 104.37 138.33 134.34 135.62 136.07 154.21 172.45 183.24 205.32 230.86 236.37 253.00 262.21 275.75 289.25 309.41 332.66 341.40 303.30 269.65 255.99 242.54 228.71 220.53 214.23 208.79 209.57 211.19 214.05 225.15 222.33 226.26 232.90 241.06 247.91 264.27 282.24 303.32 317.18 357.43 370.60 395.54 414.61 437.97 453.42 483.03 498.11 504.79 495.54 480.70 410.61 382.72 352.19 386.81 300.80 229.25 203.55 193.68 133.90 42.41 -116.80 -687.51 -968.27 -970.27 -954.29 -1032.39 -1107.62 -1152.43 -1253.91 -1314.36 -2466.25 -3653.38 -4787.48 -5317.65 -5335.51 -5370.38 -5414.38 -5451.55 -5398.66 -5026.53 -3237.89 -1863.37 -534.06 -260.34 -271.04 -386.14 -470.26 -713.00 -1256.01 -1425.66 -1800.27 -2021.50 -2115.37 -2237.64 -2323.56 -2437.78 -2538.76 -2723.68 -3043.46 -3400.81 -3602.92 -3838.04 -3838.13
-2124.45 -2124.34 -2121.30 -2134.28 -2141.25 -2136.94 -2124.07 -2089.44 -2028.53 -1974.31 -1966.92 -1966.79 -1960.24 -1957.97 -1935.83 -1878.33 -1852.39 -1877.46 -1854.42 -1817.81 -1595.75 -1314.91 -886.85 -542.20 -269.68 -226.32 -199.88 -228.18 -237.30 -237.90 -226.71 -190.25 -210.90 -180.82 -119.07 -135.85 -136.52 -72.75 -37.12 -34.43 48.02 122.47 124.17 138.29 166.34 176.97 189.73 204.72 229.30 252.09 268.40 285.15 303.99 340.70 351.60 326.50 285.95 270.02 248.18 237.78 225.27 221.02 209.12 205.45 206.00 205.94 208.26 209.80 212.89 217.35 226.78 231.80 243.92 261.20 280.34 296.47 324.62 347.11 363.32 394.87 420.53 439.79 464.32 486.90 491.63 492.07 476.97 420.51 404.13 351.07 315.32 355.65 276.66 206.48 196.09 136.94 103.09 -29.45 -399.32 -986.06 -996.05 -980.55 -995.55 -1051.06 -1136.44 -1178.45 -1245.90 -1551.55 -2594.32 -3701.89 -4755.77 -5273.76 -5351.13 -5373.46 -5420.78 -5432.60 -5234.29 -4777.99 -2852.80 -1746.76 -368.02 -255.48 -271.53 -516.39 -726.19 -943.79 -1435.23 -1821.69 -1973.44 -2137.70 -2185.06 -2313.34 -2394.13 -2419.32 -2544.83 -2760.84 -3062.00 -3399.73 -3717.39 -3824.11 -3831.79
-2078.68 -2078.62 -2086.78 -2117.26 -2160.86 -2157.18 -2137.14 -2094.40 -2032.10 -1984.58 -1974.09 -1980.23 -1982.22 -1975.82 -1946.92 -1916.59 -1869.45 -1887.72 -1865.72 -1794.10 -1528.34 -1345.20 -891.05 -537.92 -355.73 -375.11 -487.65 -411.80 -397.69 -422.13 -353.60 -312.09 -359.23 -206.58 -214.02 -181.79 -179.12 -185.32 -202.15 -165.59 -6.98 106.84 114.42 124.61 147.85 159.49 181.59 205.79 239.03 256.85 272.81 288.51 337.39 369.77 348.35 309.67 271.98 255.46 243.52 231.02 220.73 217.24 207.58 198.59 197.94 198.49 204.83 203.46 205.60 205.44 216.23 224.03 235.99 251.31 277.06 289.86 329.63 342.69 360.82 394.36 418.04 442.18 461.96 474.17 490.14 487.53 467.60 432.66 388.92 361.98 378.30 266.71 227.61 180.81 145.75 113.41 72.91 -198.93 -613.22 -1015.41 -1019.26 -1023.31 -1017.93 -1083.63 -1125.87 -1204.62 -1300.85 -1777.34 -2843.44 -4150.01 -4844.80 -5299.59 -5356.12 -5381.75 -5414.23 -5435.60 -5325.16 -4413.21 -2682.25 -1240.73 -396.36 -254.78 -330.01 -591.74 -1032.03 -1419.58 -1774.01 -2041.69 -2116.22 -2229.17 -2259.38 -2326.18 -2399.67 -2441.25 -2525.43 -2643.73 -2923.82 -3406.06 -3783.92 -3895.50 -3895.58
-2100.22 -2107.54 -2129.43 -2136.82 -2163.51 -2174.20 -2149.52 -2107.39 -2049.01 -2012.81 -1995.42 -1994.00 -2000.83 -1982.43 -1958.48 -1939.91 -1915.32 -1922.54 -1872.58 -1770.69 -1567.06 -1251.39 -928.77 -708.91 -666.30 -665.83 -672.31 -735.50 -828.44 -753.38 -784.87 -800.02 -773.26 -643.62 -386.23 -231.50 -207.57 -211.29 -201.69 -183.49 -63.23 12.30 82.82 103.87 145.43 160.13 181.75 200.10 256.46 267.75 286.30 300.16 333.47 373.63 348.09 305.07 281.27 257.79 244.73 227.13 220.08 212.82 201.56 195.70 193.88 194.02 193.54 195.61 199.20 198.58 205.55 219.37 229.98 243.21 273.54 289.78 316.18 336.76 353.36 375.14 404.36 437.30 452.78 468.09 483.83 481.16 458.89 432.60 388.20 341.86 410.54 340.47 207.34 134.06 115.19 91.57 -122.87 -698.80 -916.19 -1007.28 -997.69 -1034.26 -1100.56 -1088.43 -1147.60 -1236.40 -1325.64 -2014.43 -2869.48 -4476.28 -5182.20 -5322.87 -5361.50 -5383.65 -5429.71 -5432.54 -5108.55 -4737.84 -2076.15 -567.35 -308.40 -348.06 -477.13 -728.89 -1211.28 -1732.82 -1936.11 -2137.50 -2203.17 -2260.93 -2306.53 -2333.65 -2365.52 -2449.43 -2604.78 -2754.44 -3056.55 -3357.42 -3718.66 -3866.13 -3866.28
-2115.48 -2115.37 -2096.25 -2109.62 -2145.28 -2144.88 -2140.00 -2103.97 -2064.65 -2037.49 -2043.34 -2022.92 -2024.62 -2013.68 -1981.77 -1924.49 -1884.37 -1924.14 -1916.18 -1818.32 -1676.45 -1354.69 -1136.54 -1015.75 -972.71 -1042.03 -1097.11 -1174.22 -1188.45 -1330.00 -1293.19 -1170.52 -1294.91 -1083.87 -540.87 -272.59 -233.44 -230.66 -227.81 -207.34 -219.32 -190.44 -138.04 -10.63 109.88 159.05 179.15 202.99 236.52 258.16 293.55 320.52 362.22 343.02 336.04 308.13 276.40 258.77 241.87 221.91 217.37 203.44 197.48 192.50 189.45 188.65 188.91 192.73 191.26 191.09 201.47 212.34 219.78 235.98 258.09 274.42 302.46 324.74 347.40 366.48 394.56 412.88 443.43 455.06 454.83 462.18 455.75 412.29 369.66 334.96 304.48 241.07 203.35 115.62 110.28 75.03 -354.37 -769.48 -1029.33 -993.87 -991.36 -1058.03 -1148.13 -1151.09 -1228.65 -1372.90 -1796.31 -2619.80 -3674.83 -4751.27 -5240.62 -5297.75 -5361.42 -5395.93 -5440.75 -5373.72 -5079.22 -3851.88 -1604.02 -583.44 -314.39 -390.47 -644.07 -849.08 -1250.82 -1704.63 -1861.42 -2118.36 -2240.18 -2287.56 -2312.24 -2332.85 -2428.71 -2511.96 -2730.24 -2855.48 -3179.06 -3397.72 -3630.96 -3759.92 -3760.00
-2074.14 -2074.09 -2085.56 -2102.67 -2125.29 -2132.77 -2126.98 -2108.04 -2081.31 -2077.91 -2085.58 -2054.68 -2047.80 -2034.51 -1995.24 -1951.42 -1931.61 -1973.51 -1951.41 -1863.18 -1765.07 -1628.77 -1519.90 -1480.67 -1450.40 -1660.43 -1699.31 -1706.18 -1794.12 -1761.92 -1802.47 -1795.62 -1742.32 -1292.52 -814.71 -440.78 -265.05 -251.59 -261.12 -269.43 -274.77 -251.92 -199.64 -24.99 75.55 149.86 176.18 191.45 228.21 235.11 280.53 324.16 348.78 314.09 296.23 279.47 250.73 248.21 233.60 214.74 205.85 196.27 192.79 188.51 187.21 183.90 184.62 182.40 184.46 186.39 191.15 200.06 213.46 238.58 247.25 267.97 290.49 319.38 346.33 369.44 386.70 403.40 428.87 432.89 432.33 436.67 395.42 388.91 348.56 314.34 281.09 231.38 198.62 131.70 72.14 -34.23 -552.06 -998.45 -1021.68 -995.33 -1022.35 -1107.98 -1205.97 -1304.96 -1396.71 -1857.43 -2192.76 -3388.98 -4511.12 -5054.62 -5230.22 -5304.99 -5367.30 -5400.47 -5445.68 -5372.06 -4982.11 -3207.23 -1484.80 -571.49 -312.40 -385.53 -670.94 -1099.51 -1356.63 -1671.41 -1939.43 -2107.44 -2245.91 -2301.10 -2327.33 -2353.23 -2428.30 -2524.64 -2718.37 -2972.82 -3160.87 -3387.63 -3559.72 -3749.42 -3749.50
-2107.55 -2107.48 -2084.81 -2073.17 -2104.34 -2123.35 -2127.08 -2113.06 -2107.82 -2095.03 -2095.20 -2088.33 -2078.40 -2066.58 -2029.35 -2006.28 -1998.84 -1996.94 -1975.39 -1958.56 -1919.97 -1846.75 -1819.27 -1798.54 -1840.94 -1881.53 -1933.21 -1945.33 -2055.13 -2068.77 -2115.29 -2086.24 -1993.29 -1866.30 -1516.22 -877.54 -374.69 -285.19 -315.37 -284.83 -276.14 -267.48 -208.40 -173.57 96.03 146.75 165.35 190.53 234.15 236.77 279.80 306.21 298.12 271.77 260.70 243.07 240.30 226.77 215.85 199.35 197.19 192.73 188.13 184.61 181.12 178.36 176.39 175.94 177.49 181.59 187.45 194.55 210.68 224.53 232.48 272.60 283.55 314.39 340.99 366.07 380.69 396.59 413.62 410.63 402.73 392.23 378.83 348.70 337.09 315.59 275.69 201.82 191.25 131.92 35.71 -387.20 -1148.30 -1081.31 -1014.12 -1033.19 -1143.22 -1443.44 -1499.65 -2014.05 -2159.73 -2470.99 -3810.32 -4294.60 -4909.67 -5183.57 -5300.82 -5333.50 -5382.48 -5416.76 -5446.03 -5348.83 -4418.64 -3595.55 -1651.59 -559.41 -349.50 -559.00 -784.10 -1201.35 -1424.07 -1708.69 -1925.81 -2108.39 -2253.92 -2314.98 -2328.31 -2367.92 -2432.27 -2500.91 -2677.63 -2901.06 -3154.32 -3396.66 -3552.98 -3741.30 -3741.38
-2114.42 -2114.36 -2102.88 -2072.60 -2072.58 -2106.89 -2129.18 -2125.64 -2122.30 -2114.02 -2114.16 -2087.54 -2073.15 -2050.73 -2064.90 -2053.35 -2030.11 -2022.57 -2018.56 -1996.55 -2019.80 -2041.95 -2022.05 -2034.27 -2051.64 -2079.00 -2085.64 -2142.78 -2165.32 -2157.67 -2153.03 -2173.82 -2168.23 -2007.18 -1601.15 -1148.77 -670.91 -474.07 -401.49 -366.37 -332.38 -297.62 -237.84 -202.69 98.22 141.70 147.34 182.23 209.42 224.20 261.75 281.93 273.39 251.21 246.42 231.37 213.61 203.07 193.12 183.16 186.21 184.29 183.10 178.16 175.92 174.62 173.16 170.87 172.05 175.94 183.79 189.31 211.13 219.34 228.87 262.11 280.25 296.77 325.58 357.44 374.97 390.77 395.25 397.25 386.57 362.39 334.87 325.75 303.90 267.69 214.68 192.72 188.38 134.08 -126.51 -581.67 -1142.23 -1071.62 -1050.46 -1141.00 -1613.06 -1833.74 -2036.80 -2660.88 -3205.44 -3890.34 -4474.65 -5021.32 -5269.97 -5358.61 -5364.39 -5386.23 -5415.41 -5432.85 -5454.88 -5405.66 -4751.62 -2579.67 -1450.72 -405.99 -439.61 -657.24 -844.99 -1295.86 -1588.12 -1818.30 -2113.96 -2205.58 -2255.00 -2286.10 -2319.28 -2362.10 -2441.62 -2534.67 -2644.33 -2876.85 -3162.39 -3464.64 -3662.94 -3795.15 -3795.04
-2125.01 -2124.95 -2131.48 -2118.00 -2106.44 -2097.80 -2116.81 -2125.41 -2117.25 -2123.45 -2111.76 -2062.71 -2063.50 -2038.18 -2084.83 -2072.07 -2058.73 -2044.13 -2036.60 -2047.48 -2053.01 -2072.44 -2091.85 -2127.67 -2125.25 -2155.52 -2179.44 -2198.05 -2195.52 -2180.48 -2149.03 -2155.20 -2170.83 -2083.39 -1737.83 -1448.85 -1015.82 -644.73 -485.75 -428.09 -429.21 -310.07 -246.66 -183.77 -16.94 124.63 142.97 174.48 214.23 220.26 255.43 257.08 247.85 238.68 212.38 200.28 197.97 180.78 174.12 173.44 174.91 174.98 176.42 173.94 167.95 168.32 167.71 168.42 167.62 171.44 177.31 188.14 197.93 214.10 227.65 243.88 276.95 296.33 326.03 339.95 369.96 382.95 385.46 379.95 371.02 342.91 322.82 284.15 243.34 216.66 188.98 179.78 165.15 -33.07 -608.38 -956.78 -1177.98 -1211.08 -1367.32 -1777.18 -2953.16 -2832.08 -3382.19 -4087.72 -4566.29 -4966.42 -5104.26 -5388.81 -5376.28 -5490.69 -5546.20 -5512.36 -5424.70 -5384.76 -5321.47 -5129.23 -4102.75 -2471.79 -868.21 -427.73 -451.68 -667.89 -947.21 -1302.13 -1666.99 -1904.01 -2164.22 -2219.21 -2250.61 -2272.04 -2312.81 -2365.13 -2425.40 -2534.94 -2687.40 -3053.65 -3300.75 -3613.93 -3815.14 -4019.59 -4019.66
-2136.24 -2136.18 -2141.86 -2146.19 -2151.85 -2125.81 -2129.01 -2125.73 -2111.71 -2127.16 -2129.86 -2088.67 -2090.27 -2130.61 -2129.73 -2112.47 -2095.06 -2086.26 -2083.77 -2072.33 -2099.06 -2119.19 -2148.87 -2167.69 -2166.80 -2186.18 -2193.54 -2196.50 -2192.56 -2180.79 -2156.31 -2146.86 -2126.70 -2092.80 -1961.70 -1667.56 -1076.75 -811.29 -548.90 -462.87 -404.87 -308.84 -269.55 -230.33 -57.18 55.76 121.69 157.92 181.99 195.98 234.72 238.07 199.42 221.33 200.44 177.71 174.13 170.16 167.74 162.96 164.79 164.42 163.94 162.02 158.60 160.89 162.16 162.20 164.88 166.58 171.36 180.37 190.59 208.29 229.41 244.01 275.29 299.35 313.06 333.39 351.72 370.02 369.30 363.04 343.80 332.28 307.86 293.14 233.80 205.30 160.04 138.96 -266.21 -616.79 -1181.13 -1206.86 -1331.16 -1653.62 -2101.72 -2800.26 -3751.66 -4508.72 -4757.06 -5001.04 -5153.42 -5294.75 -5409.19 -5540.66 -5336.38 -5240.04 -5461.43 -5025.20 -5094.21 -4795.01 -4628.40 -3984.76 -3628.16 -1833.59 -633.09 -466.51 -543.97 -873.27 -1204.69 -1430.39 -1730.87 -2025.74 -2196.89 -2226.83 -2252.01 -2266.39 -2324.27 -2380.37 -2432.22 -2528.85 -2800.35 -3129.91 -3625.89 -3855.40 -3962.02 -4044.06 -4044.05
-2147.28 -2147.22 -2149.25 -2155.65 -2160.38 -2163.84 -2167.71 -2159.22 -2132.20 -2164.98 -2181.82 -2170.03 -2174.62 -2154.85 -2170.34 -2161.47 -2148.03 -2150.78 -2136.15 -2141.03 -2151.47 -2156.83 -2172.41 -2181.39 -2184.54 -2196.28 -2200.82 -2197.97 -2202.52 -2180.51 -2143.22 -2132.44 -2123.45 -2105.26 -2029.77 -1767.16 -1335.61 -848.07 -628.59 -479.34 -418.99 -324.06 -266.44 -219.03 -151.37 36.97 135.76 138.77 154.43 166.12 180.58 183.75 153.53 164.55 152.12 153.73 157.28 155.43 150.87 149.13 152.16 150.90 152.11 153.60 154.22 158.14 159.77 159.58 160.36 162.10 168.45 176.99 191.20 208.40 222.47 245.49 261.58 290.09 306.24 335.49 349.77 357.08 360.13 353.06 341.61 320.24 282.81 305.29 201.90 171.50 122.98 120.83 -396.48 -834.47 -1295.13 -1383.58 -1876.49 -2806.52 -3476.72 -4640.62 -4906.29 -5098.65 -5317.34 -5422.55 -5538.35 -5621.15 -5628.54 -5747.69 -4332.29 -3340.13 -2425.04 -1755.60 -3086.95 -2270.36 -2012.87 -2093.70 -1382.68 -769.06 -489.42 -422.56 -612.44 -995.05 -1241.89 -1574.60 -1845.53 -2105.21 -2183.75 -2213.23 -2247.94 -2267.18 -2328.26 -2384.92 -2515.04 -2572.01 -2783.05 -3329.79 -3587.76 -3936.51 -4087.74 -4140.88 -4140.93
-2160.01 -2161.35 -2163.22 -2163.64 -2167.02 -2171.10 -2178.89 -2173.80 -2194.55 -2220.80 -2212.95 -2215.52 -2210.72 -2223.04 -2221.41 -2225.54 -2216.96 -2234.87 -2223.83 -2225.50 -2223.66 -2197.10 -2195.21 -2189.28 -2194.18 -2197.76 -2204.71 -2200.28 -2203.35 -2175.91 -2145.49 -2152.68 -2120.77 -2075.18 -1981.73 -1790.58 -1412.61 -1091.76 -737.08 -526.86 -437.21 -318.79 -282.72 -239.51 -166.76 28.73 100.75 126.87 139.85 141.40 152.59 138.80 139.25 140.41 144.07 141.34 141.48 143.54 136.17 143.33 142.09 145.10 145.65 144.82 147.01 152.33 155.78 156.16 157.19 161.72 168.73 178.03 192.24 205.50 221.85 245.42 262.09 280.81 302.68 319.94 335.58 343.72 350.86 343.75 334.07 301.86 270.68 231.18 182.84 168.01 121.11 112.82 -551.34 -1096.17 -1593.21 -1932.95 -3005.18 -3684.73 -4557.01 -4748.42 -5237.57 -5343.27 -5497.42 -5731.27 -5004.59 -4425.60 -4671.06 -2820.61 -1242.88 -199.00 -138.58 -155.67 123.39 111.69 -60.44 -830.21 -486.79 -387.89 -360.30 -451.04 -629.19 -1063.24 -1351.20 -1644.12 -1865.43 -2067.86 -2158.91 -2197.97 -2228.04 -2254.15 -2304.44 -2425.86 -2594.11 -2657.85 -2921.18 -3198.21 -3726.46 -3971.69 -4123.91 -4161.02 -4161.02
-2173.22 -2173.16 -2171.71 -2175.98 -2179.81 -2180.28 -2190.90 -2208.02 -2228.97 -2238.42 -2246.66 -2246.00 -2247.19 -2249.37 -2260.40 -2260.41 -2251.70 -2265.96 -2272.35 -2256.98 -2251.97 -2235.19 -2225.40 -2210.56 -2212.31 -2213.52 -2214.52 -2212.50 -2200.79 -2181.55 -2157.42 -2142.80 -2104.28 -2021.21 -1889.53 -1639.91 -1486.89 -1172.39 -806.08 -587.43 -478.63 -332.31 -313.15 -267.02 -202.59 -104.94 7.69 63.98 126.47 120.05 123.88 127.63 125.73 103.15 76.41 66.36 93.66 131.68 111.69 57.77 96.52 125.99 136.31 141.40 144.92 149.18 154.16 153.99 155.08 160.31 169.16 174.27 189.92 203.17 213.73 239.70 257.17 271.71 290.32 306.15 329.39 334.49 340.46 336.40 331.93 306.16 298.80 230.89 178.89 156.28 115.98 106.08 -996.58 -1500.49 -2265.80 -2798.58 -4121.64 -4551.12 -4869.77 -5083.34 -5319.37 -5497.77 -5661.09 -4739.87 -2538.30 -1699.50 -2806.46 -1488.94 130.46 158.60 147.70 159.49 143.53 146.05 131.66 28.12 -173.24 -308.45 -437.35 -536.06 -859.97 -1095.16 -1526.72 -1837.93 -1969.87 -2124.86 -2166.94 -2188.76 -2204.15 -2236.99 -2304.65 -2438.68 -2656.26 -2702.69 -2998.10 -3363.34 -3807.33 -4036.63 -4159.00 -4175.78 -4175.84
-2185.07 -2185.02 -2185.47 -2187.52 -2193.86 -2192.35 -2200.45 -2220.41 -2243.76 -2261.37 -2261.31 -2263.96 -2265.36 -2269.28 -2277.98 -2284.10 -2284.43 -2282.73 -2282.66 -2264.41 -2256.83 -2251.26 -2249.89 -2238.57 -2229.23 -2227.89 -2217.46 -2217.01 -2205.96 -2190.52 -2169.73 -2121.06 -2086.58 -2001.47 -1877.65 -1617.56 -1401.65 -1212.63 -884.90 -670.62 -492.32 -362.09 -317.51 -272.77 -226.83 -177.41 -139.91 -22.51 44.95 77.19 46.50 -4.00 28.79 57.40 14.96 12.04 54.79 -15.12 61.21 2.90 15.75 116.04 124.64 127.92 133.34 137.67 149.16 150.81 153.49 159.86 171.11 174.42 191.32 197.28 216.50 236.12 252.78 277.84 289.30 297.35 311.22 327.77 332.50 329.69 325.38 321.22 322.96 252.61 173.12 140.32 109.32 -434.58 -1241.15 -1779.44 -2270.80 -3645.13 -4501.55 -4901.56 -4971.58 -5081.67 -5245.21 -5003.48 -4004.25 -1516.81 -335.71 16.25 121.70 158.99 166.79 189.40 195.85 197.62 184.93 160.21 144.93 76.50 -100.27 -474.49 -637.02 -809.01 -1012.33 -1328.33 -1587.08 -1891.75 -2067.98 -2161.01 -2189.92 -2193.55 -2194.48 -2270.20 -2434.47 -2582.07 -2799.56 -2984.40 -3285.36 -3589.50 -3879.29 -4126.48 -4157.97 -4172.77 -4172.83
-2197.38 -2197.33 -2197.12 -2201.64 -2200.64 -2208.84 -2212.31 -2231.66 -2253.21 -2271.51 -2279.25 -2281.24 -2278.68 -2282.88 -2291.97 -2286.65 -2273.29 -2273.94 -2275.85 -2278.86 -2270.01 -2258.10 -2259.51 -2248.94 -2237.82 -2234.68 -2229.82 -2218.57 -2211.53 -2199.63 -2183.95 -2145.56 -2054.02 -1969.00 -1765.70 -1635.38 -1377.00 -1127.14 -808.18 -579.71 -499.50 -400.90 -346.15 -259.03 -218.79 -207.16 -195.12 -138.48 -106.97 -46.62 -67.16 -93.39 -63.15 -32.26 -76.71 -55.16 -52.17 -45.29 -24.14 -40.37 9.90 90.23 101.43 114.75 126.09 133.20 141.74 147.48 153.25 157.80 167.97 176.28 185.40 197.21 220.16 231.82 240.59 270.35 284.76 291.83 299.49 311.64 325.06 322.80 314.84 303.78 385.49 348.72 211.70 -149.87 -643.29 -1053.38 -1404.38 -1679.66 -2392.37 -3267.30 -4092.17 -4113.69 -4154.84 -3298.78 -3543.64 -2966.07 -1325.25 120.42 153.77 158.79 168.80 179.09 201.87 224.52 234.30 226.05 202.76 171.48 155.07 128.22 -142.36 -519.24 -811.97 -987.69 -1293.27 -1433.88 -1679.74 -2019.03 -2120.51 -2158.98 -2183.34 -2192.69 -2189.40 -2210.69 -2455.05 -2812.23 -3020.16 -3184.72 -3527.98 -3886.45 -4020.93 -4146.18 -4161.49 -4172.64 -4172.70
-2211.12 -2212.84 -2214.59 -2214.72 -2216.60 -2218.23 -2227.37 -2248.22 -2267.58 -2289.88 -2293.12 -2290.22 -2280.09 -2282.48 -2289.04 -2275.61 -2273.32 -2282.89 -2274.27 -2273.99 -2262.54 -2260.40 -2256.90 -2248.24 -2242.90 -2238.34 -2234.69 -2226.69 -2216.59 -2206.67 -2193.35 -2164.61 -2087.00 -1972.35 -1773.31 -1524.64 -1337.43 -996.73 -877.36 -627.03 -498.02 -416.24 -336.83 -252.24 -230.03 -202.22 -177.00 -166.75 -125.27 -111.54 -103.56 -88.40 -83.38 -78.04 -67.45 -57.08 -44.82 -30.99 -25.32 -14.03 16.70 30.06 69.14 93.63 107.94 121.99 135.47 143.48 149.22 156.84 166.70 175.96 186.92 195.85 212.41 231.51 247.54 260.49 267.66 284.22 294.63 296.74 305.19 313.47 299.74 261.46 319.31 277.93 158.61 -198.49 -794.96 -1104.46 -1365.12 -1564.58 -2060.51 -2732.51 -2996.40 -3019.63 -2610.70 -1999.24 -839.53 -163.27 79.51 151.64 188.81 203.10 218.18 241.91 284.43 263.60 238.45 208.53 186.86 162.78 148.19 126.23 -75.77 -760.41 -1211.80 -1345.87 -1485.19 -1583.77 -1742.09 -1979.45 -2160.53 -2176.49 -2192.68 -2186.15 -2181.55 -2212.35 -2425.78 -2793.29 -3298.19 -3570.18 -3836.35 -3991.54 -4079.97 -4153.87 -4165.98 -4173.01 -4173.07
-2227.02 -2226.97 -2233.40 -2229.48 -2235.25 -2234.76 -2245.29 -2264.54 -2288.44 -2290.02 -2285.62 -2283.96 -2277.25 -2279.46 -2285.22 -2262.78 -2263.93 -2267.33 -2248.67 -2243.09 -2256.54 -2262.63 -2253.89 -2249.90 -2244.29 -2239.23 -2237.50 -2234.91 -2229.26 -2223.33 -2216.61 -2142.48 -1996.41 -1874.26 -1645.70 -1419.23 -1223.13 -1009.53 -759.47 -640.11 -516.60 -430.44 -356.79 -267.35 -239.48 -197.42 -182.04 -158.54 -131.68 -125.88 -108.39 -96.70 -87.05 -80.33 -67.89 -58.53 -38.84 -23.23 -11.98 -1.52 -0.38 -0.62 8.49 38.20 83.67 106.68 131.54 143.15 149.38 153.96 163.13 175.80 184.84 197.45 211.98 224.63 239.31 245.32 257.71 262.09 272.16 287.30 287.81 282.44 276.32 253.82 236.02 222.19 160.67 -44.01 -801.98 -1429.38 -1386.76 -1414.15 -1613.51 -1765.74 -1914.23 -1831.78 -1175.56 -338.97 150.60 133.32 197.59 214.99 237.34 245.27 255.44 288.92 293.23 253.27 214.57 202.53 183.30 142.04 131.55 105.61 -303.96 -1272.57 -1442.07 -1627.94 -1825.39 -1840.39 -1942.53 -2106.74 -2173.89 -2194.20 -2192.80 -2183.67 -2178.59 -2205.18 -2396.88 -2838.02 -3377.54 -3689.41 -4033.34 -4127.03 -4135.09 -4155.99 -4167.23 -4174.09 -4174.15
-2242.60 -2244.12 -2246.89 -2248.28 -2249.25 -2251.74 -2254.11 -2280.61 -2289.01 -2288.16 -2288.63 -2285.23 -2284.38 -2285.36 -2282.09 -2260.09 -2240.18 -2238.09 -2230.93 -2236.91 -2261.58 -2267.36 -2261.78 -2255.65 -2247.52 -2240.47 -2239.54 -2238.67 -2237.53 -2235.48 -2218.95 -2169.73 -1957.23 -1755.90 -1606.64 -1382.28 -1097.61 -826.82 -773.10 -632.87 -520.29 -446.99 -354.98 -272.40 -223.78 -211.56 -180.13 -162.05 -144.13 -127.29 -114.42 -109.66 -95.91 -86.42 -77.24 -60.64 -42.99 -18.83 -4.32 6.60 8.52 12.34 12.13 29.39 79.26 102.47 129.15 136.07 144.21 151.06 163.04 172.72 182.55 191.91 204.53 214.56 219.38 236.44 247.85 258.65 262.26 273.99 273.16 264.25 257.32 221.40 190.89 159.63 145.81 -71.46 -845.09 -1464.55 -1466.32 -1452.50 -1538.91 -1606.75 -1608.70 -1347.04 -238.03 147.93 189.22 213.37 234.93 248.52 269.66 282.22 272.54 250.74 232.14 222.85 192.50 179.42 153.07 128.12 116.41 100.83 -676.15 -1489.97 -1717.31 -1877.17 -1902.42 -1981.66 -2107.91 -2144.49 -2188.98 -2196.02 -2189.44 -2182.15 -2176.92 -2199.46 -2316.13 -2725.95 -3435.76 -3797.71 -4102.69 -4130.88 -4147.55 -4162.69 -4167.00 -4177.56 -4177.62
-2256.34 -2257.68 -2258.41 -2260.23 -2260.76 -2265.89 -2275.06 -2293.34 -2295.59 -2296.26 -2286.93 -2293.85 -2290.38 -2287.79 -2277.14 -2251.58 -2219.30 -2207.56 -2212.08 -2226.89 -2243.68 -2260.68 -2262.02 -2255.59 -2249.80 -2241.53 -2239.64 -2238.61 -2236.90 -2225.86 -2191.78 -2074.40 -1936.96 -1697.30 -1558.34 -1319.09 -1129.82 -911.43 -752.57 -642.01 -524.68 -443.94 -335.84 -278.03 -238.76 -194.82 -183.79 -167.14 -155.43 -142.17 -131.13 -118.48 -106.37 -100.91 -76.28 -52.48 -36.08 -21.30 2.13 11.39 17.10 22.04 27.65 40.51 60.90 90.29 127.82 135.01 143.58 149.17 157.44 166.21 176.42 181.30 193.88 209.34 210.16 226.37 238.69 244.67 246.39 249.43 257.89 253.53 232.41 211.39 187.27 169.41 133.48 45.16 -666.14 -1317.39 -1540.42 -1517.66 -1530.32 -1507.51 -1361.72 -721.51 -107.88 195.32 254.03 269.84 287.24 299.27 270.58 252.46 219.21 219.02 203.53 194.82 166.48 139.75 126.26 113.94 103.66 81.21 -69.16 -1411.51 -1751.50 -1922.32 -1993.43 -2077.52 -2123.65 -2187.67 -2194.50 -2195.56 -2188.25 -2181.86 -2176.83 -2200.22 -2283.08 -2721.24 -3584.60 -3981.35 -4129.39 -4136.00 -4144.86 -4163.89 -4169.24 -4183.28 -4183.35
-2268.73 -2268.68 -2271.18 -2269.27 -2269.99 -2272.70 -2287.35 -2303.39 -2299.66 -2293.71 -2290.72 -2295.33 -2293.64 -2288.62 -2289.65 -2253.27 -2227.93 -2213.81 -2222.54 -2239.49 -2271.43 -2271.51 -2266.57 -2258.70 -2250.73 -2243.83 -2240.99 -2240.63 -2233.20 -2200.92 -2157.04 -2053.82 -1850.88 -1678.44 -1489.37 -1281.68 -1154.83 -919.58 -745.18 -608.16 -541.65 -446.73 -382.29 -324.35 -256.36 -215.33 -193.83 -175.42 -159.65 -151.97 -136.98 -130.85 -123.49 -104.31 -76.39 -49.53 -26.30 -10.91 6.96 12.50 19.34 23.93 32.17 44.86 58.39 72.05 102.48 123.29 140.51 148.15 151.60 160.65 169.36 174.05 184.57 197.11 204.67 212.70 222.18 228.98 234.31 242.30 244.26 243.17 219.35 208.18 182.82 161.71 136.13 109.75 -110.14 -1177.98 -1513.92 -1549.84 -1528.50 -1403.12 -1100.95 -331.16 131.19 264.39 308.46 310.44 282.78 275.68 243.21 232.61 210.02 167.64 154.88 149.92 140.19 119.53 116.30 110.45 84.40 -613.60 -882.15 -1454.91 -1936.20 -1964.07 -2055.86 -2131.01 -2173.10 -2186.18 -2196.94 -2197.54 -2191.84 -2182.32 -2177.39 -2188.91 -2371.30 -2851.41 -3429.87 -4000.79 -4118.52 -4133.76 -4152.12 -4176.96 -4181.50 -4189.41 -4189.47
-2280.21 -2280.16 -2280.46 -2281.56 -2284.21 -2287.92 -2300.33 -2320.90 -2309.61 -2304.69 -2302.07 -2295.66 -2293.46 -2288.86 -2287.73 -2270.88 -2247.71 -2240.61 -2243.94 -2259.26 -2272.90 -2271.64 -2266.38 -2260.17 -2249.18 -2245.75 -2245.45 -2244.64 -2231.71 -2186.39 -2093.62 -2007.66 -1791.22 -1632.78 -1515.14 -1231.55 -1136.85 -949.70 -775.44 -636.59 -512.78 -463.37 -415.18 -346.48 -289.76 -230.82 -198.19 -180.21 -161.09 -155.11 -146.71 -134.02 -119.35 -107.00 -82.16 -54.09 -26.26 -10.11 6.11 17.00 23.80 29.65 40.48 47.54 61.64 70.14 87.39 120.67 133.63 141.97 148.20 155.45 165.63 171.35 177.34 182.54 196.44 202.40 204.32 216.10 216.97 219.97 216.79 205.25 206.73 187.25 180.40 152.17 129.71 112.29 -227.92 -799.32 -1490.96 -1514.44 -1474.79 -1195.79 -778.70 -2.37 139.39 282.45 305.02 303.15 278.69 246.18 216.64 207.43 173.97 139.90 123.61 121.95 118.86 114.93 111.96 91.84 -325.72 -1179.56 -1409.33 -1720.51 -1951.98 -2003.76 -2095.57 -2152.67 -2176.97 -2185.84 -2197.43 -2202.92 -2197.34 -2188.90 -2180.02 -2197.39 -2322.17 -2986.27 -3513.72 -3989.86 -4117.10 -4141.66 -4176.69 -4178.20 -4193.19 -4196.26 -4196.64
-2288.21 -2288.15 -2289.29 -2291.64 -2292.10 -2292.75 -2302.46 -2315.91 -2324.82 -2316.18 -2302.20 -2299.64 -2295.55 -2293.45 -2285.82 -2281.15 -2283.18 -2273.28 -2275.60 -2273.53 -2271.69 -2271.39 -2266.74 -2260.84 -2251.03 -2247.93 -2249.01 -2247.09 -2230.19 -2188.59 -2060.04 -1967.37 -1816.64 -1697.56 -1554.55 -1313.59 -1172.87 -922.61 -863.06 -696.52 -554.08 -480.96 -411.16 -347.13 -302.19 -247.61 -222.77 -192.15 -165.50 -155.23 -149.43 -129.57 -115.97 -92.33 -68.31 -41.18 -18.87 -0.80 9.55 20.74 27.68 35.04 40.15 48.77 60.49 71.55 81.45 114.59 133.65 136.40 143.66 148.53 155.07 163.65 169.61 173.78 181.17 190.81 196.20 199.28 197.69 195.43 196.52 193.75 177.66 171.94 156.65 142.63 117.28 103.67 -152.32 -422.48 -1059.46 -1368.56 -1295.55 -902.47 -431.83 -7.87 158.89 254.82 274.11 277.08 249.05 217.80 194.40 175.47 142.81 121.27 119.33 115.20 97.52 93.81 87.99 -359.79 -1039.05 -1617.87 -1766.32 -1922.81 -1984.29 -2079.48 -2123.44 -2146.17 -2176.47 -2193.70 -2201.07 -2206.62 -2209.63 -2201.26 -2193.37 -2195.50 -2388.68 -2894.26 -3683.45 -3956.46 -4103.36 -4151.53 -4181.62 -4180.06 -4187.14 -4197.43 -4197.49
-2289.99 -2289.98 -2290.89 -2291.64 -2291.83 -2292.76 -2297.69 -2308.56 -2320.53 -2321.49 -2310.22 -2305.25 -2301.50 -2295.82 -2283.63 -2281.81 -2283.69 -2280.72 -2277.95 -2275.39 -2274.15 -2274.11 -2270.75 -2264.08 -2253.44 -2252.55 -2252.01 -2240.59 -2228.47 -2155.10 -2066.29 -1989.71 -1836.91 -1727.65 -1574.56 -1328.13 -1087.17 -950.37 -779.47 -673.82 -588.38 -493.23 -394.21 -345.90 -278.78 -257.47 -224.24 -191.75 -171.26 -159.45 -151.04 -147.37 -125.43 -92.45 -72.56 -45.50 -17.31 -2.36 15.45 24.17 33.09 36.69 40.96 50.24 59.89 69.84 80.67 108.64 121.56 136.63 137.48 144.04 148.79 156.73 161.34 164.92 170.88 174.72 176.39 180.12 182.48 181.13 171.90 168.28 158.58 147.33 148.40 133.30 115.92 98.58 44.59 -91.72 -519.88 -963.70 -887.53 -524.51 -154.48 62.18 155.13 238.32 232.74 230.93 207.19 177.12 164.16 136.24 121.55 118.08 109.12 105.99 82.68 63.82 -261.98 -806.91 -1218.56 -1592.20 -1818.38 -1951.97 -1995.53 -2089.61 -2126.45 -2145.98 -2175.70 -2190.22 -2199.00 -2208.37 -2213.79 -2215.62 -2217.39 -2236.01 -2428.51 -2674.14 -3353.61 -3965.93 -4107.04 -4144.01 -4177.72 -4187.26 -4194.50 -4201.06 -4201.12
-2290.33 -2290.87 -2292.34 -2292.77 -2292.23 -2293.23 -2295.00 -2299.92 -2307.63 -2312.39 -2318.06 -2311.04 -2306.13 -2303.22 -2289.80 -2291.42 -2289.00 -2285.95 -2294.86 -2293.39 -2279.58 -2278.97 -2275.26 -2269.58 -2264.15 -2262.40 -2260.03 -2247.36 -2220.90 -2159.25 -2107.83 -2000.77 -1863.72 -1639.58 -1503.62 -1272.06 -1058.79 -909.19 -814.12 -746.35 -633.53 -532.66 -443.60 -348.80 -303.86 -262.44 -243.52 -212.67 -186.05 -173.24 -163.65 -159.68 -116.64 -87.29 -64.96 -37.69 -15.18 2.73 16.34 25.68 31.60 35.48 39.94 47.35 59.30 63.37 79.56 93.11 117.12 130.38 136.15 136.02 142.31 148.65 150.13 160.28 161.81 163.24 159.77 165.79 166.94 160.99 160.40 141.07 142.36 138.57 130.44 113.10 101.12 72.68 53.46 -29.74 -308.51 -277.09 -371.05 -248.47 1.74 110.62 145.14 139.23 155.84 196.49 181.20 159.06 120.95 123.83 115.36 108.18 104.96 95.88 81.68 -359.10 -873.70 -1165.33 -1381.09 -1620.23 -1831.87 -1927.73 -2042.01 -2088.67 -2121.48 -2152.20 -2173.20 -2181.70 -2192.66 -2200.43 -2213.54 -2220.26 -2234.85 -2250.05 -2421.75 -2655.79 -3304.05 -3880.13 -4129.36 -4153.81 -4180.16 -4194.57 -4199.13 -4205.73 -4205.04
-2298.22 -2298.15 -2297.07 -2299.13 -2297.19 -2298.56 -2299.31 -2299.97 -2301.04 -2303.70 -2310.10 -2318.99 -2316.26 -2310.51 -2302.33 -2299.11 -2293.28 -2302.98 -2306.36 -2302.56 -2297.54 -2286.56 -2287.75 -2277.54 -2274.47 -2271.41 -2270.13 -2264.97 -2243.15 -2186.30 -2152.06 -2021.10 -1786.08 -1653.42 -1447.49 -1288.32 -1062.85 -944.58 -828.91 -754.08 -636.70 -532.92 -463.61 -390.46 -327.26 -281.46 -261.34 -228.79 -206.34 -198.02 -171.80 -150.86 -123.34 -77.24 -40.49 -26.43 -5.72 9.24 22.83 27.06 30.81 33.37 39.90 45.66 54.84 60.40 69.06 86.55 108.85 119.43 126.87 133.75 136.66 140.43 141.34 148.67 148.73 151.91 149.14 143.62 145.39 136.49 136.27 134.67 134.70 114.84 110.65 101.67 81.22 63.99 34.70 5.69 -88.80 -120.27 -117.36 -2.91 99.08 93.00 42.79 -84.65 -64.31 52.49 76.67 106.55 87.22 105.85 106.99 87.19 13.52 -161.59 -477.81 -887.46 -1195.39 -1357.38 -1447.58 -1658.87 -1845.03 -1932.41 -2038.12 -2099.35 -2122.81 -2154.58 -2166.92 -2178.65 -2190.41 -2196.72 -2206.05 -2218.73 -2241.00 -2265.70 -2398.30 -2525.70 -3029.63 -3763.31 -4071.72 -4161.05 -4187.98 -4199.22 -4203.36 -4208.33 -4209.91
-2309.77 -2309.70 -2308.25 -2309.56 -2304.52 -2312.49 -2312.19 -2307.92 -2310.75 -2308.78 -2312.60 -2324.24 -2323.34 -2315.96 -2313.46 -2310.80 -2314.65 -2315.63 -2316.39 -2313.04 -2308.92 -2301.98 -2298.85 -2294.98 -2288.83 -2284.05 -2276.37 -2269.79 -2258.30 -2219.13 -2157.06 -2036.10 -1882.16 -1714.09 -1505.30 -1364.58 -1083.13 -1010.02 -928.47 -782.07 -705.89 -578.03 -473.16 -383.25 -348.32 -292.33 -272.48 -240.62 -216.27 -196.69 -162.02 -145.88 -117.34 -88.30 -24.66 -7.53 5.14 18.70 23.25 27.46 29.62 33.50 36.28 42.38 50.27 56.31 64.68 79.74 94.07 113.08 118.67 124.02 131.50 132.79 134.27 135.24 144.68 137.64 132.59 135.76 133.94 126.43 125.14 125.26 108.23 97.14 79.62 80.20 67.36 43.27 28.55 7.29 -35.23 -43.74 -15.86 45.62 64.66 -3.77 -71.77 -138.42 -168.97 -226.60 -207.85 -185.92 -230.28 -145.73 -154.84 -295.20 -279.92 -684.18 -938.01 -1198.05 -1274.94 -1392.39 -1527.19 -1643.14 -1941.29 -1968.13 -2049.86 -2111.72 -2135.50 -2146.37 -2161.57 -2170.18 -2186.19 -2196.11 -2205.79 -2216.68 -2239.19 -2267.56 -2394.94 -2633.27 -3137.44 -3541.21 -3843.79 -4124.54 -4187.78 -4195.73 -4206.70 -4215.86 -4217.67
-2325.77 -2325.69 -2330.05 -2319.58 -2322.34 -2326.08 -2326.33 -2324.78 -2320.08 -2322.44 -2327.06 -2336.59 -2331.24 -2323.67 -2319.72 -2321.38 -2321.95 -2327.49 -2328.79 -2321.74 -2318.46 -2310.90 -2308.80 -2302.64 -2296.13 -2292.14 -2284.07 -2279.24 -2266.60 -2213.33 -2148.46 -2041.74 -1914.30 -1759.19 -1551.98 -1387.75 -1202.85 -1092.35 -929.74 -822.71 -719.92 -650.24 -527.38 -423.27 -353.04 -319.21 -283.54 -257.21 -217.77 -198.08 -162.54 -130.04 -110.06 -75.93 -42.99 -11.45 6.82 19.24 25.09 27.71 28.97 28.79 32.87 36.05 42.94 52.00 60.58 70.71 89.11 95.67 107.19 120.52 125.92 127.42 121.05 126.98 121.51 115.84 118.38 120.08 119.41 111.94 102.00 94.97 84.41 76.26 70.06 41.89 37.49 24.31 11.79 -1.31 -30.60 -2.74 32.06 22.14 -19.46 -68.04 -113.05 -156.96 -198.14 -351.71 -500.15 -575.80 -567.27 -426.58 -594.23 -707.73 -685.54 -910.05 -1065.63 -1324.37 -1342.51 -1512.63 -1647.08 -1757.66 -1958.19 -2040.72 -2063.50 -2118.79 -2135.49 -2143.17 -2156.49 -2166.95 -2180.64 -2201.55 -2212.15 -2222.12 -2246.52 -2280.98 -2365.70 -2576.97 -2827.68 -3306.88 -3673.98 -4078.71 -4163.10 -4176.43 -4194.73 -4219.52 -4221.56
-2355.52 -2350.85 -2354.55 -2352.20 -2340.82 -2344.78 -2343.79 -2347.94 -2342.15 -2337.91 -2342.67 -2342.72 -2340.24 -2341.84 -2336.84 -2338.29 -2338.78 -2342.72 -2339.71 -2328.77 -2328.54 -2326.97 -2321.37 -2313.31 -2305.49 -2302.08 -2296.20 -2287.38 -2275.79 -2233.98 -2194.38 -2072.55 -1919.90 -1732.18 -1583.55 -1426.38 -1333.19 -1143.30 -961.85 -822.05 -704.60 -631.89 -548.57 -437.98 -375.72 -334.60 -314.00 -268.90 -223.59 -175.11 -152.75 -114.64 -93.54 -58.08 -39.19 -11.41 5.35 17.07 25.01 28.32 26.65 25.00 27.77 31.55 34.47 44.08 61.43 68.33 69.78 81.07 88.11 96.39 105.31 108.18 109.46 110.41 108.27 105.30 105.49 101.55 97.53 98.60 73.60 66.77 55.82 41.82 16.61 12.29 0.96 -0.43 -64.59 -115.81 -31.27 1.02 -10.43 -72.72 -103.60 -120.35 -179.62 -216.68 -336.89 -410.85 -478.94 -641.83 -824.97 -750.11 -777.20 -941.59 -1044.87 -1067.21 -1323.15 -1494.46 -1570.26 -1728.01 -1759.59 -1875.35 -1976.45 -2059.04 -2091.04 -2108.95 -2133.08 -2139.54 -2155.67 -2166.46 -2180.40 -2194.39 -2212.14 -2228.47 -2242.96 -2275.61 -2332.35 -2484.94 -2773.78 -3191.94 -3765.83 -4006.11 -4160.59 -4174.19 -4182.70 -4221.46 -4221.52
-2401.64 -2395.60 -2397.75 -2395.96 -2396.61 -2393.59 -2402.65 -2385.57 -2373.25 -2365.51 -2360.17 -2358.96 -2358.84 -2355.58 -2351.19 -2352.72 -2349.87 -2353.62 -2354.09 -2345.66 -2344.06 -2335.12 -2333.04 -2323.41 -2322.05 -2319.79 -2307.49 -2293.98 -2283.60 -2250.50 -2228.71 -2107.00 -1987.38 -1825.28 -1577.80 -1459.83 -1359.72 -1152.43 -935.30 -825.11 -743.11 -669.15 -583.90 -467.20 -451.30 -394.99 -330.24 -309.28 -255.86 -198.14 -148.38 -107.10 -77.96 -52.88 -27.56 -9.44 6.37 16.19 27.28 27.72 25.02 24.97 25.30 23.87 25.61 33.92 46.25 55.04 58.76 70.68 75.49 69.71 74.08 80.54 85.76 92.71 84.89 88.22 81.04 75.80 64.14 65.58 37.19 23.32 37.46 25.53 -34.87 -60.26 -99.52 -147.91 -224.29 -185.45 -109.92 -109.18 -81.35 -208.81 -205.24 -205.93 -255.68 -302.67 -398.88 -487.14 -667.10 -986.05 -1111.96 -1146.22 -1167.37 -1164.71 -1288.60 -1350.84 -1509.27 -1679.39 -1776.31 -1814.39 -1934.70 -2002.65 -2046.29 -2084.45 -2098.77 -2111.31 -2131.49 -2145.22 -2157.76 -2171.27 -2180.13 -2196.96 -2210.97 -2230.15 -2244.63 -2288.64 -2427.93 -2631.60 -2818.59 -3255.73 -3673.75 -3988.65 -4152.42 -4161.34 -4195.11 -4220.18 -4220.24
-2441.45 -2438.11 -2437.25 -2438.38 -2433.50 -2442.75 -2435.35 -2412.16 -2395.73 -2384.27 -2388.77 -2384.89 -2377.89 -2367.63 -2365.92 -2363.80 -2368.55 -2366.87 -2361.44 -2358.81 -2353.30 -2346.87 -2341.76 -2337.66 -2332.30 -2327.59 -2316.46 -2307.06 -2292.76 -2235.36 -2177.05 -2135.34 -1978.59 -1869.36 -1651.69 -1444.60 -1313.93 -1128.17 -1071.96 -994.46 -779.49 -676.10 -599.47 -495.18 -459.22 -400.63 -348.99 -328.00 -305.29 -233.69 -169.50 -110.14 -100.28 -51.87 -25.04 -11.53 1.40 16.18 22.43 22.82 22.45 21.04 15.02 14.15 19.43 24.76 28.35 35.96 41.35 49.80 52.32 49.15 52.75 49.45 49.09 49.92 50.15 43.52 48.40 48.77 36.46 25.01 8.27 -21.80 -94.81 -121.72 -223.03 -326.83 -361.73 -318.31 -335.64 -404.78 -332.09 -231.50 -300.80 -405.54 -381.92 -362.95 -384.94 -440.23 -642.55 -799.00 -817.14 -1167.11 -1260.45 -1417.90 -1501.54 -1427.37 -1561.14 -1549.15 -1676.06 -1853.78 -1925.54 -1931.42 -1969.71 -2015.11 -2057.85 -2084.54 -2099.10 -2118.52 -2132.96 -2148.68 -2161.43 -2168.94 -2182.33 -2202.22 -2213.44 -2238.95 -2259.06 -2295.84 -2464.29 -2671.71 -2856.36 -3278.56 -3541.66 -4016.75 -4131.41 -4168.24 -4181.40 -4208.62 -4208.67
-2461.52 -2461.44 -2463.08 -2461.39 -2460.07 -2461.78 -2447.20 -2435.82 -2407.06 -2397.35 -2396.69 -2399.15 -2391.61 -2384.28 -2383.90 -2380.74 -2381.64 -2378.25 -2369.75 -2366.92 -2360.60 -2356.84 -2350.87 -2350.61 -2342.02 -2337.19 -2325.87 -2318.49 -2306.08 -2257.41 -2152.88 -2074.08 -2012.44 -1801.82 -1708.83 -1499.46 -1382.40 -1270.04 -1205.56 -1049.92 -937.72 -774.08 -644.78 -550.74 -490.97 -425.70 -384.15 -342.67 -300.11 -224.49 -173.29 -137.47 -118.44 -65.12 -35.65 -13.60 -4.22 12.83 16.02 16.04 17.65 14.80 12.00 9.51 10.31 11.59 16.00 18.10 21.20 23.94 32.77 34.39 37.73 37.07 30.10 30.07 29.77 22.93 20.71 17.11 9.70 -0.27 -12.56 -25.64 -111.73 -229.18 -378.99 -485.55 -509.87 -625.45 -604.79 -754.57 -786.77 -918.90 -674.15 -787.84 -631.23 -664.49 -600.72 -794.41 -1114.84 -1264.27 -1134.45 -1302.88 -1453.27 -1605.70 -1677.68 -1675.87 -1722.13 -1793.86 -1837.40 -1872.10 -1971.16 -2010.61 -2031.79 -2048.16 -2079.21 -2094.01 -2107.73 -2124.39 -2146.33 -2159.46 -2168.51 -2182.92 -2191.56 -2205.69 -2228.59 -2237.09 -2279.99 -2309.51 -2394.25 -2627.29 -2777.11 -3128.93 -3448.63 -3999.79 -4128.66 -4182.27 -4189.80 -4198.07 -4198.13
-2470.71 -2470.64 -2471.79 -2471.91 -2470.92 -2468.09 -2463.63 -2445.91 -2421.81 -2408.20 -2406.31 -2411.69 -2410.11 -2402.66 -2394.70 -2393.43 -2395.22 -2384.35 -2372.81 -2372.15 -2366.66 -2364.56 -2360.42 -2356.45 -2350.13 -2345.76 -2335.07 -2326.49 -2311.81 -2265.67 -2198.15 -2101.89 -1992.07 -1817.49 -1705.50 -1537.16 -1449.41 -1308.59 -1270.93 -1117.86 -1069.64 -895.92 -734.75 -598.62 -538.69 -493.76 -436.16 -389.91 -321.66 -246.75 -195.06 -162.66 -125.72 -83.07 -49.72 -35.54 -16.25 2.23 9.87 11.83 8.55 5.57 1.80 1.97 2.64 -0.43 3.96 5.12 8.57 12.61 21.70 28.42 29.59 20.36 15.76 12.94 12.70 11.04 9.38 3.81 1.95 16.26 7.15 -3.94 -168.94 -371.78 -591.48 -682.34 -878.22 -967.69 -1043.49 -1329.12 -1408.96 -1392.57 -1342.15 -1254.80 -909.65 -989.73 -922.50 -1137.00 -1436.47 -1447.61 -1590.06 -1651.71 -1592.72 -1722.75 -1830.38 -1894.73 -1894.78 -1952.32 -1972.32 -1978.98 -2003.37 -2046.46 -2061.28 -2078.63 -2099.31 -2105.12 -2123.68 -2142.91 -2162.64 -2173.11 -2185.28 -2191.43 -2200.69 -2210.75 -2232.46 -2251.23 -2274.81 -2304.39 -2370.72 -2477.33 -2615.92 -2995.38 -3570.95 -3802.25 -4085.33 -4176.13 -4180.40 -4185.77 -4185.43
-2475.72 -2475.66 -2476.78 -2477.60 -2478.63 -2476.89 -2473.36 -2456.34 -2435.39 -2418.22 -2419.34 -2419.55 -2422.02 -2416.13 -2409.26 -2405.03 -2400.72 -2384.37 -2378.38 -2374.55 -2372.93 -2369.76 -2365.16 -2363.76 -2356.69 -2350.84 -2348.75 -2342.93 -2325.44 -2288.54 -2244.49 -2161.64 -2079.79 -1913.65 -1706.49 -1617.54 -1541.67 -1464.56 -1254.94 -1197.43 -1095.06 -913.39 -804.64 -696.66 -617.37 -563.79 -481.26 -407.94 -369.53 -272.26 -238.97 -180.90 -140.33 -106.20 -68.07 -47.20 -27.67 -13.02 -7.52 -0.40 0.75 -5.08 -9.48 -9.36 -8.02 -9.27 -12.23 -6.66 -1.33 8.07 35.32 56.70 38.07 27.33 29.63 12.73 15.94 10.99 22.41 21.84 36.68 54.15 40.97 15.61 -107.40 -409.97 -756.07 -1150.39 -1203.83 -1376.32 -1543.00 -1675.08 -1650.15 -1821.92 -1874.68 -1811.94 -1525.66 -1406.91 -1362.52 -1574.95 -1704.07 -1841.28 -1801.78 -1881.23 -1815.94 -1814.91 -1890.67 -1948.93 -1985.55 -2013.39 -2022.36 -2040.39 -2061.86 -2075.27 -2091.46 -2099.18 -2122.69 -2130.04 -2146.63 -2160.11 -2167.23 -2186.22 -2193.27 -2206.69 -2216.26 -2223.01 -2238.39 -2262.18 -2278.70 -2325.21 -2375.33 -2469.65 -2649.82 -2904.79 -3265.78 -3818.75 -4078.40 -4148.75 -4165.77 -4170.68 -4170.74
-2473.87 -2474.51 -2475.88 -2477.07 -2478.15 -2478.57 -2474.09 -2461.20 -2447.47 -2440.90 -2440.97 -2445.77 -2430.62 -2428.19 -2420.38 -2408.28 -2397.05 -2383.56 -2389.31 -2391.03 -2385.26 -2373.33 -2371.35 -2367.67 -2363.62 -2359.33 -2355.65 -2350.36 -2338.24 -2328.77 -2273.15 -2175.84 -2082.19 -1939.03 -1856.74 -1778.23 -1629.27 -1511.68 -1382.06 -1276.16 -1114.26 -965.84 -845.68 -755.16 -667.70 -602.75 -523.71 -459.18 -365.25 -333.12 -278.69 -211.20 -161.78 -116.87 -94.23 -60.21 -50.10 -30.23 -22.96 -18.79 -19.86 -21.87 -16.76 -17.40 -21.52 -22.72 -26.21 -21.81 -7.21 30.78 87.60 122.37 93.32 53.08 81.01 70.96 61.62 68.60 71.38 68.06 76.49 78.24 48.74 -4.59 -275.86 -466.83 -1066.66 -1416.72 -1573.19 -1789.58 -1952.08 -1974.20 -1934.51 -1992.24 -2004.64 -1960.83 -1867.73 -1776.57 -1751.56 -1711.27 -1830.46 -1964.70 -1976.79 -1982.49 -1955.94 -1963.61 -1963.53 -1998.57 -2023.67 -2035.02 -2051.79 -2074.94 -2098.88 -2102.41 -2110.63 -2110.53 -2133.27 -2155.37 -2166.67 -2174.58 -2178.01 -2189.96 -2200.78 -2213.33 -2224.80 -2226.10 -2247.11 -2265.86 -2287.89 -2321.80 -2375.98 -2496.16 -2707.27 -3080.72 -3430.03 -3700.69 -4005.61 -4138.64 -4163.08 -4156.55 -4156.60
