-5072.67 -5072.58 -5093.58 -5104.00 -5107.06 -5128.64 -5162.02 -5208.69 -5277.87 -5336.92 -5359.51 -5369.23 -5358.30 -5321.78 -5219.17 -4913.23 -4370.71 -4017.15 -3810.97 -3694.18 -3622.39 -3609.94 -3576.29 -3563.36 -3554.75 -3549.52 -3543.97 -3541.20 -3541.29 -3542.80 -3538.88 -3535.52 -3534.27 -3526.30 -3531.40 -3542.36 -3556.66 -3562.18 -3575.53 -3585.38 -3605.01 -3623.30 -3656.93 -3678.27 -3700.94 -3708.75 -3717.16 -3711.97 -3691.28 -3647.29 -3601.63 -3584.60 -3572.61 -3568.06 -3570.29 -3586.66 -3601.59 -3618.91 -3621.56 -3624.76 -3623.95 -3643.51 -3674.05 -3667.43 -3665.25 -3667.51 -3671.72 -3673.52 -3673.87 -3668.04 -3637.51 -3514.78 -3175.97 -3075.14 -2597.92 -2140.48 -1897.48 -1576.17 -1415.51 -1143.29 -878.02 -735.33 -561.62 -440.56 -387.77 -278.17 -140.70 -20.82 84.73 165.52 176.31 200.03 216.81 229.43 258.89 426.47 1354.87 2221.32 3942.92 6026.28 7056.10 5215.62 2771.57 1775.85 1268.08 485.01 270.04 250.42 232.44 191.64 70.62 -34.38 -165.00 -431.41 -691.78 -910.19 -1029.58 -1386.56 -1549.75 -1621.08 -1750.21 -1830.54 -1859.40 -1873.90 -1880.26 -1889.81 -1896.71 -1902.45 -1906.47 -1913.87 -1923.40 -1933.13 -1954.35 -1978.70 -2022.36 -2130.16 -2223.29 -2451.66 -2692.48 -2789.97 -2790.05
-5048.75 -5049.91 -5062.79 -5072.57 -5085.61 -5109.35 -5139.91 -5208.28 -5261.84 -5342.24 -5358.27 -5369.61 -5370.86 -5363.86 -5287.70 -5241.45 -4935.68 -4543.96 -4077.43 -3765.23 -3685.34 -3636.69 -3578.38 -3563.06 -3548.46 -3543.45 -3537.04 -3535.73 -3535.69 -3532.70 -3531.68 -3528.51 -3521.75 -3518.27 -3525.90 -3538.83 -3555.37 -3570.36 -3585.10 -3595.21 -3609.84 -3628.88 -3651.23 -3680.96 -3693.92 -3705.16 -3713.82 -3708.37 -3690.95 -3657.69 -3600.43 -3583.80 -3574.20 -3569.98 -3569.95 -3580.09 -3590.20 -3596.51 -3598.45 -3606.23 -3609.66 -3630.35 -3666.52 -3670.49 -3669.73 -3669.50 -3671.81 -3671.82 -3672.71 -3670.45 -3661.79 -3548.80 -3209.77 -2885.38 -2691.78 -2228.49 -1913.15 -1724.88 -1485.35 -1040.63 -881.89 -647.58 -518.18 -360.32 -316.04 -265.62 -159.47 -68.76 101.09 148.91 185.25 205.05 224.02 239.06 247.69 572.88 1886.96 2336.42 3107.11 5748.30 6468.98 5170.35 3496.56 3055.92 1090.55 351.27 274.74 244.46 216.86 161.11 104.84 -20.46 -163.00 -318.86 -558.56 -749.91 -913.64 -1215.79 -1437.60 -1634.89 -1736.25 -1830.27 -1871.71 -1882.85 -1889.00 -1892.76 -1894.73 -1901.83 -1903.83 -1907.28 -1916.39 -1931.35 -1951.86 -1969.24 -2025.13 -2127.09 -2236.84 -2426.78 -2639.87 -2789.78 -2789.85
-5045.52 -5046.83 -5054.21 -5065.34 -5076.40 -5094.51 -5149.36 -5194.64 -5275.28 -5331.29 -5352.22 -5359.60 -5364.05 -5365.97 -5355.31 -5299.16 -5170.76 -4896.24 -4445.01 -4008.00 -3749.48 -3661.04 -3591.66 -3563.06 -3546.37 -3540.24 -3535.56 -3534.57 -3533.05 -3531.77 -3528.33 -3522.21 -3518.66 -3518.22 -3524.87 -3544.02 -3562.82 -3575.05 -3588.32 -3598.91 -3610.19 -3637.33 -3651.34 -3676.81 -3692.91 -3702.44 -3708.64 -3708.45 -3683.73 -3655.02 -3605.19 -3580.04 -3574.69 -3570.78 -3570.88 -3574.68 -3583.97 -3591.69 -3593.30 -3594.38 -3599.53 -3624.33 -3659.92 -3670.48 -3669.44 -3670.53 -3670.73 -3670.95 -3671.16 -3669.07 -3662.05 -3544.84 -3385.04 -3027.03 -2646.81 -2272.41 -2021.16 -1773.45 -1576.43 -1287.77 -1021.17 -605.48 -444.59 -286.96 -202.04 -159.53 -104.40 4.38 110.70 141.38 170.01 204.58 228.73 241.61 312.03 832.72 2639.99 2815.98 4713.26 6452.49 5923.50 3867.88 2596.01 3049.60 961.31 434.95 289.50 216.04 177.93 145.78 57.92 6.98 -135.79 -307.66 -512.29 -690.10 -943.15 -1122.10 -1402.33 -1596.21 -1720.49 -1809.79 -1880.63 -1888.42 -1891.28 -1893.01 -1895.83 -1900.02 -1902.53 -1907.18 -1917.66 -1935.15 -1946.96 -1970.42 -2023.80 -2099.87 -2282.70 -2470.68 -2605.76 -2801.38 -2801.41
-5050.26 -5050.20 -5056.78 -5065.93 -5079.36 -5093.40 -5141.43 -5180.51 -5268.59 -5302.66 -5342.55 -5350.35 -5354.47 -5358.41 -5353.76 -5337.25 -5289.90 -5145.48 -4831.66 -4334.24 -3840.72 -3672.97 -3624.10 -3569.19 -3554.83 -3543.43 -3538.04 -3536.45 -3535.40 -3534.73 -3529.67 -3523.65 -3518.92 -3518.48 -3530.48 -3541.14 -3561.82 -3574.04 -3590.26 -3599.90 -3613.44 -3632.85 -3647.11 -3672.12 -3681.04 -3694.19 -3701.14 -3696.86 -3678.07 -3653.15 -3613.10 -3592.94 -3580.71 -3584.78 -3583.54 -3584.09 -3585.53 -3591.03 -3590.40 -3589.25 -3598.65 -3620.77 -3658.54 -3667.55 -3669.82 -3669.62 -3670.25 -3669.13 -3669.83 -3666.82 -3659.93 -3589.68 -3450.10 -3186.36 -2777.17 -2542.35 -2025.49 -1829.36 -1415.17 -1117.80 -899.36 -644.90 -412.38 -202.53 -142.49 -103.10 -46.17 48.26 91.90 112.30 159.82 192.43 219.85 242.57 349.81 947.80 1886.15 3361.83 4719.33 7955.94 7572.22 4802.08 2717.31 2522.29 526.31 301.76 273.03 220.58 176.76 146.96 76.45 -29.94 -135.19 -374.32 -608.09 -713.67 -913.33 -1081.14 -1317.87 -1504.36 -1683.15 -1837.94 -1873.05 -1888.76 -1890.74 -1894.44 -1896.93 -1899.21 -1902.60 -1906.67 -1920.11 -1938.09 -1951.03 -1970.31 -2034.13 -2085.37 -2314.47 -2454.94 -2808.31 -2905.33 -2903.41
-5064.55 -5064.50 -5077.13 -5079.68 -5086.37 -5098.57 -5142.59 -5191.43 -5259.34 -5285.17 -5320.16 -5323.76 -5331.14 -5332.73 -5342.73 -5331.86 -5301.26 -5223.65 -5090.26 -4639.02 -4138.07 -3832.34 -3638.28 -3591.29 -3572.22 -3559.80 -3559.81 -3556.33 -3548.30 -3537.09 -3532.09 -3525.17 -3521.96 -3524.31 -3533.59 -3551.35 -3560.90 -3580.22 -3589.50 -3600.42 -3608.77 -3624.92 -3636.04 -3659.01 -3673.04 -3683.63 -3688.19 -3693.06 -3683.18 -3653.36 -3636.69 -3631.70 -3621.08 -3619.38 -3611.97 -3606.51 -3604.40 -3604.94 -3594.26 -3591.67 -3602.62 -3627.59 -3666.65 -3668.30 -3669.06 -3669.90 -3669.58 -3668.94 -3668.91 -3669.20 -3667.12 -3614.93 -3512.38 -3221.68 -2986.31 -2769.31 -2315.74 -2057.35 -1464.50 -1065.57 -718.31 -449.38 -285.23 -161.91 -97.36 -28.28 -6.11 54.32 102.23 117.78 150.25 188.23 218.67 242.40 318.32 1276.95 1800.66 4202.15 6828.71 8870.81 7724.76 4718.38 3270.53 2728.64 580.74 306.45 247.41 228.52 205.36 150.57 60.23 -55.64 -173.13 -260.39 -467.51 -636.56 -872.53 -1049.84 -1283.18 -1513.35 -1693.09 -1812.45 -1850.99 -1880.22 -1889.74 -1894.95 -1896.63 -1897.88 -1901.70 -1909.09 -1920.12 -1938.60 -1957.70 -1986.50 -2058.43 -2090.65 -2302.61 -2595.27 -2814.79 -3071.04 -3071.10
-5090.42 -5095.77 -5098.99 -5101.80 -5108.93 -5118.96 -5152.35 -5178.87 -5225.42 -5248.69 -5271.59 -5272.71 -5267.58 -5269.38 -5286.50 -5306.01 -5308.17 -5291.00 -5222.31 -4951.81 -4495.61 -3933.59 -3755.30 -3652.81 -3597.64 -3585.09 -3588.65 -3578.03 -3566.91 -3546.13 -3533.48 -3526.96 -3523.85 -3524.97 -3536.07 -3553.82 -3565.37 -3581.14 -3592.14 -3600.56 -3609.94 -3621.35 -3624.60 -3644.86 -3659.67 -3669.85 -3673.37 -3682.96 -3684.44 -3686.27 -3674.50 -3673.60 -3675.52 -3681.98 -3662.26 -3659.37 -3633.21 -3621.17 -3599.55 -3596.42 -3603.07 -3627.74 -3666.86 -3667.93 -3667.77 -3666.73 -3667.15 -3668.17 -3668.58 -3668.52 -3663.99 -3638.07 -3497.96 -3283.92 -2980.94 -2719.75 -2319.37 -1920.35 -1586.98 -1037.37 -574.87 -366.81 -232.39 -134.43 -60.79 -15.99 30.69 67.76 111.66 124.35 155.33 184.27 214.54 234.30 289.96 743.19 1549.15 3003.98 5894.97 8519.28 7728.12 5605.44 2827.69 1958.40 746.69 315.52 250.42 234.10 211.48 155.21 99.28 1.62 -115.55 -161.84 -332.31 -570.38 -734.80 -1069.83 -1321.10 -1448.42 -1566.39 -1748.54 -1812.96 -1867.72 -1889.14 -1893.70 -1894.56 -1896.71 -1901.33 -1912.72 -1923.44 -1937.96 -1960.17 -1995.31 -2077.03 -2184.74 -2428.47 -2632.69 -2922.85 -3085.60 -3105.49
-5117.72 -5117.18 -5119.14 -5123.31 -5134.36 -5141.23 -5154.59 -5168.01 -5209.28 -5214.47 -5215.94 -5228.05 -5233.69 -5247.02 -5255.39 -5277.53 -5291.66 -5292.15 -5259.98 -5143.31 -4865.26 -4244.41 -3902.69 -3739.63 -3638.09 -3621.30 -3605.48 -3589.66 -3566.19 -3555.76 -3535.46 -3527.16 -3525.28 -3527.47 -3534.15 -3557.47 -3568.94 -3582.96 -3593.97 -3603.20 -3609.05 -3617.86 -3624.16 -3629.19 -3644.81 -3649.15 -3659.96 -3669.18 -3682.46 -3706.13 -3738.91 -3732.34 -3742.16 -3745.48 -3711.96 -3699.59 -3662.09 -3623.88 -3612.90 -3603.85 -3604.77 -3643.76 -3663.83 -3667.28 -3669.20 -3667.03 -3666.09 -3667.37 -3668.03 -3668.35 -3659.35 -3643.08 -3568.29 -3386.46 -3203.48 -2728.88 -2186.12 -1821.83 -1412.24 -932.42 -536.03 -310.31 -173.82 -93.60 -31.65 11.91 50.20 71.03 104.45 134.20 150.28 179.88 200.76 230.20 423.72 897.15 1653.46 2428.26 5223.29 7736.50 7583.27 4609.53 4057.51 3296.26 627.50 340.84 270.17 240.82 223.44 193.77 129.43 77.03 11.06 -98.63 -298.05 -514.51 -754.21 -982.47 -1225.62 -1465.55 -1542.78 -1729.63 -1812.16 -1867.77 -1888.89 -1893.39 -1893.87 -1895.58 -1901.84 -1911.05 -1933.26 -1953.47 -1996.50 -2030.32 -2120.42 -2306.63 -2460.90 -2755.57 -3019.03 -3181.00 -3181.06
-5135.05 -5137.66 -5142.30 -5146.47 -5150.94 -5156.84 -5160.72 -5172.28 -5178.12 -5182.72 -5184.74 -5188.12 -5197.75 -5212.50 -5236.29 -5261.23 -5277.07 -5283.03 -5279.26 -5219.37 -5095.00 -4592.74 -4180.45 -3798.99 -3665.51 -3635.76 -3622.52 -3610.62 -3583.29 -3555.33 -3536.55 -3527.69 -3526.23 -3529.38 -3533.41 -3560.99 -3571.09 -3587.09 -3596.41 -3607.06 -3613.17 -3620.88 -3620.66 -3622.28 -3627.63 -3631.88 -3644.45 -3651.77 -3690.96 -3726.69 -3755.25 -3767.42 -3772.64 -3770.48 -3759.74 -3721.14 -3685.14 -3643.79 -3621.07 -3605.23 -3607.90 -3625.30 -3666.24 -3667.70 -3667.46 -3666.19 -3665.73 -3665.31 -3665.29 -3666.24 -3659.66 -3637.11 -3526.37 -3316.11 -2781.99 -2247.80 -1922.53 -1401.24 -1094.03 -673.91 -421.01 -242.41 -151.93 -91.64 -32.36 25.16 54.02 90.00 112.34 135.90 171.77 180.86 204.19 240.66 309.45 709.13 1521.01 4090.96 4475.44 8070.23 8353.79 6599.26 3885.55 2833.24 496.35 348.82 261.35 247.03 231.93 211.96 168.94 142.83 18.59 -185.65 -365.22 -504.05 -680.48 -929.82 -1187.66 -1373.04 -1579.06 -1703.59 -1801.30 -1865.12 -1883.04 -1892.89 -1893.22 -1892.21 -1905.44 -1928.98 -1954.68 -2023.18 -2062.01 -2116.21 -2214.74 -2336.72 -2568.10 -2760.62 -3004.52 -3184.01 -3184.07
-5149.07 -5149.01 -5148.79 -5152.75 -5156.00 -5161.38 -5165.98 -5168.04 -5171.06 -5171.08 -5174.94 -5177.79 -5183.28 -5197.86 -5223.67 -5249.06 -5272.42 -5279.48 -5280.25 -5265.48 -5190.42 -4927.98 -4620.12 -3973.85 -3755.16 -3662.31 -3629.22 -3620.04 -3575.03 -3559.37 -3536.72 -3526.91 -3526.28 -3529.59 -3536.77 -3542.15 -3545.39 -3574.51 -3581.87 -3597.24 -3608.00 -3618.26 -3623.64 -3625.42 -3629.40 -3634.74 -3641.59 -3655.99 -3670.37 -3738.32 -3762.95 -3771.67 -3773.10 -3770.89 -3765.60 -3726.59 -3687.66 -3629.60 -3614.80 -3603.55 -3604.53 -3624.18 -3658.90 -3665.97 -3664.15 -3664.56 -3664.87 -3663.40 -3660.45 -3661.59 -3656.12 -3584.25 -3368.73 -3235.04 -2703.37 -2228.76 -1784.50 -1242.15 -878.09 -630.92 -409.32 -299.81 -144.16 -103.37 -19.92 25.02 69.29 107.64 135.98 154.50 175.59 198.74 214.41 245.03 312.15 804.18 1465.30 3558.37 4376.66 6900.59 7673.26 5757.38 3270.20 2075.57 1266.21 439.11 317.10 246.06 235.15 215.14 186.48 134.24 36.30 -129.71 -319.41 -486.47 -677.68 -937.25 -1171.07 -1413.46 -1522.34 -1630.18 -1772.87 -1843.19 -1873.12 -1887.83 -1885.69 -1877.30 -1902.25 -1942.46 -2021.89 -2084.94 -2145.48 -2218.33 -2284.25 -2500.73 -2650.48 -2856.42 -2987.06 -3178.92 -3179.00
-5154.25 -5154.19 -5154.77 -5156.53 -5159.22 -5161.53 -5165.82 -5169.32 -5173.79 -5178.45 -5177.84 -5182.13 -5184.50 -5202.99 -5220.20 -5245.57 -5262.71 -5277.17 -5280.01 -5277.43 -5237.57 -5111.67 -4682.38 -4457.42 -3866.23 -3682.77 -3625.35 -3600.94 -3581.32 -3556.83 -3532.62 -3524.36 -3522.15 -3519.73 -3500.52 -3496.47 -3473.07 -3446.89 -3497.87 -3512.63 -3557.50 -3586.32 -3606.20 -3619.97 -3631.06 -3639.08 -3651.70 -3656.87 -3689.73 -3728.72 -3748.87 -3772.62 -3768.55 -3770.22 -3758.02 -3732.69 -3690.84 -3632.96 -3616.34 -3603.05 -3603.87 -3632.01 -3659.43 -3665.74 -3664.53 -3664.46 -3664.46 -3660.42 -3654.79 -3652.80 -3615.13 -3470.89 -3279.54 -2948.98 -2767.20 -2136.08 -1703.32 -1200.29 -872.37 -651.63 -396.76 -249.54 -182.99 -97.41 -47.03 24.52 78.02 126.93 158.35 173.21 183.73 205.71 222.69 242.74 304.40 403.52 2770.25 3572.45 4002.11 8107.79 7476.25 5406.84 2831.65 2127.27 1990.65 570.81 330.78 298.82 241.84 212.31 177.65 111.46 9.29 -140.97 -300.00 -492.31 -702.72 -920.96 -1140.51 -1301.44 -1444.32 -1629.77 -1699.72 -1798.40 -1849.68 -1881.95 -1888.91 -1870.83 -1886.28 -1955.86 -2039.08 -2080.84 -2210.99 -2226.50 -2412.39 -2563.20 -2659.03 -2883.26 -3030.00 -3144.67 -3169.16
-5154.86 -5154.80 -5152.83 -5152.48 -5154.08 -5157.06 -5164.38 -5178.49 -5201.30 -5191.41 -5205.27 -5206.10 -5206.95 -5209.16 -5231.04 -5250.31 -5262.59 -5277.09 -5282.02 -5284.06 -5276.58 -5197.22 -4978.90 -4376.46 -3854.44 -3662.32 -3608.08 -3585.90 -3566.80 -3534.95 -3519.55 -3517.07 -3483.34 -3461.88 -3409.08 -3243.84 -2992.12 -3126.95 -3197.66 -3202.58 -3362.55 -3441.60 -3514.46 -3569.52 -3603.57 -3621.63 -3653.39 -3673.79 -3690.08 -3710.05 -3734.44 -3736.65 -3751.76 -3740.50 -3745.37 -3711.88 -3673.75 -3640.24 -3621.90 -3613.24 -3609.92 -3622.89 -3651.03 -3668.59 -3667.77 -3663.91 -3661.31 -3658.52 -3651.89 -3645.13 -3614.34 -3457.97 -3280.42 -2959.04 -2681.75 -2212.51 -1660.87 -1372.09 -924.99 -714.76 -411.37 -246.47 -182.31 -100.37 -27.40 16.65 79.71 133.59 166.00 187.52 201.66 220.58 236.60 252.81 294.36 442.36 2225.14 2814.11 4829.05 7429.84 7897.38 6598.11 3337.53 2517.37 1769.72 1031.52 342.57 335.09 301.15 228.84 186.02 131.10 55.91 -105.65 -265.21 -462.44 -624.43 -806.33 -1067.84 -1234.24 -1455.51 -1564.80 -1688.60 -1817.25 -1873.86 -1885.77 -1888.12 -1887.61 -1907.77 -1932.65 -1999.86 -2066.92 -2182.19 -2265.56 -2441.30 -2570.95 -2722.14 -2866.74 -2980.04 -3169.77 -3169.83
-5154.25 -5153.36 -5149.65 -5147.64 -5149.67 -5151.47 -5165.19 -5190.49 -5220.34 -5240.58 -5264.02 -5263.79 -5258.27 -5277.47 -5259.99 -5278.56 -5279.92 -5290.67 -5290.03 -5288.40 -5277.74 -5206.14 -4949.35 -4580.32 -3868.74 -3544.85 -3544.04 -3532.08 -3528.57 -3521.70 -3497.35 -3466.14 -3278.99 -3094.26 -2918.44 -2665.86 -2217.29 -2105.92 -2337.47 -2488.45 -2697.84 -2714.38 -3119.81 -3431.76 -3406.46 -3608.27 -3650.50 -3667.82 -3675.39 -3688.64 -3696.09 -3692.15 -3726.71 -3703.43 -3689.54 -3676.38 -3664.88 -3643.97 -3638.03 -3630.26 -3625.71 -3630.74 -3646.27 -3655.25 -3660.68 -3659.18 -3655.74 -3648.69 -3647.68 -3645.72 -3639.00 -3519.74 -3317.04 -2922.38 -2722.54 -2239.08 -1837.16 -1462.03 -1038.73 -728.70 -423.48 -280.84 -159.61 -90.22 -27.01 33.08 87.70 120.47 168.98 197.61 224.72 232.29 240.97 251.81 284.51 413.94 1271.46 2401.55 3387.81 6035.06 8182.85 7898.64 5347.43 3247.63 2709.98 1552.29 446.04 373.16 296.40 245.98 232.08 172.86 118.90 -1.97 -164.01 -346.84 -546.30 -785.44 -949.61 -1231.64 -1348.42 -1584.85 -1714.13 -1819.15 -1871.84 -1891.08 -1893.14 -1894.85 -1902.82 -1928.48 -1991.84 -2067.68 -2184.79 -2263.01 -2411.24 -2566.20 -2805.27 -3045.87 -3105.74 -3247.44 -3247.34
-5167.90 -5167.86 -5172.82 -5156.93 -5156.02 -5158.88 -5174.53 -5208.68 -5253.84 -5304.36 -5305.67 -5307.98 -5309.14 -5304.96 -5307.88 -5302.53 -5301.01 -5305.09 -5308.58 -5312.41 -5282.50 -5178.40 -4969.09 -4198.41 -3519.42 -3053.99 -3232.42 -3333.27 -3327.38 -3457.65 -3365.78 -3112.97 -2908.21 -2577.29 -2171.15 -1786.01 -1546.93 -1534.61 -1655.13 -1630.65 -1875.49 -2241.79 -2201.32 -2692.98 -2939.03 -3212.84 -3619.64 -3620.47 -3648.03 -3650.91 -3641.65 -3640.12 -3618.31 -3622.91 -3632.76 -3627.60 -3641.92 -3650.26 -3648.41 -3645.23 -3638.83 -3637.52 -3643.14 -3654.19 -3657.89 -3658.13 -3659.52 -3650.49 -3645.31 -3641.40 -3560.71 -3357.17 -3197.95 -2982.73 -2457.46 -2167.03 -1860.19 -1402.76 -1061.02 -757.89 -422.22 -317.39 -170.48 -77.09 -43.78 56.76 114.59 128.63 165.20 225.38 236.26 246.53 247.20 257.78 300.25 407.23 2120.18 3640.35 4095.57 7254.89 9108.93 9636.10 6327.57 3782.88 1768.37 1833.20 1395.60 407.84 318.52 252.16 236.13 201.21 134.60 48.99 -121.39 -245.21 -505.98 -681.36 -1019.87 -1148.78 -1441.04 -1553.30 -1706.06 -1817.02 -1860.21 -1886.80 -1894.62 -1896.83 -1900.47 -1914.05 -1962.11 -2011.72 -2106.12 -2293.78 -2491.06 -2632.54 -2867.79 -3052.08 -3274.25 -3396.45 -3396.46
-5220.21 -5225.69 -5226.04 -5216.82 -5202.90 -5186.07 -5198.50 -5241.71 -5307.11 -5365.29 -5360.44 -5364.97 -5361.93 -5345.68 -5332.44 -5328.99 -5332.62 -5328.17 -5336.75 -5341.81 -5302.48 -5072.79 -4382.47 -3541.19 -2551.86 -2466.89 -2414.76 -2853.35 -2931.11 -3142.67 -2979.98 -2458.94 -1988.44 -1760.03 -1525.26 -1253.72 -1112.73 -1108.53 -1158.54 -1184.68 -1333.54 -1372.50 -1576.20 -1844.38 -2389.17 -2726.58 -3190.90 -3451.09 -3504.47 -3429.52 -3453.46 -3509.65 -3571.89 -3559.84 -3585.60 -3604.38 -3629.43 -3641.84 -3647.43 -3645.60 -3640.72 -3637.26 -3637.01 -3643.06 -3647.87 -3645.43 -3650.21 -3641.49 -3641.14 -3603.66 -3372.76 -3266.68 -3191.78 -3079.07 -2564.04 -2084.92 -1561.89 -1188.15 -920.84 -763.92 -514.60 -369.98 -208.96 -2.52 52.37 103.19 138.97 169.42 200.42 230.13 248.92 253.23 257.08 279.87 288.93 375.68 1075.47 2889.81 3815.62 6040.52 7616.56 8849.28 7541.68 5072.85 2743.46 2530.21 1425.66 626.34 316.04 263.20 235.74 199.84 169.37 95.42 -52.66 -247.81 -311.54 -732.70 -1102.46 -1256.97 -1436.79 -1578.56 -1675.51 -1824.97 -1865.32 -1888.04 -1895.04 -1896.70 -1900.07 -1910.57 -1935.64 -2022.61 -2088.16 -2233.92 -2474.65 -2845.09 -3132.42 -3318.55 -3488.48 -3496.35 -3524.28
-5328.78 -5317.31 -5301.29 -5288.55 -5266.27 -5259.98 -5267.23 -5309.11 -5324.85 -5402.12 -5407.15 -5401.22 -5398.12 -5408.98 -5420.35 -5390.12 -5403.04 -5379.16 -5365.68 -5365.91 -5303.64 -5022.98 -4029.58 -2701.78 -1895.48 -1732.60 -1976.53 -2187.24 -2173.53 -2450.86 -2548.59 -2061.17 -1419.87 -1205.45 -1117.26 -979.84 -763.34 -828.05 -798.42 -975.77 -999.67 -1153.16 -1291.07 -1479.54 -1702.27 -1963.97 -2613.75 -2971.89 -3033.41 -3090.71 -3193.86 -3354.03 -3340.46 -3460.92 -3535.64 -3588.57 -3588.34 -3620.99 -3624.32 -3627.73 -3627.98 -3627.86 -3623.51 -3620.55 -3613.62 -3613.11 -3500.39 -3496.57 -3456.78 -3177.49 -3088.36 -2701.94 -2578.93 -2246.69 -2054.87 -1564.20 -1101.02 -1009.93 -887.99 -573.69 -246.77 -50.28 38.42 173.60 194.73 162.73 177.74 175.55 196.70 220.34 250.66 266.87 263.92 274.86 281.41 396.04 604.01 1835.50 2404.10 3116.72 4306.69 7090.59 7828.11 5864.10 4899.75 3217.88 1550.02 552.22 429.57 323.26 238.86 225.67 208.56 172.95 54.43 -87.41 -307.68 -532.11 -941.72 -1080.21 -1397.99 -1555.51 -1726.17 -1782.35 -1865.90 -1889.52 -1895.41 -1896.49 -1900.25 -1911.06 -1950.71 -2024.56 -2059.89 -2281.59 -2538.95 -2890.57 -3185.99 -3456.26 -3508.59 -3606.67 -3606.76
-5426.38 -5426.24 -5388.33 -5371.69 -5359.99 -5367.42 -5383.55 -5397.56 -5461.02 -5468.90 -5464.19 -5453.15 -5476.99 -5470.98 -5468.43 -5453.82 -5438.15 -5460.61 -5445.06 -5409.65 -5300.07 -4985.65 -3915.49 -2915.38 -1598.81 -1465.37 -1448.84 -1576.20 -1695.32 -1903.62 -1901.97 -1629.27 -1299.39 -1022.58 -795.12 -430.98 -424.60 -323.82 -440.53 -599.63 -766.06 -1052.50 -1173.76 -1098.45 -1161.77 -1372.54 -1710.82 -2079.86 -2449.74 -2282.48 -2339.49 -2555.18 -2810.96 -3041.21 -3325.59 -3402.45 -3552.55 -3561.12 -3515.00 -3579.80 -3581.69 -3599.62 -3565.53 -3549.10 -3500.97 -3349.07 -3331.36 -2906.91 -2665.46 -2403.69 -2007.11 -2074.10 -2132.06 -1586.17 -1279.75 -1049.51 -572.74 -296.69 -148.07 48.68 145.96 155.56 221.32 237.80 222.27 193.39 180.61 184.10 191.79 219.74 247.88 265.36 264.11 269.83 281.06 308.14 407.17 1200.39 1305.83 2229.88 3806.43 6743.87 8203.31 7521.19 5297.43 2952.63 1732.06 2095.29 1425.44 412.53 260.59 234.98 214.93 191.10 92.87 -82.73 -220.96 -432.10 -799.11 -1084.36 -1298.76 -1465.86 -1676.67 -1770.27 -1852.06 -1884.80 -1893.31 -1896.14 -1901.26 -1910.84 -1950.81 -1983.64 -2181.23 -2235.39 -2485.07 -2980.96 -3221.93 -3630.20 -3628.99 -3664.91 -3683.34
-5511.38 -5511.25 -5517.10 -5460.91 -5440.54 -5436.68 -5436.07 -5468.18 -5516.06 -5541.15 -5539.71 -5523.06 -5524.56 -5529.38 -5527.01 -5542.47 -5542.30 -5564.40 -5514.11 -5493.54 -5409.12 -4964.64 -3727.74 -2618.89 -1646.02 -1538.84 -1536.45 -1571.16 -1502.68 -1552.71 -1592.69 -1511.56 -1172.55 -759.28 -379.29 -144.97 68.50 135.78 23.10 -111.57 -130.17 -682.94 -1044.33 -738.21 -662.81 -1104.53 -1323.39 -1352.64 -1560.99 -1627.13 -1748.34 -1837.69 -2147.28 -2385.57 -2777.16 -3176.32 -3266.81 -3376.88 -3398.95 -3453.50 -3427.54 -3255.62 -3376.64 -3362.82 -3180.27 -2958.39 -2897.31 -2325.14 -2201.07 -1658.81 -1582.35 -1402.65 -1146.68 -930.71 -615.28 -292.28 28.38 101.57 158.30 208.18 217.28 214.95 196.10 193.24 206.99 193.66 192.64 202.95 211.01 231.80 251.91 257.85 264.84 267.38 292.08 309.41 325.78 499.03 2194.25 3288.97 4612.64 5605.30 8158.53 7852.79 5795.58 3260.84 3204.50 2805.86 2206.32 759.53 272.73 249.41 231.28 210.08 167.26 128.19 -92.41 -314.94 -761.92 -1107.28 -1295.61 -1485.28 -1552.67 -1715.46 -1806.17 -1874.95 -1888.25 -1892.48 -1908.19 -1934.90 -1971.64 -2023.99 -2134.22 -2247.68 -2477.80 -2810.60 -3180.96 -3542.95 -3653.65 -3724.74 -3724.81
-5578.20 -5578.09 -5580.82 -5545.14 -5550.45 -5548.07 -5537.56 -5550.16 -5574.81 -5582.10 -5573.88 -5570.96 -5564.09 -5574.72 -5583.50 -5584.55 -5583.03 -5591.43 -5582.74 -5571.10 -5459.95 -5107.17 -3796.41 -2917.09 -1923.50 -1934.12 -2052.08 -2021.37 -1675.87 -1555.44 -1498.37 -1378.72 -1219.86 -426.58 -43.16 271.39 303.34 338.52 301.28 185.15 18.22 -336.31 -689.61 -456.91 -508.26 -851.24 -1083.02 -1192.95 -1214.29 -1389.73 -1404.17 -1356.10 -1306.54 -1960.55 -1940.88 -2240.23 -2557.86 -2790.60 -2809.39 -2900.10 -2726.08 -2893.30 -2754.58 -2832.62 -2501.90 -2113.23 -1763.81 -1661.80 -1447.96 -1363.07 -1202.30 -1106.48 -887.27 -639.55 -69.09 196.10 254.19 272.54 260.71 218.27 186.57 164.57 152.93 172.20 180.93 190.90 183.18 194.95 200.24 224.76 245.54 255.08 261.69 269.80 278.74 309.96 321.65 387.38 1911.50 2406.69 2862.85 4097.79 7038.34 8116.50 7097.36 5326.50 4292.68 2785.15 2534.92 1461.01 314.90 254.91 245.29 218.61 186.89 142.92 17.01 -138.53 -492.23 -786.85 -971.06 -1342.74 -1490.60 -1684.56 -1814.65 -1869.15 -1883.94 -1882.93 -1903.33 -1959.77 -2078.85 -2129.48 -2274.70 -2453.67 -2543.44 -3016.84 -3318.81 -3631.12 -3764.50 -3800.92 -3801.07
-5617.08 -5613.84 -5613.33 -5604.16 -5599.02 -5589.33 -5588.32 -5594.39 -5591.30 -5590.20 -5583.82 -5579.84 -5578.75 -5583.15 -5596.26 -5618.46 -5625.71 -5627.46 -5625.97 -5606.72 -5503.69 -5316.69 -4441.12 -3366.47 -3291.60 -2875.77 -3166.05 -3229.50 -2371.53 -2008.80 -1682.41 -1346.17 -1017.92 -363.29 49.37 265.41 339.51 425.19 439.55 373.86 322.59 108.02 64.37 21.13 -222.86 -584.80 -855.95 -970.36 -1042.01 -1173.49 -1163.93 -1164.21 -1125.99 -1036.49 -1335.32 -1606.70 -1774.70 -1839.72 -1887.03 -1848.79 -1877.79 -2034.39 -1847.72 -1996.96 -1802.01 -1582.50 -1579.77 -1431.96 -1387.08 -1270.97 -1106.87 -662.60 -467.27 -46.24 211.66 307.37 285.21 280.61 249.70 183.06 166.77 163.32 154.81 148.13 147.26 174.27 177.81 170.90 186.73 219.23 237.23 251.25 254.73 258.45 263.52 268.99 267.73 338.09 696.43 1458.94 1454.84 3153.35 5462.01 6793.48 8140.25 8122.68 6116.52 3501.52 3242.92 3009.45 957.66 327.18 254.41 238.99 208.59 193.85 124.94 -70.15 -203.75 -504.04 -796.72 -1110.85 -1265.32 -1594.80 -1776.41 -1826.22 -1860.93 -1869.15 -1878.30 -1971.74 -2101.23 -2261.57 -2504.39 -2808.25 -3077.02 -3587.13 -3709.22 -3832.48 -3844.61 -3854.31 -3854.39
-5628.30 -5627.48 -5625.47 -5619.54 -5616.78 -5611.01 -5609.97 -5606.17 -5599.98 -5594.65 -5586.47 -5583.74 -5580.82 -5585.59 -5603.79 -5620.95 -5625.80 -5628.28 -5629.71 -5627.03 -5577.74 -5425.34 -4983.15 -4609.05 -4486.71 -4751.80 -4642.33 -4114.39 -2975.68 -2245.54 -1854.36 -1602.17 -1279.47 -754.05 -69.46 190.90 308.48 461.11 491.91 435.44 348.22 288.60 275.43 254.44 168.17 2.49 -348.46 -278.31 -458.64 -643.88 -767.05 -817.13 -936.61 -1004.22 -1091.35 -1147.62 -1279.84 -1439.81 -1364.93 -1451.78 -1427.66 -1397.25 -1461.64 -1496.48 -1513.07 -1415.49 -1379.79 -1381.60 -1251.95 -1112.72 -906.08 -247.92 89.31 276.92 338.27 392.00 326.03 266.95 198.99 157.74 167.23 158.93 156.22 148.87 148.36 148.37 162.34 171.05 184.96 214.15 231.78 243.24 252.70 251.95 252.24 252.40 255.32 298.08 375.61 882.76 2455.91 3699.96 3797.93 4618.56 6730.54 8354.67 6439.95 5708.65 3893.91 3109.09 1484.10 362.89 302.62 250.28 237.92 215.96 133.13 29.79 -107.07 -325.09 -547.12 -703.65 -964.63 -1359.21 -1563.44 -1750.50 -1833.29 -1855.95 -1866.08 -1913.18 -2157.66 -2468.20 -2784.21 -3167.54 -3387.45 -3644.76 -3829.90 -3844.40 -3861.64 -3866.33 -3868.25
-5625.99 -5625.87 -5623.39 -5621.08 -5617.60 -5613.95 -5610.41 -5605.47 -5597.85 -5593.67 -5587.52 -5584.08 -5581.42 -5586.30 -5600.95 -5621.71 -5624.54 -5624.89 -5625.35 -5621.15 -5601.67 -5553.92 -5448.64 -5328.45 -5336.39 -5367.97 -5189.22 -4971.18 -4236.47 -3330.96 -2356.98 -1761.15 -1117.94 -639.77 42.40 166.98 308.13 351.53 430.23 436.76 422.38 338.60 304.28 288.04 294.63 251.14 172.82 133.06 -54.47 -222.42 -192.82 -320.98 -601.97 -775.04 -782.52 -822.72 -990.35 -1117.23 -1171.47 -1219.62 -1185.97 -1212.19 -1278.68 -1292.44 -1384.22 -1373.90 -1382.58 -1324.14 -1036.90 -793.37 -475.47 87.72 266.85 311.44 353.65 414.71 307.96 223.91 143.04 140.60 156.42 154.78 150.34 149.59 149.93 149.95 160.66 170.69 184.37 200.87 219.95 237.32 247.40 249.01 249.69 250.70 251.94 263.45 320.15 341.77 2135.97 3125.46 2904.53 3292.26 4530.61 7023.29 7240.66 5616.53 3484.62 2097.22 1371.01 348.46 332.19 274.48 243.92 211.26 165.65 102.73 -5.90 -175.21 -306.30 -503.04 -844.43 -1275.39 -1620.43 -1763.66 -1825.73 -1856.22 -1847.99 -1900.15 -2120.67 -2531.08 -2902.37 -3133.02 -3483.75 -3640.77 -3785.17 -3846.98 -3869.50 -3871.12 -3871.50
-5620.34 -5620.28 -5616.81 -5615.39 -5614.40 -5609.82 -5607.24 -5603.41 -5597.65 -5594.70 -5588.85 -5585.11 -5581.87 -5585.19 -5600.87 -5613.16 -5618.66 -5617.62 -5616.56 -5616.10 -5602.85 -5568.43 -5506.70 -5493.84 -5484.59 -5485.88 -5488.26 -5333.95 -5093.78 -4655.98 -3292.25 -2016.61 -986.94 -441.69 24.67 234.27 302.81 304.46 355.07 430.13 427.96 362.66 343.90 339.16 319.94 297.89 343.74 342.30 263.68 238.22 206.18 -16.60 -361.36 -424.08 -515.11 -595.26 -695.15 -809.88 -873.44 -992.31 -948.51 -845.11 -975.81 -1102.10 -1138.01 -1231.38 -1371.17 -1206.54 -588.29 -222.08 50.23 235.40 351.66 366.49 373.25 331.95 267.98 203.85 140.03 154.10 148.07 148.46 148.24 148.33 148.80 151.12 157.76 163.56 175.92 195.87 213.98 233.11 243.10 247.35 248.04 248.45 249.45 252.15 273.59 334.82 720.36 1614.73 1805.87 2095.64 4303.88 6743.70 8021.62 4216.06 2994.24 2537.25 2850.55 1323.28 342.26 281.19 231.16 209.27 181.53 126.39 38.49 -118.90 -245.10 -531.33 -921.41 -1341.66 -1585.55 -1774.04 -1835.34 -1858.69 -1871.19 -1881.86 -2022.32 -2255.49 -2598.20 -2877.65 -3352.01 -3679.12 -3830.69 -3855.26 -3868.04 -3870.24 -3870.30
-5613.10 -5613.43 -5611.79 -5609.48 -5605.83 -5606.41 -5603.08 -5604.02 -5602.77 -5600.58 -5603.19 -5598.82 -5595.66 -5593.89 -5598.41 -5605.35 -5601.10 -5605.98 -5602.60 -5598.63 -5574.73 -5564.43 -5533.27 -5522.96 -5526.10 -5530.51 -5524.45 -5503.41 -5429.62 -5101.05 -3569.86 -2282.70 -1281.97 -449.73 -36.27 196.92 297.80 314.81 345.40 412.89 433.87 379.57 364.12 376.64 396.57 381.36 430.81 424.68 369.09 311.64 271.54 172.39 -5.74 -144.28 -198.94 -323.53 -317.47 -487.95 -521.36 -547.27 -627.27 -522.53 -513.09 -739.75 -597.37 -927.02 -852.05 -609.54 -393.46 -22.23 238.34 313.75 313.94 321.14 297.80 288.92 244.18 163.66 139.35 154.88 150.59 147.52 146.16 146.46 148.04 149.32 155.93 167.77 181.50 202.87 218.73 232.61 241.91 246.41 246.41 246.78 247.34 248.49 250.34 270.94 262.00 497.51 1624.65 2678.81 3280.86 7188.35 7760.16 7539.44 6388.16 3300.51 3094.28 1234.97 499.35 271.92 241.86 231.96 198.62 147.74 65.91 -56.54 -310.93 -648.57 -1016.65 -1333.19 -1570.78 -1767.60 -1858.79 -1869.43 -1871.74 -1902.72 -1999.07 -2088.10 -2385.77 -2683.27 -3161.88 -3599.68 -3768.42 -3864.20 -3867.24 -3867.74 -3867.54
-5604.03 -5603.98 -5601.15 -5601.46 -5601.08 -5599.16 -5599.16 -5608.36 -5619.60 -5628.75 -5621.33 -5618.59 -5619.58 -5609.88 -5599.77 -5584.25 -5581.33 -5572.44 -5575.37 -5564.80 -5558.86 -5544.54 -5536.51 -5536.73 -5541.29 -5544.38 -5558.83 -5552.86 -5426.50 -5142.03 -3832.91 -2435.58 -1152.63 -344.01 -18.94 254.94 305.26 329.65 325.63 387.36 415.16 414.25 440.17 455.23 495.88 469.06 519.06 470.11 371.97 319.28 273.20 197.22 137.19 55.56 -5.12 -83.62 -141.38 -128.22 -204.45 -253.57 -167.79 -141.45 -170.65 -256.85 -175.71 -211.21 -243.69 -70.59 159.19 244.67 285.61 303.03 296.73 294.40 248.47 239.57 216.23 172.57 164.28 157.29 150.24 146.56 144.81 144.64 145.90 148.90 152.07 160.11 183.46 204.49 220.48 232.03 235.68 242.18 245.40 245.31 245.90 246.58 247.96 251.42 256.44 446.47 1860.64 2565.59 2570.23 4471.43 6478.69 7798.40 6980.35 5408.49 2577.61 1802.37 488.85 279.19 244.37 231.82 203.89 152.93 96.96 -93.60 -307.15 -738.00 -1004.61 -1336.47 -1674.98 -1819.86 -1858.02 -1873.48 -1875.30 -1905.07 -1948.04 -2121.13 -2362.85 -2757.09 -3352.21 -3693.00 -3858.18 -3860.27 -3864.06 -3866.24 -3866.30
-5594.18 -5594.13 -5592.55 -5591.88 -5590.40 -5590.60 -5594.92 -5613.91 -5639.59 -5644.23 -5647.60 -5643.89 -5642.23 -5627.64 -5601.51 -5571.83 -5553.25 -5542.59 -5530.96 -5532.17 -5531.44 -5532.99 -5537.44 -5540.88 -5545.00 -5552.51 -5565.28 -5581.11 -5500.18 -5081.64 -3528.04 -1802.44 -423.95 -143.86 184.12 236.41 322.98 395.47 409.45 415.87 443.58 448.56 468.55 545.86 619.83 700.12 680.07 565.37 439.88 326.14 268.46 261.26 229.30 141.86 45.92 24.59 2.47 14.82 -22.29 -8.25 24.31 17.32 66.59 49.87 75.01 264.48 275.03 225.28 317.96 342.21 286.09 286.50 232.36 167.48 158.34 180.37 172.49 147.63 161.65 153.95 146.39 144.49 143.80 143.84 145.36 149.34 152.23 164.84 184.79 207.02 219.07 223.39 227.44 240.72 241.72 243.04 244.44 245.16 246.17 247.67 255.29 320.20 915.99 1761.84 1860.56 2736.89 4926.32 7083.42 6937.01 5750.01 2746.55 1760.17 596.53 286.08 250.13 235.99 202.47 171.22 89.74 -87.48 -347.69 -868.90 -1000.06 -1372.47 -1647.62 -1795.70 -1862.55 -1871.81 -1875.16 -1889.32 -1947.38 -2054.59 -2277.26 -2802.44 -3444.59 -3822.01 -3860.63 -3864.27 -3864.22 -3866.37 -3866.43
-5584.22 -5584.16 -5581.90 -5582.90 -5584.64 -5585.32 -5591.43 -5608.58 -5640.01 -5649.72 -5653.62 -5652.40 -5647.75 -5630.68 -5605.26 -5562.12 -5536.98 -5524.79 -5522.05 -5520.09 -5521.61 -5532.21 -5537.86 -5542.61 -5547.39 -5551.33 -5536.57 -5434.82 -5304.16 -3166.13 -2080.35 -822.09 -314.73 94.42 293.05 320.35 344.00 426.10 459.75 447.93 457.16 467.88 475.98 566.35 662.25 767.72 791.55 671.15 551.18 382.01 283.16 277.88 256.57 203.88 120.96 97.57 83.48 60.48 86.75 149.84 164.57 159.52 181.65 211.71 270.08 304.64 324.91 375.23 376.27 287.36 245.69 199.99 118.72 128.57 146.66 150.10 144.46 158.24 158.42 142.40 143.52 142.55 142.71 142.99 144.12 147.02 156.19 171.21 190.87 203.29 214.25 222.03 227.90 237.20 238.94 240.58 242.16 244.35 245.83 249.24 253.34 323.14 433.95 1082.48 1950.82 2077.33 4102.87 5917.99 6259.24 3771.55 2423.10 1663.12 1317.68 295.30 264.52 241.14 220.01 160.33 50.20 -97.70 -311.08 -711.02 -1097.74 -1347.25 -1592.55 -1712.90 -1833.61 -1871.51 -1876.85 -1887.88 -1941.85 -2048.41 -2187.51 -2588.27 -3083.02 -3687.59 -3831.06 -3863.08 -3866.60 -3866.87 -3866.93
-5573.83 -5574.66 -5574.89 -5574.83 -5574.94 -5576.61 -5587.01 -5602.65 -5627.80 -5645.76 -5651.48 -5650.25 -5645.94 -5633.84 -5596.89 -5562.67 -5534.33 -5523.71 -5521.56 -5521.07 -5525.01 -5536.06 -5541.83 -5539.42 -5536.75 -5484.84 -5359.97 -4411.39 -3547.90 -2462.74 -942.62 -739.49 -139.90 110.91 310.98 322.82 335.88 410.60 458.47 505.33 509.02 532.55 507.93 550.02 625.14 758.41 800.23 710.03 499.46 362.12 303.70 281.82 262.10 219.74 196.79 181.37 168.70 156.17 206.72 201.28 214.61 239.82 290.16 308.59 358.67 391.13 365.98 350.21 295.83 241.07 165.95 149.25 158.89 129.59 131.25 143.15 133.60 139.64 143.73 141.45 139.20 141.18 140.91 140.79 142.31 145.48 157.02 173.44 188.15 201.41 213.87 220.24 225.74 233.20 235.28 239.86 241.38 242.21 243.97 247.84 252.86 260.68 349.36 1082.60 2285.17 2362.97 3770.03 7853.47 7833.98 4798.47 3489.98 3122.90 1988.27 311.20 261.91 246.75 233.04 195.95 108.00 2.20 -264.40 -814.77 -857.20 -1329.86 -1430.56 -1718.04 -1811.93 -1867.82 -1878.53 -1893.96 -1933.43 -1988.58 -2145.33 -2621.22 -2886.18 -3541.43 -3762.37 -3854.83 -3863.54 -3866.03 -3866.09
-5562.75 -5562.69 -5562.53 -5565.21 -5566.63 -5567.80 -5577.78 -5593.24 -5617.61 -5638.44 -5640.80 -5643.88 -5636.45 -5621.95 -5581.44 -5563.32 -5538.11 -5528.11 -5527.68 -5526.89 -5531.23 -5539.89 -5534.91 -5529.40 -5422.61 -5359.80 -5098.76 -3917.52 -2932.75 -1443.23 -642.47 -88.61 210.05 269.16 298.34 336.32 353.44 412.81 429.16 480.77 540.07 567.10 531.44 583.10 660.00 752.71 798.78 691.90 589.61 467.75 308.45 291.44 279.53 263.11 253.08 239.57 242.68 240.35 244.41 265.48 296.06 355.71 398.74 400.72 401.51 347.50 311.75 236.50 214.14 151.90 120.45 132.30 150.62 143.58 136.04 134.31 129.24 134.44 144.18 146.37 144.98 144.94 142.48 139.13 141.26 141.94 147.97 162.39 191.74 204.60 212.27 219.48 225.68 231.11 234.15 237.35 239.86 241.39 243.54 246.72 250.77 253.51 261.66 634.48 1461.37 2428.06 4697.39 7340.80 7595.54 4856.23 3775.20 3603.93 2082.07 478.26 280.24 251.75 243.10 213.43 114.55 58.72 -149.84 -466.39 -960.52 -1230.20 -1323.41 -1718.37 -1812.01 -1869.75 -1883.49 -1894.49 -1970.49 -2081.83 -2229.08 -2552.94 -2990.84 -3497.73 -3704.60 -3852.02 -3858.31 -3866.24 -3866.31
-5550.90 -5550.84 -5549.19 -5553.20 -5554.09 -5558.45 -5560.22 -5583.62 -5598.90 -5605.12 -5610.64 -5620.49 -5620.47 -5613.78 -5585.94 -5553.95 -5544.55 -5539.92 -5540.38 -5537.90 -5535.09 -5519.74 -5439.76 -5412.95 -5088.46 -4471.81 -3944.44 -3114.44 -2195.13 -842.39 -330.56 76.53 239.36 283.28 315.12 343.43 385.15 409.36 450.95 484.30 539.41 592.98 609.02 609.32 645.32 679.89 732.20 728.12 554.43 439.49 354.88 300.02 290.72 281.11 273.18 261.58 259.69 260.70 293.03 316.03 366.66 432.32 464.20 417.93 327.88 288.77 273.86 206.98 177.55 129.97 114.39 138.28 148.67 147.12 148.30 150.37 148.60 129.70 139.51 144.47 144.29 142.89 142.76 139.07 140.51 146.91 152.56 165.80 184.76 201.83 211.29 218.49 222.66 229.23 232.37 234.00 237.32 240.32 243.14 244.64 247.92 251.27 259.46 755.16 1676.25 1847.36 4472.07 6890.90 7499.62 6203.00 3163.34 2069.57 1172.63 887.96 276.85 255.50 235.38 213.61 188.14 96.20 -21.64 -281.93 -622.13 -992.02 -1362.03 -1591.10 -1828.92 -1856.50 -1870.45 -1917.15 -1999.41 -2161.41 -2358.24 -2541.36 -2983.45 -3260.65 -3722.57 -3846.53 -3851.16 -3866.77 -3866.84
-5538.83 -5538.77 -5540.04 -5541.81 -5543.71 -5546.35 -5553.11 -5557.97 -5570.38 -5577.47 -5583.06 -5593.78 -5586.80 -5589.05 -5574.49 -5560.09 -5555.69 -5554.79 -5545.14 -5524.30 -5494.95 -5424.00 -5315.60 -4981.31 -4056.77 -3763.91 -2533.59 -2069.91 -1109.98 -435.10 -146.83 201.64 275.97 307.34 326.43 351.62 387.18 412.07 441.45 463.64 497.04 557.74 599.54 609.89 612.70 631.01 671.01 693.13 639.09 491.68 405.81 321.25 297.50 289.66 287.61 280.91 285.31 306.65 332.42 435.24 464.70 496.04 425.44 331.33 294.35 245.64 180.79 154.09 153.88 148.82 120.75 122.83 134.52 123.16 139.39 149.39 137.15 128.07 131.78 135.62 135.73 134.56 137.48 138.26 140.76 148.05 164.46 169.17 187.83 203.05 207.53 216.32 222.44 227.00 230.89 232.73 235.89 239.35 241.16 243.26 247.74 252.15 258.19 393.68 1279.95 1671.91 3164.24 3886.40 6660.57 7005.32 5113.42 2981.71 2292.73 955.30 280.46 250.53 232.04 198.45 174.76 97.60 -16.76 -377.15 -666.45 -964.73 -1236.35 -1580.58 -1769.28 -1835.60 -1866.84 -1936.45 -2065.84 -2202.36 -2340.72 -2589.86 -2931.94 -3259.29 -3507.97 -3791.89 -3851.75 -3866.87 -3866.94
-5527.80 -5528.75 -5529.08 -5534.04 -5535.03 -5536.33 -5538.00 -5546.18 -5549.60 -5551.31 -5547.67 -5555.40 -5561.60 -5563.83 -5563.45 -5558.57 -5556.29 -5553.36 -5545.72 -5444.07 -5317.52 -5014.82 -4419.06 -3806.38 -3192.90 -2275.54 -1785.90 -1337.14 -861.78 -356.09 21.18 244.72 309.40 328.11 336.09 373.22 396.29 410.45 437.32 452.09 486.17 507.35 573.25 584.48 578.67 594.37 625.47 635.63 616.70 521.72 390.57 346.21 308.62 300.63 302.75 301.96 307.46 315.36 389.08 504.78 487.83 449.46 353.02 287.25 261.21 221.47 127.94 118.84 148.38 145.31 139.16 124.86 117.36 119.07 137.11 149.88 151.48 138.47 133.23 134.46 134.84 134.95 134.47 137.27 140.24 145.64 160.37 167.70 185.68 196.81 207.38 212.61 219.20 224.02 229.90 233.39 235.71 239.46 241.59 243.07 246.90 253.89 263.52 442.46 916.92 1541.96 3378.25 5454.96 7482.85 6816.27 4419.61 2866.27 1983.78 820.30 340.11 244.41 233.91 196.23 173.10 98.06 -37.56 -317.72 -723.99 -796.50 -1180.25 -1493.28 -1672.00 -1805.44 -1878.16 -1923.79 -1998.91 -2174.06 -2373.89 -2532.61 -2741.80 -3091.24 -3481.59 -3743.70 -3836.57 -3857.83 -3857.89
-5518.59 -5518.52 -5519.81 -5522.32 -5521.97 -5529.09 -5530.09 -5531.78 -5532.71 -5535.72 -5540.46 -5545.99 -5550.77 -5556.63 -5556.66 -5539.77 -5535.41 -5510.80 -5298.34 -5221.43 -4752.80 -4208.68 -3558.52 -2580.42 -2044.99 -1587.05 -1350.47 -1046.77 -547.43 45.79 207.64 293.88 316.31 364.60 362.05 371.11 396.48 405.25 428.90 448.15 476.73 513.16 561.13 582.36 563.80 567.59 557.06 558.42 508.02 489.85 405.73 367.45 342.93 327.38 311.32 323.43 324.63 348.09 442.08 484.47 409.97 356.02 332.58 269.36 242.28 136.73 124.97 125.99 132.72 128.25 122.77 118.25 124.43 125.92 126.97 133.16 142.75 134.02 132.61 134.28 135.44 135.14 134.53 135.34 138.98 142.67 152.47 167.70 181.22 193.61 203.30 209.15 218.82 224.05 227.28 232.87 235.63 238.19 241.44 244.94 249.21 251.90 271.61 391.76 1084.59 1708.00 3167.58 6001.98 7255.92 6704.38 4621.62 2300.99 1694.88 660.96 353.19 249.51 231.39 200.07 162.20 37.27 -194.62 -228.79 -463.89 -786.94 -1002.97 -1524.67 -1727.50 -1777.22 -1846.02 -1913.98 -1985.19 -2103.31 -2389.73 -2586.84 -2829.25 -3096.90 -3465.14 -3686.84 -3818.02 -3855.59 -3855.66
-5511.48 -5511.41 -5511.92 -5514.99 -5516.98 -5519.70 -5520.96 -5526.10 -5527.15 -5532.18 -5536.68 -5540.60 -5548.24 -5544.35 -5524.24 -5490.92 -5336.58 -5169.66 -4778.07 -4120.50 -3509.80 -3211.49 -2221.97 -1707.93 -1632.65 -1314.87 -998.16 -629.35 -27.87 203.00 320.40 333.20 351.30 396.64 386.75 402.41 412.24 416.43 440.78 449.17 508.66 540.57 576.56 574.46 536.45 530.94 516.44 497.49 485.45 460.55 442.26 399.71 348.25 337.63 334.59 344.34 347.74 384.68 449.52 448.36 401.71 354.85 317.36 265.80 251.61 142.60 128.56 127.97 131.53 134.27 137.25 127.17 126.39 127.21 128.59 128.89 129.06 131.38 131.96 131.89 133.32 134.08 134.10 135.18 138.82 143.10 151.69 168.11 183.06 193.10 199.61 204.20 214.06 220.18 225.02 231.27 236.88 239.57 241.06 243.76 247.59 253.56 280.91 378.56 1241.64 1187.45 2139.48 3802.93 6525.72 7796.15 4233.12 2064.88 1869.09 1165.11 328.03 261.76 236.57 218.04 128.98 11.83 -275.80 -404.92 -610.34 -934.30 -1132.19 -1459.25 -1687.75 -1761.02 -1843.26 -1912.97 -1982.15 -2025.03 -2283.75 -2624.94 -2845.10 -3060.01 -3330.67 -3667.22 -3742.58 -3811.50 -3811.54
-5507.14 -5507.38 -5508.27 -5510.10 -5513.35 -5515.43 -5519.18 -5521.06 -5524.48 -5527.02 -5531.86 -5529.43 -5513.90 -5479.49 -5435.57 -5144.43 -4782.63 -3997.44 -3425.97 -3076.01 -2928.20 -1889.45 -1664.69 -1408.92 -1283.98 -996.03 -669.53 -159.19 179.51 305.86 366.78 416.07 440.00 448.35 436.23 433.06 432.43 440.33 448.19 457.44 512.55 552.29 566.55 546.13 518.31 500.26 485.10 477.42 458.93 448.66 411.05 388.09 362.03 350.62 349.61 352.36 365.41 407.31 432.84 396.12 360.88 339.67 307.51 269.72 250.75 166.93 134.81 121.12 132.14 146.11 127.41 123.41 125.49 127.53 128.58 130.18 131.14 132.09 131.80 132.58 132.37 133.31 133.94 135.13 139.95 148.61 155.00 168.91 176.35 190.08 196.95 199.83 208.94 218.18 220.51 229.32 235.07 239.38 242.70 244.87 248.89 253.27 287.66 354.89 787.32 2007.55 3388.48 5221.24 6808.59 7255.30 5346.67 3677.83 2311.65 1361.29 319.14 259.74 244.00 228.72 114.07 -135.42 -349.44 -574.46 -711.22 -1067.03 -1390.65 -1601.06 -1701.59 -1822.50 -1847.00 -1890.11 -1915.82 -2015.76 -2181.57 -2410.90 -2749.25 -2969.85 -3286.01 -3505.16 -3704.76 -3801.14 -3801.22
-5507.48 -5507.40 -5509.23 -5510.64 -5512.58 -5515.65 -5518.85 -5520.29 -5516.32 -5514.60 -5503.34 -5470.75 -5415.35 -5177.49 -4698.88 -4175.25 -3393.90 -2952.50 -2362.12 -1960.73 -1593.76 -1397.16 -1346.96 -1230.78 -1045.68 -751.66 -189.81 144.68 251.51 322.53 360.85 417.13 463.76 483.58 464.67 448.51 449.74 455.57 469.47 485.60 519.50 551.55 565.08 553.68 516.70 485.29 464.04 444.77 433.93 426.55 395.56 386.12 371.56 363.42 377.00 380.38 389.24 405.97 417.42 394.62 371.15 353.26 325.86 294.68 263.07 217.42 162.47 147.29 157.28 139.42 122.81 125.06 127.02 127.88 129.27 129.71 131.53 133.87 133.93 134.58 131.61 132.28 132.73 134.66 139.32 148.67 158.78 164.40 172.70 183.82 190.33 199.33 205.23 212.38 218.42 227.03 235.42 238.81 243.87 245.84 248.36 253.58 278.70 316.37 662.88 1619.36 3269.72 5659.49 7251.01 6015.36 3885.19 3248.80 2074.56 1295.93 318.38 264.10 244.65 192.42 78.78 -141.97 -308.76 -652.72 -905.57 -1123.05 -1479.05 -1610.36 -1737.79 -1814.68 -1850.23 -1873.40 -1914.34 -1955.79 -2130.55 -2352.88 -2650.85 -2946.94 -3172.06 -3513.94 -3712.45 -3801.91 -3802.11
-5515.14 -5515.06 -5517.32 -5517.60 -5518.48 -5522.44 -5527.88 -5523.58 -5514.95 -5502.69 -5459.38 -5293.58 -4883.03 -4696.33 -4104.98 -3312.89 -2736.35 -2060.99 -1718.34 -1580.54 -1368.77 -1289.75 -1270.70 -1216.50 -968.73 -424.80 -25.51 211.54 295.58 331.77 357.68 384.31 427.57 452.65 502.44 479.99 468.18 480.21 481.51 508.25 525.89 551.46 569.81 549.21 514.32 475.40 446.83 434.65 419.88 409.27 398.65 389.38 384.60 383.36 395.43 407.24 416.67 433.54 434.73 414.54 425.34 387.32 316.49 298.83 284.98 249.72 222.56 171.41 141.24 122.25 120.75 125.92 126.04 128.10 130.42 130.07 131.57 133.32 134.24 133.49 130.30 131.26 131.85 134.66 139.18 145.85 154.30 162.51 171.40 179.11 185.01 195.74 201.43 207.25 216.64 221.95 232.38 238.65 244.73 246.05 249.19 252.99 286.03 363.15 1380.36 2602.79 3024.22 5367.74 7016.87 6606.50 4290.05 3420.11 1393.73 647.58 346.46 256.02 242.19 212.14 110.21 -69.71 -192.68 -501.78 -662.34 -1031.40 -1352.71 -1618.26 -1780.17 -1825.57 -1850.73 -1867.84 -1894.63 -1949.94 -2058.13 -2273.63 -2511.82 -2784.66 -3177.23 -3366.26 -3655.60 -3802.81 -3802.89
-5533.25 -5533.16 -5533.00 -5534.20 -5542.36 -5547.14 -5545.48 -5543.30 -5524.01 -5502.15 -5400.71 -5077.39 -4341.41 -3509.06 -2619.33 -2419.20 -2070.30 -1880.80 -1658.39 -1512.18 -1363.99 -1291.44 -1303.78 -1192.14 -822.13 -355.26 -17.90 239.83 304.73 318.16 358.14 406.54 413.60 441.82 485.75 504.12 508.77 500.62 505.91 534.30 542.08 547.26 570.01 550.81 497.99 471.34 444.98 420.34 408.80 398.13 390.99 389.66 397.30 403.55 404.15 425.78 437.89 461.58 481.77 459.25 471.17 443.19 374.29 307.51 286.41 252.89 230.30 161.16 118.96 109.60 121.03 130.93 128.02 128.44 131.36 131.13 131.62 132.34 133.81 132.31 130.09 130.57 131.98 134.32 142.30 146.87 153.21 158.50 165.61 174.86 183.77 189.76 196.89 202.31 212.06 221.72 232.70 241.87 245.48 248.25 249.23 253.36 276.49 515.73 2375.67 3080.90 4958.35 5882.21 6978.60 5735.75 4293.17 3781.84 1844.27 656.82 332.44 261.35 247.90 206.37 158.82 44.63 -118.77 -408.25 -549.57 -930.91 -1235.97 -1541.53 -1715.01 -1788.10 -1834.32 -1869.63 -1893.95 -1924.73 -2035.49 -2179.58 -2407.58 -2687.49 -3061.31 -3337.42 -3655.42 -3803.10 -3803.17
-5567.90 -5567.05 -5567.44 -5564.22 -5570.14 -5572.24 -5578.40 -5568.96 -5513.17 -5468.80 -5221.41 -4785.32 -3576.86 -2834.83 -2239.56 -1945.89 -1895.65 -1848.50 -1723.47 -1527.86 -1416.71 -1341.21 -1308.11 -1123.70 -732.75 -259.72 88.36 274.30 286.30 328.64 363.68 400.87 426.99 477.61 523.00 521.60 532.60 537.45 528.84 534.12 544.19 564.20 565.05 531.98 485.07 447.71 428.90 411.04 400.60 384.52 381.19 381.56 388.45 419.51 435.94 467.56 486.70 510.25 526.62 490.14 531.63 575.57 394.39 359.96 320.69 264.95 218.22 152.55 122.71 124.47 134.62 132.75 131.86 131.27 131.62 132.34 132.29 132.58 133.55 131.73 129.52 130.37 132.47 137.30 141.71 146.82 151.46 156.73 160.36 168.47 176.32 186.57 195.16 203.51 212.13 218.79 230.14 244.67 247.93 248.88 249.46 254.72 285.12 706.49 1813.33 2973.57 5247.64 7048.02 7183.50 5108.34 2941.65 3984.71 1623.53 407.47 303.16 252.83 235.52 216.21 146.52 101.23 -53.33 -180.09 -449.91 -869.73 -1148.50 -1487.03 -1641.17 -1762.19 -1838.47 -1865.29 -1904.71 -1941.40 -2022.22 -2141.15 -2307.71 -2574.25 -2950.55 -3342.60 -3660.69 -3806.35 -3806.44
-5627.99 -5627.86 -5621.17 -5596.57 -5581.55 -5567.26 -5495.48 -5446.40 -5378.00 -4921.92 -4404.44 -3852.33 -3089.48 -2131.05 -1865.61 -1733.87 -1783.71 -1809.49 -1747.22 -1480.57 -1358.24 -1311.94 -1290.52 -1100.65 -875.66 -385.38 -64.44 210.90 279.70 328.09 359.74 371.62 408.85 465.01 532.23 546.06 568.94 563.75 555.81 550.80 546.53 566.03 537.05 515.59 491.72 434.76 406.08 387.06 382.55 373.62 352.67 353.13 370.53 391.01 454.15 469.28 522.33 561.13 577.17 579.32 601.59 594.90 503.10 448.68 364.22 304.36 258.94 232.25 162.45 125.67 125.50 134.37 133.10 132.13 131.31 132.37 133.01 132.95 132.69 129.80 129.11 129.97 131.55 136.11 141.00 148.02 152.46 155.82 159.62 166.33 174.41 185.59 196.94 208.01 215.34 224.10 234.25 239.50 246.96 252.62 256.90 285.39 501.67 864.83 1687.00 2140.04 3244.56 5565.97 6419.63 4540.07 2094.61 1229.06 837.20 321.61 275.31 250.26 232.99 215.65 165.81 98.50 9.05 -138.86 -570.81 -906.24 -1077.05 -1388.28 -1506.41 -1696.67 -1797.86 -1862.19 -1925.37 -1965.34 -2044.78 -2169.71 -2362.32 -2517.49 -2931.89 -3117.80 -3660.00 -3807.49 -3807.58
-5652.34 -5649.68 -5546.12 -5340.04 -5294.04 -5279.76 -5083.88 -4652.66 -4413.88 -3944.86 -3229.28 -2459.14 -2335.06 -1980.72 -1832.65 -1759.41 -1766.87 -1731.29 -1597.79 -1196.59 -1159.57 -1092.65 -1073.97 -1024.47 -986.99 -544.61 -52.90 224.11 273.11 321.37 366.69 389.85 443.52 508.94 569.31 579.32 588.57 585.92 574.92 573.86 563.56 555.02 530.31 485.16 454.47 419.05 383.61 368.59 366.14 338.87 336.55 332.54 351.90 361.73 422.85 418.14 487.14 536.17 592.98 600.31 619.89 635.68 594.68 488.24 449.40 350.38 302.71 255.42 205.94 161.24 138.20 139.18 137.97 131.23 133.68 135.36 134.81 131.88 128.57 128.52 128.93 129.57 130.47 132.90 137.55 141.83 148.80 155.03 162.08 168.32 174.48 186.59 194.59 209.57 218.72 223.96 234.02 240.08 248.82 259.86 265.02 373.77 651.78 2086.51 2800.37 3730.90 4929.00 5953.61 6734.82 4370.76 2793.11 2025.85 858.05 324.21 277.50 247.41 234.83 213.13 170.22 122.37 19.31 -195.86 -442.48 -708.31 -1016.02 -1364.85 -1585.29 -1746.98 -1827.47 -1889.57 -1935.55 -2015.82 -2102.47 -2198.60 -2413.99 -2658.96 -2919.47 -3206.71 -3582.56 -3825.11 -3825.21
-5134.43 -5134.96 -4722.94 -4638.81 -4488.34 -4085.67 -3849.34 -3351.81 -2873.45 -2493.79 -2432.92 -2152.89 -1980.46 -1919.29 -1908.19 -1894.31 -1839.16 -1681.03 -1466.65 -1080.48 -697.41 -641.64 -757.95 -833.54 -773.92 -311.19 82.75 224.04 286.83 331.03 367.08 411.41 454.60 512.00 569.09 597.89 612.79 599.58 594.12 604.84 606.58 588.98 540.72 496.20 480.35 419.71 377.48 339.59 336.47 326.93 322.67 319.56 337.14 347.19 361.35 387.24 431.40 462.53 515.77 561.35 566.44 590.41 597.58 520.96 422.10 325.21 299.85 299.76 253.97 219.57 166.97 129.22 137.77 115.51 132.28 132.41 129.41 129.14 128.70 128.80 128.33 128.82 128.56 130.04 133.77 135.98 144.00 154.90 166.95 169.37 179.87 189.26 196.36 211.56 221.80 225.97 235.55 242.71 251.94 273.81 306.47 460.36 1347.68 2204.98 2856.53 4850.09 6075.12 7060.71 6325.74 4534.45 2911.89 2145.29 557.92 282.11 250.99 245.89 239.75 225.24 198.70 133.83 6.00 -176.64 -415.56 -724.39 -991.13 -1277.54 -1568.80 -1732.86 -1852.11 -1917.95 -1933.28 -1985.54 -2076.84 -2262.32 -2527.15 -2797.98 -3200.62 -3378.00 -3667.78 -3826.82 -3826.91
-3589.27 -3591.39 -3543.96 -3210.46 -3264.65 -2648.58 -2578.57 -2301.10 -2232.89 -2042.64 -1951.31 -1933.74 -1941.65 -1951.25 -1955.98 -1971.74 -1915.40 -1754.05 -1419.35 -1110.18 -484.43 -433.04 -435.36 -563.62 -406.26 -96.86 143.05 277.16 304.90 316.76 339.61 396.82 438.44 481.24 509.59 563.68 622.09 647.21 634.96 644.53 654.90 641.61 572.82 535.68 480.62 410.01 365.03 336.55 332.70 316.72 314.23 310.67 319.47 335.48 338.57 358.63 373.24 415.41 455.67 507.55 509.01 546.23 542.41 482.73 419.91 358.45 313.77 302.78 266.00 253.08 201.46 116.81 124.80 130.63 124.79 124.06 127.54 129.91 129.81 128.61 127.64 127.07 126.37 126.92 127.99 133.58 140.68 154.34 162.64 180.41 187.49 194.42 209.51 218.68 228.90 235.71 240.38 249.95 272.60 303.87 385.37 1067.42 1959.74 2037.80 3304.08 5584.89 6405.41 5374.62 5408.00 3498.57 2917.48 1083.61 437.94 265.09 252.17 247.64 243.77 230.03 204.84 110.29 0.98 -181.14 -435.17 -727.08 -860.35 -1187.12 -1507.43 -1773.93 -1865.31 -1921.79 -1948.01 -1990.53 -2146.70 -2347.17 -2651.89 -2961.55 -3317.60 -3636.89 -3718.13 -3828.20 -3828.29
-2346.04 -2348.20 -2385.22 -2486.01 -2322.94 -2241.90 -2136.68 -2038.98 -1966.98 -1938.99 -1933.38 -1941.55 -1956.59 -1974.02 -1990.37 -2006.40 -1989.01 -1862.76 -1662.70 -1228.16 -607.76 -290.45 -277.77 -301.19 -147.23 87.52 184.79 271.30 293.46 324.10 343.79 410.62 490.37 550.68 594.19 635.56 671.88 669.09 675.02 665.28 677.10 662.68 632.58 540.66 479.52 405.89 358.10 332.41 324.48 306.27 305.05 302.42 302.45 315.05 333.58 337.00 347.78 384.33 440.77 464.88 487.34 513.31 512.97 498.14 487.77 423.24 345.56 312.70 273.26 257.62 219.90 140.28 109.08 118.86 123.55 128.58 129.59 129.98 129.58 128.25 126.75 126.14 125.45 125.62 127.94 129.93 138.41 154.02 169.60 179.86 189.36 195.59 213.56 228.24 235.89 238.79 243.31 247.04 301.00 372.88 427.83 2143.53 3153.92 3280.06 4796.64 6002.08 5292.95 3487.76 4121.58 2091.10 1486.07 639.87 310.18 268.89 253.27 250.60 244.57 227.70 194.07 136.79 29.93 -158.05 -351.85 -690.82 -827.10 -1221.77 -1482.17 -1780.40 -1888.54 -1916.30 -1942.08 -2046.96 -2252.70 -2544.22 -2866.10 -3155.63 -3518.46 -3698.19 -3803.48 -3830.10 -3830.20
-2075.76 -2076.30 -2106.40 -2106.68 -2080.25 -2059.54 -2049.13 -2028.34 -1980.68 -1960.58 -1955.82 -1961.85 -1975.24 -1985.15 -2006.37 -2024.62 -1995.49 -1907.90 -1748.36 -1168.69 -1022.27 -537.42 -299.69 -184.13 -79.22 62.50 166.47 251.49 277.28 310.26 356.48 417.50 492.98 539.16 632.46 650.46 658.77 697.23 683.99 670.91 678.25 678.10 628.38 519.61 454.61 384.65 346.75 323.77 310.97 304.18 298.02 293.17 295.24 306.16 311.66 336.19 354.47 378.16 402.54 450.40 471.82 478.27 500.17 511.81 478.03 426.78 344.75 324.52 286.19 266.38 244.15 208.26 137.85 115.17 115.45 125.82 132.95 130.59 128.18 127.33 125.93 125.52 124.89 124.46 125.17 126.18 134.66 151.70 166.35 186.64 189.43 203.43 212.57 224.93 232.36 242.17 241.89 268.39 336.08 424.86 916.03 2770.72 4210.58 5301.53 6986.36 6367.84 4907.79 3065.67 1925.46 1761.05 1030.58 382.26 321.71 272.78 253.71 250.36 241.98 218.65 182.52 111.38 12.37 -170.29 -413.73 -694.75 -951.00 -1242.63 -1563.54 -1760.49 -1892.26 -1921.79 -1991.56 -2094.01 -2221.98 -2568.95 -3068.62 -3276.74 -3627.79 -3788.41 -3808.89 -3829.85 -3829.94
-2104.36 -2104.08 -2106.00 -2099.24 -2099.16 -2093.41 -2080.02 -2042.16 -2013.13 -1981.98 -1974.43 -1975.18 -1984.11 -1996.95 -2010.74 -2026.45 -2002.47 -1942.70 -1693.06 -1318.61 -845.43 -572.99 -341.13 -114.86 -58.81 33.83 144.60 175.59 229.73 281.16 328.05 377.42 419.86 518.05 538.04 516.38 592.82 636.03 622.35 582.42 605.95 623.31 549.80 531.62 425.24 379.49 317.60 309.69 299.58 293.14 289.93 287.14 289.13 299.78 313.03 327.62 350.93 370.18 392.40 430.21 456.85 478.94 495.65 495.36 433.08 374.68 357.68 358.17 339.28 295.68 347.51 290.32 185.13 144.41 113.64 131.37 136.22 131.80 127.74 126.60 125.51 124.31 123.14 123.56 124.15 126.15 131.20 143.45 166.47 185.19 197.79 207.23 215.18 223.48 231.92 241.63 245.35 287.84 341.63 978.16 2150.31 2468.81 3044.20 5162.04 7682.36 6847.84 4995.65 2718.29 2263.92 1012.12 538.91 375.86 286.69 255.31 252.32 251.85 246.48 218.32 188.76 100.40 -66.78 -162.78 -456.51 -749.64 -1011.23 -1243.71 -1595.49 -1737.73 -1848.81 -1931.76 -1999.20 -2109.31 -2293.59 -2555.40 -3019.04 -3366.52 -3638.79 -3780.01 -3818.45 -3830.42 -3830.52
-2138.00 -2137.67 -2130.51 -2127.11 -2119.19 -2109.38 -2094.74 -2071.69 -2035.94 -2001.47 -2001.75 -1993.01 -1993.83 -2001.19 -2015.72 -2020.20 -1999.65 -1844.45 -1623.82 -1287.97 -876.32 -570.27 -380.95 -150.98 -116.00 21.41 66.21 73.68 186.17 270.86 318.70 328.58 345.69 451.29 460.11 516.04 599.28 625.00 539.64 499.68 561.61 541.92 481.41 494.19 428.54 355.24 311.09 298.19 289.05 285.74 285.14 284.89 286.82 296.01 311.00 326.89 350.95 378.34 394.05 421.47 454.26 471.69 490.79 463.55 426.41 381.38 409.67 471.45 409.03 427.11 421.24 348.11 270.43 184.80 143.68 147.51 140.76 136.96 129.10 125.69 124.02 122.56 121.88 122.58 124.42 126.50 131.56 146.83 168.71 186.14 198.94 211.48 218.72 224.76 232.74 241.37 254.94 305.82 412.32 1561.87 3130.15 3623.67 4000.57 5964.94 6487.36 4865.58 2624.92 2752.63 1948.26 613.69 367.20 276.45 276.63 255.62 252.12 249.29 243.81 211.41 167.63 94.04 -75.39 -234.06 -499.62 -695.93 -1063.22 -1273.42 -1471.58 -1716.56 -1854.88 -1917.20 -1964.75 -2104.61 -2292.28 -2460.19 -2942.78 -3314.40 -3583.18 -3771.15 -3809.23 -3830.97 -3830.97
-2154.95 -2154.82 -2148.77 -2140.62 -2134.06 -2126.17 -2109.05 -2088.43 -2049.08 -2019.23 -2032.62 -2035.61 -2028.13 -2026.21 -2024.16 -2008.80 -1944.73 -1782.22 -1547.45 -1180.55 -622.88 -442.14 -328.62 -274.27 -186.65 -48.72 -38.08 4.30 109.25 233.00 315.01 316.88 334.03 371.44 440.01 513.54 536.86 537.70 486.10 440.89 471.37 446.26 424.42 422.95 358.04 334.41 304.23 288.47 284.15 283.45 282.94 284.67 288.73 299.54 307.99 318.44 348.24 375.92 417.05 427.38 466.03 492.23 514.17 487.42 477.59 445.39 449.29 508.70 496.30 491.72 431.75 355.49 279.57 219.94 197.26 157.09 141.29 138.19 127.10 124.37 122.06 121.17 120.93 122.05 124.30 128.46 138.31 154.07 173.68 190.18 204.86 216.23 221.79 227.70 232.25 244.62 258.69 425.94 943.42 1706.01 2158.96 4762.17 5703.26 7087.88 6320.00 3939.54 2700.87 2123.87 895.31 334.43 284.61 286.10 271.59 249.96 253.47 249.22 230.31 212.99 154.98 56.52 -72.47 -241.23 -458.22 -663.92 -985.79 -1308.55 -1517.12 -1784.80 -1888.25 -1909.28 -1933.17 -2041.53 -2224.30 -2586.66 -2789.60 -3135.01 -3520.76 -3707.79 -3812.54 -3838.56 -3838.65
-2158.76 -2158.67 -2154.70 -2145.08 -2138.23 -2128.90 -2116.25 -2109.72 -2099.17 -2088.14 -2066.35 -2055.64 -2047.90 -2053.57 -2037.19 -1983.69 -1898.87 -1708.70 -1289.70 -855.69 -532.23 -340.25 -302.19 -287.80 -242.20 -87.69 -87.52 -69.88 80.25 229.74 280.98 287.25 286.76 320.88 355.34 386.66 423.74 428.16 466.75 409.51 391.16 413.11 377.23 358.31 346.92 308.05 297.98 284.62 278.11 280.96 282.36 287.81 294.23 297.46 311.11 324.12 350.54 389.36 428.66 459.40 499.08 520.33 534.09 533.41 516.66 499.38 495.14 509.17 475.42 423.32 367.02 315.73 263.34 240.91 188.74 129.17 128.24 129.50 126.41 122.04 120.03 120.29 120.72 122.66 125.20 129.25 138.61 156.39 175.34 195.27 203.04 213.64 225.95 230.91 239.44 258.81 363.53 389.66 2270.65 2941.03 3090.93 4891.89 6973.97 6494.64 4396.59 4200.82 2981.28 2039.98 665.35 308.21 279.24 267.96 256.79 252.76 253.99 243.24 224.37 208.20 134.38 12.18 -113.40 -234.90 -488.16 -706.60 -1018.56 -1281.87 -1623.66 -1808.21 -1887.45 -1902.87 -1947.48 -2017.82 -2198.88 -2527.13 -2742.70 -2999.06 -3367.91 -3718.30 -3823.34 -3840.24 -3840.32
-2161.72 -2161.64 -2156.43 -2149.75 -2139.70 -2132.09 -2120.07 -2113.46 -2110.78 -2105.53 -2095.33 -2087.21 -2082.22 -2068.09 -2039.23 -1973.72 -1863.00 -1628.89 -1089.80 -796.63 -519.85 -321.63 -269.10 -278.88 -258.16 -125.62 -85.40 -83.37 57.08 171.28 207.45 257.42 285.44 303.26 323.29 335.40 342.54 328.90 379.92 381.87 334.70 344.51 345.90 299.53 290.50 291.46 288.66 279.90 275.17 279.49 282.44 289.58 301.28 310.32 322.39 329.05 351.68 385.84 439.73 468.36 498.18 500.59 489.38 487.16 514.56 517.31 490.98 486.39 432.26 351.04 321.40 301.45 263.38 231.28 177.32 132.43 128.67 123.27 120.22 119.18 119.03 119.05 118.51 118.88 123.38 129.15 140.23 160.09 183.79 195.19 206.90 220.60 234.36 237.91 247.20 266.65 415.00 1537.81 2664.81 3953.35 5214.70 7182.47 7533.74 5374.31 2786.48 2030.63 1851.36 1282.80 476.85 315.50 279.18 266.75 255.87 256.14 253.21 238.11 222.22 171.59 111.57 -26.80 -154.68 -308.28 -538.21 -797.61 -1011.28 -1405.87 -1712.27 -1855.50 -1888.17 -1909.63 -1985.92 -2086.15 -2179.05 -2415.12 -2686.28 -3099.38 -3615.49 -3820.48 -3830.40 -3844.69 -3844.78
-2166.60 -2166.52 -2159.13 -2152.31 -2145.25 -2135.10 -2125.53 -2121.58 -2119.63 -2113.50 -2103.07 -2095.21 -2084.68 -2063.17 -2044.25 -1961.31 -1828.33 -1658.55 -1171.86 -840.69 -557.32 -359.32 -281.43 -256.99 -244.99 -215.44 -209.71 -81.92 -73.71 10.59 139.82 216.17 278.01 284.27 301.97 305.80 307.82 306.07 316.45 330.52 311.20 304.94 284.78 286.69 288.47 283.59 277.26 272.27 273.75 281.74 283.29 310.30 318.69 321.37 342.55 353.45 382.12 406.46 435.99 463.37 458.85 439.13 430.61 433.69 472.54 472.23 458.09 397.72 389.00 325.30 304.54 283.06 255.03 227.81 167.93 116.43 122.60 121.57 117.24 117.75 117.77 117.74 117.10 117.48 120.17 132.02 148.24 159.82 183.03 200.98 213.27 229.76 243.75 245.75 254.53 284.32 742.65 2129.45 2825.34 4539.06 6685.99 7642.50 6352.13 5489.96 3598.32 1909.94 1419.54 458.91 351.68 288.29 271.40 266.73 258.91 257.60 256.56 244.97 215.81 143.69 58.32 -67.98 -213.06 -443.14 -626.58 -958.23 -1261.91 -1568.77 -1807.25 -1880.99 -1893.49 -1920.71 -2010.46 -2091.94 -2229.84 -2457.34 -2730.26 -3302.97 -3679.26 -3830.36 -3840.80 -3845.37 -3845.45
-2171.13 -2171.05 -2164.55 -2158.41 -2152.10 -2139.35 -2131.22 -2124.84 -2120.42 -2114.17 -2101.85 -2090.42 -2079.30 -2063.34 -2025.59 -1966.91 -1869.88 -1750.65 -1428.13 -1158.11 -704.87 -493.66 -361.58 -274.52 -243.61 -249.56 -247.10 -212.62 -112.90 -2.85 115.04 204.72 256.42 266.93 280.14 266.86 287.94 279.80 285.83 282.76 279.28 278.97 274.41 259.00 268.04 265.25 266.95 267.53 277.35 281.75 296.07 330.44 340.14 357.85 393.88 399.71 398.88 460.55 460.57 440.90 414.54 400.75 385.65 389.38 388.82 392.88 354.46 357.14 341.28 302.80 280.81 260.97 254.57 202.00 162.06 117.80 120.24 119.37 116.10 116.67 116.49 116.20 116.30 117.11 121.42 134.36 153.56 166.08 185.65 211.13 220.08 241.30 250.33 288.59 305.61 1183.73 1927.90 2041.58 3362.03 5830.00 6184.01 6148.14 5182.56 4405.52 2648.03 1843.31 815.80 358.40 343.39 276.21 264.24 261.46 261.56 258.95 256.13 238.53 213.03 173.16 97.16 -3.61 -185.51 -459.22 -715.74 -956.83 -1443.39 -1769.28 -1802.97 -1890.93 -1895.04 -1923.14 -1973.45 -2115.72 -2303.29 -2455.66 -2765.56 -3259.16 -3669.42 -3828.45 -3844.89 -3850.25 -3850.33
-2180.32 -2180.60 -2177.75 -2170.36 -2158.41 -2154.66 -2140.77 -2129.20 -2118.32 -2110.50 -2091.82 -2083.72 -2064.52 -2044.10 -2011.68 -1961.73 -1884.67 -1758.96 -1542.93 -1322.90 -1077.80 -730.81 -506.35 -313.65 -236.35 -214.29 -221.66 -227.08 -167.76 -25.25 95.02 126.72 210.73 231.78 232.08 203.23 253.73 256.14 253.58 271.91 266.88 252.72 242.03 233.74 232.59 236.65 263.48 264.84 284.58 292.81 324.92 346.91 352.72 392.79 412.59 470.34 469.15 490.50 465.59 416.21 393.60 382.72 357.44 350.50 342.54 333.16 339.37 313.10 309.55 292.84 273.01 257.46 227.15 166.59 134.03 121.25 116.95 116.81 114.05 113.45 114.35 114.98 116.04 122.91 128.92 135.54 155.52 167.00 182.28 214.18 229.05 249.69 263.15 318.24 624.19 1957.13 2544.70 2526.70 3328.17 6907.02 6573.54 4265.80 2546.10 3059.08 2132.36 1311.17 644.31 348.35 334.24 289.78 261.65 261.15 261.82 258.33 252.21 234.50 195.61 161.06 84.38 -67.34 -222.20 -535.36 -868.50 -1159.30 -1496.84 -1715.74 -1817.86 -1886.83 -1897.01 -1933.89 -1989.13 -2084.93 -2296.79 -2458.91 -2742.88 -3278.67 -3702.20 -3826.21 -3844.60 -3850.77 -3850.85
-2207.59 -2207.53 -2204.47 -2194.62 -2190.87 -2177.54 -2165.47 -2137.28 -2113.64 -2082.40 -2061.98 -2053.48 -2043.93 -2028.56 -1983.36 -1954.96 -1902.50 -1862.87 -1723.62 -1622.67 -1301.38 -924.54 -646.81 -398.27 -236.62 -184.06 -180.29 -186.44 -210.10 -96.74 9.40 58.42 85.06 151.31 144.28 109.29 147.41 153.98 187.50 219.40 223.93 227.66 197.43 164.44 171.46 213.86 254.03 268.61 276.10 317.46 351.81 386.54 402.19 467.26 499.44 542.19 512.54 459.69 427.22 385.81 362.20 343.37 334.71 317.02 308.08 305.35 302.15 277.38 276.44 271.26 260.84 246.58 191.40 132.99 113.60 109.76 115.77 114.32 113.24 112.43 112.75 112.96 114.02 119.16 123.13 131.66 158.66 170.98 187.16 218.66 234.67 249.15 274.77 617.11 872.50 1779.77 2643.32 3343.06 4930.32 6515.91 6420.85 3627.14 2006.97 1318.38 1614.54 848.56 345.65 337.30 312.08 289.33 269.64 262.87 259.70 256.37 248.51 233.61 205.35 167.52 76.74 3.30 -216.37 -516.91 -872.21 -1298.31 -1539.86 -1776.96 -1878.14 -1891.96 -1894.52 -1919.92 -1971.73 -2049.54 -2300.39 -2495.80 -2871.97 -3341.35 -3724.49 -3837.49 -3847.57 -3852.48 -3852.57
-2244.83 -2245.25 -2237.12 -2225.21 -2215.40 -2202.43 -2183.81 -2153.91 -2105.38 -2057.28 -2034.55 -2024.14 -2005.46 -1985.62 -1964.78 -1936.70 -1909.31 -1882.91 -1821.80 -1642.39 -1527.98 -1183.23 -635.67 -438.59 -229.85 -161.95 -155.16 -146.20 -146.50 -87.77 -27.01 -0.89 47.48 81.85 72.02 47.82 75.93 71.66 63.44 115.52 129.64 150.43 140.42 143.48 148.75 211.17 251.16 281.50 301.93 333.04 362.14 394.41 447.26 497.91 547.74 543.10 472.46 454.43 413.83 382.28 341.94 323.65 313.33 303.95 298.53 287.89 274.61 273.46 268.54 251.72 235.82 186.77 147.99 115.24 114.28 113.75 114.56 112.92 112.36 111.55 111.23 111.52 112.06 114.02 123.33 138.54 166.71 194.93 204.53 223.51 244.09 258.30 346.07 757.84 2005.25 2924.90 4472.92 5598.89 6493.83 6144.95 5209.66 3547.94 3141.59 1821.66 816.19 585.12 323.67 323.28 309.69 283.60 266.35 263.04 257.69 255.95 247.30 232.30 209.17 182.22 109.33 28.82 -151.76 -596.99 -924.61 -1282.37 -1574.20 -1815.40 -1867.63 -1889.91 -1890.47 -1899.34 -1940.53 -2014.32 -2157.17 -2459.31 -2824.63 -3364.03 -3543.03 -3841.06 -3850.63 -3852.04 -3852.12
-2262.03 -2261.95 -2253.67 -2247.90 -2242.37 -2232.77 -2202.03 -2163.97 -2089.82 -2047.39 -2020.68 -1999.18 -1985.82 -1967.00 -1942.75 -1920.51 -1899.74 -1890.67 -1855.38 -1757.24 -1633.61 -1253.37 -844.67 -538.99 -263.19 -168.67 -137.45 -131.58 -127.60 -87.60 -45.23 -30.48 -16.58 -8.58 12.33 7.41 21.11 16.94 24.92 59.07 61.25 90.66 111.20 132.14 158.05 220.76 268.48 284.32 303.10 338.69 349.61 383.98 467.60 515.68 539.43 522.47 449.59 410.73 394.36 369.09 336.25 314.45 301.43 285.49 277.83 268.86 265.98 268.98 236.32 218.25 195.11 154.58 129.55 108.03 110.51 111.27 113.83 112.89 111.77 109.67 110.11 110.11 111.44 123.20 132.96 152.70 184.85 193.06 211.00 221.53 244.92 270.41 479.11 1681.42 1867.63 2793.90 4140.13 6759.11 6991.51 5702.87 3367.78 2863.20 3247.62 1282.46 385.68 314.77 314.87 316.86 292.00 276.49 270.01 260.60 256.72 254.90 246.68 231.85 213.27 180.53 116.91 42.77 -178.45 -421.18 -918.29 -1281.34 -1394.85 -1732.12 -1883.04 -1890.25 -1893.84 -1912.55 -1959.12 -2032.63 -2142.90 -2433.98 -2711.11 -3178.98 -3688.21 -3842.35 -3853.49 -3854.64 -3854.72
-2259.11 -2259.03 -2254.05 -2247.50 -2242.66 -2230.32 -2209.55 -2154.08 -2089.56 -2027.16 -2007.90 -1989.59 -1976.23 -1956.97 -1938.78 -1916.92 -1896.43 -1884.72 -1838.15 -1803.81 -1577.38 -1288.40 -856.52 -504.86 -226.74 -182.52 -151.03 -173.26 -175.12 -165.93 -146.42 -94.46 -114.93 -65.39 -34.00 -21.24 -20.85 -31.61 -28.05 -23.35 12.87 62.73 82.14 106.54 136.58 227.28 258.66 280.38 307.51 337.62 364.56 425.27 446.84 517.09 538.22 497.23 432.33 411.99 379.92 357.71 326.10 314.34 290.62 280.70 268.06 258.97 256.44 211.45 180.15 172.85 167.85 143.24 117.89 113.04 109.83 111.65 114.98 113.73 112.07 108.24 108.59 109.32 115.27 127.40 142.26 156.83 178.21 204.85 218.19 244.13 259.03 513.45 1496.79 3115.56 2799.55 4541.59 5705.67 6634.45 7162.24 5839.85 3795.37 2090.16 1790.09 599.89 300.77 306.11 300.80 287.13 275.66 267.95 268.48 262.46 256.84 254.61 246.07 232.00 206.11 179.19 119.59 73.45 -59.19 -260.84 -663.56 -1231.64 -1519.98 -1727.33 -1832.04 -1885.76 -1893.21 -1910.85 -1939.21 -2076.77 -2239.96 -2357.15 -2818.34 -3336.35 -3730.37 -3826.78 -3854.18 -3854.65 -3854.73
-2249.24 -2249.16 -2246.22 -2237.89 -2232.47 -2218.05 -2194.46 -2143.45 -2079.33 -2029.25 -2004.38 -1988.74 -1975.20 -1955.28 -1932.06 -1912.39 -1891.78 -1876.37 -1837.56 -1765.47 -1494.39 -1307.25 -849.44 -491.36 -306.26 -321.66 -424.51 -348.39 -330.60 -349.24 -275.25 -238.43 -292.58 -110.25 -111.03 -67.73 -60.60 -78.56 -77.63 -59.77 -9.71 36.36 54.82 89.31 117.13 150.04 244.62 287.97 315.66 317.79 364.96 465.95 473.02 522.65 534.30 490.99 424.07 397.50 369.99 342.41 315.58 303.65 287.55 271.49 252.71 224.52 232.40 194.22 155.93 131.60 135.75 124.63 112.86 111.29 112.26 112.20 114.30 112.23 108.85 107.68 108.13 108.53 116.79 120.32 137.40 168.30 188.68 209.17 231.91 243.70 285.21 604.77 971.55 2082.81 3444.86 4966.31 8063.10 7418.91 6095.81 4905.40 2799.96 2690.83 2267.82 378.51 288.68 281.38 279.46 267.45 255.69 258.37 259.25 258.15 255.45 251.77 246.65 234.29 219.60 175.93 122.15 47.64 -67.65 -249.01 -736.86 -1088.58 -1728.96 -1834.54 -1875.34 -1883.55 -1887.88 -1906.72 -1935.75 -2033.28 -2259.13 -2381.22 -2642.33 -2998.37 -3493.52 -3820.77 -3855.00 -3855.90 -3855.97
-2231.25 -2228.82 -2223.34 -2223.95 -2216.72 -2209.76 -2183.85 -2143.50 -2079.93 -2033.03 -2011.65 -1995.54 -1984.39 -1959.86 -1935.08 -1913.85 -1900.75 -1886.66 -1834.37 -1734.75 -1525.69 -1206.31 -878.23 -653.64 -606.47 -602.98 -606.28 -665.63 -753.36 -676.00 -701.35 -711.90 -680.62 -549.22 -291.20 -127.95 -99.15 -94.53 -88.88 -54.78 -9.76 26.81 40.85 60.73 107.42 157.56 247.38 286.99 330.33 355.69 409.55 465.04 518.50 554.45 534.67 492.98 452.53 419.40 385.05 337.37 314.67 297.39 283.49 271.04 249.54 193.13 179.92 169.92 142.02 97.34 105.22 114.43 110.46 107.74 108.07 107.09 105.30 104.99 105.21 105.97 107.46 107.74 111.59 116.40 134.37 171.70 205.33 218.85 238.35 252.60 345.90 464.49 1371.31 2604.63 3651.32 6026.40 7404.18 6440.61 4364.02 3459.35 1644.60 1693.76 512.38 304.80 280.25 273.02 270.31 264.08 255.58 256.01 256.31 255.81 249.30 247.31 239.58 225.78 207.06 190.31 64.61 -30.19 -140.38 -421.28 -627.58 -1116.37 -1751.92 -1854.68 -1868.04 -1882.99 -1887.09 -1912.19 -1960.13 -2033.62 -2143.62 -2386.58 -2776.03 -3149.01 -3610.08 -3819.19 -3854.29 -3854.79 -3854.86
-2195.71 -2195.61 -2198.60 -2198.68 -2188.77 -2161.35 -2158.42 -2130.71 -2081.75 -2036.84 -2023.59 -2007.29 -1996.97 -1978.49 -1957.17 -1929.04 -1915.34 -1890.86 -1869.87 -1772.81 -1624.42 -1302.19 -1079.61 -954.77 -907.51 -972.42 -1025.68 -1098.25 -1108.93 -1244.70 -1205.85 -1080.57 -1203.63 -998.26 -443.25 -170.61 -128.50 -114.85 -103.41 -64.32 -66.93 -34.23 -13.59 12.32 62.77 172.06 248.03 289.90 339.40 395.36 420.67 468.40 537.91 531.81 525.42 446.33 468.71 441.46 392.91 341.66 326.62 288.07 279.36 268.84 237.56 193.88 175.27 171.99 112.63 89.35 91.66 113.37 106.11 104.85 106.40 106.50 105.08 104.21 104.07 105.04 105.99 107.08 107.40 108.95 122.64 175.79 212.97 231.42 244.67 254.81 394.53 1423.90 1376.47 3610.03 5090.99 7445.28 7886.79 7087.98 3770.96 2545.42 3121.99 890.66 484.76 322.22 281.01 273.49 269.15 267.04 260.55 256.17 255.74 254.68 247.37 240.74 231.88 210.05 185.17 149.13 5.62 -127.85 -222.12 -530.77 -895.96 -1198.49 -1738.31 -1857.48 -1872.85 -1887.06 -1892.15 -1916.18 -1965.68 -2033.07 -2358.07 -2598.14 -3119.48 -3332.42 -3741.77 -3823.01 -3852.04 -3853.82 -3853.89
-2151.73 -2151.64 -2156.06 -2148.16 -2142.08 -2140.30 -2121.74 -2107.14 -2077.85 -2055.42 -2042.73 -2026.27 -2014.09 -1992.92 -1973.97 -1950.39 -1935.13 -1918.23 -1897.95 -1808.24 -1708.23 -1568.48 -1456.75 -1411.96 -1379.79 -1584.05 -1620.64 -1623.56 -1705.17 -1668.68 -1701.98 -1696.85 -1643.16 -1201.24 -706.46 -312.23 -155.62 -139.22 -142.41 -145.72 -136.72 -92.40 -42.88 -6.14 23.62 121.40 243.21 306.88 384.33 445.91 461.45 472.92 519.98 469.88 399.14 347.51 415.16 400.28 359.35 335.83 320.58 290.26 275.99 257.25 228.17 179.43 172.55 131.13 97.52 85.01 81.42 103.79 112.23 101.44 104.27 106.25 105.08 103.99 104.01 104.71 104.81 106.06 110.01 113.58 130.14 152.88 217.61 235.12 249.55 260.54 594.76 2059.18 2583.81 3361.28 5464.04 8513.43 7815.40 5963.28 4057.67 3465.29 3419.51 925.37 371.37 286.81 276.19 266.65 267.95 264.10 259.76 255.83 254.06 251.07 241.21 235.76 221.07 201.81 171.65 58.58 -83.70 -231.44 -438.47 -635.74 -987.43 -1575.40 -1772.08 -1873.38 -1878.94 -1885.22 -1902.27 -1943.51 -2003.58 -2111.80 -2361.20 -2645.05 -3102.22 -3520.83 -3731.73 -3826.11 -3850.27 -3853.97 -3854.04
-2125.27 -2125.19 -2128.33 -2122.65 -2122.88 -2113.09 -2107.04 -2091.90 -2079.23 -2061.31 -2052.02 -2039.23 -2027.97 -2016.41 -1991.48 -1969.83 -1947.16 -1936.98 -1916.12 -1897.25 -1858.32 -1779.53 -1749.53 -1725.47 -1764.85 -1802.92 -1851.55 -1856.90 -1955.84 -1980.82 -2018.90 -1971.19 -1883.64 -1762.60 -1422.63 -743.05 -250.70 -164.58 -193.61 -186.17 -189.37 -148.43 -92.14 -108.74 11.49 102.76 199.91 279.95 336.90 387.97 451.14 458.65 450.67 386.15 340.34 305.64 330.19 310.92 314.93 317.90 324.58 291.85 275.75 255.83 195.63 175.39 168.78 129.92 94.17 75.43 77.87 101.28 109.51 97.05 98.82 104.12 104.04 103.93 103.39 103.47 103.83 105.14 115.45 135.56 159.69 187.77 207.07 240.16 264.27 357.02 766.12 2198.67 2787.93 4584.48 7036.60 8380.28 6620.60 4190.00 2602.58 2097.14 1585.09 367.79 280.91 269.18 268.70 260.09 254.83 256.72 255.13 254.04 251.55 248.53 238.49 231.68 220.17 181.45 74.94 -36.78 -193.98 -346.27 -619.72 -897.10 -1155.34 -1707.61 -1788.45 -1867.03 -1879.21 -1886.83 -1904.12 -1956.40 -2016.71 -2173.98 -2355.41 -2567.59 -3023.40 -3413.29 -3679.71 -3785.60 -3845.97 -3854.24 -3854.31
-2115.57 -2115.49 -2115.06 -2113.00 -2111.10 -2105.20 -2100.13 -2086.40 -2079.47 -2066.57 -2059.84 -2049.43 -2035.60 -2024.71 -2002.04 -1987.16 -1964.82 -1957.52 -1952.15 -1929.99 -1948.62 -1967.67 -1946.97 -1957.40 -1972.36 -1996.19 -1999.33 -2044.28 -2056.23 -2090.64 -2105.55 -2081.73 -2048.07 -1882.32 -1504.13 -1023.88 -516.11 -344.86 -282.66 -249.32 -230.12 -192.56 -146.02 -127.86 -26.05 56.78 154.51 242.89 312.87 318.10 371.33 428.27 403.82 335.84 333.91 287.87 277.88 269.70 280.24 279.38 306.34 304.17 279.40 244.91 202.53 179.03 157.59 121.31 97.15 94.69 91.38 104.98 102.00 98.49 102.21 102.39 102.45 103.20 103.00 103.10 103.17 105.24 118.96 147.19 170.65 193.45 226.15 236.34 284.82 747.57 1383.20 1387.11 2982.26 5078.07 7904.24 8329.86 6116.99 3389.54 3096.32 2628.02 666.93 384.26 276.36 257.42 260.75 256.41 255.28 254.54 254.11 248.76 248.18 243.24 234.97 225.69 195.19 173.67 87.81 -207.09 -348.51 -490.18 -795.28 -1018.41 -1237.09 -1680.61 -1820.37 -1855.05 -1876.87 -1888.12 -1914.29 -1963.03 -2058.43 -2178.32 -2372.43 -2645.47 -2950.81 -3341.85 -3619.22 -3774.94 -3846.41 -3855.05 -3855.12
-2110.71 -2110.64 -2110.29 -2108.54 -2105.90 -2103.11 -2097.90 -2090.01 -2080.01 -2072.58 -2064.55 -2057.63 -2053.98 -2039.96 -2025.14 -2001.03 -1988.92 -1974.82 -1966.00 -1973.67 -1977.79 -1995.87 -2014.08 -2047.29 -2043.88 -2070.02 -2084.65 -2093.63 -2113.36 -2136.92 -2148.23 -2140.79 -2090.79 -1966.32 -1616.60 -1348.38 -897.40 -552.83 -387.69 -325.22 -347.69 -228.12 -156.72 -125.37 -66.43 51.82 166.99 244.25 266.21 274.47 377.73 376.69 326.78 283.97 268.35 268.63 270.96 259.99 250.52 216.95 235.25 253.93 274.51 259.57 237.31 199.17 180.04 131.33 101.78 98.63 106.97 108.54 104.18 101.75 102.96 101.93 101.63 102.84 102.12 101.95 102.86 115.49 126.35 169.97 188.94 208.82 229.01 248.34 372.19 982.74 2167.09 2657.82 2885.78 4767.01 8224.93 6904.13 5598.51 2782.84 1793.94 1880.09 333.61 304.17 256.32 252.49 255.63 253.99 253.48 249.32 250.65 245.51 240.42 233.70 227.53 208.29 171.27 123.54 31.35 -79.82 -404.80 -548.38 -883.03 -1174.06 -1465.61 -1707.13 -1814.65 -1840.23 -1867.85 -1879.93 -1908.78 -1937.54 -2039.70 -2169.70 -2326.92 -2635.41 -2983.05 -3447.44 -3705.14 -3804.35 -3848.43 -3857.78 -3857.85
-2107.13 -2107.06 -2106.20 -2105.48 -2103.90 -2101.30 -2099.28 -2091.93 -2087.61 -2081.91 -2077.22 -2068.64 -2062.62 -2058.21 -2052.52 -2037.10 -2020.32 -2011.53 -2006.70 -1995.38 -2019.66 -2038.95 -2067.55 -2085.07 -2083.42 -2097.39 -2100.30 -2111.88 -2128.45 -2142.47 -2150.73 -2153.72 -2105.60 -2046.08 -1815.67 -1527.73 -965.71 -712.37 -456.57 -369.77 -318.94 -231.51 -174.13 -121.53 -55.12 -15.78 121.59 242.59 258.61 276.71 358.59 372.29 279.94 272.13 264.43 232.41 257.81 242.01 203.93 134.12 145.87 182.67 247.76 267.56 266.02 236.48 208.95 159.84 110.33 90.11 106.01 104.40 102.14 100.67 100.34 101.10 100.81 101.27 99.98 99.23 100.38 112.41 126.90 176.52 203.46 208.43 237.84 270.28 662.29 930.54 1857.82 3022.88 5648.58 6720.64 7973.39 6020.80 4851.29 3269.86 2057.39 1034.78 328.00 266.08 251.95 250.68 251.11 251.03 248.61 242.82 240.19 236.50 232.71 224.34 210.07 185.41 157.78 63.21 3.55 -114.34 -322.82 -787.40 -1087.11 -1485.79 -1727.60 -1785.35 -1818.99 -1836.86 -1860.82 -1872.84 -1903.25 -1929.06 -2073.29 -2226.41 -2358.36 -2613.92 -3156.00 -3588.89 -3817.47 -3835.94 -3845.73 -3858.00 -3858.07
-2104.27 -2104.20 -2104.14 -2103.04 -2102.26 -2101.99 -2102.57 -2106.86 -2104.32 -2105.78 -2106.30 -2099.74 -2098.03 -2083.31 -2090.04 -2082.93 -2069.14 -2071.73 -2056.56 -2060.30 -2070.34 -2074.83 -2089.33 -2097.76 -2099.73 -2106.13 -2108.64 -2116.35 -2124.98 -2133.96 -2138.61 -2137.85 -2130.19 -2069.30 -1898.56 -1609.17 -1211.83 -724.03 -519.34 -383.34 -334.62 -250.61 -174.11 -103.50 -54.90 -5.67 100.89 155.36 244.79 265.95 318.40 320.22 258.09 247.29 217.02 110.24 150.90 118.35 54.83 1.74 60.66 128.18 189.38 273.92 303.20 262.46 222.34 202.17 164.59 114.70 101.72 115.50 98.42 97.73 99.19 98.54 98.52 99.54 99.31 98.84 99.12 110.04 130.15 166.11 202.75 228.51 252.91 289.94 1665.05 2542.37 2407.81 2520.75 5880.20 7249.75 6612.33 3275.74 2404.60 2406.56 1998.11 436.47 306.87 250.06 247.87 247.73 247.60 245.36 243.62 234.86 233.51 229.84 210.38 193.09 177.63 139.09 53.26 -0.13 -135.09 -241.86 -451.33 -845.86 -1207.86 -1592.45 -1726.18 -1801.93 -1815.81 -1840.17 -1850.21 -1865.23 -1896.26 -1920.82 -2079.62 -2261.84 -2751.37 -2822.09 -3122.46 -3728.89 -3826.24 -3841.10 -3853.67 -3858.65 -3858.71
-2102.46 -2102.32 -2102.34 -2102.43 -2102.55 -2102.59 -2106.79 -2109.96 -2133.92 -2140.34 -2132.63 -2133.79 -2127.80 -2139.83 -2140.44 -2145.56 -2137.15 -2154.79 -2143.48 -2145.26 -2142.48 -2114.42 -2111.79 -2104.92 -2108.02 -2108.31 -2112.29 -2113.68 -2118.64 -2124.09 -2129.77 -2127.83 -2118.67 -2084.74 -1983.92 -1712.59 -1298.23 -921.45 -565.24 -408.71 -340.83 -240.76 -192.52 -102.90 -54.22 -7.75 32.14 59.66 188.89 239.62 263.37 206.26 211.07 140.73 108.06 2.37 -37.90 -24.69 -55.38 -33.46 -22.10 71.88 152.93 227.52 283.17 287.63 270.66 242.26 199.12 138.36 130.09 139.08 113.72 97.52 96.42 96.27 97.14 98.23 98.28 98.10 97.70 100.31 128.99 163.40 206.12 238.58 264.57 753.21 2103.41 2915.87 4435.22 5149.15 7551.77 7547.66 5756.20 3515.04 1822.27 1500.27 560.53 380.99 255.82 247.35 244.44 242.73 238.72 237.29 224.54 223.55 220.07 214.26 175.76 158.58 101.14 71.28 -13.31 -194.14 -263.68 -380.33 -492.77 -912.29 -1179.32 -1554.19 -1721.97 -1797.16 -1808.36 -1822.95 -1818.56 -1825.26 -1834.05 -1887.09 -2052.13 -2473.36 -3044.03 -3221.40 -3510.43 -3680.86 -3840.21 -3853.82 -3856.85 -3858.04 -3858.38
-2102.44 -2102.38 -2102.54 -2103.22 -2103.99 -2105.15 -2112.04 -2127.03 -2146.18 -2154.87 -2161.27 -2160.11 -2160.98 -2164.24 -2171.41 -2165.29 -2155.09 -2179.82 -2169.15 -2158.87 -2164.06 -2147.44 -2141.48 -2125.27 -2124.25 -2121.36 -2127.73 -2131.60 -2122.83 -2124.55 -2123.42 -2122.99 -2121.58 -2097.11 -1996.69 -1744.76 -1497.70 -1001.20 -609.00 -420.12 -340.29 -228.90 -226.31 -124.77 -67.15 -52.85 -32.42 12.12 106.17 156.90 173.43 143.42 86.60 15.83 -34.66 -44.83 -63.60 -68.74 -77.40 -74.65 -61.43 -19.70 54.84 197.74 259.14 293.49 308.06 271.25 234.64 194.98 127.81 96.04 146.52 121.40 93.11 94.06 94.79 95.21 96.20 96.39 97.32 101.88 135.62 164.92 213.04 237.87 273.93 1018.11 2001.27 3028.27 5274.92 6270.22 7132.83 7165.57 5278.88 4012.96 1856.18 1283.50 426.47 275.25 246.83 239.60 238.71 238.08 233.72 225.58 211.05 202.77 189.43 172.11 136.69 81.95 62.22 -38.28 -161.91 -344.40 -552.92 -666.63 -754.30 -906.87 -1309.92 -1510.61 -1737.71 -1792.63 -1784.43 -1773.99 -1779.92 -1792.12 -1796.11 -1828.75 -1952.39 -2467.38 -3208.75 -3339.25 -3668.63 -3806.21 -3843.00 -3849.92 -3857.96 -3859.00 -3859.07
-2104.05 -2103.99 -2104.43 -2105.40 -2107.98 -2108.38 -2116.01 -2134.02 -2155.95 -2172.20 -2172.61 -2173.84 -2175.04 -2182.59 -2174.12 -2164.20 -2168.51 -2173.75 -2162.56 -2152.29 -2149.37 -2157.50 -2165.18 -2152.34 -2145.20 -2147.62 -2139.71 -2145.67 -2152.04 -2139.62 -2135.05 -2129.17 -2125.52 -2112.31 -2045.12 -1837.64 -1547.72 -1230.01 -696.41 -514.64 -346.94 -242.63 -230.77 -185.49 -151.17 -82.73 -43.19 2.71 39.69 64.41 48.31 -10.78 -39.03 -74.67 -100.18 -66.26 -77.70 -77.83 -77.45 -70.14 -64.66 -34.30 37.60 118.20 217.43 268.43 316.14 309.30 287.36 226.29 163.60 112.40 150.68 123.72 97.37 92.49 93.26 93.89 92.86 93.88 93.95 103.54 126.21 153.22 205.02 244.84 276.72 635.59 2577.46 3699.83 4867.14 5523.46 5589.50 4629.18 3933.25 3347.54 1907.21 671.26 270.87 248.71 243.22 232.43 229.71 222.30 216.39 210.29 200.79 183.15 173.01 136.21 78.42 23.30 -58.00 -114.62 -329.21 -567.95 -776.54 -928.99 -994.32 -1200.63 -1389.87 -1638.37 -1746.59 -1790.68 -1784.13 -1775.94 -1780.37 -1786.97 -1791.48 -1810.73 -1904.80 -2491.23 -3222.94 -3643.74 -3771.15 -3788.65 -3846.23 -3855.19 -3858.16 -3858.49 -3858.55
-2106.79 -2106.73 -2107.22 -2109.42 -2110.06 -2115.19 -2121.22 -2138.23 -2161.56 -2179.14 -2183.04 -2185.51 -2191.30 -2198.08 -2181.96 -2166.32 -2165.43 -2169.61 -2162.07 -2157.05 -2152.30 -2153.55 -2171.93 -2163.93 -2153.79 -2154.07 -2148.50 -2152.85 -2161.53 -2157.07 -2146.82 -2143.31 -2135.71 -2128.89 -2051.73 -1994.35 -1654.18 -1337.93 -856.59 -536.64 -432.94 -321.82 -275.98 -208.68 -162.91 -124.66 -67.78 -61.15 -64.75 -60.65 -61.87 -99.29 -122.10 -116.05 -112.26 -89.91 -82.59 -77.97 -64.94 -60.21 -48.41 -28.15 8.17 59.53 180.42 254.33 294.13 300.21 298.68 291.88 245.65 158.65 140.42 99.66 91.85 92.48 92.51 91.58 90.63 91.34 91.33 99.93 121.12 142.93 178.04 246.96 307.22 340.33 2810.61 3680.90 3473.75 3219.78 2353.64 2339.64 2237.13 2197.18 430.65 272.26 253.47 243.44 240.70 223.90 214.85 203.13 189.02 180.17 175.71 162.61 106.73 61.32 11.70 -80.92 -137.68 -273.25 -450.99 -691.02 -997.42 -1103.85 -1193.29 -1374.23 -1588.19 -1675.52 -1763.52 -1788.95 -1787.57 -1781.86 -1787.90 -1791.16 -1794.80 -1802.19 -1969.18 -2566.77 -3191.24 -3626.03 -3774.82 -3788.11 -3827.36 -3857.88 -3859.74 -3859.56 -3859.62
-2111.00 -2111.65 -2112.81 -2114.05 -2117.20 -2120.09 -2130.14 -2151.54 -2170.88 -2192.97 -2186.37 -2188.66 -2193.44 -2197.07 -2179.44 -2164.52 -2159.17 -2161.18 -2162.71 -2161.03 -2153.00 -2156.91 -2167.94 -2164.30 -2162.09 -2157.95 -2155.67 -2156.22 -2157.12 -2147.40 -2144.51 -2145.72 -2143.93 -2136.27 -2114.92 -2040.65 -1889.26 -1332.59 -1156.77 -834.27 -528.31 -386.51 -291.15 -236.88 -183.96 -174.04 -136.93 -112.06 -129.27 -129.01 -155.70 -144.97 -136.14 -123.96 -109.24 -93.46 -84.45 -75.32 -64.23 -44.50 -33.26 -22.15 -4.46 18.08 53.22 146.06 206.84 252.58 282.79 298.43 240.86 180.71 116.76 96.79 95.16 91.76 91.45 90.92 89.94 89.44 90.74 92.82 135.62 150.73 191.95 233.10 294.09 358.76 1576.15 2434.84 3287.96 3170.32 1600.92 1172.48 1444.70 603.47 310.72 247.79 242.24 228.76 217.25 203.08 201.45 192.14 148.74 110.28 62.90 39.66 17.44 21.77 -132.88 -206.58 -305.36 -521.47 -658.80 -830.89 -1155.50 -1308.01 -1523.34 -1629.30 -1705.40 -1731.34 -1772.86 -1789.99 -1788.28 -1787.61 -1793.41 -1796.70 -1799.07 -1815.88 -1957.04 -2324.16 -3087.90 -3703.66 -3799.34 -3848.63 -3856.00 -3858.65 -3860.28 -3865.20 -3865.26
-2117.34 -2117.28 -2121.50 -2121.29 -2126.61 -2129.03 -2140.86 -2162.40 -2187.03 -2189.56 -2189.91 -2193.50 -2194.35 -2196.52 -2185.21 -2159.41 -2165.43 -2158.72 -2153.55 -2148.19 -2150.12 -2154.41 -2162.39 -2158.03 -2162.13 -2162.09 -2159.48 -2155.60 -2151.54 -2149.79 -2149.89 -2147.18 -2142.66 -2135.64 -2121.17 -2057.38 -1984.49 -1743.62 -1259.60 -1031.46 -783.91 -582.93 -481.69 -333.29 -372.61 -233.51 -213.82 -241.66 -212.42 -185.79 -174.93 -155.27 -139.72 -129.34 -113.41 -101.23 -86.14 -67.21 -53.18 -35.11 -19.68 -9.70 3.72 17.55 31.46 65.93 120.66 168.81 203.77 209.39 215.47 149.82 119.49 100.29 97.14 89.61 89.95 89.27 88.62 87.26 86.68 89.44 105.59 113.30 171.45 228.47 265.97 278.22 748.67 1067.10 1685.99 991.18 903.61 684.45 659.76 263.95 250.67 230.71 207.00 178.05 183.58 172.53 151.74 141.29 92.96 49.98 12.68 -10.37 -88.98 -195.55 -351.87 -363.11 -458.17 -758.85 -851.99 -1112.93 -1360.54 -1513.90 -1660.60 -1750.10 -1808.11 -1800.41 -1792.66 -1795.79 -1795.93 -1796.22 -1795.34 -1796.91 -1799.66 -1817.59 -2001.88 -2401.15 -3122.56 -3651.26 -3846.44 -3846.70 -3850.66 -3856.18 -3861.27 -3872.82 -3872.88
-2124.28 -2125.08 -2127.22 -2130.48 -2133.69 -2139.54 -2145.79 -2173.22 -2183.44 -2186.16 -2192.32 -2192.70 -2191.12 -2189.83 -2176.18 -2153.71 -2136.94 -2136.42 -2128.64 -2128.53 -2146.49 -2151.55 -2154.87 -2160.92 -2161.50 -2159.42 -2159.63 -2157.14 -2150.80 -2150.65 -2151.82 -2151.61 -2145.75 -2134.32 -2118.62 -2079.76 -1983.43 -1803.83 -1768.01 -1377.86 -1062.49 -887.39 -768.12 -616.49 -428.50 -406.24 -305.97 -279.30 -239.70 -200.39 -177.44 -166.47 -145.26 -131.83 -119.17 -104.14 -89.40 -63.77 -40.70 -28.38 -15.35 0.02 7.86 21.34 33.07 37.19 46.26 76.81 88.13 116.28 120.62 121.15 91.94 86.67 87.31 87.02 86.31 87.44 86.72 86.70 85.13 84.08 86.61 108.11 176.78 227.90 245.93 257.43 260.40 404.05 409.49 533.33 364.97 390.73 269.19 247.93 237.83 219.22 188.17 112.20 111.35 97.46 28.40 -9.25 34.36 -23.77 -96.40 -152.85 -294.19 -460.67 -628.53 -711.38 -893.11 -1059.70 -1274.85 -1378.38 -1517.44 -1649.33 -1746.33 -1812.62 -1813.53 -1809.97 -1808.00 -1806.76 -1804.34 -1800.25 -1796.46 -1795.83 -1796.82 -1824.76 -1945.09 -2344.38 -3109.60 -3523.09 -3852.72 -3847.24 -3849.55 -3854.42 -3860.04 -3874.37 -3874.43
-2129.41 -2130.14 -2131.99 -2135.98 -2139.88 -2147.36 -2159.39 -2190.49 -2203.11 -2192.73 -2192.79 -2191.49 -2191.79 -2186.48 -2173.34 -2142.27 -2109.57 -2097.39 -2103.13 -2118.85 -2142.84 -2161.01 -2154.76 -2158.34 -2159.98 -2157.34 -2158.23 -2156.43 -2153.37 -2152.45 -2153.06 -2150.51 -2144.73 -2118.43 -2099.87 -2062.41 -1989.75 -1854.57 -1610.44 -1499.82 -1378.57 -1257.77 -1022.25 -712.51 -571.31 -427.71 -379.22 -308.89 -260.07 -223.08 -194.49 -173.06 -152.88 -143.91 -120.40 -95.65 -79.12 -63.03 -31.57 -20.67 -10.66 2.13 10.73 24.15 31.28 36.77 46.41 55.53 63.33 68.75 73.55 76.16 79.13 80.87 84.41 85.54 84.82 85.24 85.53 84.93 82.68 82.63 85.75 122.80 168.19 217.98 235.62 244.52 253.70 270.88 311.79 311.53 287.66 262.32 258.17 241.19 225.69 200.48 173.73 102.57 42.68 -4.10 -107.99 -231.11 -247.35 -115.97 -241.70 -284.14 -478.16 -628.11 -914.37 -1109.06 -1275.99 -1375.11 -1427.23 -1563.06 -1670.83 -1762.95 -1811.61 -1816.74 -1820.43 -1821.70 -1815.92 -1816.96 -1818.22 -1807.51 -1799.98 -1798.28 -1797.94 -1823.78 -1911.13 -2344.19 -3191.11 -3619.91 -3838.86 -3845.71 -3856.68 -3867.41 -3874.28 -3876.16 -3876.22
-2132.89 -2132.83 -2136.67 -2139.06 -2143.69 -2149.42 -2166.90 -2195.53 -2205.78 -2194.15 -2192.82 -2192.54 -2191.26 -2184.41 -2180.26 -2139.70 -2114.07 -2099.59 -2104.07 -2120.95 -2151.10 -2163.11 -2159.34 -2155.82 -2156.13 -2156.54 -2157.86 -2158.53 -2157.17 -2156.05 -2153.43 -2150.67 -2141.30 -2123.94 -2098.99 -2045.13 -2002.70 -1795.77 -1642.39 -1529.20 -1432.01 -1281.44 -1128.41 -905.68 -631.78 -479.37 -399.87 -327.90 -265.48 -239.58 -201.26 -183.66 -167.91 -145.12 -115.40 -91.26 -69.02 -51.18 -25.54 -16.78 -7.21 1.05 13.07 24.51 32.88 38.31 48.30 54.64 64.13 70.41 72.93 74.88 78.24 79.95 82.37 83.67 83.46 83.69 83.68 82.90 82.13 82.02 84.04 113.44 148.85 174.02 208.95 225.15 237.90 231.12 263.32 264.59 250.37 249.67 247.90 232.38 210.60 175.07 133.79 34.76 -72.36 -185.59 -301.76 -373.97 -456.52 -301.52 -314.81 -589.08 -751.12 -947.11 -1137.25 -1339.56 -1413.80 -1433.37 -1573.68 -1758.60 -1783.20 -1816.69 -1821.80 -1823.18 -1826.89 -1834.34 -1838.79 -1834.61 -1829.38 -1815.47 -1806.29 -1801.50 -1800.89 -1818.52 -2004.60 -2476.84 -3040.86 -3633.83 -3831.44 -3858.24 -3878.57 -3878.65 -3879.27 -3876.62 -3876.68
-2135.10 -2135.04 -2138.39 -2141.93 -2147.76 -2156.77 -2175.26 -2200.83 -2200.43 -2193.07 -2191.91 -2190.16 -2188.60 -2178.10 -2174.16 -2153.36 -2129.23 -2118.90 -2118.83 -2139.73 -2160.26 -2161.97 -2163.94 -2161.62 -2161.26 -2158.64 -2158.61 -2157.55 -2158.22 -2157.97 -2155.37 -2151.84 -2141.92 -2130.08 -2107.94 -2024.26 -1982.91 -1846.63 -1740.72 -1614.55 -1415.86 -1300.70 -1206.74 -995.37 -768.94 -523.03 -384.56 -327.98 -267.53 -247.82 -220.70 -197.00 -171.90 -154.98 -125.99 -95.97 -69.92 -51.48 -26.36 -8.64 -0.01 6.47 19.10 25.01 34.78 43.10 52.05 58.23 63.47 68.73 71.08 74.00 76.45 78.56 80.41 80.30 81.91 82.37 82.07 81.95 81.07 81.06 84.80 87.74 115.82 127.32 173.23 189.57 206.62 210.51 223.81 230.29 240.84 229.44 218.97 201.00 186.63 91.51 93.55 -6.47 -66.23 -351.09 -430.86 -504.68 -597.91 -428.35 -527.66 -652.02 -959.23 -1161.44 -1283.22 -1410.23 -1493.36 -1612.68 -1702.03 -1808.32 -1817.60 -1822.75 -1826.54 -1828.23 -1833.30 -1842.65 -1849.79 -1854.32 -1856.63 -1834.41 -1814.92 -1810.73 -1809.78 -1830.56 -1954.98 -2608.89 -3123.23 -3606.03 -3851.78 -3868.98 -3877.97 -3877.93 -3880.21 -3878.27 -3877.62
-2133.43 -2133.36 -2135.57 -2138.53 -2147.58 -2154.82 -2170.40 -2189.03 -2191.92 -2187.23 -2188.52 -2190.64 -2186.54 -2178.10 -2170.34 -2167.12 -2159.74 -2143.11 -2145.38 -2151.67 -2158.66 -2158.52 -2166.67 -2169.25 -2166.97 -2160.97 -2161.56 -2162.32 -2162.28 -2160.90 -2158.86 -2156.68 -2146.84 -2127.93 -2104.14 -2046.93 -2003.44 -1886.72 -1856.49 -1691.50 -1440.87 -1283.79 -1160.00 -1000.88 -811.92 -576.59 -459.62 -359.13 -283.10 -249.21 -229.84 -196.64 -182.70 -147.85 -120.92 -89.76 -63.88 -40.34 -23.00 -2.71 5.47 13.90 20.12 30.91 38.84 48.40 52.55 59.33 65.13 66.84 69.34 71.30 73.86 76.12 77.96 79.35 80.29 80.94 80.89 80.77 80.27 80.16 80.98 84.04 84.92 94.89 127.78 145.82 131.43 126.22 132.22 138.22 176.35 189.30 172.43 144.12 116.94 32.69 -12.58 -78.12 -214.82 -421.69 -554.57 -586.64 -642.77 -650.47 -704.31 -914.45 -1115.57 -1332.11 -1469.28 -1508.67 -1628.36 -1708.16 -1775.19 -1809.75 -1822.26 -1828.31 -1830.04 -1832.53 -1838.72 -1849.54 -1857.35 -1872.05 -1873.48 -1858.07 -1838.97 -1823.53 -1823.38 -1826.78 -2000.44 -2486.84 -3297.18 -3600.05 -3853.53 -3877.10 -3875.94 -3879.64 -3883.20 -3879.06 -3879.12
-2124.89 -2124.32 -2127.62 -2131.79 -2139.37 -2142.64 -2154.26 -2174.93 -2187.20 -2193.16 -2187.19 -2188.15 -2183.88 -2177.55 -2169.11 -2161.66 -2155.98 -2146.85 -2148.33 -2151.78 -2155.14 -2158.62 -2163.84 -2167.52 -2169.09 -2166.21 -2164.98 -2165.62 -2164.99 -2162.96 -2161.84 -2160.35 -2147.92 -2129.06 -2095.23 -2047.51 -1975.32 -1918.98 -1791.47 -1652.59 -1469.65 -1246.50 -1049.28 -910.28 -702.76 -601.99 -474.11 -366.13 -304.24 -264.17 -237.96 -230.15 -202.49 -164.60 -138.19 -103.03 -65.19 -45.93 -18.44 -3.13 13.21 20.23 25.83 35.84 42.53 47.28 52.77 59.86 63.00 67.23 68.57 70.36 72.30 74.59 75.96 77.35 79.01 79.08 78.74 78.98 79.05 79.09 80.68 82.45 82.61 83.65 91.83 95.77 101.16 88.05 67.05 79.91 73.87 114.32 82.06 20.96 9.92 -92.72 -85.93 -186.56 -567.81 -676.26 -735.75 -813.21 -767.94 -817.44 -977.16 -1131.44 -1436.89 -1470.00 -1583.82 -1646.41 -1701.57 -1754.46 -1789.48 -1818.30 -1827.35 -1830.22 -1831.17 -1835.41 -1848.27 -1857.61 -1871.30 -1879.22 -1885.29 -1892.14 -1867.74 -1853.45 -1851.00 -1856.55 -2044.58 -2308.44 -3026.13 -3678.89 -3858.68 -3878.10 -3877.67 -3879.95 -3883.64 -3880.88 -3880.94
-2114.37 -2112.94 -2120.18 -2122.89 -2130.85 -2134.73 -2143.36 -2153.92 -2171.05 -2180.23 -2188.95 -2185.51 -2179.67 -2177.80 -2162.67 -2153.26 -2151.18 -2152.07 -2150.05 -2153.15 -2156.32 -2159.94 -2162.77 -2168.01 -2171.00 -2171.71 -2170.61 -2168.31 -2167.76 -2166.39 -2166.94 -2162.37 -2152.50 -2124.86 -2088.80 -2035.13 -1965.63 -1899.30 -1806.15 -1689.77 -1475.21 -1282.40 -1078.51 -844.03 -736.83 -606.43 -514.24 -416.09 -326.25 -284.97 -272.48 -260.45 -203.70 -171.70 -135.65 -100.68 -66.25 -42.73 -20.10 -4.84 8.67 19.27 27.07 34.45 42.66 45.25 53.67 57.38 62.24 65.48 68.93 69.73 71.88 73.65 74.39 76.34 77.22 77.27 76.71 77.70 78.48 78.85 80.01 82.66 84.11 81.54 82.88 79.95 77.66 65.46 56.92 51.44 12.12 -21.64 -12.92 -50.74 -131.28 -307.19 -324.59 -614.14 -808.19 -890.99 -1037.12 -1062.74 -1073.97 -992.90 -1124.99 -1408.61 -1520.54 -1625.24 -1656.45 -1730.32 -1754.45 -1787.15 -1806.13 -1822.69 -1830.84 -1833.14 -1835.76 -1841.94 -1853.34 -1865.57 -1883.18 -1889.71 -1898.20 -1912.67 -1906.50 -1886.30 -1868.31 -1872.12 -2096.87 -2382.56 -3174.90 -3699.50 -3852.91 -3880.78 -3882.51 -3886.19 -3886.16 -3883.14 -3882.86
-2109.17 -2109.11 -2112.08 -2116.76 -2123.99 -2130.07 -2138.46 -2144.33 -2153.65 -2162.30 -2172.90 -2181.96 -2178.99 -2175.80 -2164.61 -2156.33 -2154.80 -2157.82 -2155.56 -2154.35 -2158.66 -2160.93 -2163.77 -2169.19 -2170.30 -2171.81 -2172.21 -2171.67 -2169.67 -2168.50 -2168.97 -2163.38 -2149.86 -2137.69 -2098.49 -2036.94 -1936.07 -1883.78 -1777.50 -1617.69 -1445.50 -1276.26 -1124.18 -929.97 -762.14 -598.25 -520.08 -420.90 -359.05 -341.97 -310.53 -290.02 -255.21 -186.14 -121.03 -93.61 -62.03 -36.87 -16.29 -6.50 5.35 14.53 26.46 33.12 40.32 43.75 48.58 55.22 61.28 64.05 67.19 69.20 70.77 72.10 72.80 75.05 75.54 76.01 76.51 77.21 78.09 78.22 79.04 82.56 85.55 83.88 80.10 75.94 73.19 64.55 43.77 28.17 -39.31 -101.28 -98.16 -155.10 -332.91 -445.50 -656.98 -1043.91 -1217.64 -1220.60 -1308.79 -1311.41 -1375.98 -1297.44 -1273.38 -1516.08 -1681.63 -1730.43 -1752.07 -1769.11 -1785.60 -1805.15 -1812.71 -1825.83 -1834.70 -1836.78 -1842.94 -1851.84 -1860.64 -1879.80 -1896.07 -1902.51 -1916.46 -1920.32 -1910.50 -1898.41 -1888.29 -1903.82 -2102.54 -2417.97 -3048.27 -3704.20 -3872.06 -3878.47 -3884.32 -3889.43 -3886.76 -3885.23 -3885.13
-2109.34 -2109.27 -2115.07 -2116.50 -2121.57 -2129.53 -2136.65 -2143.47 -2147.24 -2155.45 -2163.30 -2174.44 -2174.68 -2171.66 -2168.57 -2159.36 -2158.93 -2157.11 -2154.40 -2158.48 -2158.35 -2161.50 -2163.73 -2168.82 -2171.08 -2171.76 -2172.90 -2172.24 -2172.16 -2171.00 -2170.21 -2168.92 -2167.06 -2162.92 -2126.76 -2073.81 -1907.67 -1834.27 -1748.60 -1593.14 -1474.63 -1308.36 -1120.26 -896.69 -784.78 -636.85 -590.96 -497.83 -461.43 -403.44 -350.57 -325.79 -284.05 -232.97 -109.96 -80.16 -53.48 -30.52 -19.51 -7.69 2.54 13.68 20.87 30.33 38.06 42.24 47.59 54.91 60.60 64.74 66.20 67.75 69.46 70.90 72.12 73.18 75.16 75.75 76.11 76.94 87.93 88.41 83.30 85.53 86.01 85.26 84.30 76.93 70.57 57.49 38.46 7.76 -52.85 -171.14 -198.78 -228.74 -419.92 -768.23 -1013.36 -1344.19 -1464.87 -1535.99 -1544.44 -1561.21 -1542.45 -1486.30 -1581.41 -1678.33 -1724.56 -1763.59 -1778.27 -1791.41 -1797.33 -1808.60 -1816.89 -1825.01 -1849.30 -1855.33 -1864.62 -1866.92 -1882.75 -1890.25 -1900.15 -1915.64 -1924.62 -1925.29 -1914.62 -1912.64 -1898.94 -1909.74 -2071.91 -2476.86 -3179.48 -3648.95 -3870.91 -3884.04 -3889.48 -3891.30 -3888.89 -3887.31 -3887.06
-2113.67 -2113.60 -2119.30 -2118.54 -2124.57 -2133.31 -2139.56 -2144.84 -2148.37 -2153.18 -2162.32 -2175.01 -2176.47 -2173.46 -2171.72 -2163.55 -2159.40 -2158.00 -2158.02 -2159.91 -2161.16 -2164.25 -2167.79 -2169.98 -2171.87 -2172.28 -2174.01 -2173.66 -2172.83 -2172.40 -2171.67 -2171.53 -2173.03 -2168.13 -2141.74 -2084.59 -1962.03 -1868.22 -1705.66 -1580.42 -1452.83 -1381.77 -1199.61 -977.46 -799.59 -722.19 -650.01 -595.04 -493.01 -456.01 -404.80 -365.66 -320.91 -223.90 -159.97 -99.62 -65.08 -35.58 -20.28 -10.16 -0.24 6.59 17.62 25.39 34.11 43.29 47.75 52.98 61.07 63.28 66.40 67.80 69.24 70.96 71.62 73.32 74.28 74.66 75.28 91.84 104.54 105.86 98.44 81.04 83.12 84.06 83.98 65.02 59.11 35.30 6.84 -10.12 -69.14 -199.88 -405.27 -438.07 -627.04 -930.67 -1176.12 -1448.96 -1576.06 -1649.85 -1678.78 -1653.81 -1644.52 -1618.32 -1688.27 -1725.05 -1749.94 -1777.38 -1787.81 -1800.53 -1801.48 -1813.89 -1824.65 -1836.05 -1855.08 -1873.68 -1876.17 -1890.67 -1906.56 -1906.77 -1914.29 -1919.34 -1926.29 -1931.72 -1933.58 -1919.21 -1905.06 -1915.56 -2080.63 -2526.53 -3046.95 -3603.27 -3856.65 -3892.32 -3893.99 -3892.55 -3890.63 -3888.89 -3888.97
-2131.82 -2129.13 -2133.82 -2136.94 -2136.12 -2141.92 -2148.08 -2155.79 -2155.51 -2157.62 -2167.09 -2172.05 -2174.20 -2176.46 -2173.09 -2167.67 -2164.82 -2162.83 -2161.62 -2161.72 -2165.03 -2166.95 -2169.13 -2167.92 -2169.90 -2174.14 -2175.14 -2174.99 -2174.51 -2173.77 -2174.02 -2173.12 -2173.64 -2166.69 -2151.09 -2110.30 -2060.51 -1912.73 -1741.37 -1580.60 -1417.57 -1296.16 -1142.94 -975.94 -848.29 -755.87 -715.26 -611.49 -531.96 -455.28 -431.31 -366.59 -314.20 -229.83 -184.78 -117.11 -75.47 -46.03 -26.36 -11.91 -6.67 -1.26 9.71 22.23 29.75 39.73 51.10 55.04 56.94 62.08 65.75 68.34 69.50 70.42 71.23 72.04 73.07 74.01 74.34 96.44 107.00 108.72 86.89 73.09 66.95 67.06 30.83 22.95 -12.72 -27.03 -106.10 -186.54 -175.53 -277.31 -609.10 -740.58 -886.63 -1161.85 -1509.77 -1613.02 -1691.60 -1718.62 -1707.86 -1702.37 -1719.43 -1718.21 -1728.37 -1757.31 -1782.52 -1789.86 -1803.40 -1811.11 -1818.93 -1834.57 -1838.43 -1855.36 -1872.87 -1889.34 -1886.58 -1894.43 -1918.93 -1926.18 -1922.27 -1930.01 -1932.29 -1935.08 -1936.67 -1925.26 -1918.18 -1929.47 -1998.97 -2529.03 -3186.41 -3622.83 -3864.45 -3895.84 -3896.03 -3894.00 -3892.77 -3890.75 -3890.82
