-5951.01 -5950.95 -5947.72 -5946.20 -5944.94 -5940.54 -5938.17 -5935.19 -5930.50 -5926.51 -5924.23 -5918.74 -5914.95 -5912.11 -5907.15 -5903.75 -5902.19 -5898.21 -5896.44 -5893.53 -5888.92 -5878.14 -5855.88 -5848.48 -5841.36 -5821.04 -5823.31 -5754.48 -5630.33 -3332.20 -1236.58 -405.19 16.70 140.14 251.14 311.35 375.08 476.67 679.35 893.24 929.94 885.58 869.35 558.27 480.17 639.47 706.13 585.51 570.60 307.24 292.71 245.58 187.00 174.22 137.04 105.21 44.79 -32.98 -108.71 -277.80 -322.19 -340.00 -446.49 -624.29 -836.96 -951.53 -1103.28 -831.38 -195.10 172.23 221.53 301.51 498.11 537.38 587.70 619.78 631.80 480.01 384.56 347.17 321.34 306.05 285.87 268.74 258.74 254.56 255.24 257.28 274.89 301.27 322.07 364.09 379.63 404.91 421.77 437.84 460.19 486.96 501.69 525.81 822.82 1185.51 1518.05 2614.91 4913.70 7384.57 9137.08 5425.17 4031.87 3257.09 2935.74 1191.50 306.86 238.83 122.74 -0.47 -149.12 -458.05 -1229.42 -2283.65 -2695.55 -3330.61 -3647.59 -3854.19 -3880.93 -3892.84 -3893.61 -3894.85 -3894.34 -3894.55 -3894.39 -3894.18 -3893.93 -3894.06 -3892.18 -3888.19 -3886.52 -3886.19 -3885.23 -3884.69 -3884.75
-5944.87 -5945.08 -5943.43 -5941.18 -5937.84 -5937.70 -5933.51 -5931.18 -5927.96 -5924.00 -5920.31 -5915.77 -5911.22 -5908.88 -5905.87 -5902.71 -5898.27 -5895.94 -5892.61 -5891.51 -5882.08 -5879.53 -5874.98 -5858.36 -5848.91 -5838.12 -5847.12 -5893.46 -5948.96 -5858.13 -2600.18 -622.63 -17.66 164.50 237.23 283.94 374.60 442.75 521.51 594.69 713.47 803.37 890.34 837.10 979.45 998.98 1165.42 965.17 867.08 406.53 367.25 382.88 271.13 239.37 235.25 193.10 207.34 155.58 102.10 -5.32 -154.49 -148.46 -172.31 -433.66 -406.13 -679.66 -529.39 -273.20 -146.34 154.46 292.39 390.12 401.58 452.89 478.63 543.38 546.47 473.04 399.98 338.86 310.57 303.87 283.62 258.68 253.37 249.67 252.39 256.67 267.61 296.01 306.17 332.71 364.59 397.77 410.13 437.30 447.71 455.85 469.43 490.67 469.60 726.30 1851.90 3068.54 3769.97 7574.62 8565.09 8433.05 6881.59 3753.88 3124.56 1036.60 369.65 249.72 181.32 134.00 -49.05 -362.90 -1035.28 -1673.02 -2410.70 -2890.79 -3503.41 -3825.13 -3871.19 -3870.82 -3890.55 -3892.29 -3893.21 -3892.57 -3893.29 -3892.64 -3892.52 -3892.15 -3890.97 -3886.41 -3885.41 -3884.87 -3884.41 -3883.59 -3883.38
-5937.60 -5937.54 -5934.82 -5934.70 -5934.05 -5931.34 -5930.28 -5926.45 -5922.49 -5917.25 -5916.07 -5912.34 -5909.31 -5905.42 -5903.18 -5899.78 -5896.28 -5892.82 -5889.95 -5888.04 -5876.75 -5866.85 -5852.23 -5840.77 -5833.54 -5833.87 -5861.84 -5931.45 -6049.39 -5927.23 -1961.10 -635.13 -4.63 185.48 237.81 299.74 426.75 498.75 454.98 477.51 605.47 786.01 761.43 950.67 1117.44 1208.41 1324.31 1099.19 744.50 588.69 586.55 485.30 410.26 312.18 264.62 241.63 232.57 231.06 188.21 110.57 76.99 103.80 -1.39 -67.17 16.40 -49.74 -73.18 104.76 239.05 312.03 351.46 393.56 419.22 421.66 435.88 500.05 508.17 446.24 363.71 313.54 299.53 288.56 265.72 245.87 237.02 235.56 243.16 248.29 256.70 269.29 285.97 304.46 324.65 378.03 410.92 418.35 430.63 436.49 444.99 437.73 463.35 594.34 1834.13 2481.28 3045.37 5369.81 7247.93 8207.24 6768.98 5326.18 2568.38 1918.53 350.77 255.22 208.34 148.53 -4.80 -285.70 -530.96 -1168.06 -1741.69 -2583.17 -3119.30 -3626.89 -3877.37 -3887.42 -3887.97 -3886.28 -3891.29 -3891.90 -3891.50 -3892.04 -3892.13 -3892.10 -3887.97 -3885.26 -3883.75 -3883.64 -3882.67 -3881.96 -3882.02
-5929.10 -5929.04 -5927.39 -5926.63 -5925.20 -5924.18 -5921.88 -5919.58 -5914.74 -5914.31 -5910.99 -5907.67 -5906.10 -5902.87 -5900.86 -5899.27 -5894.90 -5891.21 -5887.57 -5885.50 -5877.04 -5857.12 -5826.84 -5817.45 -5812.14 -5822.52 -5919.59 -6053.42 -6177.94 -5896.91 -2294.51 -343.07 177.73 217.11 257.52 321.04 504.71 684.53 704.82 595.85 562.87 616.87 779.78 981.86 1167.52 1316.33 1442.80 1191.16 976.28 886.06 778.02 592.15 416.52 337.27 304.28 267.46 250.35 250.03 242.19 245.47 255.66 231.12 246.57 222.66 206.78 301.13 310.12 317.89 382.27 438.82 401.71 422.67 387.28 338.89 319.83 365.32 497.42 469.80 388.77 302.40 286.83 260.82 238.11 227.77 223.69 226.91 232.71 241.33 249.16 259.83 273.08 284.21 306.67 354.99 354.18 380.63 401.33 410.14 406.49 396.47 409.94 432.38 906.51 1730.27 3074.71 3991.77 5681.70 7061.25 7031.42 5864.98 2828.36 2281.88 741.78 266.18 229.48 166.37 5.58 -141.26 -424.13 -769.04 -1302.08 -2326.60 -2746.75 -3737.73 -3876.32 -3885.48 -3880.22 -3881.18 -3888.50 -3889.77 -3890.21 -3890.45 -3890.67 -3889.98 -3886.41 -3883.16 -3883.06 -3882.17 -3881.47 -3880.61 -3880.67
-5919.59 -5919.53 -5917.25 -5918.21 -5919.77 -5919.50 -5916.91 -5916.39 -5912.11 -5909.82 -5907.75 -5906.33 -5903.38 -5900.91 -5899.54 -5897.54 -5895.16 -5892.12 -5887.83 -5883.66 -5881.54 -5854.16 -5829.27 -5813.22 -5806.63 -5824.68 -5919.80 -6053.25 -6037.83 -1479.39 -429.45 127.68 199.94 247.02 265.61 442.19 588.14 725.79 788.78 773.84 752.48 698.79 701.57 998.44 1218.96 1432.71 1512.30 1384.76 1273.55 1038.50 659.28 558.86 478.59 440.18 337.32 303.01 302.02 262.93 271.29 305.87 306.43 294.06 284.82 285.36 324.50 376.88 401.49 479.04 492.66 387.42 360.58 312.35 262.96 287.91 315.71 380.36 488.57 459.45 361.26 281.33 275.59 237.05 199.69 209.33 216.15 214.91 217.61 227.29 232.77 237.09 253.57 260.72 281.17 316.51 317.83 346.44 359.79 374.39 381.84 382.93 384.98 431.49 657.55 1237.54 1903.02 2477.17 4225.29 6157.69 6509.42 4136.53 2316.99 1781.80 1406.72 272.97 243.05 183.74 91.94 -165.96 -557.55 -907.35 -1338.86 -2133.91 -3466.39 -3863.23 -3876.03 -3883.05 -3878.56 -3882.18 -3887.26 -3889.13 -3889.33 -3888.95 -3888.78 -3888.54 -3885.59 -3882.16 -3881.43 -3880.95 -3879.94 -3879.28 -3879.35
-5909.24 -5910.07 -5910.31 -5910.24 -5910.31 -5910.82 -5911.32 -5908.47 -5906.45 -5906.25 -5904.75 -5902.85 -5901.14 -5899.87 -5898.27 -5896.41 -5894.02 -5892.10 -5889.19 -5886.72 -5883.82 -5857.72 -5833.70 -5806.42 -5800.51 -5817.02 -5860.01 -4583.88 -2470.13 -672.13 57.73 141.86 241.83 270.96 302.92 390.05 465.45 544.11 673.02 659.85 852.65 924.84 665.53 886.84 1138.24 1342.20 1544.82 1497.43 1180.25 888.00 730.17 673.07 620.12 482.98 425.47 419.68 426.43 332.84 322.53 319.23 326.73 371.33 407.78 367.68 452.07 515.03 465.17 434.91 369.74 329.23 267.70 245.19 236.38 243.04 286.64 351.56 428.11 415.47 315.01 265.35 256.76 221.00 205.49 211.51 209.99 210.00 213.68 218.34 217.62 222.26 238.09 244.76 254.90 262.99 266.06 314.50 315.99 326.64 353.92 374.90 382.79 385.43 428.56 778.77 1496.74 3277.37 4253.07 7704.16 6849.34 4014.27 3020.43 2313.80 1563.85 290.37 250.57 206.95 148.14 -15.12 -396.75 -848.15 -1510.89 -3186.95 -3349.65 -3863.51 -3869.15 -3878.04 -3871.03 -3876.52 -3884.23 -3888.10 -3888.11 -3888.32 -3888.20 -3887.47 -3884.94 -3881.13 -3880.14 -3879.66 -3879.22 -3878.23 -3878.04
-5898.26 -5898.20 -5898.08 -5900.76 -5902.04 -5902.10 -5899.94 -5901.59 -5900.04 -5900.16 -5899.36 -5899.46 -5897.70 -5896.99 -5896.68 -5896.08 -5895.71 -5894.38 -5893.08 -5891.53 -5889.91 -5869.55 -5833.38 -5798.49 -5709.82 -5717.32 -5617.92 -3938.86 -1631.67 -253.08 50.61 171.45 274.72 314.28 317.03 461.74 516.11 659.47 600.35 729.98 921.09 999.38 772.80 908.54 1102.20 1323.94 1494.14 1456.62 1351.85 1149.15 844.45 767.70 669.73 583.71 527.82 501.79 492.97 368.96 338.95 365.54 420.08 556.04 603.53 558.77 551.59 452.41 376.03 271.29 253.20 220.18 199.97 188.45 189.76 205.35 233.83 263.01 353.84 352.93 283.76 244.33 235.43 208.91 206.03 206.00 205.67 206.47 209.23 210.60 212.35 213.93 222.06 232.69 246.98 257.33 258.11 267.11 291.24 310.98 338.08 345.58 359.72 363.07 371.91 756.30 2042.33 3316.21 5359.58 8016.05 6874.40 4685.20 4214.66 3548.61 2015.01 436.23 270.75 226.04 191.04 63.36 -430.22 -683.17 -1420.20 -2410.48 -3482.54 -3771.77 -3854.04 -3874.73 -3869.67 -3878.85 -3886.53 -3886.67 -3887.40 -3887.33 -3887.36 -3887.87 -3884.75 -3880.30 -3879.29 -3878.61 -3877.52 -3876.66 -3876.73
-5886.65 -5886.59 -5884.68 -5888.78 -5889.61 -5892.72 -5890.74 -5895.12 -5894.62 -5892.12 -5893.16 -5894.92 -5895.21 -5895.42 -5896.70 -5898.16 -5898.30 -5899.07 -5898.62 -5898.35 -5897.08 -5869.82 -5739.21 -5722.72 -5407.62 -4877.17 -4392.43 -3349.44 -1167.45 31.94 117.44 198.36 269.90 333.31 338.95 401.57 659.42 742.10 657.13 802.85 910.99 1074.35 1079.58 920.41 1038.19 1196.93 1396.08 1496.38 1314.20 1114.37 906.68 700.04 658.73 611.36 558.77 529.62 469.92 396.59 425.44 470.78 536.22 652.64 688.82 599.64 455.85 378.88 340.95 262.88 237.83 202.22 198.73 189.29 187.41 191.39 190.88 207.75 246.63 232.11 217.39 199.47 217.39 215.01 207.98 205.60 204.33 204.78 209.34 209.72 210.88 213.75 215.13 227.99 236.42 248.02 250.70 248.48 271.03 298.21 309.36 308.57 328.05 351.58 360.01 625.42 1604.91 2519.39 4986.56 8619.75 10497.83 8256.94 3953.03 2354.50 995.45 657.33 264.20 235.39 161.38 -6.73 -219.28 -637.49 -1127.29 -2042.58 -2833.05 -3518.41 -3846.34 -3868.01 -3867.30 -3876.49 -3883.55 -3885.60 -3886.65 -3886.41 -3886.70 -3886.48 -3882.78 -3879.30 -3877.96 -3877.17 -3876.51 -3875.37 -3875.44
-5873.02 -5872.96 -5874.56 -5876.20 -5878.21 -5880.21 -5883.94 -5883.78 -5885.21 -5887.06 -5888.45 -5892.00 -5892.90 -5894.96 -5898.27 -5900.07 -5901.60 -5901.05 -5896.54 -5880.21 -5862.98 -5761.07 -5561.16 -5177.37 -4319.14 -4136.40 -2799.12 -1941.40 4.40 187.17 222.61 249.14 263.14 404.29 468.91 411.31 474.42 660.51 726.15 965.09 1106.52 1152.57 1144.86 1086.41 1186.25 1327.37 1442.86 1464.51 1325.03 1036.68 904.41 765.02 658.69 585.70 541.75 488.16 470.40 507.52 508.03 684.19 714.67 766.92 616.88 464.08 403.90 359.97 308.98 248.13 228.62 208.11 194.77 193.22 187.65 188.86 188.68 197.48 190.92 186.36 197.62 205.70 213.62 206.78 208.01 206.75 205.39 202.87 208.71 208.58 210.47 211.35 212.13 219.43 233.23 241.78 245.67 247.28 248.67 273.54 284.07 293.59 316.91 337.87 352.99 395.06 1719.79 2808.36 3753.95 5627.91 9201.60 7663.23 4620.70 3208.39 2410.60 519.65 254.32 222.55 143.16 -94.44 -240.50 -610.89 -1030.67 -2070.14 -2814.60 -3442.15 -3748.40 -3851.43 -3869.55 -3880.99 -3881.99 -3884.29 -3885.62 -3885.82 -3886.06 -3886.23 -3881.63 -3877.88 -3876.76 -3875.99 -3875.04 -3874.10 -3874.17
-5861.81 -5862.74 -5863.08 -5867.99 -5868.98 -5870.28 -5871.52 -5877.66 -5879.50 -5882.16 -5883.10 -5887.98 -5892.19 -5895.56 -5899.29 -5897.24 -5897.60 -5895.73 -5891.54 -5798.52 -5683.39 -5360.73 -4325.69 -3463.80 -3038.01 -2480.25 -1918.93 -988.65 -274.49 157.12 245.37 282.21 336.93 576.48 648.29 619.29 568.53 570.04 873.51 901.61 1082.87 1203.06 1277.67 1223.79 1224.16 1292.34 1315.86 1340.04 1291.95 1098.77 871.93 831.71 701.97 602.36 533.93 510.02 492.04 559.79 643.61 830.76 844.77 737.40 582.84 418.27 371.85 352.51 298.73 250.18 230.66 216.82 191.68 190.04 189.30 188.52 190.79 197.95 200.13 200.75 196.20 198.11 206.09 203.50 204.51 205.87 205.79 203.32 203.53 205.32 208.98 208.84 212.40 214.66 226.25 236.43 243.74 245.74 247.60 265.81 280.51 284.19 303.67 330.66 347.67 459.79 871.07 1211.38 2792.77 5416.21 7744.53 7065.76 4294.45 2787.71 1944.69 658.25 328.64 192.47 135.94 -78.28 -209.91 -564.25 -1063.91 -1878.47 -2936.90 -3095.61 -3682.13 -3849.36 -3872.85 -3879.65 -3884.11 -3885.28 -3884.90 -3884.60 -3884.23 -3884.50 -3879.73 -3876.99 -3875.45 -3874.90 -3874.04 -3872.88 -3872.95
-5852.80 -5852.74 -5854.01 -5856.51 -5856.18 -5863.43 -5864.59 -5868.04 -5871.57 -5876.30 -5880.89 -5886.31 -5890.93 -5896.01 -5896.50 -5879.57 -5875.29 -5851.27 -5643.65 -5574.96 -5068.33 -4465.63 -3456.19 -2083.55 -1671.10 -1541.28 -1438.38 -1001.89 -243.93 213.45 291.75 345.14 390.17 609.17 819.14 764.30 750.17 566.22 650.66 877.31 1144.64 1249.12 1273.83 1175.21 1172.87 1134.45 1159.63 1154.81 997.89 1032.32 882.75 759.99 643.37 611.04 565.32 536.41 535.56 639.07 769.19 842.50 734.27 576.66 498.62 391.14 366.23 326.34 308.82 260.07 240.91 222.14 206.30 189.94 188.68 188.42 191.05 194.04 195.15 193.92 197.44 205.02 206.19 204.62 203.37 202.85 203.45 202.02 201.08 202.18 205.19 207.62 208.98 213.18 226.64 236.92 241.22 244.85 247.00 263.41 274.63 289.45 309.10 312.65 338.93 404.66 1040.27 2089.21 3739.64 6090.51 7491.11 7078.91 4963.17 2873.42 2211.37 658.26 342.44 215.78 127.31 -51.19 -243.71 -721.33 -1547.42 -1702.92 -2219.52 -2964.49 -3314.79 -3790.97 -3864.37 -3872.24 -3879.39 -3882.33 -3884.49 -3883.71 -3882.66 -3882.11 -3878.70 -3875.89 -3874.36 -3874.03 -3872.84 -3871.71 -3871.79
-5845.71 -5845.64 -5846.14 -5849.22 -5851.23 -5854.13 -5855.83 -5863.54 -5867.29 -5874.34 -5879.15 -5883.01 -5890.38 -5885.87 -5864.49 -5830.45 -5677.73 -5514.70 -5130.60 -4428.30 -3706.22 -3372.58 -2289.15 -1623.20 -1301.37 -994.22 -882.77 -446.97 177.43 320.67 473.34 499.36 409.53 546.01 803.89 910.04 920.55 626.54 674.78 803.62 1177.10 1246.12 1230.89 1123.47 1037.20 1035.75 1028.48 966.91 904.49 909.08 880.30 778.44 669.88 668.05 611.45 614.61 622.91 700.58 807.85 778.04 720.78 583.79 456.12 407.38 388.84 340.33 300.82 250.46 241.17 216.49 194.46 189.26 188.67 188.18 190.21 193.41 192.34 190.16 200.58 204.66 204.91 203.37 202.53 202.50 202.11 201.78 201.07 200.44 203.14 204.79 205.86 214.32 226.72 236.17 240.16 243.59 247.56 256.30 269.71 282.90 291.15 305.12 326.36 390.90 1113.26 1696.72 2920.90 4595.13 7232.92 8206.85 4778.82 2825.30 2257.08 936.55 323.83 219.48 141.86 19.48 -338.65 -759.66 -1892.86 -2290.83 -2514.95 -3103.63 -3360.46 -3679.56 -3850.51 -3861.40 -3872.00 -3882.32 -3882.95 -3883.57 -3883.20 -3882.59 -3878.37 -3874.39 -3873.60 -3872.71 -3871.76 -3870.62 -3870.69
-5841.19 -5841.46 -5842.36 -5844.20 -5847.48 -5849.72 -5854.50 -5860.31 -5866.16 -5871.71 -5876.98 -5874.09 -5857.30 -5821.57 -5775.23 -5481.61 -5121.56 -4337.30 -3762.42 -3245.62 -3055.49 -1846.01 -1654.63 -1320.94 -854.68 -470.93 -379.81 -0.17 336.41 570.37 659.55 613.71 474.52 482.87 635.99 895.78 938.26 871.05 737.18 977.86 1067.26 1210.53 1235.50 1204.80 1093.05 997.19 941.18 905.81 859.03 836.82 786.51 753.36 699.63 652.28 615.95 617.58 670.63 736.08 716.63 615.87 562.91 510.45 467.90 422.72 393.27 350.77 294.01 253.09 240.78 231.80 205.75 188.61 188.31 188.05 188.05 189.89 191.14 194.07 203.71 203.05 203.63 202.97 203.18 201.54 201.23 201.07 200.48 199.93 200.90 204.92 205.11 210.31 222.94 235.36 238.57 243.03 245.64 253.35 273.20 279.22 301.12 310.15 332.46 371.96 749.29 2415.47 3887.83 5604.63 7338.32 7634.55 5546.07 3919.25 2374.64 1116.85 297.05 210.45 154.33 63.31 -296.43 -970.80 -1815.80 -2361.55 -2550.52 -3193.97 -3598.21 -3791.73 -3841.66 -3860.42 -3861.32 -3872.19 -3883.21 -3882.71 -3882.53 -3881.48 -3876.75 -3874.24 -3872.20 -3871.40 -3870.49 -3869.53 -3869.61
-5841.16 -5841.09 -5843.29 -5844.78 -5846.80 -5849.90 -5855.01 -5861.41 -5869.83 -5871.27 -5860.08 -5822.17 -5764.81 -5526.03 -5039.18 -4508.04 -3728.46 -3278.26 -2634.37 -2043.19 -1501.13 -1275.25 -1189.52 -1009.93 -491.84 -90.16 151.20 266.62 455.67 677.03 751.06 734.83 574.57 621.98 720.38 784.48 969.58 1054.15 926.09 1054.16 1202.21 1236.21 1243.21 1176.66 1056.22 1009.33 932.13 849.12 811.36 805.80 757.27 732.00 707.05 671.79 650.64 657.32 682.09 720.04 669.14 580.62 556.50 599.71 491.84 421.46 391.04 364.22 298.04 259.60 254.04 231.72 211.36 189.24 190.30 188.20 188.04 189.19 194.72 200.41 202.53 202.14 202.14 203.43 202.30 200.01 199.98 199.71 199.39 199.12 199.87 206.85 206.82 211.35 221.08 231.92 238.36 243.46 243.75 250.92 274.83 279.66 292.41 311.24 341.15 366.61 663.51 1723.17 3034.02 5166.28 7517.91 6226.83 3860.00 3317.15 1992.40 1088.24 298.05 244.41 160.25 15.99 -199.92 -732.24 -1213.20 -1985.69 -2578.96 -3003.83 -3592.64 -3756.25 -3854.31 -3867.30 -3869.12 -3874.52 -3881.76 -3881.59 -3881.52 -3879.96 -3875.85 -3872.61 -3871.50 -3870.61 -3870.01 -3868.62 -3868.50
-5850.05 -5849.97 -5851.46 -5851.78 -5852.92 -5856.88 -5864.73 -5871.74 -5876.98 -5869.00 -5826.58 -5679.28 -5263.93 -5067.12 -4475.47 -3680.78 -3094.64 -2377.86 -1897.49 -1626.25 -1225.70 -1115.68 -1017.66 -954.51 -570.86 110.81 227.68 285.20 357.24 536.82 714.20 834.29 636.79 609.05 880.39 835.53 997.14 1131.63 1094.71 1054.81 1131.81 1227.30 1192.78 1112.93 1004.71 923.91 835.33 817.63 789.12 786.49 760.75 730.99 722.17 693.79 690.00 718.15 738.95 763.64 697.02 609.33 740.64 779.02 579.47 477.93 419.64 350.98 319.00 287.64 262.85 239.50 214.17 191.21 191.73 188.27 189.68 190.51 194.57 195.71 197.50 199.64 199.11 199.68 199.16 199.31 199.07 198.42 198.18 198.10 200.91 206.53 207.26 211.71 220.32 229.67 240.44 243.54 243.89 245.76 256.07 262.00 273.49 278.29 327.57 379.16 1388.64 2685.10 3414.22 6042.44 7555.74 6919.44 4330.91 3682.97 1270.29 597.45 311.84 241.28 167.72 62.73 -114.51 -492.06 -794.09 -1518.78 -2046.24 -2942.06 -3435.14 -3729.06 -3856.42 -3877.92 -3879.01 -3879.44 -3880.03 -3879.60 -3879.64 -3880.14 -3875.80 -3872.20 -3870.62 -3869.95 -3868.52 -3867.31 -3867.39
-5866.56 -5866.47 -5865.00 -5864.74 -5869.74 -5873.58 -5879.88 -5886.02 -5887.28 -5898.12 -5811.33 -5501.61 -4851.90 -4063.50 -3195.01 -2948.14 -2575.32 -2279.04 -1844.95 -1528.65 -1223.27 -1043.30 -961.44 -883.18 -533.94 29.55 219.74 292.66 438.69 622.26 809.78 893.18 795.69 742.07 655.81 848.86 1061.82 1166.12 1210.77 1202.51 1179.86 1203.08 1124.82 1098.22 985.75 939.06 811.03 785.11 755.92 746.15 721.76 714.13 705.79 701.74 722.54 743.39 760.31 816.41 787.20 731.45 938.91 861.16 763.94 586.46 430.46 359.88 310.10 282.02 254.65 250.28 216.50 195.57 189.99 188.64 189.50 190.48 191.27 191.92 191.91 195.17 198.62 198.16 198.19 198.41 198.34 197.82 197.53 198.95 203.99 206.55 207.97 210.86 221.19 230.33 238.41 243.78 245.80 249.71 253.72 249.57 266.48 273.80 295.25 523.94 2297.06 3093.71 5178.46 6121.88 7717.01 6068.75 4395.64 4605.39 1887.33 512.00 261.14 240.39 226.12 75.02 -82.15 -424.59 -866.53 -1571.49 -2043.76 -3100.78 -3608.44 -3806.98 -3864.28 -3877.79 -3876.87 -3877.99 -3877.77 -3877.63 -3876.99 -3877.01 -3874.96 -3870.91 -3869.59 -3868.91 -3867.63 -3866.29 -3866.37
-5893.50 -5892.46 -5890.64 -5888.66 -5892.44 -5895.31 -5936.72 -5946.00 -5944.29 -5957.28 -5748.49 -5422.81 -4459.63 -3708.34 -3150.46 -2905.17 -2723.08 -2411.76 -2000.06 -1502.68 -1240.46 -1072.23 -1008.99 -888.72 -426.21 11.83 299.90 458.54 577.70 657.59 713.10 818.16 906.18 960.84 847.37 829.99 1037.69 1147.06 1227.46 1227.99 1243.45 1218.19 1116.23 998.59 932.92 864.45 800.61 762.56 742.34 719.47 712.08 689.81 678.53 715.60 755.33 796.34 822.84 902.50 875.37 755.41 1010.04 1185.79 880.91 685.26 590.20 619.23 319.99 278.67 255.10 251.55 223.11 197.63 194.44 192.92 189.82 190.43 191.06 192.60 192.93 194.29 195.79 197.68 198.58 198.33 198.55 198.23 198.17 200.96 203.14 204.44 206.23 212.86 223.18 230.52 237.86 241.76 244.40 246.83 250.33 253.29 263.43 278.85 290.96 740.65 1769.62 2782.37 4674.24 5966.30 7364.69 5446.83 2936.92 3971.50 1478.98 297.80 258.85 239.34 181.14 109.09 -181.51 -433.93 -1024.54 -1495.80 -2172.31 -3036.60 -3450.09 -3789.81 -3874.82 -3875.90 -3875.44 -3875.44 -3876.42 -3876.57 -3876.25 -3876.39 -3874.36 -3870.38 -3869.24 -3867.90 -3866.52 -3865.38 -3865.46
-5957.18 -5957.05 -5956.94 -5947.61 -5942.76 -5946.43 -5948.68 -5940.92 -5956.56 -5728.56 -5418.14 -4968.29 -4402.29 -3669.86 -3378.41 -3194.93 -3079.24 -2809.52 -2201.33 -1530.26 -1228.91 -1111.95 -1042.94 -849.63 -255.62 150.96 246.67 329.33 373.63 477.00 593.66 740.16 902.14 1042.71 1034.51 950.17 969.20 1014.95 1103.41 1196.46 1235.01 1109.56 1028.88 1067.19 1028.08 923.74 838.12 739.70 715.13 710.74 681.47 648.90 674.82 709.04 814.62 827.09 900.63 993.04 1005.03 865.93 974.56 1144.57 922.59 737.27 829.31 736.86 432.63 321.70 270.10 251.10 246.42 230.54 196.11 190.51 189.61 190.12 190.70 192.89 193.39 194.21 194.79 196.63 197.40 196.93 196.87 196.65 198.68 202.48 197.79 199.16 204.40 214.11 222.51 230.80 236.71 241.02 243.77 243.89 245.65 263.33 268.63 279.40 471.41 863.10 1990.44 2460.18 4283.83 7912.60 7718.79 4409.20 1864.35 1130.17 762.56 286.49 246.46 233.91 171.97 107.16 -171.35 -520.78 -1007.57 -1569.60 -2565.88 -3191.36 -3449.09 -3793.76 -3850.59 -3873.38 -3875.47 -3874.82 -3875.10 -3876.26 -3876.10 -3875.27 -3873.21 -3870.22 -3867.90 -3867.21 -3865.54 -3864.53 -3864.61
-6086.47 -6082.44 -6015.07 -5906.52 -5883.64 -5879.07 -5792.09 -5554.34 -5424.85 -5170.08 -4724.26 -4204.05 -4131.27 -3823.77 -3804.28 -3543.79 -3458.51 -3162.31 -2475.93 -1697.13 -1182.60 -1054.49 -959.35 -619.48 -194.10 181.63 251.62 312.40 495.39 573.30 718.57 802.89 906.76 1028.37 1113.70 1120.76 1164.22 1136.73 1142.01 1210.22 1212.13 1154.62 1023.28 914.30 842.74 869.56 759.83 698.54 696.52 677.24 659.88 621.97 652.10 716.46 837.56 854.68 957.84 1067.36 1095.69 1013.55 991.43 1113.12 1004.85 923.32 959.70 773.34 598.42 333.29 307.21 252.08 246.51 239.29 209.62 194.51 189.06 189.41 189.47 191.63 193.74 192.50 194.32 196.11 195.77 195.74 195.72 195.46 194.55 195.35 197.45 200.72 207.26 217.30 223.96 230.29 235.92 239.37 242.60 243.66 246.33 254.00 258.74 380.21 648.86 2304.80 3372.61 4149.92 6062.31 8263.55 8221.50 4412.25 2588.43 1982.83 756.08 283.32 241.44 227.27 167.68 56.87 -265.86 -570.67 -1032.47 -1765.80 -2445.72 -3033.51 -3514.89 -3817.18 -3849.01 -3866.55 -3875.52 -3875.94 -3875.06 -3874.80 -3874.38 -3875.05 -3874.34 -3869.51 -3867.44 -3866.22 -3865.14 -3863.71 -3863.79
-5928.40 -5928.51 -5629.82 -5546.35 -5445.63 -5193.56 -5037.78 -4751.92 -4493.59 -4310.91 -4277.73 -4095.12 -4013.00 -4013.65 -4020.59 -3966.53 -3807.08 -3342.04 -2597.81 -2005.20 -1137.12 -714.21 -725.28 -476.91 45.18 244.38 270.65 321.15 521.63 587.99 586.52 600.97 737.86 868.25 1096.89 1182.21 1242.49 1235.93 1203.54 1165.17 1188.27 1190.59 1148.60 1021.38 883.31 747.39 712.20 681.92 675.20 651.37 631.00 618.78 629.20 664.61 712.50 777.27 873.33 1039.29 1136.80 1109.55 1056.55 1150.50 1165.78 1069.74 846.52 549.72 512.99 389.65 324.04 274.96 254.37 246.05 235.28 200.23 189.29 195.76 200.28 191.69 192.48 192.75 195.71 196.54 196.05 195.70 195.20 194.71 193.74 194.94 199.55 203.49 210.57 218.31 224.24 229.57 234.67 238.32 241.49 243.59 247.98 253.98 303.87 547.06 1414.82 2229.24 3227.82 5220.82 6556.29 7594.05 6617.35 4609.10 3055.62 2039.57 385.57 266.07 240.94 218.73 173.43 47.79 -187.36 -595.25 -1085.14 -1708.41 -2395.51 -3090.05 -3511.01 -3769.43 -3835.80 -3837.17 -3855.61 -3877.53 -3874.90 -3874.03 -3873.74 -3874.69 -3873.74 -3869.36 -3866.48 -3865.68 -3863.78 -3862.94 -3863.02
-4951.04 -4952.37 -4905.47 -4681.40 -4704.22 -4331.80 -4289.60 -4156.90 -4136.70 -4086.92 -4069.75 -4063.18 -4078.79 -4089.40 -4083.76 -4085.56 -3989.34 -3670.82 -2827.74 -2212.18 -1396.59 -748.13 -459.48 -179.21 170.80 272.85 296.54 332.22 398.73 433.43 466.86 603.52 741.36 757.37 885.14 1051.87 1187.16 1224.30 1142.58 1058.63 1145.88 1148.87 1090.80 1007.67 820.42 675.95 651.34 648.22 644.27 620.55 616.66 616.71 614.30 644.02 656.09 792.19 851.41 1055.90 1111.46 1146.22 1121.07 1173.70 1125.32 865.82 726.27 717.19 683.39 527.48 375.40 321.80 258.74 251.66 227.72 213.24 216.10 208.63 193.90 189.68 191.62 196.00 197.84 197.09 193.41 195.76 195.93 194.33 193.61 194.60 197.19 207.14 212.58 217.80 225.64 230.40 234.80 237.03 240.92 246.94 256.77 265.70 445.19 1196.74 2158.78 2168.67 3462.49 5862.57 6816.10 5787.79 5767.93 3379.54 3118.26 910.59 365.75 261.61 241.77 215.78 182.60 81.12 -112.80 -653.23 -1032.08 -1691.04 -2431.70 -3176.71 -3608.80 -3819.19 -3844.22 -3838.46 -3849.56 -3877.65 -3874.20 -3872.68 -3871.95 -3872.67 -3871.48 -3868.81 -3865.99 -3864.55 -3863.37 -3862.22 -3862.31
-4175.21 -4176.52 -4213.48 -4262.85 -4171.73 -4117.41 -4078.55 -4061.89 -4070.84 -4083.41 -4084.40 -4093.85 -4103.80 -4113.71 -4119.78 -4127.09 -4103.85 -3911.09 -3517.66 -2534.48 -1534.21 -848.05 -201.00 49.43 218.10 267.00 311.29 334.66 336.59 501.23 606.95 789.53 958.22 1068.42 1089.27 1132.56 1179.11 1211.38 1158.49 939.57 1115.21 1103.76 982.03 900.42 800.81 637.21 617.16 616.61 609.42 601.69 607.09 597.90 583.83 608.32 641.22 750.73 886.66 923.23 1008.08 1013.55 1142.43 1176.49 1142.52 950.12 1075.57 1002.32 768.06 548.87 420.55 356.16 311.66 258.82 249.73 222.42 204.47 196.52 190.59 186.54 188.67 196.96 195.76 192.68 191.67 194.36 195.70 194.00 192.40 193.04 198.16 202.97 211.71 214.91 223.98 232.11 236.36 238.35 242.67 246.78 263.62 383.64 616.61 1529.10 3080.21 3135.19 5064.92 6333.57 5628.98 3677.64 4496.19 2305.44 1502.63 562.54 267.20 254.71 242.88 227.92 181.66 69.36 -148.68 -440.95 -929.51 -1579.20 -2197.54 -3297.27 -3605.91 -3836.72 -3847.03 -3840.37 -3849.01 -3870.23 -3873.32 -3871.98 -3871.88 -3871.29 -3869.95 -3867.81 -3865.10 -3864.25 -3862.75 -3861.52 -3861.61
-4097.50 -4097.54 -4109.67 -4104.79 -4101.96 -4098.33 -4095.76 -4099.38 -4100.85 -4100.50 -4103.58 -4108.33 -4117.75 -4123.61 -4133.46 -4142.05 -4112.69 -3999.79 -3723.83 -2481.08 -2132.83 -1206.89 -388.13 -12.96 217.34 265.41 309.76 334.66 377.13 470.83 669.22 834.40 995.91 1067.52 1189.71 1093.00 1126.69 1221.02 1130.23 995.32 1075.76 1107.51 929.45 779.76 730.24 601.39 602.69 603.40 584.43 581.09 569.44 552.84 561.40 595.74 605.37 658.85 682.26 728.38 842.27 994.22 1175.51 1173.75 1123.10 1136.63 1225.04 1105.29 784.28 754.23 591.87 487.71 398.72 313.44 292.26 229.63 227.11 217.40 218.98 200.07 187.65 194.35 192.09 194.44 197.83 197.42 194.67 191.93 191.20 191.76 195.06 202.97 206.54 217.92 222.72 230.14 235.42 242.20 242.59 251.95 277.33 468.59 1358.03 2099.44 3138.45 4919.42 7619.74 6759.94 5207.59 3225.65 2037.20 1876.64 950.94 347.17 279.79 253.54 247.40 225.11 160.73 18.26 -197.18 -544.92 -986.48 -1745.14 -2469.95 -3343.17 -3768.64 -3832.43 -3850.70 -3850.27 -3869.93 -3874.41 -3871.22 -3871.38 -3872.18 -3871.70 -3869.45 -3867.65 -3864.43 -3863.23 -3862.27 -3860.85 -3860.95
-4152.23 -4151.84 -4149.43 -4141.35 -4140.92 -4136.39 -4130.06 -4120.54 -4120.77 -4117.70 -4115.85 -4117.23 -4124.43 -4132.06 -4137.31 -4143.39 -4123.29 -4060.06 -3660.40 -2865.12 -1754.40 -1079.96 -434.90 77.98 192.17 253.32 302.88 321.15 349.54 365.62 542.52 695.97 783.58 1023.15 1103.55 866.34 994.72 1089.57 995.94 826.36 884.92 1021.38 906.85 859.82 646.02 588.61 592.37 579.64 568.25 555.34 543.17 532.84 545.93 587.28 606.08 608.12 693.83 881.30 1067.88 1146.09 1152.76 1152.79 1092.39 1062.99 1080.45 1045.99 991.35 909.30 801.28 783.09 680.59 500.74 311.09 265.18 248.98 216.55 214.10 199.52 188.15 189.63 192.87 197.47 195.15 192.75 189.88 190.35 190.25 190.90 194.21 200.97 207.74 216.43 222.57 231.14 236.92 242.59 247.36 257.36 325.83 1001.28 2577.31 3414.70 4985.22 6297.35 9051.48 7465.08 5346.40 2853.07 2277.68 1033.69 522.45 346.28 270.91 253.69 244.12 231.63 195.09 31.77 -156.83 -579.89 -1253.59 -1670.15 -2663.93 -3297.88 -3755.09 -3817.93 -3868.05 -3871.56 -3873.83 -3870.35 -3869.68 -3869.39 -3870.56 -3871.11 -3870.32 -3867.06 -3863.94 -3862.54 -3861.59 -3860.26 -3860.36
-4175.85 -4175.72 -4170.40 -4166.80 -4158.97 -4149.77 -4143.10 -4144.51 -4134.49 -4129.85 -4129.94 -4127.38 -4129.72 -4132.49 -4138.41 -4138.50 -4115.33 -3911.29 -3510.94 -2812.97 -1881.82 -1173.02 -665.70 -55.54 71.51 240.47 273.96 300.89 325.64 371.26 524.57 440.77 558.34 942.79 1024.71 782.76 696.10 876.25 773.28 643.23 801.49 976.63 872.81 762.49 649.39 555.74 562.82 542.26 530.26 527.48 524.31 520.58 528.25 572.11 598.77 613.12 657.84 850.71 946.94 1122.46 1129.25 1119.03 1114.51 964.63 982.51 1115.05 1158.43 1181.68 993.08 964.33 841.82 664.80 474.57 270.36 257.05 246.59 224.50 193.09 188.76 186.37 195.65 196.72 191.61 190.17 189.46 189.11 189.47 191.46 193.35 199.22 208.45 218.62 225.94 233.06 240.62 244.50 252.83 266.27 425.60 1573.90 2958.66 3652.63 6662.94 7973.98 7550.83 5431.23 3407.19 3293.47 1784.93 476.93 311.11 282.82 255.99 248.27 237.45 203.51 174.40 23.03 -184.15 -539.27 -1232.52 -1971.90 -3015.85 -3335.21 -3812.68 -3820.67 -3860.13 -3875.33 -3864.44 -3865.16 -3868.88 -3869.16 -3868.61 -3868.05 -3867.60 -3866.01 -3863.20 -3861.90 -3861.03 -3859.72 -3859.82
-4196.41 -4196.41 -4191.16 -4182.46 -4177.58 -4168.30 -4156.60 -4152.10 -4141.93 -4135.51 -4135.45 -4133.80 -4131.22 -4132.63 -4135.97 -4127.50 -4047.10 -3771.00 -3323.20 -2528.69 -1286.19 -896.28 -627.95 -540.03 -247.17 128.01 217.05 295.56 313.23 314.17 366.88 473.77 678.50 816.04 941.84 760.44 573.46 846.54 729.03 577.76 654.96 816.96 749.01 614.52 523.66 499.59 514.68 506.75 509.85 509.81 503.50 507.62 520.61 556.32 580.07 611.27 648.40 693.11 898.84 998.59 1110.63 1119.92 1151.25 1025.33 893.48 996.31 1046.58 1103.13 1046.51 1063.81 921.85 725.40 505.47 290.80 260.20 251.60 238.79 223.78 228.97 195.26 189.60 196.54 195.24 189.37 188.27 188.57 189.05 189.43 192.03 198.90 210.50 223.33 229.47 236.07 241.41 248.50 261.48 489.82 992.32 1536.49 2107.16 4710.77 6152.66 7768.19 6070.99 3463.21 2854.45 2628.17 961.77 307.24 275.04 262.01 251.47 245.37 233.65 196.72 100.84 11.01 -260.45 -710.68 -1233.45 -2039.57 -2898.08 -3334.03 -3753.27 -3827.06 -3842.82 -3868.27 -3857.38 -3857.54 -3858.97 -3863.55 -3867.33 -3868.12 -3866.96 -3865.18 -3862.54 -3861.14 -3860.45 -3859.24 -3859.34
-4209.48 -4209.42 -4204.78 -4194.82 -4188.63 -4180.29 -4169.50 -4162.97 -4156.55 -4147.69 -4138.81 -4133.26 -4130.34 -4129.00 -4127.89 -4101.44 -3989.89 -3651.21 -2728.38 -1743.95 -1069.07 -704.28 -659.53 -641.48 -496.07 -39.58 134.73 265.76 311.94 313.71 314.49 456.65 552.56 676.02 701.95 446.42 461.80 697.36 756.22 555.94 511.99 604.92 567.19 525.34 516.18 477.43 490.53 491.54 489.81 489.30 488.71 484.38 488.72 544.90 559.06 602.51 632.34 728.80 874.97 951.39 975.09 1061.23 1067.80 1042.75 887.91 834.59 930.68 968.56 829.43 777.35 825.69 730.13 485.34 403.86 304.97 293.91 254.83 245.34 247.06 206.02 177.51 190.74 189.61 187.39 187.70 188.17 188.33 188.29 190.60 200.16 208.23 220.06 234.46 239.36 247.51 260.27 390.39 591.78 2191.46 2135.73 3335.11 5272.55 7537.26 7078.83 4073.06 4026.91 2307.75 1890.56 708.62 302.85 259.29 254.00 253.06 243.71 224.98 156.87 42.09 -37.92 -386.77 -947.09 -1494.76 -2065.92 -2951.95 -3412.63 -3756.84 -3843.48 -3852.62 -3865.14 -3859.15 -3858.51 -3860.47 -3860.81 -3864.24 -3869.40 -3868.77 -3864.87 -3861.97 -3860.85 -3860.03 -3858.84 -3858.93
-4219.30 -4219.22 -4212.62 -4206.28 -4196.18 -4188.87 -4173.41 -4164.61 -4158.81 -4151.37 -4142.62 -4132.89 -4127.73 -4124.32 -4121.81 -4088.18 -3940.19 -3480.97 -2257.30 -1583.27 -1032.15 -667.74 -588.10 -623.39 -578.24 -444.06 -176.71 151.27 291.86 313.40 315.94 362.90 405.46 602.37 570.65 419.82 373.87 468.14 562.07 530.88 398.08 411.42 457.23 428.62 412.92 445.83 475.96 478.59 478.72 479.40 479.36 479.08 492.68 549.60 563.78 593.10 639.72 740.95 930.72 952.50 874.36 983.73 957.72 888.85 908.52 764.63 905.89 945.20 830.00 659.61 735.68 689.24 525.69 410.95 382.39 328.06 259.46 273.27 286.71 290.75 174.28 217.18 186.61 186.38 186.95 187.10 187.80 188.75 193.66 199.93 210.57 226.78 245.10 247.21 254.28 283.03 463.30 1821.06 3239.57 4314.18 5427.63 7744.22 8165.44 5812.20 2989.94 2102.28 1799.91 1161.09 442.88 296.91 255.78 254.01 250.22 243.18 210.50 118.08 20.77 -234.95 -528.85 -1167.78 -1709.72 -2267.98 -2926.75 -3468.76 -3741.22 -3853.71 -3862.08 -3865.69 -3861.86 -3860.33 -3861.53 -3861.97 -3862.31 -3864.12 -3865.83 -3863.00 -3861.16 -3860.30 -3859.49 -3858.51 -3858.60
-4225.48 -4225.40 -4217.70 -4210.90 -4203.82 -4193.21 -4180.04 -4171.53 -4164.71 -4153.06 -4140.49 -4132.10 -4124.17 -4115.04 -4111.42 -4071.17 -3892.69 -3565.89 -2470.84 -1703.95 -1140.53 -741.73 -589.42 -550.74 -546.72 -668.12 -549.01 134.86 218.50 282.85 295.14 308.93 368.45 465.14 492.08 400.15 348.42 357.99 423.09 404.78 362.74 367.53 386.28 403.60 414.33 437.22 471.57 477.07 478.44 482.97 484.82 519.65 540.91 553.02 580.44 613.47 720.51 780.68 868.17 868.14 816.59 886.00 930.82 805.76 898.01 801.60 794.50 732.88 745.41 601.95 638.66 616.35 529.08 462.64 454.30 474.61 433.81 423.90 398.30 303.50 252.41 225.69 185.88 186.03 186.18 186.43 186.78 188.07 192.85 204.83 216.35 233.64 249.48 255.79 272.83 325.41 898.93 2366.54 3071.07 4902.80 7104.42 8239.63 6852.97 5880.84 3905.94 2079.05 1428.57 444.31 354.05 300.09 251.10 252.99 250.57 244.06 227.40 168.23 44.62 -337.56 -771.34 -1285.76 -1871.82 -2567.37 -3042.84 -3628.67 -3841.37 -3858.51 -3863.09 -3865.90 -3867.09 -3866.66 -3863.67 -3862.15 -3865.75 -3868.01 -3867.70 -3862.16 -3860.91 -3860.05 -3859.14 -3858.25 -3858.34
-4228.87 -4228.78 -4221.81 -4216.07 -4208.16 -4196.13 -4185.95 -4174.14 -4164.64 -4153.32 -4140.15 -4128.08 -4117.93 -4110.01 -4100.04 -4076.10 -3964.42 -3787.48 -3113.90 -2515.85 -1535.42 -1031.70 -730.76 -555.74 -541.15 -607.53 -637.84 -478.91 -110.80 139.16 243.12 297.69 326.61 397.37 355.39 304.78 318.07 298.42 327.62 337.36 334.91 353.78 370.14 388.25 404.84 412.37 457.16 469.78 475.46 484.26 504.56 531.67 568.12 632.09 668.94 713.53 799.32 942.63 882.22 793.25 752.96 757.91 771.14 710.17 717.31 741.39 626.78 662.20 668.70 573.39 580.15 594.81 565.51 518.46 463.84 421.40 397.94 393.71 381.35 336.04 235.09 203.63 184.97 185.33 185.32 186.00 186.22 188.02 194.93 213.99 223.58 242.29 252.43 294.02 318.28 1106.36 2149.59 2356.48 3757.73 6386.38 6678.27 6612.82 5509.86 4575.26 3036.57 2004.42 738.87 319.73 326.07 300.20 261.50 253.19 253.22 242.31 220.51 137.73 37.10 -122.43 -459.06 -887.73 -1575.01 -2444.93 -3191.38 -3602.73 -3848.07 -3855.42 -3858.98 -3866.82 -3867.81 -3868.79 -3869.48 -3868.22 -3871.77 -3871.85 -3867.36 -3862.44 -3860.49 -3859.65 -3858.78 -3858.08 -3858.17
-4229.90 -4229.43 -4225.05 -4216.75 -4207.37 -4200.15 -4188.55 -4176.10 -4163.98 -4151.73 -4135.34 -4126.01 -4111.36 -4100.25 -4093.74 -4072.11 -3999.21 -3813.60 -3417.11 -2966.63 -2469.95 -1594.65 -1029.81 -624.52 -520.49 -514.96 -559.44 -596.02 -372.45 -24.04 180.76 213.96 271.95 303.37 283.15 267.23 293.42 286.35 284.86 305.34 309.71 324.13 344.53 366.37 380.68 390.31 447.39 446.47 469.00 492.01 512.14 564.21 586.21 671.67 698.90 862.04 1010.29 1021.91 886.81 744.90 722.16 686.63 680.97 673.59 653.67 629.94 601.38 606.44 584.73 545.04 501.32 515.80 472.68 401.44 361.31 345.30 318.26 324.69 267.66 206.27 191.77 189.51 184.14 184.30 184.06 184.52 186.36 187.33 192.25 216.14 231.50 274.41 298.37 339.58 802.54 1509.52 2689.16 2951.05 3940.20 7643.42 7157.48 4568.20 2638.47 3387.17 2521.54 1345.23 556.17 281.83 276.89 272.74 260.96 252.80 254.75 238.76 201.99 126.60 -16.41 -162.34 -476.93 -1032.63 -1656.79 -2630.47 -3442.05 -3753.30 -3851.44 -3846.26 -3854.80 -3866.45 -3867.72 -3868.89 -3869.61 -3870.37 -3870.78 -3871.00 -3867.51 -3861.80 -3859.94 -3859.39 -3858.65 -3857.99 -3858.08
-4228.58 -4228.49 -4224.55 -4217.34 -4209.17 -4199.18 -4186.27 -4174.68 -4164.85 -4148.66 -4132.35 -4120.28 -4104.20 -4095.60 -4079.12 -4070.17 -4039.74 -4004.61 -3806.16 -3660.15 -2999.12 -2071.59 -1372.13 -813.85 -555.96 -482.73 -506.36 -537.74 -490.22 -192.68 -9.06 72.75 13.59 202.39 252.94 262.22 274.76 274.64 269.85 274.42 281.01 292.24 309.10 335.27 359.95 389.28 420.63 437.37 438.67 491.49 569.43 690.29 694.11 837.86 849.60 992.75 1070.45 974.35 869.07 815.00 745.03 669.57 650.52 606.81 590.21 576.87 573.32 535.94 494.37 481.31 454.99 430.97 413.57 349.79 325.23 315.16 298.28 245.35 224.28 184.25 188.24 183.81 182.62 182.87 183.19 184.23 187.15 188.79 194.98 218.28 234.72 269.40 357.37 669.89 1089.23 2087.95 2364.86 3243.70 5431.90 7287.92 6920.09 3880.96 2091.46 1390.14 1629.24 769.38 287.11 281.53 273.74 257.32 253.93 254.86 256.33 237.19 206.05 133.36 19.63 -136.39 -476.41 -737.83 -1567.49 -2509.19 -3380.38 -3832.73 -3838.48 -3841.99 -3865.60 -3868.35 -3867.96 -3869.67 -3870.35 -3870.79 -3868.54 -3866.48 -3864.90 -3861.16 -3859.88 -3859.22 -3858.72 -3857.97 -3858.05
-4224.88 -4224.18 -4221.46 -4212.74 -4207.15 -4197.45 -4184.16 -4173.25 -4161.36 -4143.27 -4124.89 -4114.39 -4097.45 -4083.46 -4072.86 -4061.05 -4048.02 -4026.97 -3968.27 -3724.28 -3506.41 -2743.89 -1384.82 -955.68 -574.16 -485.68 -480.94 -494.63 -520.00 -361.63 -212.11 -291.41 -68.12 164.57 212.89 237.89 262.11 263.82 256.01 259.94 260.63 266.36 288.11 327.25 357.24 394.20 415.49 431.77 463.25 490.23 552.52 669.13 694.09 809.23 859.78 1025.51 1093.97 1039.12 919.71 760.44 690.12 649.33 627.97 570.66 552.61 553.44 544.34 525.86 492.28 461.95 434.60 394.76 366.64 332.70 318.59 303.89 283.23 219.90 189.37 184.91 183.47 179.37 179.82 181.21 180.75 182.34 186.96 198.05 205.54 221.56 242.37 282.42 421.43 815.99 2479.09 3504.43 4343.56 5187.35 6483.46 6646.18 5507.12 3754.31 3236.97 1805.79 766.02 535.45 279.67 275.87 269.31 258.98 257.16 255.86 249.23 237.66 204.68 140.40 35.90 -75.69 -335.70 -629.31 -1298.87 -2751.72 -3432.34 -3827.74 -3838.17 -3859.15 -3867.74 -3868.10 -3866.56 -3869.17 -3871.61 -3872.03 -3870.89 -3866.14 -3864.10 -3860.53 -3860.01 -3859.09 -3858.63 -3858.01 -3858.09
-4219.67 -4219.59 -4216.13 -4209.42 -4199.80 -4192.32 -4183.04 -4170.45 -4155.34 -4141.88 -4125.22 -4106.02 -4094.56 -4077.42 -4063.25 -4051.63 -4038.99 -4033.11 -4012.19 -3907.91 -3718.76 -2917.36 -1967.51 -1234.12 -663.17 -505.22 -471.27 -481.08 -501.37 -526.69 -535.45 -480.50 -155.91 86.39 144.94 185.55 224.45 247.31 248.34 251.43 248.65 252.72 259.86 303.65 318.22 352.46 374.95 399.17 497.61 585.42 561.63 564.81 762.72 862.12 964.71 1035.67 1049.61 952.55 857.75 760.07 743.71 637.97 588.25 552.60 546.49 537.34 521.65 516.38 474.39 446.44 414.75 376.33 357.60 326.24 308.45 280.46 248.32 201.52 188.07 186.45 181.53 178.15 178.93 179.13 179.15 179.88 188.75 195.12 209.63 218.94 241.86 282.76 548.05 1764.36 2206.21 3194.49 4469.48 7084.77 7410.23 6023.91 3513.93 2978.45 3284.01 1200.91 353.91 278.91 273.42 272.38 262.81 262.67 257.83 252.75 243.17 234.80 203.79 143.95 60.05 -77.77 -305.70 -571.28 -1399.67 -2239.13 -3420.55 -3817.69 -3832.01 -3871.33 -3870.81 -3869.07 -3867.95 -3870.82 -3873.43 -3873.54 -3873.23 -3868.52 -3864.28 -3860.74 -3859.71 -3859.12 -3858.68 -3858.14 -3858.22
-4212.87 -4212.79 -4208.67 -4202.18 -4197.15 -4187.57 -4178.41 -4165.39 -4152.57 -4133.27 -4120.26 -4102.34 -4089.76 -4073.81 -4060.98 -4048.63 -4035.01 -4027.21 -3995.06 -3963.79 -3590.74 -2962.13 -1958.30 -1101.91 -567.97 -512.65 -484.04 -521.30 -551.00 -566.84 -620.84 -637.78 -546.47 -82.11 94.06 164.38 186.54 207.89 224.58 222.20 229.69 239.53 249.24 268.75 301.96 319.45 341.64 385.26 486.71 663.94 668.06 715.43 704.55 900.64 1020.73 1066.50 1072.50 994.74 945.82 891.32 780.02 664.36 551.66 548.75 540.07 528.17 497.72 475.77 458.89 438.44 404.45 376.81 340.25 314.89 290.00 267.58 229.03 202.84 182.81 183.49 180.94 177.93 177.70 177.61 177.78 178.78 185.68 202.64 214.87 241.25 258.65 524.93 1539.65 3239.18 2998.57 4889.69 6227.41 7426.80 7857.22 6209.13 3970.61 2243.24 1773.49 428.56 279.63 275.53 271.00 265.05 262.37 256.58 255.39 252.97 243.01 233.80 200.99 144.54 29.19 -82.94 -295.06 -473.73 -937.52 -1719.59 -2944.96 -3653.89 -3816.20 -3869.25 -3868.34 -3868.50 -3867.63 -3872.27 -3873.69 -3874.97 -3874.46 -3871.43 -3862.93 -3860.59 -3859.77 -3859.18 -3858.77 -3858.41 -3858.44
-4204.86 -4204.78 -4201.64 -4194.05 -4189.13 -4178.27 -4170.13 -4159.57 -4148.24 -4133.48 -4116.75 -4102.05 -4089.15 -4071.44 -4055.98 -4044.16 -4030.42 -4019.41 -3983.08 -3887.46 -3360.95 -2882.04 -1806.25 -991.03 -669.34 -717.15 -911.37 -781.75 -780.81 -848.56 -803.86 -859.59 -937.41 -279.79 -220.67 22.91 117.97 160.16 172.64 185.44 207.65 220.01 236.22 253.51 275.67 298.92 399.57 444.55 446.59 592.56 729.10 863.25 771.52 865.66 1022.48 1074.55 1013.88 982.76 927.31 839.22 750.52 622.38 543.43 530.17 524.74 510.27 473.83 466.87 445.22 416.91 387.44 359.34 338.52 317.38 285.02 264.04 193.28 179.31 175.30 176.42 182.05 177.76 176.40 176.19 176.39 182.36 188.71 205.80 227.10 240.61 289.32 634.53 1045.64 2294.60 3754.70 5371.16 8643.49 8061.29 6587.66 5289.92 3070.65 2886.75 2358.36 313.82 276.14 266.23 261.34 256.83 254.45 253.43 252.36 244.70 236.84 221.40 201.90 154.33 87.52 -103.20 -310.29 -589.90 -1010.97 -1773.12 -3191.60 -3562.15 -3835.61 -3870.20 -3868.72 -3868.53 -3868.99 -3876.27 -3877.01 -3876.09 -3874.74 -3870.59 -3862.80 -3860.91 -3860.05 -3859.49 -3858.98 -3858.65 -3858.72
-4196.15 -4195.14 -4191.24 -4189.01 -4182.02 -4174.79 -4165.65 -4157.27 -4146.01 -4130.12 -4118.11 -4103.59 -4089.87 -4072.57 -4056.39 -4043.39 -4034.62 -4024.20 -3973.39 -3816.00 -3371.79 -2573.25 -1726.14 -1216.98 -1207.93 -1243.28 -1283.31 -1407.61 -1622.65 -1493.55 -1606.34 -1670.61 -1724.97 -1211.30 -548.10 -66.03 70.23 103.84 118.81 148.51 179.54 194.64 223.08 243.82 258.25 298.13 458.00 648.82 531.23 586.95 795.59 907.32 933.49 978.52 1013.82 1040.48 987.10 855.83 790.68 714.26 698.57 549.41 529.27 515.94 508.70 486.31 473.89 458.17 430.89 400.91 380.71 350.42 331.63 301.83 272.06 245.37 189.91 176.93 174.77 174.43 178.41 179.03 178.04 175.46 175.77 183.81 202.24 214.28 233.91 250.21 357.05 492.75 1521.92 2884.03 4002.60 6509.13 7926.96 6851.26 4665.96 3683.91 1720.10 1676.83 519.75 308.33 271.20 261.96 255.04 254.87 255.03 252.41 247.42 236.48 204.19 199.41 169.58 113.43 29.27 -46.40 -593.28 -1010.05 -1529.96 -2651.52 -3092.45 -3655.62 -3867.78 -3870.97 -3870.28 -3871.46 -3872.17 -3878.23 -3879.50 -3878.97 -3877.69 -3867.69 -3862.70 -3860.76 -3860.15 -3859.86 -3859.37 -3858.99 -3859.06
-4186.90 -4186.82 -4185.41 -4182.12 -4176.56 -4164.38 -4160.41 -4152.68 -4142.92 -4127.31 -4116.98 -4101.90 -4090.18 -4077.79 -4063.40 -4047.61 -4038.75 -4022.25 -4002.25 -3860.48 -3515.86 -2734.05 -2134.04 -1845.55 -1834.72 -2045.06 -2176.64 -2331.05 -2375.28 -2689.55 -2624.41 -2429.98 -2563.29 -1585.33 -656.38 -163.41 -29.77 39.79 59.49 77.92 56.52 76.03 111.06 182.66 222.44 316.91 490.41 677.81 740.89 711.08 807.43 925.24 1061.06 1024.48 1031.67 900.08 970.97 949.15 829.80 655.57 555.31 508.58 507.98 499.86 490.18 471.70 455.61 450.94 413.86 395.85 370.72 345.60 321.20 300.94 275.62 248.58 205.23 184.87 177.14 175.00 175.20 178.29 176.71 174.85 174.95 184.78 208.00 226.55 240.11 251.28 391.84 1448.45 1500.55 3964.29 5530.24 8021.89 8462.42 7594.66 4112.04 2711.19 2993.53 811.97 499.54 319.69 257.90 255.54 255.08 255.08 253.97 250.21 242.80 233.72 194.45 168.38 133.91 36.20 -84.23 -229.97 -869.40 -1560.22 -2067.35 -3048.36 -3649.40 -3746.69 -3868.57 -3868.40 -3868.17 -3874.03 -3878.31 -3881.71 -3882.32 -3880.08 -3876.67 -3869.20 -3862.25 -3861.24 -3860.64 -3860.33 -3859.71 -3859.41 -3859.48
-4176.90 -4176.82 -4175.29 -4171.45 -4166.15 -4162.16 -4153.50 -4147.02 -4139.29 -4126.22 -4117.92 -4103.65 -4092.84 -4078.47 -4066.95 -4055.96 -4048.11 -4034.15 -4018.86 -3889.33 -3683.12 -3324.82 -3013.00 -2904.15 -2848.76 -3330.80 -3410.76 -3389.90 -3557.89 -3469.65 -3539.29 -3547.93 -3437.12 -2124.71 -1093.31 -520.77 -129.44 -46.68 -107.49 -134.87 -76.35 -50.98 35.53 103.88 160.95 259.60 361.85 548.03 733.40 835.88 825.83 1003.08 1074.96 1031.79 900.71 638.99 735.73 854.98 828.70 745.24 707.66 596.42 511.40 494.87 488.05 457.74 445.34 414.68 397.30 387.33 361.71 346.71 320.91 280.86 254.82 237.53 210.65 183.37 174.58 172.74 172.83 174.65 174.53 174.26 174.74 178.68 211.92 230.32 245.64 257.60 585.18 2067.21 2952.91 4012.50 6291.35 9227.15 8484.27 6496.34 4480.52 3667.56 3455.75 671.13 319.23 289.33 257.94 255.32 255.10 254.67 250.14 245.97 236.54 225.54 179.45 147.88 80.10 -8.85 -148.28 -582.57 -1200.84 -2089.47 -2935.57 -3383.11 -3751.69 -3839.32 -3853.35 -3866.36 -3868.69 -3875.35 -3882.56 -3884.82 -3885.24 -3884.71 -3877.54 -3870.00 -3862.74 -3861.57 -3860.96 -3860.65 -3860.30 -3859.92 -3859.99
-4169.42 -4169.34 -4168.02 -4163.80 -4162.09 -4155.80 -4150.64 -4143.05 -4137.90 -4127.34 -4119.42 -4108.48 -4097.22 -4089.02 -4075.72 -4067.22 -4054.37 -4047.43 -4029.78 -4010.07 -3946.06 -3736.63 -3627.98 -3553.22 -3639.84 -3718.24 -3811.61 -3798.91 -3931.83 -3954.72 -4019.05 -3956.14 -3822.05 -3624.55 -2481.34 -1134.82 -314.14 -162.13 -280.15 -289.16 -276.76 -221.65 -103.64 -114.32 149.19 258.81 299.23 465.62 566.01 584.25 739.49 920.83 892.64 860.02 823.94 622.37 595.84 644.95 642.76 728.68 750.04 602.96 526.54 494.51 462.69 453.02 438.64 412.80 391.07 372.52 357.04 345.14 323.05 295.61 279.78 249.13 206.09 179.50 177.74 176.60 175.05 175.55 174.54 174.07 178.56 188.09 201.78 237.15 261.72 357.97 768.77 2428.50 3227.65 5655.88 7929.72 8845.68 7336.44 4795.46 2836.18 2300.43 1725.05 322.39 273.48 257.84 254.37 255.18 252.30 251.81 248.41 239.26 226.77 215.11 169.60 134.79 75.58 -100.87 -520.56 -967.37 -1627.64 -2386.14 -3350.42 -3664.72 -3831.99 -3862.81 -3858.90 -3864.33 -3868.85 -3882.08 -3887.30 -3887.39 -3888.61 -3887.93 -3878.65 -3871.18 -3863.01 -3862.12 -3861.56 -3861.21 -3860.78 -3860.49 -3860.56
-4163.31 -4163.24 -4161.80 -4159.62 -4157.32 -4152.35 -4148.22 -4141.71 -4138.61 -4130.98 -4125.12 -4115.22 -4102.69 -4095.16 -4086.08 -4083.04 -4070.80 -4065.14 -4060.97 -4041.19 -4047.46 -4038.39 -3964.12 -3961.81 -3978.88 -4008.44 -4016.45 -4056.79 -4059.71 -4084.06 -4096.93 -4089.49 -4053.40 -3793.13 -2643.89 -1666.23 -702.13 -516.00 -548.24 -500.37 -406.67 -358.57 -240.51 -129.47 115.74 213.68 250.80 371.10 374.08 542.31 871.14 944.02 827.08 642.00 730.94 587.36 413.43 466.17 443.67 625.30 697.49 675.32 535.54 460.62 459.83 456.68 445.11 418.22 387.65 374.53 358.98 340.38 317.33 305.93 260.76 241.05 201.98 184.95 180.86 177.14 176.39 175.25 174.53 174.16 177.75 191.45 222.38 234.42 283.91 716.17 1343.74 1490.56 3258.07 5490.21 7982.70 7508.76 5237.39 3868.27 3189.37 2617.69 660.60 328.76 269.32 256.18 250.83 249.77 249.28 244.90 241.65 225.48 217.44 190.60 149.99 95.84 -49.68 -151.27 -476.08 -1543.47 -2102.90 -2864.18 -3548.41 -3769.79 -3833.00 -3835.40 -3851.12 -3861.78 -3878.81 -3889.06 -3891.98 -3893.81 -3893.50 -3891.86 -3880.64 -3869.16 -3863.82 -3862.70 -3862.37 -3861.85 -3861.45 -3861.13 -3861.20
-4158.58 -4158.51 -4157.90 -4156.09 -4153.48 -4150.93 -4147.03 -4143.24 -4139.48 -4135.19 -4127.89 -4121.10 -4117.68 -4108.39 -4102.89 -4094.92 -4089.42 -4079.42 -4072.38 -4076.40 -4066.15 -4064.78 -4051.01 -4066.86 -4058.19 -4085.48 -4094.51 -4099.61 -4107.65 -4117.26 -4121.55 -4127.76 -4087.57 -3897.56 -3004.47 -2344.56 -1320.47 -831.38 -693.06 -596.45 -561.32 -466.61 -293.46 -145.93 12.49 219.73 254.27 300.16 433.54 626.78 882.82 792.74 616.40 436.28 530.23 534.90 389.72 347.52 354.72 388.52 511.54 604.39 617.22 490.27 462.41 458.65 443.73 414.32 389.80 380.80 354.48 327.93 318.62 298.23 263.85 237.01 191.84 181.65 179.67 177.77 172.46 173.97 174.41 174.33 184.84 203.63 222.54 246.49 325.20 895.14 2518.68 2974.72 3089.18 5147.12 8735.62 7247.34 6049.54 2919.30 1945.22 1835.13 308.47 290.62 254.90 249.84 247.26 245.20 241.58 228.38 231.72 216.59 186.65 147.12 104.08 -4.01 -175.50 -378.04 -699.99 -1039.45 -2164.86 -2663.65 -3485.28 -3778.98 -3846.29 -3862.87 -3855.12 -3860.63 -3883.95 -3892.53 -3894.33 -3895.40 -3895.87 -3893.94 -3886.29 -3868.16 -3864.28 -3863.50 -3863.12 -3862.55 -3862.10 -3861.86 -3861.93
-4155.48 -4155.41 -4154.47 -4153.70 -4152.30 -4149.80 -4147.93 -4144.42 -4142.43 -4138.11 -4133.88 -4126.64 -4122.28 -4118.86 -4117.21 -4111.85 -4105.72 -4099.28 -4095.71 -4089.38 -4096.60 -4095.80 -4097.55 -4102.15 -4097.65 -4109.45 -4113.08 -4117.78 -4124.24 -4125.64 -4131.26 -4135.69 -4118.34 -4071.56 -3579.85 -2901.97 -1491.35 -1099.18 -778.45 -660.20 -663.47 -616.60 -518.14 -277.10 78.30 219.88 245.28 268.39 411.18 538.54 691.12 712.04 441.19 302.87 381.63 328.30 339.48 301.89 326.12 322.59 368.28 440.78 574.86 569.60 514.83 481.70 441.68 424.67 409.42 379.58 353.34 336.97 313.72 290.11 265.06 237.46 174.94 172.18 173.88 173.11 170.52 172.60 172.86 176.31 198.71 203.25 231.29 267.12 616.25 911.27 2103.91 3192.27 6043.88 7248.97 8604.38 6484.05 5201.57 3357.01 2136.38 1072.24 296.74 257.73 246.74 242.96 238.99 233.34 227.00 209.98 197.29 180.08 163.65 110.54 13.97 -111.03 -237.35 -589.90 -783.16 -1130.06 -1779.62 -2931.73 -3561.89 -3828.45 -3864.67 -3866.75 -3862.73 -3870.59 -3890.29 -3898.25 -3898.15 -3898.30 -3898.42 -3897.44 -3888.62 -3867.80 -3865.18 -3864.65 -3864.07 -3863.41 -3863.05 -3862.66 -3862.73
-4154.91 -4154.85 -4154.49 -4154.16 -4153.43 -4152.99 -4151.64 -4150.69 -4147.56 -4144.91 -4143.24 -4138.26 -4135.80 -4129.12 -4129.83 -4125.80 -4120.75 -4119.52 -4112.88 -4113.50 -4115.69 -4114.49 -4121.28 -4125.81 -4123.68 -4136.13 -4132.90 -4135.83 -4140.51 -4142.32 -4144.71 -4148.04 -4146.47 -4092.04 -3828.92 -3267.49 -2325.62 -1253.63 -911.83 -671.57 -667.46 -689.35 -551.19 -244.23 78.47 219.88 248.01 254.00 320.36 355.46 451.92 456.37 359.87 264.31 262.89 254.63 250.57 256.48 269.50 274.63 284.49 337.79 458.40 636.58 662.45 537.74 440.77 436.38 435.75 394.82 360.59 341.06 309.89 291.33 273.89 204.82 178.58 170.35 169.28 169.61 169.57 170.89 171.55 172.89 198.94 226.77 250.51 285.98 1615.44 2577.01 2523.76 2627.79 6260.81 7769.74 7136.53 3504.57 2563.72 2427.69 1855.36 356.95 284.92 246.14 238.04 232.50 218.63 204.23 205.82 182.77 168.90 147.27 35.33 -74.80 -146.18 -321.24 -605.19 -787.96 -1186.22 -1518.76 -2141.35 -3096.39 -3662.50 -3850.08 -3868.50 -3872.52 -3866.41 -3876.28 -3891.34 -3898.83 -3900.52 -3900.39 -3900.92 -3901.84 -3883.78 -3869.69 -3866.38 -3865.22 -3865.21 -3864.54 -3863.81 -3863.55 -3863.61
-4157.08 -4157.04 -4156.72 -4156.38 -4156.06 -4156.02 -4155.54 -4154.33 -4156.57 -4154.74 -4151.10 -4150.07 -4146.21 -4148.77 -4143.57 -4141.26 -4137.04 -4140.57 -4136.78 -4137.35 -4138.13 -4135.39 -4138.79 -4140.54 -4148.32 -4146.78 -4153.26 -4149.74 -4153.39 -4156.62 -4153.75 -4152.03 -4149.82 -4133.05 -3996.63 -3507.48 -2604.09 -1722.33 -987.95 -697.23 -651.77 -705.17 -541.21 -170.02 64.40 217.01 233.29 249.60 262.98 288.13 317.49 241.17 248.04 241.98 251.22 236.23 231.03 245.31 251.89 261.59 261.39 292.27 417.35 602.52 737.51 683.27 536.50 472.48 465.57 391.36 370.93 337.03 307.17 292.53 272.49 217.53 196.34 184.00 168.69 168.74 167.88 168.71 170.05 171.82 199.47 236.12 264.19 742.31 2123.65 2974.52 4796.04 5497.82 8071.86 8096.90 6201.79 3731.24 1891.93 1500.18 514.36 325.57 251.79 239.07 223.77 208.19 176.25 163.21 91.85 131.67 104.76 62.52 -151.37 -242.13 -506.45 -593.13 -861.00 -1375.94 -1579.01 -1947.27 -2254.35 -3275.88 -3624.20 -3847.81 -3878.60 -3879.59 -3873.97 -3879.46 -3891.95 -3900.86 -3903.70 -3902.19 -3903.33 -3903.60 -3884.89 -3871.86 -3868.00 -3867.00 -3865.57 -3865.37 -3865.04 -3864.65 -3864.59
-4158.02 -4157.96 -4157.89 -4158.61 -4159.48 -4159.46 -4161.04 -4162.20 -4162.57 -4162.07 -4163.60 -4161.48 -4160.16 -4159.37 -4158.95 -4152.53 -4147.99 -4152.62 -4153.31 -4155.07 -4157.82 -4157.08 -4165.35 -4165.93 -4168.43 -4167.07 -4172.43 -4173.30 -4164.63 -4168.59 -4165.44 -4163.75 -4164.47 -4154.14 -4019.31 -3575.69 -3048.19 -1925.00 -1053.28 -714.47 -650.49 -694.70 -702.48 -228.55 -1.48 78.98 174.65 192.45 227.68 180.38 187.19 152.92 147.66 209.25 212.28 200.48 198.87 233.92 226.94 176.23 234.50 262.48 326.20 506.88 658.70 766.19 697.09 549.82 523.95 417.24 378.76 352.01 306.96 295.40 281.34 199.96 182.03 181.61 173.02 167.10 167.53 167.91 169.34 170.72 202.22 234.26 273.60 992.79 2113.09 3374.03 5740.97 6686.37 7638.71 7822.05 5705.24 4139.82 1839.00 1302.87 432.55 259.50 236.34 209.80 193.76 178.31 147.63 91.01 -1.83 0.46 -41.91 -143.45 -356.58 -613.39 -647.44 -983.24 -1325.86 -1855.58 -2409.85 -2695.95 -2900.70 -3191.70 -3727.87 -3841.78 -3884.06 -3883.03 -3882.11 -3890.94 -3898.70 -3903.04 -3905.89 -3906.69 -3905.16 -3904.10 -3883.33 -3873.59 -3869.13 -3868.61 -3867.25 -3866.53 -3865.80 -3865.60 -3865.66
-4159.67 -4159.61 -4160.05 -4161.04 -4163.58 -4163.53 -4165.34 -4167.68 -4170.23 -4172.54 -4170.92 -4170.84 -4170.17 -4168.92 -4168.61 -4167.21 -4166.67 -4167.74 -4169.49 -4175.68 -4174.00 -4180.52 -4181.38 -4184.34 -4187.69 -4185.24 -4185.26 -4187.84 -4188.51 -4182.99 -4180.01 -4174.61 -4173.22 -4167.18 -4094.58 -3747.73 -3151.56 -2430.63 -1225.83 -872.26 -656.42 -669.01 -686.61 -438.41 -226.46 -50.53 -10.70 75.43 103.62 67.33 31.77 -31.05 -52.91 50.35 127.78 140.14 151.38 169.70 186.70 112.74 146.52 261.57 291.61 353.48 548.20 662.63 799.68 774.11 680.52 467.83 424.55 418.66 302.58 292.32 271.13 205.04 174.42 165.89 164.64 165.15 166.08 167.34 168.68 169.89 195.31 234.36 278.73 645.18 2603.84 4082.68 5243.59 5813.18 6094.18 5262.65 4334.07 3284.27 1801.56 594.79 275.29 241.91 226.09 193.73 163.89 103.70 51.12 -29.47 -81.63 -76.56 -129.41 -325.94 -621.58 -856.12 -1175.69 -1338.21 -1806.65 -2410.88 -2918.98 -3217.78 -3332.09 -3580.35 -3762.72 -3875.58 -3889.86 -3889.56 -3889.98 -3898.21 -3905.51 -3910.90 -3910.73 -3910.10 -3909.34 -3903.70 -3887.01 -3873.89 -3870.58 -3869.71 -3868.61 -3867.72 -3867.02 -3866.78 -3866.84
-4162.14 -4162.07 -4162.68 -4164.83 -4165.58 -4169.80 -4170.56 -4175.14 -4176.07 -4179.40 -4180.58 -4181.85 -4184.31 -4184.10 -4182.98 -4180.16 -4184.03 -4186.62 -4187.03 -4193.17 -4192.37 -4195.29 -4198.19 -4199.70 -4203.65 -4206.03 -4205.99 -4197.17 -4197.01 -4194.40 -4192.62 -4188.12 -4183.51 -4180.14 -4101.07 -4017.71 -3356.77 -2643.36 -1564.63 -906.03 -743.23 -626.58 -603.93 -528.71 -348.69 -259.71 -160.05 -146.48 -118.59 -100.89 -91.22 -167.14 -192.41 -178.93 -107.49 4.82 -6.04 36.40 51.34 -17.24 129.92 253.79 269.74 300.40 450.46 572.10 715.77 765.67 748.92 702.49 653.28 456.83 331.78 290.05 241.82 169.50 166.08 163.37 163.13 163.78 165.15 166.26 167.48 167.63 182.34 242.05 287.76 313.74 2770.63 3759.83 3666.90 3383.38 2618.84 2697.15 2268.82 2112.05 395.07 262.16 242.39 226.07 219.19 162.09 90.32 20.64 -39.99 -159.01 -243.02 -221.69 -424.27 -602.78 -863.06 -1293.64 -1479.11 -1917.96 -2213.28 -2630.64 -3204.55 -3438.50 -3576.74 -3750.17 -3867.38 -3885.93 -3891.55 -3891.74 -3894.01 -3900.70 -3909.87 -3913.25 -3913.55 -3913.25 -3913.95 -3903.48 -3888.94 -3878.02 -3872.44 -3871.21 -3870.05 -3869.24 -3868.73 -3868.05 -3868.11
-4165.24 -4165.71 -4166.92 -4168.38 -4171.54 -4173.93 -4177.61 -4180.97 -4184.67 -4188.01 -4189.75 -4191.93 -4192.15 -4191.72 -4191.90 -4194.42 -4194.33 -4194.71 -4201.08 -4203.10 -4208.40 -4211.36 -4214.35 -4220.13 -4221.16 -4221.47 -4220.33 -4217.38 -4211.20 -4210.41 -4202.34 -4198.95 -4192.11 -4186.19 -4172.65 -4073.16 -3804.67 -2586.96 -2190.10 -1481.40 -893.24 -664.27 -575.25 -490.42 -431.14 -374.01 -284.66 -243.04 -215.47 -247.22 -387.62 -388.20 -438.02 -342.87 -207.34 -86.09 -141.61 -133.84 -87.61 -108.97 -8.84 238.93 256.36 275.15 281.66 418.89 467.19 578.06 686.17 752.54 606.25 518.19 389.38 306.18 234.96 161.68 160.02 161.81 162.39 163.30 164.70 165.25 166.76 167.31 195.89 231.74 274.07 329.59 1555.71 2468.42 3381.69 3292.98 1744.56 1274.94 1391.66 585.88 300.52 228.84 219.53 192.51 149.25 92.14 33.80 -20.02 -238.18 -485.84 -673.87 -745.92 -750.13 -748.39 -1088.52 -1415.66 -1664.21 -2220.87 -2506.94 -2857.37 -3414.09 -3670.45 -3844.13 -3863.09 -3893.82 -3895.91 -3895.03 -3894.28 -3898.73 -3904.00 -3914.06 -3919.51 -3917.34 -3915.65 -3916.72 -3912.98 -3890.82 -3876.96 -3873.75 -3872.92 -3871.88 -3870.16 -3869.70 -3869.40 -3869.46
-4169.21 -4169.15 -4172.83 -4173.57 -4178.31 -4180.41 -4186.33 -4189.31 -4193.06 -4195.86 -4200.52 -4203.15 -4204.09 -4205.83 -4205.60 -4204.32 -4208.97 -4209.44 -4212.29 -4213.93 -4218.74 -4224.90 -4228.15 -4230.18 -4228.51 -4231.92 -4231.43 -4231.29 -4226.47 -4219.53 -4217.82 -4210.31 -4203.69 -4193.27 -4180.19 -4076.44 -3942.77 -3437.09 -2361.41 -1793.76 -1255.61 -899.05 -738.25 -539.78 -518.31 -377.08 -341.41 -345.65 -333.04 -481.07 -589.75 -742.31 -636.24 -361.85 -268.00 -203.06 -181.49 -187.22 -179.17 -186.32 -151.40 70.81 183.32 218.07 272.64 309.47 355.11 353.70 485.18 484.74 463.15 471.47 417.23 287.25 200.26 157.30 158.38 159.28 161.63 161.72 161.49 163.15 163.29 162.66 182.88 229.57 259.59 270.26 742.71 1060.45 1703.99 1007.28 927.03 672.93 637.97 253.42 232.05 192.47 125.35 75.62 29.00 -54.43 -166.82 -208.71 -429.03 -683.73 -846.77 -894.95 -976.13 -1218.60 -1574.85 -1678.97 -1953.09 -2593.27 -2812.96 -3286.03 -3688.80 -3849.41 -3877.91 -3885.97 -3892.73 -3897.17 -3899.95 -3901.23 -3905.48 -3919.84 -3921.37 -3924.00 -3919.76 -3918.29 -3918.48 -3918.52 -3892.77 -3879.84 -3876.44 -3874.69 -3873.65 -3871.94 -3871.32 -3870.85 -3870.91
-4173.71 -4174.34 -4176.44 -4180.00 -4183.37 -4188.10 -4191.54 -4197.44 -4200.55 -4204.59 -4210.73 -4210.62 -4214.27 -4214.08 -4217.71 -4218.05 -4218.38 -4219.70 -4225.66 -4230.63 -4231.65 -4234.76 -4236.51 -4240.90 -4243.84 -4244.01 -4243.10 -4240.65 -4236.48 -4231.38 -4226.60 -4220.79 -4210.78 -4206.47 -4195.84 -4186.43 -4060.09 -3659.82 -3394.77 -2468.55 -1656.56 -1316.17 -1113.34 -824.01 -569.51 -566.68 -449.32 -420.91 -478.80 -573.47 -735.36 -802.94 -648.27 -406.69 -374.34 -319.10 -360.53 -320.14 -318.72 -258.64 -208.09 -144.81 -82.97 123.62 203.84 265.93 281.41 299.19 331.89 340.67 336.85 393.41 303.90 243.72 176.87 154.39 154.72 157.68 158.85 159.80 159.88 159.93 159.31 160.88 187.40 229.65 248.26 258.68 261.42 389.52 387.51 541.73 379.69 387.42 260.92 227.37 205.05 158.53 29.36 -80.81 -151.46 -257.10 -572.26 -688.53 -602.72 -876.38 -1160.66 -1307.71 -1580.86 -1798.52 -2210.28 -2432.85 -2854.10 -3159.18 -3500.05 -3631.00 -3770.27 -3876.90 -3895.88 -3900.78 -3900.08 -3903.76 -3909.45 -3913.06 -3916.80 -3925.05 -3929.53 -3928.61 -3926.07 -3924.04 -3922.50 -3922.26 -3897.69 -3884.40 -3877.98 -3876.77 -3875.65 -3873.88 -3872.84 -3872.39 -3872.46
-4177.34 -4178.04 -4180.03 -4184.14 -4188.27 -4194.84 -4200.83 -4206.55 -4210.29 -4214.97 -4217.70 -4221.79 -4221.51 -4224.00 -4223.02 -4227.32 -4229.47 -4231.69 -4232.87 -4234.96 -4237.90 -4243.45 -4245.23 -4248.09 -4250.60 -4253.71 -4251.53 -4250.98 -4244.15 -4239.81 -4235.09 -4227.61 -4224.93 -4215.56 -4207.98 -4185.65 -4153.59 -3886.44 -3640.03 -3301.82 -2619.92 -2506.00 -1896.76 -1504.08 -1321.46 -738.47 -681.51 -596.16 -597.97 -640.96 -722.06 -775.67 -774.47 -751.97 -702.01 -553.67 -511.43 -404.97 -318.74 -272.12 -229.36 -166.49 -79.01 17.17 121.58 189.32 262.00 275.02 278.04 287.58 280.60 225.58 195.71 165.74 153.03 153.28 153.21 156.12 157.19 157.38 157.31 156.98 156.72 161.31 179.69 219.86 235.88 244.84 253.83 263.86 285.26 285.53 285.01 255.76 247.47 212.12 174.33 89.08 -10.93 -321.21 -757.41 -796.07 -1050.97 -1446.95 -1475.53 -1131.78 -1517.81 -1617.79 -2120.13 -2327.44 -2846.27 -3257.50 -3537.17 -3637.31 -3672.09 -3774.80 -3860.05 -3887.34 -3890.90 -3897.56 -3904.00 -3909.34 -3913.38 -3922.79 -3926.67 -3932.64 -3935.23 -3935.50 -3930.32 -3928.51 -3928.93 -3926.91 -3900.85 -3885.30 -3879.87 -3878.46 -3877.04 -3874.90 -3874.64 -3874.02 -3874.08
-4180.67 -4180.61 -4184.75 -4187.02 -4191.79 -4196.63 -4206.28 -4212.44 -4217.73 -4223.01 -4226.31 -4230.78 -4235.48 -4234.20 -4238.26 -4238.09 -4238.23 -4238.24 -4241.83 -4242.70 -4245.50 -4248.20 -4250.70 -4254.09 -4255.24 -4258.77 -4258.64 -4258.04 -4253.72 -4250.64 -4241.45 -4239.67 -4230.48 -4225.36 -4209.82 -4203.27 -4194.08 -4157.03 -4019.09 -3858.37 -3796.04 -3148.42 -2950.34 -2694.50 -1916.45 -1356.83 -958.95 -781.47 -671.79 -699.35 -719.04 -742.72 -764.85 -772.96 -773.95 -635.16 -570.99 -443.28 -318.86 -274.72 -203.67 -145.41 -49.77 2.62 38.85 56.38 120.84 171.14 200.51 255.10 207.52 170.60 150.20 149.10 150.85 151.94 152.19 153.50 154.46 155.52 155.87 155.11 154.87 158.79 167.08 183.31 208.80 223.79 228.85 227.04 254.83 245.89 241.56 243.15 228.16 188.93 132.02 9.12 -142.81 -947.39 -1734.09 -1968.65 -2079.74 -1962.22 -2158.42 -1667.17 -1795.98 -2358.32 -2741.55 -3043.62 -3306.29 -3705.17 -3764.02 -3693.49 -3783.20 -3880.36 -3883.43 -3890.31 -3897.71 -3900.61 -3906.21 -3912.96 -3921.03 -3927.91 -3932.91 -3939.82 -3941.39 -3938.93 -3934.41 -3933.74 -3932.35 -3925.73 -3907.95 -3887.09 -3882.69 -3880.17 -3878.99 -3877.52 -3877.20 -3875.71 -3875.78
-4183.69 -4183.63 -4186.92 -4190.62 -4196.80 -4204.77 -4212.29 -4219.13 -4222.67 -4227.76 -4234.09 -4239.70 -4238.99 -4240.51 -4243.97 -4245.94 -4246.57 -4248.03 -4247.45 -4249.43 -4251.05 -4253.18 -4255.34 -4256.83 -4261.14 -4262.14 -4263.44 -4262.78 -4260.63 -4257.11 -4251.35 -4246.22 -4240.87 -4234.30 -4223.15 -4209.13 -4204.88 -4196.91 -4148.59 -4101.03 -3948.53 -3846.26 -3686.73 -3328.35 -2817.66 -1999.25 -1343.06 -1166.89 -984.75 -869.31 -785.15 -744.94 -742.88 -761.52 -799.53 -737.13 -602.41 -502.11 -333.43 -215.37 -149.18 -104.23 -33.86 -9.90 25.05 44.73 69.08 88.52 106.12 150.35 131.65 141.09 144.67 146.51 148.58 148.60 150.49 151.26 151.82 153.91 153.76 153.10 152.72 150.98 155.39 156.86 181.83 190.46 203.64 213.07 227.69 222.37 225.81 206.87 178.83 125.92 77.46 -212.81 -235.64 -1114.46 -1642.90 -2648.60 -2771.35 -2566.87 -2752.46 -2098.56 -2379.73 -2584.92 -3167.77 -3459.82 -3645.73 -3745.18 -3820.15 -3834.62 -3843.20 -3879.22 -3887.63 -3893.33 -3902.67 -3904.37 -3910.10 -3917.48 -3926.23 -3932.71 -3943.00 -3946.72 -3945.12 -3943.90 -3940.13 -3939.38 -3937.56 -3920.18 -3906.21 -3889.92 -3884.55 -3882.91 -3881.43 -3879.61 -3878.54 -3877.78 -3877.52
-4186.14 -4186.08 -4190.73 -4195.34 -4202.15 -4207.27 -4217.21 -4223.37 -4227.60 -4234.40 -4240.19 -4243.64 -4247.62 -4251.75 -4250.73 -4247.79 -4250.86 -4251.50 -4250.17 -4249.97 -4254.47 -4255.43 -4257.27 -4259.74 -4263.04 -4264.87 -4267.45 -4268.45 -4266.55 -4264.27 -4258.85 -4255.15 -4247.82 -4241.47 -4231.50 -4219.85 -4218.21 -4210.01 -4207.21 -4200.23 -4181.44 -4163.35 -4096.84 -3859.99 -3734.02 -2854.97 -2344.04 -1790.84 -1418.91 -1133.95 -960.69 -808.31 -856.45 -805.89 -852.28 -816.56 -662.54 -544.39 -400.44 -182.74 -123.19 -64.78 -30.82 8.55 32.77 58.52 70.76 92.69 114.71 122.84 129.91 136.08 140.60 143.71 145.91 147.58 148.62 149.23 150.56 151.80 151.83 151.17 150.67 149.09 146.86 147.80 155.38 162.25 155.23 157.63 163.56 151.87 146.98 143.17 93.45 22.58 -29.01 -364.75 -629.96 -1128.28 -1778.52 -2648.31 -3111.99 -3006.69 -2892.33 -2742.17 -2767.75 -3105.13 -3442.60 -3710.12 -3785.55 -3797.01 -3841.92 -3850.89 -3852.18 -3874.76 -3886.52 -3898.47 -3903.69 -3912.24 -3918.72 -3926.91 -3934.71 -3945.13 -3949.03 -3952.68 -3952.23 -3948.58 -3949.24 -3949.93 -3946.16 -3932.86 -3900.83 -3891.58 -3886.84 -3884.71 -3882.72 -3881.16 -3880.71 -3879.23 -3879.29
-4186.93 -4187.45 -4190.53 -4195.33 -4202.46 -4207.02 -4216.54 -4224.79 -4232.75 -4237.95 -4246.49 -4251.97 -4254.05 -4256.39 -4256.93 -4248.15 -4248.49 -4247.24 -4247.08 -4250.85 -4256.99 -4258.59 -4259.87 -4262.38 -4264.65 -4268.45 -4270.07 -4271.21 -4270.08 -4266.54 -4261.21 -4258.97 -4251.86 -4246.30 -4241.02 -4232.66 -4226.37 -4221.20 -4215.76 -4214.69 -4218.04 -4222.53 -4201.36 -4113.95 -3863.11 -3660.55 -2973.46 -2701.46 -2216.34 -1882.22 -1735.34 -1624.50 -1429.99 -1427.40 -1267.02 -1101.32 -897.28 -769.05 -509.67 -313.59 -120.61 -57.83 -22.18 19.16 40.56 55.26 71.32 94.08 106.74 124.49 127.94 133.09 137.55 141.60 143.50 145.25 146.97 146.97 147.39 148.33 149.10 149.01 147.38 147.36 145.71 144.08 145.09 143.10 139.45 136.43 127.07 122.90 89.49 93.07 44.43 -91.50 -135.74 -416.57 -604.20 -1307.97 -2498.75 -3313.32 -3450.36 -3499.30 -3322.22 -3221.88 -3308.24 -3448.22 -3756.35 -3779.94 -3823.13 -3833.03 -3843.78 -3850.21 -3856.98 -3876.70 -3897.42 -3906.54 -3907.50 -3918.89 -3932.71 -3939.48 -3949.68 -3951.65 -3953.47 -3957.13 -3955.75 -3956.01 -3956.38 -3955.54 -3952.07 -3944.83 -3914.76 -3892.63 -3888.83 -3887.10 -3885.02 -3883.11 -3882.01 -3881.04 -3881.10
-4186.62 -4186.67 -4191.92 -4194.64 -4203.67 -4208.50 -4217.05 -4223.45 -4237.40 -4242.76 -4249.02 -4253.46 -4257.61 -4259.46 -4254.94 -4251.24 -4247.59 -4245.90 -4244.98 -4247.06 -4253.52 -4259.70 -4260.81 -4263.57 -4266.82 -4269.63 -4271.45 -4272.93 -4271.95 -4268.89 -4266.62 -4263.30 -4258.95 -4250.95 -4243.51 -4237.63 -4230.80 -4227.17 -4225.98 -4224.17 -4229.16 -4236.26 -4240.54 -4223.68 -4194.59 -4001.62 -3983.81 -3696.58 -3302.08 -2976.92 -2661.02 -2376.35 -2011.64 -2014.58 -1517.57 -1362.96 -1064.48 -955.64 -635.69 -372.91 -212.28 -95.02 -31.35 10.31 40.99 49.46 74.31 86.28 103.37 117.31 127.07 128.69 135.53 139.79 141.17 143.75 144.53 143.96 142.26 144.77 146.23 145.59 145.45 143.27 143.70 143.15 142.12 139.01 135.29 127.99 123.48 118.22 79.81 49.02 1.25 -100.93 -232.35 -516.92 -735.70 -1634.63 -2158.64 -3094.79 -3605.64 -3687.79 -3698.70 -3616.74 -3560.40 -3729.57 -3763.48 -3791.59 -3813.65 -3835.90 -3841.39 -3851.96 -3862.31 -3886.80 -3906.47 -3913.78 -3919.31 -3928.81 -3944.65 -3953.29 -3961.66 -3962.87 -3959.25 -3960.72 -3961.21 -3962.26 -3960.53 -3960.33 -3952.46 -3942.61 -3911.07 -3895.22 -3892.24 -3890.10 -3886.88 -3886.45 -3884.78 -3883.24 -3882.96
-4187.27 -4187.21 -4190.28 -4195.38 -4202.07 -4208.70 -4217.97 -4224.99 -4235.11 -4242.66 -4248.99 -4255.01 -4258.05 -4261.47 -4255.36 -4253.74 -4248.58 -4247.33 -4246.83 -4246.72 -4252.75 -4259.99 -4262.45 -4264.69 -4266.62 -4268.97 -4271.71 -4273.72 -4273.27 -4270.22 -4268.70 -4264.77 -4260.68 -4258.62 -4251.62 -4246.89 -4243.31 -4237.46 -4232.14 -4238.07 -4243.66 -4247.82 -4245.98 -4236.24 -4214.79 -4161.20 -4108.78 -4011.23 -3803.97 -3771.25 -3658.02 -3405.09 -3060.13 -2524.53 -1977.34 -1622.69 -1298.23 -955.89 -693.56 -458.55 -270.19 -144.20 -37.63 4.29 33.18 45.11 60.11 80.20 99.23 109.54 119.41 126.87 132.05 136.03 138.04 141.43 140.10 140.28 139.62 140.48 142.70 140.87 141.42 141.62 141.64 139.12 138.66 136.77 132.71 128.20 119.25 114.28 86.83 55.45 -2.29 -125.55 -409.74 -638.79 -1167.67 -2127.85 -3087.95 -3557.41 -3695.99 -3744.15 -3762.20 -3710.89 -3697.73 -3776.59 -3801.13 -3816.42 -3824.22 -3837.87 -3848.36 -3862.42 -3874.63 -3894.13 -3914.90 -3920.10 -3930.65 -3942.90 -3952.33 -3966.64 -3972.44 -3970.61 -3969.83 -3967.38 -3966.23 -3966.34 -3965.46 -3965.19 -3955.94 -3948.66 -3917.54 -3897.74 -3893.75 -3891.72 -3889.32 -3887.78 -3886.21 -3885.21 -3885.21
-4187.43 -4187.36 -4193.10 -4195.11 -4200.79 -4207.86 -4215.89 -4225.78 -4231.38 -4241.67 -4248.01 -4253.11 -4257.95 -4261.73 -4253.66 -4254.50 -4251.15 -4247.22 -4245.43 -4248.47 -4251.18 -4260.24 -4262.19 -4263.60 -4266.15 -4268.02 -4272.09 -4273.82 -4273.72 -4272.59 -4271.05 -4270.36 -4268.37 -4265.16 -4260.28 -4257.91 -4254.65 -4256.39 -4252.79 -4250.55 -4255.02 -4251.77 -4245.23 -4225.58 -4208.17 -4139.82 -4085.95 -4009.43 -3918.56 -3832.53 -3674.73 -3566.29 -3261.59 -2900.46 -2071.48 -1781.50 -1391.25 -1068.08 -825.79 -539.17 -315.72 -153.79 -83.92 -11.47 24.63 40.64 57.48 80.14 97.30 110.20 115.12 121.51 127.32 131.46 135.35 135.51 138.11 136.79 136.07 136.93 138.16 136.96 139.01 139.39 137.22 136.44 133.85 134.01 131.04 124.95 118.05 107.97 85.96 24.30 -57.41 -142.72 -490.38 -1546.63 -2213.58 -2865.18 -3501.78 -3793.75 -3788.11 -3776.38 -3760.94 -3761.28 -3761.71 -3769.38 -3783.50 -3800.33 -3830.55 -3865.70 -3867.55 -3875.70 -3897.32 -3907.13 -3940.06 -3947.28 -3957.83 -3959.81 -3971.92 -3974.84 -3976.05 -3977.82 -3978.20 -3975.03 -3973.28 -3972.65 -3970.83 -3968.51 -3960.43 -3946.63 -3916.22 -3901.76 -3897.33 -3894.15 -3892.20 -3890.48 -3888.57 -3887.37 -3887.13
-4187.23 -4187.16 -4190.51 -4194.77 -4200.35 -4207.69 -4214.50 -4222.01 -4231.51 -4237.30 -4246.19 -4251.08 -4254.25 -4258.53 -4251.87 -4251.08 -4250.95 -4247.11 -4246.02 -4249.54 -4251.61 -4259.41 -4262.60 -4263.68 -4265.95 -4267.07 -4272.77 -4274.03 -4274.41 -4274.90 -4274.60 -4276.02 -4276.81 -4276.47 -4274.95 -4272.10 -4273.18 -4268.30 -4264.31 -4262.87 -4260.33 -4256.79 -4248.39 -4236.24 -4200.03 -4158.14 -4111.30 -4058.18 -3937.45 -3852.74 -3688.08 -3493.65 -3317.04 -2947.12 -2520.35 -2096.75 -1696.24 -1182.72 -862.62 -606.76 -376.92 -275.56 -117.57 -45.85 5.95 38.29 57.92 74.43 97.03 101.31 115.02 120.97 125.30 131.06 130.46 132.85 133.19 132.41 132.77 132.92 133.71 133.99 134.46 134.58 133.89 133.42 132.47 126.97 125.68 121.88 115.75 104.61 84.14 32.54 -109.34 -156.28 -515.73 -1621.31 -2790.61 -3314.69 -3584.71 -3804.82 -3800.31 -3790.28 -3776.62 -3757.59 -3761.44 -3768.51 -3777.15 -3802.57 -3835.12 -3898.29 -3889.35 -3905.27 -3916.83 -3930.80 -3951.26 -3965.09 -3965.45 -3977.85 -3986.82 -3986.93 -3986.11 -3982.82 -3983.35 -3985.18 -3983.62 -3976.29 -3976.77 -3972.70 -3965.06 -3950.60 -3925.62 -3904.63 -3900.09 -3896.32 -3894.19 -3892.38 -3890.65 -3888.96 -3889.06
-4186.47 -4187.11 -4188.99 -4193.83 -4201.34 -4205.30 -4213.56 -4220.17 -4226.63 -4235.67 -4244.04 -4248.16 -4251.81 -4256.13 -4257.12 -4255.27 -4252.19 -4251.73 -4249.17 -4250.55 -4254.69 -4256.17 -4261.04 -4263.62 -4265.26 -4268.56 -4272.41 -4274.32 -4276.30 -4277.58 -4279.70 -4278.93 -4281.25 -4279.29 -4276.90 -4276.07 -4275.49 -4271.29 -4268.37 -4266.00 -4262.82 -4258.80 -4252.84 -4237.41 -4216.48 -4180.79 -4154.36 -4054.28 -3925.89 -3755.98 -3636.78 -3409.44 -3256.25 -2987.95 -2823.73 -2377.33 -1853.03 -1368.22 -1005.35 -651.43 -538.69 -431.22 -229.33 -72.65 -29.64 21.92 65.65 74.70 77.69 95.57 109.29 117.64 121.63 125.44 126.23 127.60 128.38 128.56 128.95 128.99 129.61 130.80 129.39 128.01 129.52 127.04 122.23 121.07 117.74 115.77 108.56 89.49 72.44 34.65 -82.74 -285.26 -528.92 -1434.30 -2695.81 -3560.99 -3806.31 -3810.51 -3801.42 -3789.40 -3774.36 -3761.85 -3769.28 -3793.39 -3799.92 -3824.99 -3879.10 -3908.64 -3916.77 -3936.71 -3935.42 -3954.67 -3973.31 -3979.68 -3975.05 -3981.04 -3995.12 -4000.02 -3992.79 -3991.79 -3989.90 -3992.34 -3990.78 -3984.68 -3982.42 -3976.66 -3969.40 -3951.28 -3923.40 -3907.77 -3901.33 -3899.35 -3896.27 -3894.39 -3893.14 -3890.95 -3891.01
-4185.10 -4185.81 -4187.92 -4193.79 -4198.53 -4202.92 -4208.47 -4217.28 -4223.38 -4230.31 -4237.02 -4243.58 -4246.88 -4252.33 -4256.20 -4258.00 -4252.92 -4254.99 -4253.53 -4253.40 -4255.42 -4255.71 -4259.21 -4263.16 -4264.48 -4267.01 -4271.06 -4274.87 -4278.28 -4281.32 -4283.33 -4283.04 -4284.39 -4279.72 -4279.19 -4279.34 -4277.07 -4273.53 -4269.26 -4267.07 -4265.03 -4261.69 -4255.97 -4243.98 -4239.98 -4216.09 -4148.35 -4104.64 -3995.55 -3840.95 -3635.87 -3369.36 -3158.31 -2974.31 -2753.95 -2384.50 -1884.22 -1512.37 -914.54 -763.42 -593.78 -412.29 -213.72 -132.66 -56.98 5.10 41.69 58.69 71.18 91.42 102.67 107.56 113.31 119.46 122.81 123.81 122.59 124.16 124.49 124.41 123.51 124.90 121.31 121.89 125.34 123.81 116.98 114.54 108.68 104.68 91.81 79.68 42.77 -6.10 -111.63 -493.62 -877.81 -1919.22 -3189.95 -3618.42 -3766.29 -3811.44 -3807.72 -3803.83 -3804.05 -3804.48 -3824.26 -3831.49 -3846.97 -3881.33 -3914.14 -3938.43 -3957.41 -3957.81 -3975.54 -3993.74 -4000.80 -4006.19 -4002.42 -3998.68 -4002.89 -4007.59 -4002.38 -4001.67 -3996.41 -4000.80 -3998.29 -3996.51 -3990.90 -3982.22 -3973.66 -3950.22 -3926.88 -3909.36 -3904.41 -3902.69 -3898.17 -3896.92 -3895.56 -3892.95 -3893.02
-4184.14 -4184.70 -4187.56 -4191.09 -4195.27 -4202.13 -4206.59 -4214.21 -4220.83 -4227.49 -4230.82 -4238.75 -4242.49 -4247.97 -4253.25 -4256.88 -4255.76 -4257.12 -4255.29 -4254.89 -4257.65 -4259.47 -4261.83 -4262.60 -4264.70 -4267.13 -4271.88 -4275.50 -4280.16 -4283.06 -4285.17 -4283.95 -4280.46 -4281.20 -4282.16 -4278.69 -4276.53 -4273.26 -4272.16 -4270.53 -4265.96 -4262.83 -4257.95 -4248.58 -4237.44 -4206.11 -4157.97 -4127.82 -4092.75 -3880.45 -3639.45 -3316.68 -3099.16 -2910.16 -2717.28 -2468.63 -2051.40 -1499.25 -1004.01 -842.24 -624.31 -458.00 -327.57 -222.51 -84.86 -11.00 18.94 42.34 53.64 67.91 83.29 85.29 107.86 111.31 113.94 115.92 117.42 116.92 118.56 119.30 119.07 116.49 114.82 115.88 115.41 115.57 107.36 96.78 89.14 91.67 62.43 12.82 -38.10 -66.10 -256.14 -898.08 -1847.27 -2606.03 -3627.10 -3815.37 -3823.43 -3823.54 -3815.91 -3814.92 -3825.27 -3849.65 -3872.87 -3877.29 -3903.75 -3922.60 -3966.05 -3985.10 -3989.78 -3989.90 -3993.39 -4004.51 -4011.75 -4016.68 -4015.08 -4019.87 -4015.26 -4013.67 -4012.16 -4003.82 -4005.96 -4008.43 -4007.52 -4007.70 -3998.01 -3984.80 -3977.25 -3967.82 -3937.27 -3912.08 -3908.09 -3904.16 -3901.87 -3898.86 -3897.83 -3895.04 -3895.10
-4183.58 -4183.52 -4187.00 -4191.10 -4195.34 -4200.48 -4207.11 -4211.43 -4220.20 -4224.73 -4228.96 -4235.70 -4241.60 -4245.40 -4248.79 -4255.04 -4257.07 -4258.58 -4257.88 -4257.83 -4260.08 -4262.99 -4263.26 -4266.31 -4266.76 -4269.24 -4274.29 -4278.25 -4282.91 -4285.51 -4285.44 -4284.32 -4282.21 -4284.23 -4283.16 -4280.88 -4279.03 -4277.34 -4275.63 -4271.84 -4269.21 -4263.65 -4255.98 -4246.60 -4228.42 -4207.41 -4187.05 -4150.25 -4064.70 -3824.37 -3467.76 -3182.02 -2991.72 -2792.18 -2536.75 -2422.97 -2149.23 -1555.15 -1278.50 -964.17 -775.03 -453.02 -381.83 -271.27 -93.54 -46.19 -0.30 13.62 24.41 30.82 59.32 76.84 98.54 102.01 103.90 110.06 113.39 112.64 112.76 111.20 110.70 106.06 101.41 104.37 105.16 96.69 86.72 76.87 71.27 42.08 9.67 -42.47 -201.18 -540.59 -607.32 -1144.74 -2630.41 -3508.25 -3610.95 -3840.51 -3840.69 -3834.67 -3827.35 -3828.19 -3846.62 -3869.71 -3891.18 -3914.57 -3930.44 -3956.10 -3992.43 -4003.04 -4004.45 -4014.40 -4018.11 -4019.99 -4031.31 -4029.34 -4033.78 -4037.30 -4027.92 -4025.63 -4020.58 -4011.15 -4012.81 -4015.31 -4015.82 -4014.91 -3997.99 -3991.03 -3980.71 -3966.32 -3940.70 -3915.82 -3910.95 -3906.84 -3904.05 -3901.89 -3899.46 -3897.21 -3897.28
-4183.28 -4183.21 -4186.79 -4189.85 -4194.19 -4200.62 -4205.24 -4210.37 -4216.80 -4222.26 -4229.43 -4233.17 -4238.84 -4243.20 -4249.08 -4254.11 -4256.71 -4259.92 -4260.51 -4260.72 -4263.76 -4266.20 -4267.93 -4268.32 -4269.63 -4273.49 -4276.80 -4281.05 -4283.97 -4286.31 -4286.18 -4286.70 -4285.63 -4286.22 -4285.23 -4283.21 -4281.68 -4278.49 -4277.67 -4273.74 -4272.49 -4265.88 -4254.81 -4237.74 -4225.24 -4217.28 -4202.58 -4188.63 -4067.67 -3626.81 -3215.39 -2682.87 -2521.23 -2621.63 -2398.64 -2295.75 -2173.96 -1696.34 -1383.12 -1022.51 -902.90 -563.74 -343.87 -237.59 -160.72 -98.14 -32.10 -20.05 -18.07 -5.85 34.27 55.00 84.83 87.72 93.64 98.32 104.99 105.13 104.48 102.17 98.12 96.88 83.13 91.61 83.04 80.27 57.65 41.22 14.15 -10.28 -80.49 -225.46 -459.61 -750.79 -1475.13 -2410.91 -2946.65 -3779.12 -3802.29 -3844.18 -3845.93 -3840.98 -3846.83 -3854.69 -3866.71 -3891.08 -3921.92 -3938.52 -3948.65 -3979.35 -4000.97 -4033.11 -4026.22 -4036.50 -4041.40 -4041.73 -4047.48 -4042.08 -4045.32 -4048.50 -4041.26 -4033.05 -4027.20 -4022.08 -4023.10 -4024.02 -4023.07 -4017.21 -4004.74 -3995.25 -3986.14 -3966.11 -3940.57 -3919.37 -3912.44 -3910.55 -3906.27 -3903.46 -3901.73 -3899.65 -3899.55
-4183.37 -4183.31 -4186.78 -4190.55 -4194.71 -4200.29 -4204.05 -4209.16 -4215.66 -4221.73 -4226.57 -4233.19 -4238.74 -4242.41 -4249.44 -4256.16 -4257.96 -4262.83 -4263.40 -4261.44 -4265.25 -4269.32 -4271.36 -4272.70 -4272.40 -4278.84 -4280.47 -4284.03 -4286.00 -4286.97 -4288.50 -4288.55 -4288.97 -4289.13 -4287.26 -4285.52 -4284.15 -4282.91 -4277.61 -4276.21 -4272.99 -4265.85 -4256.58 -4242.25 -4233.16 -4222.78 -4212.34 -4164.43 -3928.44 -2900.95 -2016.58 -1528.30 -1542.23 -1832.77 -2131.92 -2201.06 -2022.47 -1862.98 -1688.72 -1289.28 -1013.79 -634.59 -434.07 -330.99 -193.72 -164.77 -99.00 -60.92 -57.54 -27.72 13.50 44.88 61.89 68.57 69.20 79.16 81.00 93.86 87.64 88.36 84.65 80.59 73.36 72.11 51.47 36.83 7.08 -62.73 -76.06 -116.30 -284.04 -444.05 -807.88 -1747.99 -2205.40 -2917.88 -3706.28 -3829.66 -3854.78 -3859.43 -3855.90 -3862.04 -3860.64 -3875.87 -3892.88 -3909.32 -3940.75 -3961.45 -3982.57 -4001.16 -4027.49 -4051.79 -4057.39 -4053.18 -4061.02 -4060.14 -4056.78 -4053.66 -4053.82 -4053.34 -4047.34 -4037.48 -4034.33 -4037.03 -4036.05 -4033.70 -4031.55 -4018.85 -4006.80 -3995.45 -3989.57 -3976.74 -3944.10 -3922.01 -3917.29 -3912.58 -3910.03 -3906.70 -3904.72 -3901.83 -3901.89
-4184.05 -4184.48 -4187.82 -4191.30 -4194.97 -4199.35 -4204.99 -4210.77 -4215.84 -4221.42 -4227.02 -4233.07 -4239.61 -4244.13 -4251.53 -4257.38 -4261.11 -4268.66 -4271.34 -4268.82 -4272.05 -4273.21 -4275.14 -4275.83 -4278.56 -4282.62 -4283.45 -4284.77 -4288.78 -4291.39 -4290.27 -4289.77 -4290.10 -4290.53 -4290.34 -4288.83 -4286.55 -4285.81 -4282.12 -4279.77 -4274.56 -4269.25 -4260.55 -4242.08 -4232.17 -4223.67 -4170.81 -4120.63 -3371.28 -2474.66 -1489.36 -1100.61 -1043.08 -1194.47 -1602.76 -2047.46 -2020.05 -1982.89 -1791.78 -1578.00 -1175.05 -771.69 -471.51 -341.65 -251.48 -224.51 -194.51 -152.54 -128.99 -81.56 -37.47 -9.68 19.69 48.72 23.93 46.93 61.50 67.49 64.60 59.27 47.04 56.77 35.06 40.58 15.86 -0.16 -75.32 -143.66 -219.41 -405.39 -807.12 -1256.13 -1436.56 -2208.35 -2588.99 -3244.97 -3586.72 -3846.84 -3872.15 -3869.10 -3868.24 -3873.48 -3890.38 -3909.52 -3916.95 -3944.99 -3967.31 -3990.25 -4010.94 -4025.65 -4054.14 -4067.35 -4070.69 -4070.03 -4071.22 -4066.38 -4067.35 -4064.20 -4059.29 -4054.07 -4049.32 -4044.67 -4045.76 -4046.40 -4044.27 -4040.59 -4032.78 -4021.06 -4008.91 -3998.19 -3991.60 -3969.60 -3942.95 -3924.26 -3918.51 -3914.94 -3911.61 -3909.10 -3907.06 -3904.25 -3904.32
-4185.94 -4185.87 -4190.03 -4192.72 -4197.47 -4201.69 -4205.57 -4210.91 -4216.88 -4223.51 -4227.40 -4234.10 -4241.34 -4247.11 -4252.93 -4260.66 -4269.37 -4275.51 -4274.32 -4273.92 -4273.84 -4275.35 -4277.47 -4279.41 -4280.48 -4283.74 -4286.11 -4287.57 -4289.57 -4291.56 -4291.69 -4291.94 -4292.42 -4292.25 -4291.59 -4290.62 -4289.68 -4287.34 -4286.03 -4284.46 -4279.05 -4267.30 -4254.96 -4249.09 -4245.43 -4114.90 -3999.78 -3619.34 -2776.28 -1726.81 -1211.01 -823.80 -740.88 -907.63 -1405.16 -1423.90 -1789.92 -1657.00 -1534.46 -1490.63 -1081.25 -724.29 -504.38 -338.00 -271.37 -248.52 -239.89 -210.23 -203.91 -199.52 -135.69 -87.41 -68.88 -62.33 -60.52 -26.04 -13.37 -42.90 -4.30 7.23 18.89 -18.32 -11.73 -35.30 -38.86 -63.58 -178.69 -264.70 -412.27 -591.89 -957.65 -1949.64 -1904.28 -2735.10 -3177.23 -3724.30 -3800.93 -3898.25 -3891.03 -3882.85 -3886.52 -3892.94 -3917.10 -3943.38 -3940.67 -3964.53 -3988.81 -4005.47 -4029.84 -4050.73 -4069.66 -4074.16 -4075.93 -4077.31 -4076.84 -4077.06 -4079.24 -4072.66 -4068.30 -4062.31 -4058.11 -4060.02 -4055.65 -4052.68 -4049.89 -4044.78 -4037.14 -4020.96 -4012.82 -4000.57 -3991.05 -3975.75 -3935.77 -3924.38 -3921.97 -3918.11 -3915.65 -3912.68 -3909.78 -3906.80 -3906.87
-4188.17 -4188.10 -4192.54 -4195.10 -4199.46 -4203.37 -4207.99 -4213.06 -4218.40 -4224.58 -4231.62 -4237.23 -4245.17 -4251.35 -4260.84 -4267.79 -4276.45 -4282.40 -4279.51 -4276.86 -4276.07 -4277.90 -4281.81 -4281.78 -4281.97 -4285.46 -4288.99 -4288.25 -4290.23 -4291.61 -4291.64 -4292.59 -4293.98 -4293.67 -4293.17 -4291.76 -4290.22 -4289.98 -4288.80 -4284.24 -4275.25 -4260.57 -4257.16 -4207.35 -4168.73 -3819.59 -3361.62 -2638.51 -2209.72 -1509.16 -921.29 -742.32 -669.99 -695.51 -744.88 -937.63 -918.14 -998.52 -884.37 -757.03 -828.44 -498.11 -387.48 -222.45 -190.43 -208.56 -267.74 -271.90 -345.92 -375.44 -459.39 -259.01 -146.00 -147.16 -123.60 -107.56 -144.93 -163.74 -99.10 -45.98 -76.23 -91.70 -84.49 -95.29 -102.60 -181.06 -323.12 -489.98 -701.08 -860.42 -1288.17 -2040.11 -2526.96 -2864.57 -3586.94 -3842.41 -3924.88 -3921.07 -3924.47 -3920.23 -3914.46 -3925.26 -3941.52 -3975.36 -3990.58 -3988.66 -4012.74 -4031.35 -4048.72 -4067.62 -4076.83 -4079.16 -4083.41 -4087.68 -4088.18 -4084.31 -4084.70 -4081.57 -4078.48 -4070.80 -4066.20 -4068.81 -4061.58 -4058.13 -4058.12 -4053.12 -4034.51 -4024.75 -4008.28 -4001.48 -3996.88 -3979.86 -3946.11 -3930.40 -3923.86 -3920.91 -3917.62 -3914.52 -3912.09 -3909.61 -3909.51
-4190.92 -4190.86 -4195.64 -4197.73 -4201.95 -4205.92 -4211.71 -4216.97 -4221.51 -4226.99 -4235.60 -4238.91 -4246.89 -4254.40 -4265.28 -4273.61 -4287.30 -4285.96 -4284.47 -4282.95 -4279.89 -4280.53 -4284.03 -4284.27 -4285.72 -4288.46 -4291.34 -4290.20 -4291.02 -4292.36 -4293.66 -4294.74 -4294.58 -4294.57 -4293.67 -4292.76 -4291.30 -4290.18 -4283.50 -4274.44 -4276.00 -4271.10 -4253.43 -4089.27 -3554.63 -3016.69 -2553.91 -2062.47 -1309.89 -1114.04 -792.24 -719.95 -657.37 -641.36 -668.60 -705.80 -692.44 -670.12 -592.17 -440.18 -353.59 -286.23 -97.68 -68.60 -56.06 -230.73 -425.56 -464.05 -461.84 -577.60 -546.11 -436.49 -300.88 -397.21 -340.13 -391.94 -312.95 -398.10 -275.74 -172.72 -160.77 -239.29 -265.76 -243.95 -269.55 -407.70 -719.42 -1025.71 -1301.90 -1818.35 -1798.87 -2453.76 -2794.90 -3165.90 -3644.24 -3905.42 -3955.61 -3952.70 -3958.33 -3945.18 -3945.44 -3947.85 -3970.35 -3988.19 -4002.62 -4011.20 -4030.63 -4052.56 -4064.12 -4076.98 -4083.00 -4086.94 -4086.69 -4089.32 -4090.36 -4088.37 -4087.58 -4086.92 -4080.41 -4074.94 -4076.58 -4075.58 -4070.90 -4065.14 -4064.98 -4056.10 -4035.17 -4025.38 -4015.03 -4005.82 -3998.96 -3970.99 -3951.66 -3933.04 -3926.36 -3922.46 -3920.20 -3917.43 -3914.87 -3912.12 -3912.19
-4194.53 -4194.46 -4198.68 -4200.50 -4206.56 -4208.98 -4215.10 -4220.20 -4223.93 -4230.63 -4237.98 -4245.49 -4252.42 -4262.41 -4270.66 -4282.01 -4289.20 -4289.11 -4288.92 -4286.44 -4284.39 -4284.14 -4286.48 -4287.98 -4287.89 -4289.69 -4293.64 -4291.80 -4292.04 -4293.86 -4294.62 -4295.22 -4295.21 -4295.00 -4294.67 -4293.51 -4291.72 -4291.18 -4285.01 -4272.43 -4270.44 -4206.94 -4072.86 -3207.56 -2865.59 -2332.95 -1763.80 -1140.96 -955.60 -871.97 -715.61 -678.72 -674.36 -674.15 -795.23 -741.43 -580.70 -495.86 -419.77 -334.68 -304.95 -204.97 -91.43 -36.41 -87.99 -477.87 -579.13 -693.17 -654.72 -786.77 -771.27 -583.07 -665.57 -675.45 -612.32 -590.24 -646.61 -589.83 -448.35 -447.75 -422.66 -387.88 -417.95 -573.98 -573.52 -800.29 -1265.30 -1470.23 -1950.28 -2523.76 -2476.44 -2772.17 -3373.03 -3728.45 -3879.50 -3939.59 -3971.90 -3968.90 -3969.07 -3966.34 -3972.19 -3974.07 -3982.97 -4003.00 -4010.88 -4025.85 -4036.91 -4053.50 -4066.70 -4080.72 -4084.28 -4088.26 -4089.88 -4091.85 -4092.13 -4090.99 -4090.82 -4088.87 -4086.11 -4083.51 -4079.64 -4080.20 -4076.22 -4073.48 -4069.67 -4055.27 -4039.53 -4026.87 -4017.09 -4007.88 -3999.63 -3978.40 -3953.84 -3935.53 -3929.68 -3925.39 -3922.62 -3920.37 -3917.56 -3914.87 -3914.89
-4199.07 -4199.11 -4203.03 -4207.67 -4210.42 -4213.50 -4219.13 -4222.90 -4228.19 -4233.50 -4243.34 -4249.49 -4257.90 -4265.45 -4278.67 -4289.38 -4293.89 -4290.76 -4286.74 -4286.13 -4287.32 -4287.90 -4289.44 -4291.98 -4290.60 -4292.58 -4293.83 -4290.88 -4293.27 -4293.45 -4295.63 -4295.85 -4295.63 -4295.59 -4295.49 -4293.87 -4292.49 -4291.68 -4288.66 -4273.04 -4281.97 -4217.24 -3720.29 -3261.96 -2095.04 -1344.27 -980.36 -901.65 -802.84 -722.96 -659.15 -687.83 -790.39 -1067.83 -1060.00 -1084.83 -718.77 -459.60 -449.39 -456.55 -360.80 -280.53 -383.90 -406.87 -673.89 -1028.54 -1306.62 -1092.04 -1050.97 -1021.43 -891.70 -948.58 -1226.69 -992.70 -964.64 -1030.39 -970.04 -811.81 -732.11 -668.76 -619.53 -688.92 -736.91 -935.24 -955.04 -1091.62 -1440.48 -1919.04 -2370.35 -2625.61 -3219.28 -3496.47 -3803.63 -3960.11 -3995.90 -3976.24 -3974.92 -3974.14 -3974.88 -3977.50 -3987.10 -3992.83 -4002.96 -4008.27 -4012.96 -4025.99 -4035.39 -4050.04 -4062.91 -4077.00 -4084.54 -4088.97 -4090.59 -4092.52 -4093.39 -4093.01 -4092.82 -4091.41 -4089.72 -4086.64 -4083.27 -4082.83 -4081.61 -4077.27 -4070.61 -4051.57 -4043.16 -4028.05 -4019.39 -4010.13 -4003.44 -3984.07 -3955.88 -3936.73 -3932.23 -3929.74 -3925.04 -3922.35 -3919.63 -3917.55 -3917.62
-4201.08 -4201.53 -4202.40 -4207.24 -4209.03 -4213.17 -4216.93 -4220.30 -4225.79 -4235.05 -4236.45 -4249.43 -4256.51 -4265.25 -4279.79 -4293.05 -4295.98 -4288.27 -4290.04 -4296.59 -4295.58 -4295.93 -4298.34 -4294.28 -4293.37 -4294.19 -4290.90 -4290.69 -4293.18 -4293.46 -4295.52 -4296.35 -4296.42 -4296.34 -4295.98 -4294.72 -4292.89 -4291.40 -4286.63 -4273.20 -4265.73 -4079.84 -3306.10 -2533.76 -1390.94 -1011.46 -877.99 -823.22 -776.79 -733.25 -622.69 -806.35 -1254.63 -1840.66 -1880.15 -1673.85 -962.00 -760.50 -546.33 -756.99 -1018.54 -1331.22 -1408.40 -1471.17 -1708.92 -1869.62 -1769.96 -1627.46 -1530.22 -1541.65 -1480.90 -1622.46 -1867.21 -1892.40 -1376.86 -1298.09 -1133.50 -1059.77 -1112.68 -1035.92 -1009.62 -985.53 -1318.35 -1434.98 -1553.73 -1681.33 -2118.12 -2676.60 -2746.18 -3213.64 -3654.77 -3846.68 -3970.97 -4009.27 -4005.71 -3984.98 -3979.24 -3977.62 -3983.43 -3992.40 -4001.56 -4003.46 -4006.88 -4012.35 -4021.68 -4025.50 -4044.32 -4056.56 -4067.73 -4079.68 -4087.88 -4090.59 -4091.49 -4094.11 -4093.67 -4094.39 -4094.97 -4094.16 -4092.39 -4087.65 -4087.07 -4084.53 -4082.77 -4080.23 -4071.33 -4047.15 -4033.52 -4024.78 -4016.60 -4003.70 -3994.79 -3984.79 -3960.59 -3940.66 -3933.80 -3932.42 -3929.72 -3925.40 -3923.21 -3920.28 -3920.36
-4177.90 -4177.85 -4183.91 -4191.85 -4193.68 -4194.25 -4199.07 -4201.34 -4204.96 -4212.43 -4217.81 -4230.42 -4238.14 -4243.03 -4259.58 -4275.22 -4287.39 -4286.49 -4298.71 -4302.34 -4298.03 -4300.25 -4301.44 -4299.91 -4296.66 -4296.50 -4293.16 -4291.09 -4293.27 -4293.23 -4295.97 -4297.29 -4296.78 -4297.11 -4297.23 -4294.60 -4292.80 -4296.21 -4283.89 -4262.48 -4230.92 -3701.36 -3044.14 -1682.82 -954.49 -739.45 -865.77 -975.93 -983.12 -735.12 -647.32 -1386.61 -1752.36 -2522.89 -2815.88 -2239.59 -1494.14 -1252.13 -1190.99 -1607.87 -1760.15 -2252.36 -2372.91 -2133.79 -2427.87 -2758.64 -2560.84 -2490.62 -2555.72 -2215.21 -1820.88 -2098.56 -2397.74 -2278.90 -1916.09 -1911.15 -1781.92 -1804.95 -1833.63 -1862.59 -1774.28 -1715.43 -1793.39 -2280.82 -2164.84 -2576.40 -2790.83 -3161.21 -3266.53 -3502.11 -3828.95 -3993.00 -4012.31 -4019.72 -4013.40 -3996.44 -3994.04 -3994.20 -3992.82 -4000.36 -4003.04 -4006.96 -4010.16 -4017.19 -4022.34 -4028.46 -4042.73 -4062.19 -4073.43 -4081.53 -4086.47 -4089.98 -4094.87 -4095.75 -4095.66 -4096.23 -4096.08 -4095.50 -4094.93 -4092.30 -4090.19 -4087.65 -4074.82 -4057.94 -4033.92 -4021.47 -4006.74 -4009.02 -3990.58 -3979.97 -3972.37 -3959.96 -3952.74 -3941.38 -3937.43 -3935.12 -3931.90 -3928.11 -3925.60 -3923.06 -3923.13
-4176.11 -4176.03 -4181.32 -4182.78 -4185.24 -4188.15 -4189.65 -4194.96 -4200.35 -4203.51 -4212.24 -4219.27 -4229.60 -4238.57 -4248.80 -4261.29 -4275.41 -4283.24 -4294.57 -4298.41 -4303.41 -4304.55 -4303.10 -4302.69 -4300.15 -4297.66 -4294.78 -4291.80 -4292.02 -4292.05 -4296.01 -4297.41 -4297.75 -4297.66 -4297.72 -4295.76 -4299.03 -4305.10 -4288.28 -4272.56 -4040.68 -3531.76 -2692.56 -1359.33 -985.89 -966.48 -1131.99 -1643.97 -1531.33 -1185.12 -969.99 -1338.48 -2189.07 -3225.55 -3497.82 -3003.70 -2525.83 -2482.95 -2424.55 -2824.30 -3033.62 -3388.69 -3396.88 -3518.32 -3490.60 -3410.18 -3200.04 -3417.99 -3191.41 -3215.56 -2731.47 -2450.89 -2555.99 -2653.68 -2629.97 -2425.61 -2433.22 -2294.02 -2771.58 -2294.71 -2393.65 -2736.52 -2608.67 -3056.47 -2754.92 -2986.76 -3250.52 -3574.44 -3671.71 -3833.42 -3958.97 -4023.14 -4035.03 -4030.71 -4022.20 -4014.02 -4007.76 -4007.39 -4003.03 -4002.35 -4003.38 -4005.52 -4009.40 -4019.14 -4028.13 -4037.04 -4046.39 -4064.44 -4082.24 -4087.52 -4089.41 -4092.66 -4095.73 -4096.75 -4097.16 -4097.66 -4097.19 -4097.05 -4096.22 -4094.45 -4093.78 -4075.74 -4053.41 -4042.36 -4021.81 -4009.24 -4000.05 -3989.66 -3977.80 -3971.66 -3962.43 -3955.90 -3949.07 -3945.61 -3940.76 -3936.70 -3935.39 -3931.59 -3929.13 -3925.86 -3925.94
-4185.95 -4185.87 -4189.97 -4190.21 -4192.16 -4193.63 -4196.28 -4199.89 -4203.74 -4210.50 -4219.39 -4223.60 -4229.24 -4245.79 -4252.03 -4267.22 -4275.38 -4287.62 -4298.01 -4302.86 -4306.02 -4309.00 -4308.21 -4304.83 -4301.18 -4298.75 -4293.67 -4291.03 -4290.82 -4292.87 -4296.84 -4298.88 -4299.02 -4299.28 -4300.20 -4300.46 -4303.19 -4301.72 -4299.29 -4262.01 -4055.34 -3468.45 -2272.96 -1646.71 -1516.40 -1977.76 -2590.12 -2669.58 -2730.91 -2169.35 -1439.34 -1757.11 -2352.76 -3469.02 -3837.46 -3673.16 -3585.32 -3156.31 -3333.04 -3712.89 -3661.51 -3905.30 -3920.15 -3933.44 -3884.34 -3892.57 -3876.02 -3624.02 -3839.32 -3612.53 -3264.17 -3311.93 -3159.48 -3166.15 -3168.37 -2924.69 -2975.69 -3061.75 -2908.53 -3097.75 -3243.43 -3196.73 -3368.58 -3552.58 -3362.06 -3292.70 -3740.08 -3934.48 -3995.65 -3998.45 -4008.97 -4043.03 -4044.98 -4045.10 -4037.43 -4029.94 -4023.08 -4017.87 -4013.21 -4013.02 -4009.84 -4010.22 -4014.49 -4023.74 -4035.91 -4047.57 -4055.35 -4068.78 -4082.31 -4089.72 -4091.40 -4093.97 -4095.83 -4097.32 -4097.92 -4097.84 -4098.36 -4098.76 -4097.86 -4094.59 -4085.71 -4067.56 -4052.58 -4036.51 -4025.90 -4010.40 -4000.73 -3990.21 -3977.45 -3970.55 -3960.61 -3958.58 -3951.13 -3946.44 -3943.59 -3940.33 -3936.64 -3934.35 -3932.10 -3928.65 -3928.73
-4197.26 -4196.67 -4199.94 -4202.95 -4204.59 -4206.92 -4210.04 -4211.85 -4214.89 -4217.97 -4221.26 -4229.61 -4240.37 -4249.68 -4258.05 -4270.78 -4281.44 -4292.83 -4302.22 -4309.04 -4313.83 -4313.93 -4313.08 -4312.55 -4307.60 -4302.96 -4296.03 -4295.55 -4293.94 -4294.87 -4297.22 -4300.35 -4300.44 -4300.75 -4302.15 -4305.51 -4306.49 -4302.13 -4303.09 -4258.88 -4136.98 -3110.94 -2575.15 -1974.56 -2301.09 -2672.69 -3190.42 -3642.66 -3479.09 -3308.98 -2244.40 -2227.21 -2695.74 -3348.01 -3826.80 -3941.69 -3931.67 -3920.17 -3874.93 -4016.10 -4142.36 -4117.36 -4128.83 -4139.14 -4102.99 -4074.81 -4075.22 -4027.64 -3989.83 -3805.82 -3635.70 -3498.16 -3427.82 -3675.11 -3616.57 -3348.96 -3393.99 -3441.48 -3456.03 -3431.75 -3706.52 -3726.47 -3755.50 -3703.68 -3783.69 -3680.02 -3782.41 -4005.08 -4064.75 -4044.04 -4039.60 -4051.68 -4051.29 -4052.87 -4047.77 -4040.61 -4034.55 -4027.66 -4025.25 -4022.32 -4016.48 -4017.39 -4024.29 -4028.67 -4044.09 -4059.96 -4069.22 -4074.91 -4087.40 -4092.45 -4092.72 -4094.34 -4095.84 -4097.94 -4098.93 -4098.68 -4099.58 -4099.57 -4098.62 -4096.70 -4087.03 -4067.14 -4055.85 -4037.29 -4027.61 -4012.04 -4002.55 -3988.32 -3980.76 -3970.97 -3964.77 -3960.64 -3956.04 -3950.04 -3946.38 -3943.33 -3939.57 -3936.96 -3934.43 -3931.41 -3931.49
-4208.99 -4208.91 -4211.71 -4218.83 -4218.11 -4217.22 -4216.78 -4220.01 -4222.79 -4226.37 -4231.53 -4237.41 -4246.66 -4253.81 -4264.32 -4274.05 -4286.79 -4298.28 -4306.18 -4313.31 -4320.27 -4320.92 -4321.39 -4318.46 -4317.50 -4308.81 -4305.10 -4301.75 -4299.21 -4297.57 -4300.54 -4302.69 -4302.90 -4303.81 -4304.49 -4306.03 -4305.43 -4302.73 -4305.22 -4258.35 -4038.85 -3626.42 -3028.29 -2824.99 -2974.21 -3536.00 -3945.38 -4134.52 -4051.54 -3584.54 -3164.82 -2672.56 -3005.47 -3162.02 -3790.72 -4027.47 -4108.05 -4139.20 -4148.61 -4177.17 -4182.77 -4181.71 -4178.21 -4171.14 -4169.12 -4171.14 -4158.30 -4154.56 -4153.34 -4114.99 -4074.27 -3950.78 -3892.11 -3967.86 -3859.47 -3811.62 -3669.18 -3859.24 -3756.34 -3794.52 -4012.72 -4023.70 -4081.62 -4092.43 -4046.05 -3921.90 -3957.98 -4043.77 -4073.52 -4075.75 -4068.93 -4059.28 -4059.13 -4064.23 -4059.48 -4052.12 -4049.11 -4046.98 -4043.35 -4033.81 -4029.69 -4030.25 -4037.64 -4044.79 -4054.86 -4066.62 -4077.81 -4088.32 -4091.38 -4094.19 -4094.52 -4094.57 -4095.91 -4099.00 -4099.52 -4099.66 -4099.96 -4100.06 -4097.07 -4094.02 -4088.95 -4068.20 -4058.12 -4042.05 -4026.44 -4016.55 -4003.06 -3989.84 -3982.15 -3974.94 -3968.73 -3961.10 -3957.73 -3952.93 -3948.55 -3946.77 -3942.36 -3939.63 -3936.65 -3934.14 -3934.21
-4220.79 -4220.71 -4225.51 -4226.52 -4231.77 -4231.75 -4237.96 -4232.69 -4235.21 -4234.35 -4239.97 -4245.67 -4252.06 -4259.32 -4268.20 -4278.31 -4290.14 -4302.30 -4310.06 -4318.72 -4324.57 -4327.94 -4327.40 -4324.53 -4321.03 -4318.41 -4312.07 -4307.63 -4304.61 -4303.07 -4303.89 -4304.47 -4305.48 -4305.78 -4306.78 -4307.27 -4305.83 -4304.20 -4305.71 -4308.24 -4250.99 -3964.19 -3869.18 -3740.73 -3782.97 -4143.49 -4209.08 -4269.53 -4227.70 -4043.17 -3787.68 -3500.46 -3388.86 -3425.13 -3778.10 -4050.26 -4168.50 -4199.71 -4206.40 -4203.51 -4201.14 -4198.14 -4198.74 -4197.32 -4194.03 -4194.26 -4191.10 -4189.89 -4191.11 -4187.62 -4161.62 -4133.83 -4136.81 -4053.27 -4046.38 -4023.18 -4116.36 -4092.77 -4038.42 -4047.89 -4088.49 -4125.43 -4129.38 -4126.25 -4117.86 -4095.25 -4097.28 -4093.14 -4088.59 -4088.58 -4074.68 -4067.55 -4073.25 -4073.50 -4075.69 -4070.39 -4065.13 -4062.17 -4053.21 -4045.12 -4044.46 -4044.81 -4050.56 -4054.30 -4069.54 -4073.33 -4091.86 -4099.09 -4098.89 -4096.30 -4095.69 -4094.51 -4097.43 -4098.59 -4099.72 -4100.39 -4100.76 -4100.69 -4098.34 -4091.63 -4092.15 -4071.92 -4060.30 -4045.17 -4029.56 -4018.92 -4002.61 -3994.12 -3985.36 -3976.49 -3970.10 -3965.61 -3959.51 -3953.99 -3952.41 -3948.57 -3946.34 -3942.23 -3939.69 -3936.96 -3936.89
-4231.95 -4231.87 -4235.79 -4244.31 -4240.74 -4241.88 -4244.23 -4245.09 -4244.19 -4248.52 -4251.62 -4254.28 -4259.13 -4265.65 -4275.34 -4283.33 -4297.28 -4305.57 -4314.52 -4323.55 -4328.17 -4332.78 -4333.39 -4332.70 -4329.27 -4323.94 -4317.86 -4314.10 -4308.47 -4307.23 -4307.30 -4306.83 -4307.86 -4308.12 -4308.45 -4307.91 -4307.29 -4305.78 -4309.19 -4310.02 -4304.80 -4220.01 -4125.02 -4080.11 -4117.85 -4277.74 -4282.85 -4284.95 -4258.18 -4177.16 -4037.48 -3883.43 -3763.74 -3780.05 -4012.22 -4098.85 -4192.53 -4217.90 -4221.68 -4221.54 -4223.03 -4222.56 -4219.00 -4211.67 -4206.72 -4199.95 -4195.32 -4191.57 -4193.25 -4195.63 -4197.43 -4189.77 -4171.77 -4123.77 -4105.08 -4117.83 -4161.37 -4151.96 -4143.10 -4141.99 -4147.85 -4153.32 -4154.45 -4157.00 -4156.59 -4150.10 -4123.31 -4116.04 -4105.91 -4103.72 -4094.16 -4092.27 -4087.62 -4089.16 -4091.91 -4091.12 -4079.84 -4072.81 -4068.82 -4057.99 -4054.55 -4057.24 -4060.56 -4073.24 -4077.66 -4087.48 -4099.28 -4101.66 -4100.20 -4098.50 -4097.00 -4096.18 -4096.84 -4099.28 -4100.19 -4100.81 -4101.34 -4101.77 -4098.58 -4092.62 -4089.61 -4074.74 -4063.43 -4044.80 -4034.16 -4022.59 -4008.20 -3995.74 -3988.10 -3979.84 -3974.59 -3966.27 -3963.17 -3958.85 -3954.44 -3951.91 -3948.59 -3944.72 -3941.92 -3939.44 -3939.52
-4242.05 -4241.96 -4248.57 -4251.24 -4254.80 -4257.53 -4258.59 -4257.64 -4259.48 -4258.39 -4259.51 -4261.47 -4262.80 -4272.29 -4278.38 -4288.87 -4299.02 -4308.50 -4320.41 -4326.65 -4332.38 -4336.98 -4338.90 -4339.17 -4336.67 -4332.11 -4325.96 -4320.36 -4317.70 -4311.29 -4310.60 -4309.48 -4309.74 -4310.13 -4309.56 -4309.02 -4307.56 -4307.04 -4309.72 -4307.96 -4298.23 -4290.53 -4304.35 -4288.44 -4303.69 -4298.92 -4297.49 -4284.40 -4269.32 -4233.57 -4180.49 -4119.34 -4084.51 -4132.76 -4137.25 -4188.47 -4218.52 -4224.63 -4227.99 -4234.33 -4234.11 -4235.97 -4239.00 -4232.91 -4230.73 -4216.05 -4197.39 -4193.80 -4202.09 -4201.42 -4201.36 -4191.91 -4186.66 -4173.53 -4164.58 -4176.05 -4173.83 -4171.92 -4172.16 -4171.15 -4170.68 -4167.18 -4164.00 -4163.41 -4159.35 -4152.75 -4142.87 -4128.19 -4124.05 -4125.09 -4114.65 -4105.41 -4097.92 -4098.00 -4104.32 -4104.89 -4098.46 -4086.90 -4075.90 -4071.59 -4067.47 -4065.94 -4073.29 -4082.87 -4092.86 -4106.57 -4103.69 -4102.99 -4102.33 -4100.72 -4098.45 -4098.63 -4100.11 -4101.71 -4102.04 -4102.18 -4101.97 -4102.01 -4102.42 -4104.36 -4099.48 -4075.17 -4062.10 -4048.01 -4035.04 -4023.84 -4012.27 -4001.12 -3992.39 -3981.52 -3976.04 -3969.80 -3966.39 -3961.14 -3956.46 -3954.20 -3950.27 -3947.98 -3944.47 -3942.15 -3942.10
