-5166.23 -5167.26 -5180.97 -5201.09 -5229.82 -5264.14 -5312.44 -5357.46 -5390.40 -5427.90 -5470.40 -5502.06 -5537.88 -5562.46 -5593.21 -5611.95 -5632.81 -5650.56 -5667.21 -5679.11 -5687.68 -5666.54 -5642.41 -5614.00 -5617.47 -5819.74 -5961.53 -4147.83 -1491.82 126.44 185.22 206.85 228.95 244.55 323.51 368.30 410.80 452.21 490.53 542.45 607.84 642.56 515.68 652.66 799.62 965.97 1040.47 921.34 565.97 443.81 400.22 378.42 351.55 341.75 333.68 324.29 309.80 290.76 278.42 268.19 257.25 265.88 266.83 254.83 279.41 290.01 309.28 286.81 334.56 347.82 310.54 289.68 293.27 322.97 335.95 361.82 381.54 395.26 407.54 423.00 433.71 450.21 466.74 484.42 496.78 517.26 527.20 537.93 540.00 540.47 528.13 520.48 504.10 457.44 452.15 476.05 480.42 484.11 493.20 504.25 734.27 872.57 806.64 454.09 299.52 230.40 190.85 -359.84 -1851.49 -4706.03 -4572.83 -4591.49 -4764.67 -5065.88 -5289.26 -5561.86 -5687.25 -5673.31 -5451.08 -4176.44 -2200.21 -1049.28 -891.05 -1116.71 -1333.83 -2288.24 -2977.42 -3967.91 -4235.85 -4284.16 -4256.40 -4234.19 -4201.52 -4182.76 -4174.57 -4167.22 -4162.37 -4154.92 -4150.92 -4145.20 -4144.33
-5178.96 -5178.88 -5199.93 -5206.79 -5254.39 -5281.52 -5342.88 -5367.36 -5406.21 -5450.73 -5488.79 -5515.12 -5552.23 -5574.35 -5608.14 -5618.08 -5644.77 -5658.02 -5675.35 -5688.54 -5693.92 -5678.56 -5642.38 -5617.68 -5634.56 -5845.00 -5945.18 -3402.63 -467.01 161.20 199.13 233.97 276.31 292.25 323.93 402.50 427.47 477.12 507.63 564.29 645.82 694.28 576.89 647.27 763.32 971.30 1083.70 853.20 619.33 543.47 481.59 418.46 375.70 371.04 363.45 343.69 333.17 313.38 303.83 300.60 310.46 353.01 329.98 359.00 378.12 366.59 343.44 334.70 325.63 311.36 298.97 296.20 305.46 326.34 347.80 359.88 375.22 391.08 401.32 418.86 434.28 450.98 468.39 486.38 502.34 521.11 534.77 544.47 560.03 559.52 550.13 528.38 510.75 506.18 485.40 482.69 481.12 486.51 503.50 535.18 654.75 818.84 923.99 599.29 356.95 228.76 187.24 128.94 -1929.58 -4669.76 -4606.23 -4598.58 -4853.49 -5119.49 -5318.62 -5551.40 -5672.33 -5665.32 -5302.31 -4833.79 -2154.00 -1088.25 -887.62 -1043.59 -1144.64 -2120.32 -2831.47 -3611.91 -4099.58 -4091.82 -4242.46 -4231.34 -4206.77 -4188.95 -4177.69 -4166.64 -4162.73 -4158.15 -4150.63 -4143.57 -4143.64
-5198.41 -5198.33 -5220.45 -5234.32 -5266.68 -5306.84 -5342.24 -5381.89 -5413.86 -5469.83 -5493.59 -5530.21 -5554.70 -5578.88 -5609.23 -5633.97 -5645.90 -5669.72 -5682.54 -5699.55 -5704.50 -5681.33 -5564.81 -5566.69 -5473.46 -5135.75 -4438.61 -2330.21 -506.04 185.86 215.32 241.99 276.99 325.23 341.30 377.36 466.71 485.57 516.74 571.80 653.76 777.13 751.73 647.87 727.06 845.24 972.99 986.76 725.83 640.90 538.11 434.20 409.82 396.03 393.20 369.10 355.96 341.29 378.03 371.60 364.87 407.85 404.42 409.60 413.04 388.19 359.64 343.97 337.07 327.14 320.52 316.59 318.98 336.97 346.39 354.51 369.30 388.57 401.22 413.97 434.72 456.30 471.50 485.52 507.94 527.22 543.17 554.88 566.03 575.53 577.44 560.88 548.28 526.10 501.91 491.73 483.20 490.12 528.29 547.50 595.16 747.14 951.92 692.69 432.97 277.47 183.39 122.06 -578.33 -3670.00 -4452.21 -4638.95 -4873.42 -4991.19 -5373.98 -5541.92 -5645.19 -5623.40 -5449.82 -3955.56 -2335.26 -1053.33 -765.41 -877.95 -1258.81 -1758.84 -2890.52 -3254.11 -3498.53 -3920.66 -4238.96 -4226.46 -4210.65 -4196.46 -4178.34 -4167.11 -4161.23 -4155.65 -4149.41 -4140.78 -4140.85
-5220.68 -5220.60 -5242.60 -5259.08 -5296.08 -5320.86 -5362.63 -5398.57 -5442.72 -5472.54 -5501.85 -5542.41 -5567.58 -5591.17 -5620.37 -5639.16 -5657.80 -5679.47 -5683.36 -5684.88 -5677.35 -5583.38 -5398.33 -5108.70 -4687.86 -4625.75 -2012.52 -368.64 174.52 205.18 219.77 258.92 288.69 358.00 387.60 393.00 436.84 508.57 556.82 643.34 754.50 821.82 808.34 712.66 783.20 911.66 1012.99 957.08 764.32 574.56 523.31 469.32 449.54 431.75 416.54 401.96 395.91 404.73 410.05 427.79 420.03 465.17 470.38 448.36 420.59 398.72 376.37 353.34 345.36 337.51 329.49 330.85 330.24 339.25 346.21 357.81 375.12 384.64 398.92 412.93 436.66 454.45 471.85 492.66 512.62 526.34 557.72 562.80 575.20 601.13 599.90 591.17 565.67 546.58 503.86 496.70 491.63 482.33 504.03 539.96 585.63 642.72 973.41 857.89 388.25 197.98 132.80 92.51 -1767.00 -4074.55 -4179.76 -4362.35 -4467.89 -4583.11 -5454.72 -5495.95 -5579.28 -5564.93 -5344.57 -3969.85 -2366.57 -880.36 -667.04 -789.35 -1077.63 -1765.70 -2401.29 -2786.55 -3156.92 -3687.57 -4171.97 -4199.76 -4211.40 -4195.79 -4181.23 -4165.84 -4158.06 -4151.84 -4145.94 -4138.70 -4138.77
-5247.96 -5247.80 -5261.97 -5294.57 -5312.63 -5337.81 -5386.97 -5420.98 -5449.61 -5495.94 -5525.23 -5559.01 -5581.26 -5601.50 -5628.18 -5645.06 -5662.21 -5673.69 -5682.79 -5615.49 -5519.79 -5236.18 -4301.30 -3643.47 -3513.49 -2604.66 -1293.26 162.50 176.26 202.40 247.57 287.73 338.12 391.11 425.38 469.10 479.84 505.45 607.52 624.34 723.04 842.66 888.41 819.41 870.35 975.51 1024.06 957.57 826.72 637.65 541.42 497.29 469.52 462.17 441.06 429.09 413.83 424.70 459.14 494.13 484.56 485.00 456.81 435.32 420.97 400.30 387.53 367.24 351.11 347.84 334.67 333.26 333.68 339.83 345.86 355.73 362.27 375.91 397.03 405.95 435.74 446.38 460.91 494.34 512.48 525.73 562.29 577.14 592.01 607.58 615.18 616.03 589.29 565.20 546.17 520.21 497.75 484.98 502.46 534.45 562.01 632.35 833.26 804.62 477.04 194.36 131.51 92.95 -1739.79 -3697.72 -3875.10 -4097.56 -4402.71 -4656.52 -5138.98 -5513.12 -5552.46 -5566.62 -5281.10 -3941.79 -2198.72 -774.92 -665.15 -661.78 -1000.24 -1488.23 -1796.54 -2352.90 -3285.09 -3626.08 -3679.00 -3998.75 -4171.01 -4199.53 -4180.04 -4168.18 -4157.68 -4149.04 -4143.71 -4136.48 -4136.55
-5278.28 -5278.19 -5298.69 -5322.08 -5343.23 -5386.70 -5401.66 -5443.08 -5480.29 -5519.44 -5540.31 -5565.81 -5589.29 -5612.21 -5635.43 -5638.41 -5649.43 -5642.92 -5475.80 -5422.82 -4975.25 -4447.07 -3553.81 -2452.04 -2165.79 -1297.68 -263.70 153.59 191.75 223.46 265.50 315.43 363.22 423.79 491.94 503.87 546.23 516.99 581.63 658.32 802.66 892.17 979.66 936.09 934.55 960.64 916.07 875.91 665.54 653.27 600.57 535.54 502.05 488.22 471.63 462.57 448.38 462.59 512.14 545.78 527.65 484.07 459.15 441.64 433.78 408.65 394.55 373.90 363.88 352.68 346.25 336.65 335.49 339.22 345.16 349.63 363.29 375.81 392.23 408.32 419.42 450.59 472.21 485.39 511.01 529.74 555.32 580.85 599.11 614.22 626.75 628.04 610.70 577.56 558.32 520.09 503.26 491.50 498.94 517.27 533.84 554.43 721.28 806.71 451.21 207.65 150.19 76.02 -1207.45 -3338.45 -3848.92 -4206.83 -4359.45 -4721.74 -5018.52 -5413.32 -5549.91 -5514.04 -5171.27 -3993.00 -1666.62 -909.38 -524.97 -583.15 -664.94 -1209.38 -1787.20 -2128.12 -2647.15 -2909.09 -3402.00 -3873.48 -4156.01 -4195.49 -4177.91 -4167.27 -4156.59 -4150.39 -4143.07 -4136.24 -4136.32
-5309.28 -5309.19 -5331.34 -5346.28 -5372.58 -5412.33 -5436.23 -5468.95 -5495.63 -5529.64 -5554.05 -5579.70 -5604.87 -5619.83 -5617.47 -5602.53 -5484.42 -5359.65 -5033.90 -4421.81 -3770.16 -3489.26 -2570.61 -2136.04 -1936.76 -293.55 145.21 176.70 223.67 247.36 300.34 309.37 371.51 420.86 527.30 591.61 622.42 543.45 595.16 625.09 781.71 832.91 974.35 976.24 933.02 888.05 849.20 789.24 698.36 668.17 607.36 562.74 519.09 499.70 497.52 490.79 468.69 483.29 536.48 561.68 535.44 506.17 467.37 447.14 443.64 419.01 402.92 380.88 369.39 358.78 351.29 344.52 338.08 338.50 344.80 348.59 361.66 370.78 387.96 403.07 415.82 437.78 458.23 481.93 504.39 527.42 548.90 578.04 607.06 623.84 628.45 631.11 609.42 564.68 551.04 529.47 500.98 480.44 477.80 487.42 485.33 473.82 682.19 785.78 367.68 207.70 181.40 -288.37 -1942.15 -3528.43 -4021.28 -4317.79 -4584.67 -4833.89 -5073.47 -5374.70 -5528.35 -5474.71 -4965.75 -3953.81 -1541.73 -694.06 -423.76 -489.11 -617.90 -953.65 -1409.17 -1510.74 -2104.73 -2879.79 -3578.54 -3687.28 -4125.34 -4189.57 -4177.64 -4162.90 -4153.80 -4145.56 -4139.88 -4136.88 -4136.95
-5340.26 -5340.28 -5355.63 -5382.50 -5410.79 -5440.82 -5462.62 -5495.66 -5515.27 -5544.23 -5567.70 -5587.92 -5590.62 -5572.25 -5546.12 -5306.02 -5012.61 -4349.50 -3856.17 -3375.36 -3201.09 -2140.40 -2131.39 -1918.61 -891.00 127.64 165.47 189.51 223.34 273.20 339.06 398.31 371.93 383.50 461.23 593.22 647.64 636.31 606.20 653.14 696.19 789.23 921.68 972.63 929.02 833.31 800.52 756.16 699.02 664.08 618.92 586.83 542.54 518.98 509.15 502.97 508.14 545.93 574.90 560.66 533.51 516.79 481.46 455.33 448.70 437.82 415.89 386.68 375.11 366.65 353.23 345.08 342.16 342.52 343.67 348.17 353.62 368.55 385.69 398.97 421.83 441.87 449.01 476.18 503.74 533.01 552.18 587.65 606.07 623.70 632.08 632.23 611.53 562.35 549.32 528.47 505.41 471.94 459.82 454.61 452.86 420.72 585.05 676.19 402.36 201.22 154.15 -145.61 -1370.78 -3356.76 -3985.77 -4376.50 -4684.03 -4881.17 -5098.64 -5362.51 -5501.49 -5434.09 -4961.67 -3325.62 -1489.64 -590.28 -407.02 -452.55 -602.54 -803.19 -1032.29 -1444.66 -2004.06 -2795.22 -3175.88 -3619.92 -4098.88 -4166.72 -4174.94 -4164.75 -4147.13 -4140.25 -4134.22 -4137.96 -4138.03
-5373.09 -5373.00 -5396.59 -5413.60 -5429.74 -5464.81 -5493.35 -5516.65 -5551.11 -5571.31 -5573.70 -5555.77 -5518.39 -5329.27 -4925.29 -4481.85 -3823.16 -3438.52 -2874.72 -2325.90 -1826.09 -1649.30 -1735.55 -1414.44 -348.00 -33.19 164.36 211.20 236.59 311.83 370.80 457.33 414.84 451.31 493.11 528.03 632.50 699.85 684.37 711.98 800.48 859.97 945.88 926.28 860.22 810.28 770.72 725.96 692.82 658.79 615.09 582.89 551.90 537.39 526.51 525.60 542.59 564.95 583.06 553.67 543.15 517.73 514.01 479.27 460.05 453.36 417.72 390.89 382.15 368.25 359.65 355.26 349.21 343.61 345.33 348.00 355.85 370.48 383.73 388.35 424.61 437.03 447.49 476.35 494.46 527.86 556.06 579.20 603.25 622.90 627.93 624.36 609.40 577.04 546.43 527.56 495.19 474.42 444.69 418.72 412.12 394.95 416.47 433.40 336.49 195.99 128.40 29.28 -77.91 -2595.76 -4120.03 -4528.66 -4693.53 -4810.09 -5113.59 -5314.41 -5399.72 -5195.49 -4854.12 -2933.78 -1793.84 -494.49 -361.13 -393.81 -564.05 -697.56 -926.49 -1389.83 -1811.13 -2535.05 -3193.92 -3529.98 -4105.08 -4158.08 -4170.61 -4160.12 -4148.51 -4142.99 -4135.98 -4137.89 -4138.93
-5411.87 -5411.77 -5431.45 -5450.83 -5467.09 -5494.61 -5527.44 -5552.46 -5573.33 -5583.27 -5558.84 -5446.25 -5105.86 -4944.60 -4445.05 -3774.71 -3281.81 -2663.15 -2220.10 -1958.56 -1578.13 -1533.62 -1639.21 -1279.92 -288.81 158.18 191.12 219.86 251.63 310.76 403.88 474.98 465.66 467.54 586.87 577.53 678.07 794.09 782.39 744.54 776.35 867.79 948.68 868.00 808.85 778.26 725.85 698.39 668.65 639.24 613.69 571.67 566.97 555.33 551.38 565.85 582.21 594.22 587.26 575.20 572.01 529.68 517.30 485.11 469.02 456.65 440.36 412.07 395.41 376.00 366.67 359.33 351.79 346.62 346.18 347.84 357.96 368.95 381.62 391.27 408.90 426.72 443.16 470.76 488.71 523.05 542.65 570.16 601.12 625.11 628.19 618.09 600.97 581.57 539.35 524.13 502.20 484.39 455.79 421.88 377.09 352.28 339.56 322.81 274.43 182.10 158.51 96.60 14.40 -2640.49 -4258.71 -4280.00 -4711.18 -4818.27 -5027.47 -5177.72 -5274.16 -4961.12 -4301.62 -2612.19 -840.34 -410.80 -315.48 -385.74 -502.97 -679.30 -903.88 -1258.84 -1799.17 -2233.46 -2937.83 -3557.59 -3921.50 -4149.71 -4168.92 -4160.97 -4149.58 -4145.31 -4145.40 -4140.12 -4140.20
-5455.06 -5454.95 -5472.89 -5484.81 -5518.89 -5542.78 -5564.23 -5581.95 -5597.01 -5628.40 -5562.80 -5310.16 -4751.77 -4078.46 -3332.39 -3129.63 -2828.77 -2575.04 -2172.75 -1871.28 -1608.91 -1511.32 -1673.70 -1073.36 -108.95 179.18 194.03 227.90 292.01 367.91 470.94 541.45 546.79 542.27 499.30 581.10 728.64 817.84 855.02 839.62 836.16 918.01 947.65 854.68 774.25 763.68 712.45 670.21 643.89 623.77 608.53 589.70 579.95 573.63 573.01 586.40 597.59 636.94 623.08 599.08 592.85 552.73 535.38 499.65 482.33 463.75 447.57 423.95 406.67 393.68 368.03 366.64 354.91 347.40 346.56 348.37 354.80 364.10 375.67 387.56 408.89 423.24 446.40 461.83 503.35 524.56 546.83 575.06 606.26 624.85 625.71 618.52 599.38 580.33 548.37 523.95 505.49 478.15 464.84 416.60 394.08 355.26 330.79 279.37 211.09 189.52 139.97 103.17 -1.63 -1290.86 -2871.47 -4019.86 -4721.49 -4824.25 -4912.84 -5077.50 -5110.92 -4688.65 -3610.41 -2023.15 -694.89 -309.80 -295.55 -412.27 -547.01 -746.14 -955.57 -1261.41 -1631.07 -2212.21 -2975.85 -3391.15 -3912.13 -4131.68 -4170.13 -4162.55 -4157.97 -4155.87 -4154.06 -4144.70 -4144.78
-5505.65 -5506.00 -5520.87 -5538.62 -5562.47 -5578.39 -5645.35 -5662.61 -5671.93 -5699.88 -5520.37 -5236.66 -4368.11 -3715.22 -3223.36 -3009.76 -2895.02 -2661.50 -2302.09 -1842.56 -1647.38 -1646.12 -1484.15 -373.43 -32.33 185.65 214.14 276.09 339.10 422.06 472.16 537.37 595.60 650.69 588.99 586.23 701.73 742.57 860.87 909.19 983.48 975.42 910.09 808.07 747.23 702.27 686.13 672.70 636.92 617.36 608.19 590.44 589.28 597.13 609.67 631.73 674.30 702.35 659.25 638.21 663.92 662.12 539.51 526.41 508.87 471.08 445.50 419.65 416.06 404.33 379.17 368.32 357.96 352.15 347.33 347.82 352.11 360.75 370.83 381.90 399.61 420.57 449.51 470.75 492.98 517.14 536.39 572.91 591.82 616.23 621.47 612.48 598.10 583.01 549.78 528.90 509.14 467.15 454.57 417.30 397.05 371.54 326.95 265.47 220.29 171.37 125.22 114.84 84.82 -94.24 -2019.14 -3976.01 -4806.62 -4948.95 -4965.02 -5019.87 -4866.61 -4263.91 -2351.62 -940.46 -379.90 -264.38 -272.93 -394.61 -568.19 -849.56 -1319.98 -1594.58 -1779.95 -2249.17 -3185.96 -3739.48 -4062.86 -4154.54 -4173.07 -4163.81 -4155.26 -4164.10 -4160.96 -4154.15 -4154.24
-5590.24 -5590.09 -5607.09 -5612.72 -5625.47 -5648.41 -5666.98 -5669.93 -5694.94 -5480.45 -5180.52 -4768.82 -4231.13 -3547.92 -3296.25 -3144.76 -3097.64 -2917.00 -2443.26 -1839.31 -1653.45 -1755.26 -1280.41 2.99 173.45 196.18 211.31 257.03 298.30 367.99 406.57 464.75 564.28 696.76 692.16 664.09 667.35 666.54 766.55 913.63 985.57 835.17 772.75 787.52 743.80 669.56 658.95 635.19 618.63 613.72 596.64 586.35 601.82 609.86 633.19 644.42 742.68 756.34 725.05 699.77 695.74 664.64 589.48 541.51 514.55 473.84 462.55 446.34 426.14 400.58 386.79 373.46 359.78 355.05 349.88 349.19 353.69 360.53 367.42 381.13 394.89 414.61 441.17 460.95 479.15 512.85 535.36 564.66 586.14 604.16 610.25 606.95 595.19 567.43 538.82 515.79 499.34 461.17 444.01 381.30 363.55 343.79 300.41 248.49 207.20 175.83 140.20 118.06 26.19 -368.23 -1698.44 -4011.04 -5123.89 -5090.21 -4991.27 -4889.49 -4471.40 -3764.36 -1655.16 -495.21 -281.34 -202.89 -292.85 -416.43 -541.02 -898.36 -1213.25 -1815.52 -2102.76 -2639.15 -3578.76 -3987.23 -4154.79 -4184.43 -4179.18 -4178.59 -4169.26 -4173.18 -4166.76 -4163.02 -4163.11
-5737.98 -5734.91 -5684.85 -5593.50 -5588.64 -5597.90 -5525.57 -5299.01 -5175.51 -4931.21 -4495.89 -3992.47 -3925.16 -3646.84 -3620.18 -3409.34 -3353.19 -3111.41 -2527.07 -1845.21 -1600.95 -1247.52 -361.84 161.63 178.59 213.16 245.12 279.16 318.29 370.75 446.03 500.40 598.59 664.56 733.27 757.67 799.03 804.25 834.96 910.18 933.32 872.70 749.88 692.64 682.51 644.32 617.26 605.18 602.05 578.03 577.53 574.37 588.56 596.99 625.24 648.63 730.10 754.74 786.03 763.01 732.27 658.04 614.14 545.95 526.68 492.17 474.42 455.05 432.17 405.45 391.56 378.67 365.41 358.87 352.54 351.53 353.47 357.77 368.14 384.58 397.29 410.43 428.54 449.82 475.90 505.41 529.92 545.64 578.95 595.53 599.66 596.48 588.31 558.46 523.32 498.90 471.72 441.03 398.59 378.29 350.07 312.83 282.23 222.49 196.71 167.50 141.04 122.68 -23.53 -712.94 -1299.99 -3645.32 -4844.66 -5091.05 -5005.53 -4906.74 -3760.35 -2670.47 -887.52 -425.88 -191.92 -201.48 -245.58 -367.28 -605.68 -982.12 -1432.76 -1939.81 -2319.83 -2995.02 -3768.49 -4124.61 -4193.35 -4190.45 -4187.82 -4184.89 -4181.70 -4178.76 -4174.87 -4175.84 -4175.94
-5596.13 -5596.22 -5314.34 -5247.33 -5163.36 -4924.78 -4783.04 -4507.95 -4258.02 -4084.27 -4056.10 -3879.43 -3802.85 -3809.29 -3818.27 -3771.23 -3629.33 -3205.24 -2530.03 -2004.66 -1380.41 -879.11 121.01 169.32 197.57 234.19 264.72 287.73 339.45 394.33 434.25 495.37 542.38 584.27 711.98 798.82 891.91 952.46 935.15 827.33 829.11 842.41 757.39 674.41 639.59 608.98 606.20 593.63 579.54 563.61 560.05 557.87 574.51 582.80 597.78 636.16 669.29 739.34 816.43 831.12 785.03 702.72 668.80 604.49 531.18 518.75 481.26 478.75 444.77 421.12 402.81 378.53 372.04 362.60 354.70 353.50 355.43 359.13 367.10 378.68 395.46 412.28 429.11 444.81 481.05 503.52 524.04 541.36 568.73 585.22 587.44 588.17 581.60 552.97 517.71 494.60 453.47 429.59 372.42 356.04 363.38 276.95 237.94 202.30 180.56 156.36 144.30 15.62 -339.33 -1117.59 -2044.31 -2607.98 -4408.41 -5075.77 -5063.04 -4809.25 -3594.45 -1836.22 -573.93 -280.21 -151.13 -196.07 -313.05 -476.31 -625.50 -855.10 -1384.05 -2079.65 -2773.09 -3543.17 -3766.32 -4093.67 -4202.38 -4203.47 -4193.60 -4194.40 -4193.24 -4191.09 -4193.00 -4186.50 -4186.60
-4633.30 -4634.61 -4601.53 -4396.86 -4429.92 -4078.28 -4046.39 -3925.24 -3908.90 -3868.00 -3857.44 -3853.68 -3874.29 -3887.55 -3881.73 -3887.69 -3795.32 -3484.11 -2678.26 -2096.14 -1411.73 -560.14 120.35 179.42 201.50 242.70 268.56 304.40 341.34 365.36 398.86 471.57 525.88 554.93 603.35 682.12 821.69 879.03 827.31 709.15 754.27 757.40 682.04 643.85 608.30 607.14 586.54 568.41 563.83 549.38 550.64 549.55 558.24 565.79 580.39 612.12 624.94 710.39 773.54 855.29 867.29 732.39 677.51 580.78 553.97 526.17 496.54 484.30 439.54 423.59 410.21 386.75 378.57 370.12 357.67 355.24 357.08 361.36 367.69 379.22 393.28 417.00 437.89 454.30 475.22 503.40 518.51 536.37 544.73 568.33 568.65 567.90 555.19 536.83 507.91 448.96 441.35 408.91 355.10 327.57 352.98 272.33 219.45 176.63 153.23 143.67 139.40 -185.26 -679.82 -1685.97 -2468.61 -2931.29 -4492.29 -5077.80 -5076.52 -4398.96 -3236.75 -1522.51 -472.23 -138.56 -135.62 -195.19 -325.27 -485.79 -600.33 -858.90 -1475.88 -2428.91 -3078.25 -3595.08 -3971.40 -4022.80 -4215.42 -4213.40 -4208.33 -4205.41 -4203.43 -4202.68 -4199.14 -4199.12 -4199.23
-3870.09 -3871.38 -3924.88 -3989.84 -3911.17 -3873.39 -3843.68 -3837.47 -3856.31 -3874.83 -3878.38 -3892.20 -3905.89 -3918.67 -3924.89 -3934.45 -3910.97 -3720.14 -3334.82 -2394.76 -1385.21 -465.15 145.48 178.17 205.67 233.81 264.09 279.33 318.14 368.71 405.46 474.97 590.56 655.50 704.52 723.15 787.89 854.88 794.13 640.88 731.02 710.77 617.77 593.86 588.27 578.77 557.57 548.99 546.00 533.43 538.12 538.78 543.09 553.48 571.46 596.78 618.66 667.35 743.96 795.15 842.50 755.86 689.58 615.48 609.19 552.54 517.24 491.93 449.34 431.50 397.43 389.38 383.65 368.21 359.83 356.68 356.78 360.87 366.79 381.15 395.85 414.59 431.14 449.17 480.47 494.25 511.87 529.16 540.63 546.36 547.57 541.73 541.21 527.62 509.51 473.91 448.79 431.27 412.77 348.26 264.95 270.51 201.27 167.06 135.80 132.27 41.69 -196.13 -780.85 -1662.55 -2324.65 -3780.32 -5044.67 -5241.64 -5058.75 -4536.78 -2703.36 -883.15 -199.37 -115.70 -126.15 -189.37 -257.18 -441.07 -541.60 -888.62 -1502.56 -2588.64 -3469.01 -3710.60 -3980.97 -4136.77 -4222.49 -4219.59 -4218.12 -4217.39 -4215.13 -4211.17 -4214.34 -4212.91 -4213.03
-3803.52 -3803.53 -3831.01 -3837.06 -3852.45 -3863.55 -3870.79 -3883.74 -3893.89 -3898.69 -3908.51 -3917.80 -3932.85 -3939.82 -3951.64 -3963.19 -3929.94 -3817.79 -3546.42 -2367.68 -2046.42 -858.69 36.67 162.30 198.65 223.56 251.42 283.46 321.63 339.04 396.11 454.84 558.07 619.95 742.81 693.18 707.04 742.30 690.42 643.14 683.36 667.39 615.28 570.93 543.57 537.17 536.02 529.94 520.74 522.10 529.64 531.25 535.40 548.75 562.95 597.18 625.85 667.00 688.69 763.55 855.94 789.07 692.03 697.61 676.88 599.76 531.19 507.69 462.29 442.13 408.57 389.56 381.53 367.08 362.88 359.35 360.87 364.72 369.66 384.92 401.43 412.29 437.66 452.40 468.63 489.24 509.64 521.16 528.91 532.35 529.21 533.11 539.02 531.11 519.55 473.04 456.22 425.69 421.75 348.70 253.82 227.48 182.40 143.93 108.41 89.63 -40.54 -455.63 -1343.59 -1635.60 -3412.17 -4529.21 -5164.64 -5342.43 -5131.07 -3970.47 -1677.70 -616.38 -168.19 -112.75 -136.71 -179.17 -250.56 -382.21 -557.81 -852.75 -1685.55 -2476.86 -3579.10 -3840.38 -4091.71 -4233.61 -4231.01 -4231.17 -4228.13 -4229.81 -4225.26 -4226.14 -4226.07 -4227.47 -4227.60
-3868.76 -3868.31 -3879.81 -3886.60 -3898.49 -3911.82 -3913.69 -3913.65 -3922.69 -3928.55 -3930.58 -3935.12 -3948.49 -3957.77 -3963.30 -3973.72 -3949.60 -3891.36 -3501.84 -2742.49 -1615.46 -655.74 24.68 167.91 192.32 212.57 229.45 245.09 276.78 307.27 352.04 420.75 469.75 577.38 630.73 551.71 610.96 628.20 594.22 566.42 562.90 558.62 527.65 511.83 522.84 512.65 511.93 509.32 512.87 513.25 517.34 519.11 531.10 547.11 565.45 585.83 610.77 647.24 696.12 762.87 832.54 843.49 811.72 804.76 760.73 627.98 567.73 512.52 476.99 451.23 423.95 398.13 380.38 371.73 363.33 361.31 361.88 367.38 374.58 390.83 402.74 422.30 445.36 464.52 481.85 498.92 506.91 510.82 513.23 512.61 512.65 516.89 520.57 513.99 496.07 475.80 459.98 445.13 392.70 291.03 215.53 198.84 154.22 104.62 84.11 62.82 -334.35 -1032.41 -1309.95 -1823.89 -3238.45 -4089.34 -5268.82 -5329.09 -4835.42 -3606.99 -1918.90 -504.31 -174.93 -109.95 -151.18 -181.89 -259.13 -388.11 -597.36 -843.29 -1737.21 -2386.90 -3212.45 -3965.15 -4173.17 -4237.89 -4237.13 -4239.64 -4241.12 -4241.60 -4239.79 -4241.79 -4243.40 -4242.40 -4242.58
-3901.90 -3901.76 -3908.35 -3921.26 -3923.86 -3930.32 -3934.88 -3950.25 -3944.67 -3949.24 -3955.76 -3955.67 -3962.51 -3967.18 -3977.44 -3982.09 -3958.91 -3755.43 -3363.64 -2691.17 -1823.78 -937.41 -189.01 154.64 169.78 207.85 213.19 235.05 281.86 300.61 344.73 367.64 395.46 505.68 567.76 521.65 474.32 478.70 496.16 491.73 502.34 506.09 495.46 501.09 503.39 499.29 502.27 498.54 499.87 504.32 510.09 516.63 525.78 545.16 563.20 585.63 618.28 668.47 683.79 753.79 842.33 881.59 873.98 819.33 789.57 677.91 651.14 612.00 506.58 493.94 446.09 404.86 387.30 373.42 365.76 361.92 363.24 367.73 379.53 393.94 413.88 430.37 447.71 459.06 485.96 494.05 501.09 506.72 507.96 502.29 500.81 503.80 504.18 497.91 460.58 433.82 416.29 454.03 365.60 225.77 175.11 152.72 117.79 75.29 22.99 -339.06 -1080.04 -1223.37 -1466.55 -1837.40 -3136.63 -4534.83 -5118.74 -5308.09 -4796.51 -3186.26 -1594.44 -307.95 -136.71 -110.75 -148.17 -196.42 -295.30 -412.62 -674.38 -914.35 -1353.44 -2306.82 -3270.95 -3864.95 -4191.65 -4241.95 -4244.65 -4250.41 -4256.37 -4255.36 -4253.22 -4254.12 -4256.75 -4257.11 -4257.21
-3931.56 -3931.93 -3938.53 -3944.37 -3954.68 -3953.20 -3955.34 -3961.48 -3956.81 -3959.86 -3972.64 -3977.01 -3978.30 -3983.15 -3986.59 -3981.27 -3901.96 -3628.67 -3186.93 -2408.51 -1226.80 -816.39 -84.53 121.47 147.92 190.59 209.33 228.08 232.49 263.78 312.28 342.02 368.48 426.12 517.25 468.22 441.33 446.80 449.06 458.84 464.22 472.46 476.56 482.50 480.21 488.42 483.38 485.71 492.75 499.47 503.40 515.60 529.89 548.13 558.56 573.63 605.25 641.94 678.84 715.38 825.23 835.08 818.17 768.53 723.77 739.38 736.73 698.95 583.13 583.20 477.40 422.26 388.77 375.95 368.32 362.02 362.66 367.61 379.34 389.93 413.34 428.43 440.97 458.22 471.37 490.70 497.35 500.34 499.00 493.59 487.03 480.78 479.68 470.52 452.64 392.69 374.40 360.70 260.13 205.49 177.78 102.01 92.57 -136.01 -379.54 -922.42 -1158.08 -1243.59 -1345.91 -1945.35 -3117.39 -4703.24 -5216.51 -5266.42 -5048.16 -3984.82 -1044.67 -598.70 -188.17 -137.11 -156.30 -208.68 -321.92 -472.78 -821.23 -1203.09 -1757.80 -2655.52 -3471.77 -3802.92 -4017.13 -4222.34 -4251.23 -4254.06 -4259.30 -4264.43 -4263.50 -4270.96 -4270.08 -4271.34 -4271.37
-3953.88 -3953.85 -3958.82 -3967.47 -3972.46 -3978.28 -3982.28 -3984.52 -3990.12 -3989.39 -3984.69 -3985.55 -3987.45 -3993.38 -3996.33 -3974.74 -3863.36 -3522.84 -2608.93 -1635.04 -987.24 -692.31 -652.98 -440.54 39.33 175.28 199.72 208.82 213.10 239.73 262.54 295.54 308.03 341.31 404.06 392.11 403.23 425.15 425.03 439.91 452.46 457.54 454.26 452.21 467.92 469.00 469.59 477.83 483.13 492.14 500.05 509.05 528.19 540.45 554.69 571.24 586.23 617.04 662.56 671.05 727.93 749.62 712.09 718.74 703.13 698.66 719.91 681.52 640.05 551.85 453.76 416.02 387.65 376.17 367.31 361.01 362.15 368.24 376.90 401.25 415.42 432.20 444.22 457.29 471.10 486.25 488.57 488.16 487.44 479.95 472.97 470.75 457.91 445.64 428.44 394.65 359.15 292.22 232.46 198.54 169.31 120.50 -219.78 -702.45 -1016.92 -1197.31 -1217.41 -1235.40 -1349.46 -2145.80 -2999.62 -5052.50 -5222.11 -5403.25 -5226.15 -4067.77 -2250.88 -1140.83 -416.12 -205.28 -196.74 -224.80 -366.24 -587.82 -981.78 -1396.61 -2089.99 -2730.39 -3467.58 -3754.12 -4129.43 -4230.58 -4265.22 -4263.36 -4265.60 -4272.59 -4277.91 -4280.11 -4280.66 -4283.99 -4284.05
-3973.74 -3973.68 -3977.83 -3986.41 -3988.19 -3991.54 -3993.38 -3995.19 -3999.39 -3998.77 -3999.36 -3999.55 -4000.22 -4001.09 -4002.39 -3974.30 -3833.27 -3372.30 -2154.77 -1482.87 -948.86 -619.93 -618.23 -652.27 -122.65 157.10 183.64 187.57 202.96 228.40 246.48 271.60 297.83 327.99 357.51 376.15 370.13 388.30 398.98 396.81 411.94 417.50 436.51 438.34 444.81 450.33 454.20 470.21 475.62 486.57 496.01 508.75 524.17 539.82 551.62 565.23 584.04 595.72 632.41 658.24 678.50 686.69 657.12 629.42 628.72 627.66 607.38 613.84 572.13 504.10 465.77 422.87 393.21 381.58 366.10 359.85 362.12 368.97 376.23 389.09 412.84 423.65 446.59 455.55 474.56 483.63 485.69 484.82 481.93 474.98 462.93 447.64 416.74 405.45 402.28 396.57 365.59 283.58 249.77 217.37 168.52 117.90 -104.01 -673.85 -1117.73 -1127.96 -1147.41 -1185.03 -1450.34 -2359.71 -3519.21 -4939.91 -5377.83 -5426.26 -5321.39 -4622.31 -3370.50 -1853.16 -1330.56 -244.24 -270.84 -282.87 -403.85 -714.43 -974.84 -1566.46 -2227.89 -2959.25 -3447.22 -3884.68 -4168.96 -4260.60 -4264.54 -4259.74 -4270.92 -4283.30 -4285.72 -4289.71 -4293.20 -4295.91 -4295.99
-3990.84 -3990.78 -3995.91 -4003.82 -4004.03 -4005.08 -4008.38 -4011.35 -4012.78 -4013.42 -4011.92 -4011.32 -4007.87 -4010.02 -4009.69 -3978.63 -3799.89 -3480.00 -2387.58 -1615.52 -1064.37 -688.50 -616.94 -659.95 -221.44 142.35 154.21 171.65 174.31 197.56 220.81 242.80 283.67 301.83 311.80 333.31 351.17 360.51 382.03 383.58 384.91 384.77 396.62 411.62 430.13 435.62 448.31 458.42 471.80 484.88 493.51 506.93 520.75 536.74 550.68 562.84 586.01 603.46 630.10 640.71 626.32 615.32 633.99 602.29 574.55 571.22 580.16 531.36 521.05 477.52 463.29 422.68 384.71 375.13 361.16 357.68 358.68 364.05 372.69 395.80 415.53 430.34 444.35 452.91 469.41 484.97 486.84 484.94 478.25 462.51 452.67 432.12 408.66 379.38 372.55 355.53 299.17 247.51 236.39 202.83 150.24 120.20 -92.70 -726.33 -1088.27 -1108.36 -1114.77 -1202.37 -1382.10 -2602.05 -3926.06 -4792.03 -5403.40 -5453.52 -5446.44 -5222.60 -4652.99 -2836.50 -1817.77 -881.45 -323.83 -362.83 -520.92 -880.45 -1263.45 -1808.67 -2555.49 -3241.34 -3580.00 -3975.54 -4255.79 -4259.66 -4264.02 -4261.24 -4268.12 -4287.73 -4290.15 -4294.21 -4298.81 -4303.04 -4303.12
-4006.51 -4006.44 -4012.33 -4012.62 -4021.68 -4021.33 -4022.17 -4023.23 -4024.80 -4022.98 -4024.95 -4020.93 -4017.05 -4016.44 -4015.10 -3997.94 -3890.58 -3721.77 -3050.41 -2450.73 -1475.87 -995.74 -733.17 -638.91 -426.18 -105.99 106.39 148.57 164.71 184.92 197.63 227.89 261.10 288.51 296.54 300.01 332.09 331.69 359.72 363.71 365.20 379.00 384.93 394.11 410.59 423.82 439.09 448.12 463.49 473.32 489.88 504.08 519.33 535.61 550.61 569.13 592.48 627.97 648.74 616.57 590.96 585.37 594.80 566.38 522.80 517.96 513.78 514.10 486.41 455.63 426.91 393.84 377.80 359.19 355.58 349.94 354.67 359.56 367.16 392.82 419.92 429.93 443.07 453.32 477.75 486.60 489.48 489.13 482.57 459.84 447.95 409.45 375.05 353.09 338.17 280.97 237.83 221.77 209.03 180.90 153.30 76.28 -294.91 -893.35 -1076.45 -1099.45 -1114.38 -1243.33 -1381.30 -2521.29 -3922.73 -5147.48 -5395.49 -5470.49 -5483.18 -5412.96 -5235.27 -4568.65 -2879.43 -1743.97 -530.04 -480.73 -642.51 -865.29 -1528.79 -2255.84 -2511.26 -3599.01 -3851.85 -4035.45 -4253.57 -4262.95 -4263.81 -4269.69 -4277.94 -4288.31 -4292.36 -4295.58 -4302.34 -4306.50 -4306.59
-4021.43 -4022.16 -4026.28 -4029.66 -4032.26 -4035.84 -4033.25 -4033.94 -4039.56 -4031.37 -4030.77 -4027.97 -4025.05 -4022.78 -4017.21 -4009.07 -3938.31 -3761.21 -3367.70 -2919.76 -2429.53 -1563.37 -1018.43 -690.33 -620.51 -547.93 -48.85 34.57 87.20 160.20 186.46 201.31 241.83 266.67 273.57 275.32 303.68 310.08 316.79 333.58 342.25 353.54 367.26 385.56 390.96 401.84 434.50 440.45 457.21 469.65 484.47 505.66 513.23 538.75 547.49 587.08 617.06 644.75 666.56 598.77 579.93 564.83 550.80 535.81 510.72 487.22 481.60 472.64 461.10 442.33 409.03 384.50 373.64 357.44 348.85 347.19 352.42 358.13 371.90 389.52 408.50 425.21 444.55 470.23 485.00 488.57 490.66 490.67 485.09 458.09 439.70 385.31 346.13 331.15 301.01 269.16 213.78 183.50 169.59 142.65 131.92 -0.00 -227.14 -792.17 -1037.37 -1085.33 -1153.08 -1292.04 -1517.00 -2573.75 -4245.33 -5085.89 -5421.20 -5475.07 -5509.51 -5526.85 -5371.67 -5042.45 -3557.53 -1813.31 -641.11 -551.89 -786.97 -1072.56 -1498.29 -2108.46 -2620.30 -3531.24 -4057.77 -4254.75 -4259.97 -4263.70 -4265.38 -4271.86 -4281.05 -4285.62 -4293.17 -4297.11 -4301.81 -4305.39 -4305.48
-4035.40 -4035.33 -4038.53 -4043.46 -4046.53 -4046.78 -4049.17 -4045.92 -4047.03 -4047.11 -4043.38 -4037.63 -4029.31 -4027.23 -4024.57 -4022.34 -4002.71 -3968.79 -3776.46 -3632.89 -2974.54 -2046.50 -1362.53 -826.29 -690.52 -604.91 -509.86 -501.68 -6.29 126.96 170.16 192.75 205.04 237.02 260.56 271.69 274.95 289.73 301.87 313.33 324.35 335.24 341.68 362.60 380.97 392.06 415.97 437.51 445.43 465.88 483.30 502.21 516.98 545.53 558.25 612.34 661.45 702.23 664.07 604.69 566.76 540.73 530.66 507.20 496.67 481.76 470.24 442.18 427.62 417.60 401.91 380.53 365.38 350.92 345.54 344.44 348.49 358.77 367.46 387.43 404.65 425.10 449.01 476.01 487.35 493.53 493.41 485.01 470.51 442.99 421.53 379.67 340.81 291.88 274.45 246.39 210.29 179.51 145.15 109.83 27.98 -322.53 -718.31 -958.33 -1026.68 -1072.77 -1194.02 -1381.09 -1994.87 -2933.82 -4581.45 -5210.82 -5439.93 -5476.60 -5507.90 -5562.36 -5510.19 -5240.90 -3638.50 -2331.26 -753.08 -623.36 -848.44 -1271.99 -1654.39 -2374.12 -3224.10 -3767.12 -4244.27 -4257.23 -4260.51 -4263.72 -4268.48 -4272.39 -4278.70 -4285.12 -4290.52 -4295.58 -4297.68 -4299.68 -4299.77
-4048.89 -4049.78 -4051.27 -4056.04 -4055.57 -4056.08 -4057.90 -4058.22 -4056.39 -4053.73 -4047.97 -4043.53 -4038.23 -4034.40 -4030.02 -4025.20 -4018.06 -4001.76 -3950.63 -3710.10 -3498.97 -2737.94 -1383.95 -967.54 -607.61 -562.03 -635.92 -711.01 -500.86 -103.64 161.94 174.44 192.09 209.02 221.50 241.03 258.60 274.30 272.09 293.63 301.41 313.02 326.47 345.02 370.60 387.99 402.59 421.39 433.06 466.35 477.34 508.35 538.32 552.83 589.86 663.08 744.73 735.55 666.85 606.27 552.68 542.47 516.07 495.05 484.10 468.50 445.91 429.10 420.02 395.76 381.41 358.54 351.02 343.52 339.19 339.68 346.20 359.11 366.68 382.59 399.63 427.65 439.87 476.25 493.18 503.60 501.69 471.16 436.71 411.51 378.85 346.85 316.64 268.03 233.23 215.69 161.80 140.45 109.60 82.95 -87.81 -572.32 -857.32 -963.92 -1009.44 -1073.78 -1218.78 -1373.41 -1687.30 -3208.82 -5031.35 -5311.75 -5454.39 -5472.48 -5511.69 -5587.19 -5541.13 -5327.16 -3787.56 -2282.35 -895.40 -713.46 -939.58 -1326.49 -1914.03 -2646.08 -2950.05 -3764.22 -4187.86 -4255.70 -4261.16 -4264.32 -4265.42 -4271.61 -4276.92 -4283.38 -4284.47 -4289.13 -4291.18 -4291.53 -4291.62
-4063.66 -4063.59 -4064.27 -4069.82 -4074.76 -4075.43 -4069.11 -4070.01 -4068.53 -4063.97 -4058.93 -4052.93 -4048.22 -4039.88 -4036.61 -4031.79 -4027.44 -4025.50 -4011.28 -3912.13 -3726.72 -2926.16 -1982.29 -1250.96 -690.94 -545.53 -532.53 -590.72 -643.77 -394.57 -44.13 94.46 166.66 180.81 202.83 211.89 223.14 247.80 261.03 275.92 281.87 294.20 305.93 328.06 346.15 361.33 384.29 407.98 410.14 452.34 471.07 520.31 549.71 587.65 661.34 703.82 768.35 717.93 664.83 609.42 562.55 528.28 498.59 473.53 460.06 443.03 427.63 424.90 398.92 380.53 365.60 347.89 341.02 333.26 333.32 337.16 342.12 358.22 367.03 387.44 403.23 423.24 442.67 477.26 497.79 506.24 496.63 484.25 421.05 393.33 361.77 416.23 301.28 226.30 206.27 196.68 140.22 112.20 95.42 -162.68 -598.34 -716.69 -869.48 -1012.54 -1086.85 -1130.94 -1230.45 -1289.42 -2081.10 -3506.53 -4846.29 -5467.95 -5473.98 -5478.76 -5512.45 -5580.98 -5539.17 -5176.91 -3402.10 -2026.92 -752.38 -641.11 -1010.89 -1439.69 -1733.15 -2545.90 -3630.65 -3945.49 -4248.07 -4256.28 -4260.27 -4264.01 -4262.45 -4264.55 -4271.67 -4275.62 -4278.86 -4283.45 -4285.88 -4283.69 -4283.78
-4078.02 -4077.95 -4079.88 -4082.87 -4083.38 -4083.73 -4084.74 -4081.67 -4079.24 -4075.70 -4072.83 -4060.21 -4056.02 -4052.32 -4042.25 -4038.42 -4031.50 -4029.47 -4007.47 -3976.06 -3608.89 -2988.02 -1985.59 -1134.64 -602.62 -546.81 -538.49 -584.89 -663.52 -769.19 -700.27 -143.42 -51.33 164.73 182.26 200.99 206.91 217.51 234.50 242.78 255.40 274.08 291.41 305.79 326.20 340.91 360.01 378.95 399.55 448.56 479.20 535.16 561.81 627.35 688.90 749.76 794.87 753.51 651.93 614.98 562.08 534.64 482.05 462.70 446.83 433.70 416.78 394.98 382.29 369.62 355.62 343.95 330.34 326.11 328.34 332.30 340.15 350.14 361.98 385.55 409.26 427.16 458.37 485.60 493.93 495.74 481.15 429.91 415.50 358.92 319.89 386.96 291.96 201.69 187.30 139.89 118.12 101.33 -30.51 -450.20 -822.18 -896.25 -962.67 -1029.21 -1127.22 -1175.78 -1247.18 -1498.89 -2191.62 -3078.09 -4532.89 -5343.68 -5477.05 -5483.73 -5513.48 -5551.27 -5374.64 -4928.07 -2991.67 -1880.59 -549.09 -621.80 -950.37 -1705.66 -2362.05 -3026.77 -3875.01 -4240.70 -4246.80 -4255.01 -4258.73 -4258.12 -4259.82 -4261.54 -4265.75 -4270.79 -4271.85 -4274.37 -4273.91 -4272.63 -4273.09
-4090.74 -4090.67 -4092.29 -4097.29 -4099.03 -4098.43 -4096.20 -4094.30 -4094.38 -4086.22 -4082.23 -4077.08 -4070.68 -4061.60 -4054.41 -4051.55 -4042.91 -4035.92 -4006.28 -3914.84 -3395.24 -2920.40 -1847.37 -1035.22 -713.22 -763.54 -964.76 -833.89 -850.21 -970.16 -1062.90 -736.59 -571.67 156.02 158.00 177.09 184.20 195.72 206.03 215.69 231.17 234.91 268.83 283.27 295.09 310.61 335.47 365.45 397.72 451.79 488.12 550.52 592.07 653.31 699.78 729.12 731.84 679.56 630.41 587.55 532.42 505.10 472.21 437.87 426.62 419.13 408.10 390.30 372.39 351.24 337.86 327.24 322.61 320.66 324.42 327.72 335.85 344.75 360.18 386.86 407.98 432.95 460.28 477.59 498.99 493.49 473.68 440.89 397.79 367.16 401.95 269.53 229.79 176.68 143.53 120.22 100.89 -1.13 -285.25 -727.53 -902.00 -939.81 -956.11 -1059.98 -1114.38 -1219.47 -1315.24 -1733.35 -2795.45 -3961.02 -4717.60 -5405.34 -5479.88 -5484.17 -5499.58 -5550.98 -5456.92 -4560.99 -2797.12 -1360.99 -654.48 -793.71 -1239.30 -1973.76 -3244.17 -3991.93 -4237.40 -4244.21 -4245.12 -4254.31 -4256.66 -4253.79 -4259.01 -4259.81 -4261.74 -4263.72 -4263.26 -4265.66 -4265.80 -4262.11 -4262.19
-4103.51 -4104.73 -4108.66 -4108.10 -4109.89 -4108.64 -4109.57 -4105.59 -4107.35 -4102.42 -4098.08 -4091.80 -4088.26 -4073.24 -4065.00 -4061.05 -4056.39 -4050.90 -4007.23 -3850.56 -3413.46 -2618.79 -1776.96 -1271.96 -1266.08 -1302.50 -1341.99 -1466.28 -1688.48 -1581.69 -1774.97 -1851.18 -1695.54 -988.42 -153.38 159.08 163.56 176.03 182.83 190.10 213.70 225.69 246.08 257.39 285.50 305.78 333.76 348.66 407.73 426.66 501.26 577.95 659.68 703.63 629.48 621.29 639.08 585.84 572.65 564.17 522.22 479.59 446.77 429.08 419.28 410.73 399.30 380.63 362.78 338.04 330.72 319.43 315.71 312.12 314.22 317.98 327.43 341.54 354.41 371.88 397.07 429.80 447.70 471.89 493.93 481.61 457.96 435.71 398.49 380.08 475.94 383.94 215.46 136.10 118.08 104.60 29.37 -219.30 -661.76 -917.88 -980.71 -999.60 -1085.36 -1063.67 -1148.81 -1268.42 -1352.97 -1920.51 -2689.24 -4598.86 -5307.57 -5478.28 -5478.36 -5486.46 -5511.79 -5536.98 -5244.18 -4885.66 -2310.04 -930.84 -855.48 -1401.03 -1747.95 -2305.79 -3590.96 -4229.86 -4237.09 -4240.32 -4244.38 -4257.03 -4257.15 -4255.75 -4256.61 -4258.93 -4259.23 -4258.53 -4258.86 -4256.32 -4254.03 -4250.08 -4250.16
-4116.81 -4116.74 -4117.48 -4118.32 -4121.16 -4125.85 -4122.00 -4119.16 -4119.56 -4112.81 -4111.75 -4104.49 -4099.95 -4091.20 -4083.74 -4076.11 -4072.66 -4060.16 -4042.45 -3905.20 -3568.10 -2787.02 -2191.39 -1906.86 -1899.57 -2113.03 -2245.14 -2399.69 -2444.86 -2772.44 -2727.70 -2611.78 -2714.67 -1497.85 -419.19 -36.15 66.01 156.10 166.35 168.75 173.44 177.51 200.61 217.89 246.38 269.47 309.79 338.07 366.04 433.65 523.06 597.86 714.06 670.47 630.60 541.76 577.92 561.63 509.99 509.89 495.45 456.58 438.90 423.22 409.57 400.55 383.12 376.63 345.31 333.90 323.30 313.90 310.54 309.49 309.30 311.31 322.57 336.35 351.70 366.33 392.20 408.35 437.47 453.66 462.44 459.50 444.94 408.59 372.30 395.28 366.62 258.44 205.71 115.49 108.94 59.57 -87.67 -393.47 -975.89 -1009.94 -1076.90 -1064.30 -1160.06 -1155.62 -1253.36 -1427.16 -1827.94 -2611.19 -3564.49 -4828.12 -5388.66 -5442.45 -5479.47 -5497.00 -5535.54 -5490.02 -5219.21 -4021.97 -1972.78 -1191.02 -1087.33 -1715.90 -2437.64 -2707.61 -3485.68 -4229.54 -4238.23 -4245.59 -4252.80 -4262.56 -4258.49 -4256.47 -4255.84 -4255.15 -4252.09 -4250.88 -4248.21 -4246.06 -4245.40 -4237.77 -4237.85
-4129.48 -4129.42 -4130.55 -4134.49 -4136.25 -4134.61 -4137.44 -4133.99 -4129.96 -4130.71 -4127.61 -4118.54 -4113.05 -4105.08 -4103.41 -4093.97 -4089.00 -4082.76 -4068.59 -3944.27 -3740.27 -3385.41 -3076.46 -2973.22 -2919.89 -3407.63 -3489.36 -3468.85 -3637.61 -3549.26 -3636.66 -3655.30 -3590.24 -2139.57 -1084.32 -618.10 -42.86 83.03 129.89 140.19 159.97 175.16 191.38 197.94 213.63 248.06 280.93 323.87 391.07 458.05 491.49 605.47 667.28 615.91 545.47 459.47 485.06 478.99 467.52 464.48 459.83 447.46 432.11 411.56 406.55 391.00 372.68 347.66 332.83 326.23 311.17 308.19 305.14 302.86 302.04 307.56 317.41 334.78 351.23 369.65 386.43 403.38 429.82 438.71 444.31 445.73 401.25 385.76 338.09 314.68 280.70 235.73 197.32 130.98 -143.66 -156.15 -411.39 -857.95 -1091.46 -1094.55 -1132.23 -1184.95 -1281.36 -1328.61 -1441.58 -1870.01 -2228.16 -3408.84 -4548.87 -5162.20 -5342.43 -5419.33 -5476.45 -5503.98 -5541.73 -5484.71 -5127.23 -3573.74 -2105.32 -1467.24 -1611.90 -1975.66 -2751.90 -3636.58 -3819.88 -4210.03 -4245.24 -4251.29 -4259.22 -4265.57 -4264.09 -4260.24 -4255.94 -4253.50 -4248.20 -4242.70 -4241.86 -4236.62 -4233.18 -4226.85 -4226.93
-4143.29 -4143.23 -4143.28 -4148.14 -4146.51 -4150.10 -4149.26 -4144.37 -4145.30 -4144.28 -4141.26 -4134.15 -4129.79 -4127.77 -4118.24 -4115.03 -4103.48 -4101.49 -4087.56 -4071.38 -4007.93 -3804.01 -3697.92 -3626.68 -3716.69 -3797.88 -3893.88 -3883.08 -4018.78 -4042.16 -4108.29 -4062.39 -3941.20 -3754.42 -2635.67 -1344.42 -281.85 -25.51 97.47 109.20 115.94 136.34 153.91 140.74 207.54 246.88 271.04 307.26 356.84 397.04 467.70 551.70 549.84 496.77 475.00 424.49 426.67 417.01 438.81 423.16 420.33 439.52 438.03 410.20 391.81 375.43 360.13 343.56 327.43 315.99 308.83 305.58 302.38 298.59 299.53 309.10 314.83 332.29 349.93 367.12 380.59 400.06 420.36 418.16 407.82 387.18 385.03 347.51 336.16 317.55 232.32 195.54 184.95 123.15 -307.43 -716.43 -1082.32 -1117.17 -1121.99 -1143.45 -1241.53 -1513.09 -1543.40 -1955.25 -2157.73 -2396.43 -3817.77 -4398.67 -5045.53 -5321.61 -5407.36 -5414.57 -5466.43 -5496.81 -5529.31 -5478.33 -4720.48 -4170.30 -2595.94 -1753.28 -2023.35 -2572.63 -3068.55 -3832.36 -4021.63 -4216.72 -4252.57 -4258.79 -4262.48 -4258.23 -4262.49 -4257.63 -4254.18 -4249.69 -4241.22 -4238.23 -4232.77 -4226.41 -4225.20 -4219.26 -4219.34
-4157.09 -4157.03 -4158.12 -4161.34 -4159.82 -4163.99 -4164.22 -4164.86 -4163.25 -4158.48 -4159.53 -4156.24 -4146.05 -4143.55 -4139.03 -4141.16 -4130.77 -4128.18 -4126.49 -4107.89 -4118.71 -4112.67 -4039.32 -4039.06 -4058.97 -4092.16 -4102.26 -4146.10 -4150.17 -4176.60 -4191.11 -4187.02 -4153.38 -3902.78 -2772.56 -1813.86 -817.13 -506.88 -569.20 -173.33 102.87 111.42 122.96 136.74 189.75 219.34 243.03 282.77 338.64 384.84 444.21 465.45 478.79 429.32 419.52 386.29 378.50 388.68 410.87 381.12 380.00 380.96 405.59 393.63 385.20 370.48 354.27 337.11 322.48 314.81 309.14 301.79 297.36 297.77 298.28 306.75 313.51 323.53 345.44 370.03 381.99 397.75 402.94 405.61 395.28 367.13 342.22 332.76 319.84 280.60 196.95 180.90 162.94 108.04 -341.12 -791.04 -1121.58 -1124.97 -1144.31 -1260.54 -1659.20 -1837.38 -1999.00 -2472.43 -3028.91 -3765.06 -4544.32 -5174.16 -5423.22 -5497.69 -5474.43 -5455.92 -5491.69 -5508.80 -5576.48 -5545.65 -5033.80 -3561.39 -2770.51 -1948.39 -2523.74 -2858.01 -3253.13 -3981.25 -4180.03 -4244.06 -4264.53 -4263.81 -4266.22 -4267.19 -4266.71 -4258.49 -4252.73 -4246.03 -4239.86 -4233.17 -4223.94 -4219.07 -4216.69 -4211.18 -4211.25
-4170.67 -4170.61 -4170.03 -4173.72 -4176.11 -4177.18 -4176.11 -4177.48 -4180.04 -4179.26 -4176.71 -4174.41 -4174.15 -4168.47 -4165.51 -4160.21 -4156.02 -4147.84 -4142.86 -4150.18 -4141.27 -4141.25 -4128.83 -4147.70 -4140.22 -4171.22 -4183.53 -4191.13 -4201.91 -4214.30 -4221.05 -4227.84 -4188.06 -4000.81 -3116.51 -2459.40 -1455.34 -1023.72 -895.87 -609.74 -324.60 -152.36 116.92 139.45 170.26 201.68 237.34 271.51 306.92 350.65 396.08 400.16 415.13 387.47 363.58 359.82 368.30 355.88 363.02 365.02 356.16 355.29 377.25 392.15 389.81 366.78 350.21 335.39 317.86 311.91 303.21 295.18 295.03 295.18 297.50 302.31 312.03 325.99 346.93 358.65 380.70 390.43 393.49 387.90 379.71 349.06 329.23 292.25 255.16 226.13 188.36 155.65 121.99 97.75 -143.45 -1002.47 -1155.05 -1223.89 -1495.69 -1946.02 -3070.73 -2834.07 -3278.57 -4056.29 -4373.54 -4935.77 -5199.64 -5513.80 -5511.92 -5586.31 -5573.86 -5500.14 -5443.03 -5457.35 -5467.95 -5351.84 -4573.79 -3148.55 -2317.57 -2190.77 -2814.35 -3254.74 -3707.84 -4033.88 -4223.62 -4265.98 -4272.38 -4270.79 -4268.39 -4267.82 -4266.10 -4258.37 -4252.50 -4244.23 -4235.31 -4226.38 -4219.79 -4213.84 -4211.12 -4204.48 -4204.55
-4184.26 -4184.20 -4186.46 -4187.49 -4191.46 -4193.35 -4190.89 -4191.25 -4192.26 -4191.43 -4190.79 -4186.72 -4184.09 -4185.69 -4188.03 -4184.26 -4179.65 -4173.90 -4172.83 -4166.20 -4175.85 -4175.88 -4179.00 -4185.23 -4181.62 -4196.60 -4201.93 -4210.75 -4220.11 -4223.96 -4232.47 -4239.31 -4223.19 -4177.03 -3685.21 -3006.72 -1604.75 -1235.54 -956.25 -896.91 -810.99 -506.49 -176.31 37.95 166.00 185.75 223.77 247.44 266.01 301.46 343.64 355.09 316.86 334.28 332.71 314.73 322.67 308.44 329.10 325.63 328.81 325.44 346.50 376.32 392.67 375.26 350.73 329.68 320.48 305.47 298.88 295.19 289.03 289.47 297.18 302.14 315.64 332.23 339.24 355.25 369.47 382.73 381.49 372.02 350.74 338.95 316.11 330.44 265.33 204.52 157.31 118.14 87.46 -105.99 -1004.43 -1181.44 -1319.04 -1668.57 -2164.55 -2959.64 -3958.58 -4533.30 -4770.34 -5069.99 -5126.72 -5348.28 -5529.84 -5631.18 -5081.22 -4900.49 -5246.33 -5234.49 -5002.46 -4822.43 -4736.13 -4311.09 -4156.70 -2593.07 -1878.25 -2600.16 -3089.31 -3681.99 -4099.62 -4206.32 -4264.27 -4272.48 -4277.37 -4274.88 -4272.62 -4271.71 -4268.56 -4260.66 -4250.70 -4240.66 -4230.05 -4221.92 -4214.28 -4209.06 -4203.94 -4198.58 -4198.65
-4198.33 -4198.28 -4198.52 -4203.90 -4207.25 -4209.26 -4210.65 -4211.20 -4208.46 -4209.63 -4210.69 -4207.95 -4208.18 -4201.83 -4207.19 -4203.75 -4200.37 -4200.23 -4193.42 -4194.87 -4197.63 -4196.77 -4204.61 -4209.96 -4208.87 -4223.48 -4222.20 -4228.81 -4236.30 -4241.57 -4246.84 -4253.75 -4254.98 -4201.89 -3938.35 -3375.58 -2433.25 -1368.00 -1038.15 -833.45 -871.43 -850.63 -512.24 -64.14 151.49 174.13 198.84 204.00 235.88 260.80 269.66 276.21 267.68 282.17 285.80 291.42 294.12 292.67 297.50 297.35 302.59 301.37 315.10 357.25 378.81 389.85 343.79 331.01 318.79 304.80 297.86 293.48 285.35 289.28 294.47 303.69 311.89 327.89 336.87 357.70 372.33 375.66 375.16 371.14 351.48 330.89 294.74 343.66 220.95 173.70 117.72 112.12 59.06 -318.09 -1188.77 -1387.29 -1861.53 -2797.29 -3489.93 -4691.79 -4983.13 -5143.64 -5377.41 -5475.41 -5589.49 -5677.99 -5702.35 -5790.76 -4960.14 -3014.63 -3977.68 -4017.81 -3521.36 -2353.86 -2656.80 -2607.48 -2198.29 -1804.55 -1966.59 -2567.81 -3175.24 -3823.24 -4052.23 -4220.17 -4274.94 -4278.57 -4283.01 -4280.51 -4276.39 -4275.88 -4270.78 -4263.34 -4250.12 -4240.05 -4229.10 -4217.45 -4211.84 -4205.13 -4199.66 -4194.37 -4194.44
-4215.09 -4216.50 -4217.74 -4217.14 -4218.49 -4221.54 -4222.82 -4221.60 -4229.86 -4230.23 -4225.95 -4227.29 -4224.68 -4231.52 -4227.24 -4226.18 -4222.06 -4227.18 -4222.61 -4223.05 -4223.42 -4219.68 -4223.37 -4225.45 -4234.29 -4233.89 -4242.35 -4242.14 -4249.13 -4256.89 -4257.69 -4259.15 -4260.66 -4246.51 -4111.03 -3618.66 -2714.39 -1829.68 -1100.14 -822.04 -797.44 -902.77 -709.87 -206.42 147.64 168.92 178.37 178.55 206.01 213.80 227.79 213.59 234.52 249.97 269.96 257.56 262.22 264.41 261.20 282.76 275.50 288.25 299.43 322.37 351.43 386.76 370.01 340.15 324.34 304.36 297.17 288.89 283.45 286.90 294.07 304.40 312.92 322.87 337.52 346.46 361.76 368.68 372.01 368.17 354.86 333.74 299.05 250.78 195.34 176.05 118.44 99.16 17.25 -680.83 -1611.59 -1962.20 -2939.85 -3680.47 -4623.02 -4815.56 -5263.43 -5364.60 -5484.03 -5652.90 -5242.23 -4919.34 -4276.96 -3448.14 -3003.63 -551.94 -470.75 -514.71 95.67 18.17 -526.67 -1582.62 -1488.07 -1686.98 -1775.52 -2641.23 -3086.08 -3730.03 -4018.42 -4223.04 -4277.89 -4283.49 -4283.47 -4282.21 -4281.94 -4280.29 -4273.18 -4264.88 -4250.75 -4241.51 -4227.05 -4220.05 -4207.68 -4200.34 -4195.11 -4191.14 -4190.88
-4229.07 -4229.02 -4227.38 -4231.59 -4235.36 -4233.86 -4238.64 -4241.58 -4243.12 -4243.27 -4247.88 -4246.33 -4246.45 -4246.90 -4248.44 -4241.50 -4236.28 -4242.00 -4242.42 -4243.57 -4245.43 -4243.83 -4251.29 -4251.62 -4254.59 -4254.28 -4261.21 -4264.52 -4260.34 -4268.27 -4269.39 -4271.05 -4275.26 -4269.37 -4135.80 -3692.30 -3164.46 -2037.09 -1160.48 -820.56 -759.56 -828.32 -857.80 -252.24 82.59 148.52 160.12 160.76 167.20 168.31 172.45 193.96 219.16 227.63 210.10 207.09 217.57 240.59 230.39 221.86 232.83 251.08 261.46 285.96 316.42 366.37 411.26 357.99 334.28 303.61 297.09 288.26 283.73 286.20 290.62 301.88 310.49 317.69 331.48 340.36 357.53 365.21 369.70 368.43 362.49 346.75 335.84 271.55 188.25 161.11 113.38 92.62 -711.95 -1333.78 -2256.10 -2763.23 -4067.09 -4560.88 -4964.19 -5131.61 -5319.10 -5424.86 -5544.87 -5026.04 -3684.42 -2715.49 -1941.82 -812.08 130.84 150.28 154.80 161.52 142.53 135.10 111.81 -316.85 -1228.86 -1611.59 -1858.21 -2284.32 -3076.31 -3545.24 -4017.87 -4227.89 -4268.81 -4282.65 -4286.04 -4284.47 -4285.38 -4278.09 -4270.19 -4262.88 -4250.19 -4242.87 -4227.62 -4216.25 -4204.46 -4198.47 -4192.97 -4188.27 -4188.34
-4240.80 -4240.75 -4241.27 -4243.38 -4249.69 -4247.66 -4249.66 -4253.78 -4257.91 -4262.02 -4259.86 -4260.43 -4260.51 -4260.30 -4261.17 -4260.61 -4259.89 -4260.46 -4261.78 -4267.18 -4263.85 -4268.97 -4268.28 -4270.48 -4274.17 -4272.29 -4274.20 -4278.69 -4283.25 -4282.01 -4282.69 -4282.75 -4285.23 -4283.29 -4213.43 -3868.59 -3272.58 -2549.46 -1338.09 -981.60 -762.74 -785.04 -821.48 -456.84 -112.14 74.01 109.07 145.30 147.00 141.61 142.39 165.74 177.65 198.29 190.91 190.30 195.37 198.56 208.50 210.93 214.50 231.69 232.59 238.97 283.03 326.57 399.52 385.57 368.78 322.72 292.58 283.55 283.88 284.27 290.34 298.91 307.99 321.69 332.09 342.06 353.43 364.90 368.96 365.74 358.34 346.11 335.71 334.71 177.53 144.79 110.63 -297.39 -1176.69 -1726.57 -2252.33 -3578.88 -4489.28 -4956.00 -5027.51 -5093.00 -5217.72 -5113.74 -4796.07 -2442.03 -962.99 -118.56 130.35 175.92 175.71 180.44 196.53 196.64 168.33 141.11 126.63 -145.44 -1052.94 -1651.34 -1965.65 -2439.98 -2905.40 -3497.24 -3756.46 -4109.75 -4270.69 -4290.04 -4290.75 -4293.30 -4286.96 -4279.85 -4272.04 -4261.61 -4251.82 -4239.32 -4225.04 -4214.86 -4205.40 -4196.49 -4192.65 -4186.36 -4186.42
-4252.75 -4252.69 -4252.65 -4257.18 -4256.35 -4263.69 -4261.94 -4268.98 -4268.28 -4272.54 -4273.92 -4276.07 -4279.70 -4280.23 -4279.69 -4277.07 -4281.94 -4283.82 -4283.20 -4288.87 -4284.82 -4285.93 -4286.97 -4287.00 -4290.62 -4293.56 -4294.70 -4288.41 -4290.90 -4291.77 -4296.22 -4297.43 -4296.34 -4296.39 -4222.46 -4140.71 -3480.33 -2765.87 -1682.85 -1019.65 -853.18 -737.32 -717.80 -676.97 -440.86 -238.39 -15.91 -27.48 -21.87 -21.58 51.50 93.20 110.06 172.40 180.46 180.90 169.93 172.77 176.54 169.48 187.43 196.22 199.59 215.22 264.77 298.26 329.17 360.08 361.79 361.64 321.87 277.38 277.71 280.59 290.16 295.29 300.51 322.30 335.07 339.62 344.88 354.19 363.37 349.83 325.99 307.33 376.32 443.26 237.76 5.14 -289.35 -570.41 -1129.86 -1647.50 -2401.02 -3241.68 -4127.65 -4122.95 -4213.73 -3481.18 -3724.64 -3370.52 -1714.36 93.73 107.91 148.20 171.51 186.90 203.74 220.20 230.88 219.25 181.48 144.22 125.34 -138.58 -1250.25 -1773.66 -2144.38 -2465.96 -2970.35 -3253.49 -3739.85 -4172.15 -4264.28 -4294.14 -4297.47 -4296.57 -4287.40 -4280.49 -4271.81 -4261.53 -4252.71 -4242.80 -4225.61 -4214.16 -4205.25 -4194.99 -4188.01 -4185.48 -4185.55
-4265.35 -4266.90 -4268.71 -4269.10 -4271.06 -4272.25 -4275.04 -4277.90 -4281.66 -4284.51 -4286.25 -4289.18 -4289.92 -4289.74 -4291.12 -4294.85 -4294.74 -4294.15 -4300.81 -4301.08 -4304.53 -4304.50 -4305.36 -4310.37 -4310.28 -4310.36 -4310.06 -4309.97 -4305.89 -4310.73 -4306.71 -4306.53 -4304.83 -4303.77 -4294.08 -4197.79 -3930.37 -2711.99 -2314.32 -1601.68 -1007.57 -774.36 -687.09 -606.27 -583.79 -526.08 -336.41 -225.06 -211.70 -235.31 -491.77 -181.95 -214.97 43.97 124.09 156.36 138.31 141.16 140.23 153.64 165.01 175.16 183.59 195.72 218.92 245.90 271.36 302.24 320.63 350.05 295.11 271.24 266.80 274.92 283.41 294.46 304.50 315.99 323.03 334.30 342.02 343.51 342.43 340.24 305.61 266.60 329.29 311.97 160.66 -125.21 -654.16 -718.15 -1182.05 -1579.58 -2085.24 -2716.94 -2994.16 -3036.20 -2724.89 -2295.48 -952.26 -159.59 -20.37 104.69 168.95 203.68 231.43 255.91 281.02 260.12 234.13 204.68 181.46 134.02 117.21 -226.13 -1158.06 -2147.03 -2666.51 -2949.72 -3203.02 -3463.46 -3811.39 -4127.90 -4271.44 -4297.78 -4298.94 -4300.21 -4290.62 -4280.76 -4271.70 -4265.30 -4255.11 -4238.23 -4226.42 -4215.25 -4204.90 -4193.68 -4189.34 -4185.37 -4185.43
-4278.88 -4278.83 -4284.75 -4281.80 -4287.01 -4286.20 -4290.62 -4291.00 -4293.60 -4294.99 -4299.65 -4302.55 -4304.51 -4307.30 -4308.16 -4307.12 -4312.89 -4313.10 -4315.00 -4314.93 -4317.23 -4321.38 -4322.26 -4322.74 -4319.10 -4322.38 -4322.67 -4325.26 -4323.27 -4320.53 -4321.94 -4320.26 -4319.06 -4312.51 -4304.03 -4203.13 -4070.45 -3564.82 -2486.40 -1916.60 -1372.74 -1010.55 -845.21 -646.06 -620.97 -500.90 -471.22 -481.54 -486.08 -634.77 -799.10 -926.65 -696.30 -148.68 -58.25 -54.94 106.65 122.67 123.51 136.32 148.95 161.95 168.89 175.81 189.01 210.20 255.17 273.18 283.40 276.75 269.25 256.05 258.58 267.47 276.84 287.28 298.26 302.31 312.33 316.19 324.69 337.23 332.52 317.70 287.55 262.86 246.80 233.86 164.03 82.93 -801.74 -1489.13 -1366.14 -1449.08 -1622.64 -1728.13 -1897.26 -1876.71 -1329.50 -462.09 148.90 129.16 184.08 189.70 206.85 206.96 246.42 293.15 290.57 251.38 208.96 195.33 178.45 132.99 116.93 -314.16 -1451.94 -2827.21 -3064.70 -3422.65 -3782.45 -3892.40 -4075.52 -4249.45 -4262.30 -4282.93 -4286.66 -4303.66 -4290.53 -4283.00 -4274.08 -4266.13 -4255.74 -4240.20 -4227.19 -4214.70 -4205.19 -4197.11 -4192.53 -4186.08 -4186.14
-4292.03 -4293.38 -4296.14 -4297.86 -4298.97 -4300.14 -4299.29 -4302.93 -4304.10 -4306.00 -4311.84 -4311.41 -4316.25 -4317.50 -4323.80 -4324.08 -4324.70 -4326.05 -4332.72 -4336.98 -4335.36 -4335.76 -4335.52 -4337.17 -4339.41 -4338.16 -4337.90 -4336.87 -4335.87 -4334.11 -4333.96 -4332.36 -4328.06 -4327.43 -4320.46 -4315.02 -4189.69 -3789.04 -3523.02 -2592.39 -1774.74 -1429.70 -1221.20 -925.31 -668.78 -664.38 -553.22 -528.21 -584.23 -695.51 -853.36 -844.84 -809.59 -661.02 -644.88 -483.86 -477.94 -18.10 19.96 113.50 131.18 144.92 152.11 167.47 174.02 190.56 218.15 224.92 237.78 248.13 243.70 246.81 250.54 261.91 269.54 277.52 282.02 296.24 303.13 312.44 315.54 321.89 320.05 306.27 276.71 230.64 194.51 165.30 151.41 97.23 -503.63 -1478.05 -1577.24 -1481.03 -1506.17 -1590.69 -1641.57 -1417.50 -459.37 150.29 187.81 208.43 223.03 234.06 230.71 255.06 265.88 252.59 231.02 215.56 184.94 163.22 136.21 119.28 107.64 -265.07 -2030.29 -3120.85 -3448.61 -3821.96 -3901.37 -4062.55 -4234.78 -4258.34 -4265.78 -4272.95 -4272.05 -4295.55 -4295.46 -4283.89 -4277.28 -4267.81 -4255.68 -4246.11 -4227.52 -4216.48 -4207.56 -4199.43 -4194.64 -4187.68 -4187.74
-4304.28 -4305.60 -4306.48 -4308.45 -4309.16 -4312.94 -4315.00 -4315.40 -4316.58 -4319.04 -4320.51 -4324.53 -4324.82 -4329.32 -4329.94 -4335.94 -4339.32 -4342.61 -4343.24 -4344.70 -4345.78 -4349.33 -4348.51 -4348.58 -4351.22 -4354.14 -4350.52 -4352.65 -4346.53 -4346.05 -4345.82 -4343.36 -4343.89 -4340.31 -4336.52 -4315.76 -4284.67 -4016.58 -3767.98 -3426.28 -2739.16 -2621.43 -2004.34 -1604.02 -1416.24 -825.75 -765.27 -679.91 -681.90 -732.52 -825.37 -831.60 -846.71 -850.72 -768.84 -633.92 -575.61 -460.19 -375.46 -185.98 -60.84 20.89 83.65 153.77 169.35 176.62 194.91 200.52 215.77 225.35 225.43 231.72 242.21 247.13 258.42 272.34 272.29 285.50 294.24 298.67 300.06 302.94 306.26 291.96 264.78 227.61 194.81 173.15 136.66 115.98 -345.94 -877.40 -1479.14 -1516.28 -1488.22 -1521.47 -1422.63 -876.39 -286.17 194.93 245.96 266.36 273.08 269.23 239.18 244.45 215.59 209.75 189.21 184.07 165.87 135.60 122.99 110.92 -36.74 -434.32 -1113.35 -3043.44 -3475.06 -3787.28 -4032.16 -4186.29 -4232.60 -4275.79 -4278.51 -4278.34 -4273.37 -4278.02 -4293.48 -4285.00 -4277.16 -4268.14 -4255.08 -4244.88 -4229.43 -4217.76 -4210.36 -4199.90 -4196.59 -4190.08 -4190.14
-4316.52 -4316.47 -4319.28 -4317.26 -4318.03 -4319.47 -4324.93 -4326.09 -4328.10 -4329.85 -4332.10 -4335.73 -4341.52 -4341.81 -4348.61 -4350.33 -4351.39 -4352.40 -4358.41 -4357.81 -4360.39 -4360.65 -4362.13 -4363.37 -4361.35 -4364.43 -4363.74 -4364.52 -4360.73 -4362.31 -4356.14 -4358.18 -4352.36 -4351.81 -4339.80 -4334.82 -4326.44 -4288.19 -4147.92 -3984.51 -3922.32 -3267.50 -3064.09 -2800.14 -2011.11 -1441.87 -1036.96 -857.22 -747.08 -775.69 -809.68 -823.73 -842.60 -848.11 -792.49 -617.95 -570.48 -484.45 -363.84 -340.96 -287.77 -110.62 90.85 148.94 162.27 169.17 182.29 191.06 202.34 212.49 215.01 225.83 235.12 239.80 248.51 259.95 264.75 270.94 278.06 283.90 288.27 294.16 291.01 279.42 250.38 230.62 192.71 168.20 130.04 108.56 91.73 -990.24 -1614.94 -1612.51 -1541.35 -1449.97 -1164.54 -542.39 56.65 231.17 288.94 296.45 261.47 238.31 211.06 207.14 197.61 153.90 143.13 150.38 141.68 119.67 114.32 106.78 -321.25 -1463.85 -2125.83 -3068.94 -3723.67 -3893.05 -4123.28 -4229.54 -4264.08 -4275.05 -4285.54 -4284.48 -4273.58 -4280.42 -4293.98 -4284.23 -4273.72 -4266.42 -4258.65 -4245.98 -4232.65 -4219.38 -4213.09 -4202.77 -4201.24 -4193.22 -4193.28
-4328.81 -4328.75 -4329.01 -4330.28 -4333.26 -4335.69 -4336.34 -4338.05 -4335.40 -4337.59 -4342.93 -4347.76 -4346.31 -4349.85 -4356.27 -4361.86 -4363.85 -4368.20 -4368.22 -4372.16 -4374.37 -4375.22 -4374.53 -4372.32 -4376.86 -4373.41 -4375.64 -4374.79 -4374.39 -4372.80 -4371.10 -4368.11 -4367.95 -4364.24 -4355.33 -4342.87 -4338.21 -4328.81 -4278.78 -4233.09 -4082.97 -3986.74 -3828.26 -3457.47 -2933.53 -2104.00 -1431.85 -1268.65 -1087.58 -983.68 -918.81 -893.10 -901.91 -931.17 -850.69 -717.66 -565.28 -486.08 -328.41 -211.08 -160.07 -49.76 107.28 135.87 154.72 163.31 175.85 187.10 193.49 203.11 209.19 219.07 228.38 234.25 240.04 243.19 255.50 260.07 261.17 271.32 271.89 272.95 265.35 245.07 238.40 211.90 193.50 160.83 127.99 112.64 77.65 -649.56 -1608.37 -1609.89 -1543.64 -1260.37 -844.64 -177.32 -35.30 234.34 267.97 270.56 262.45 209.03 177.60 175.21 158.68 143.20 127.19 123.36 119.95 110.29 105.47 -147.08 -750.65 -1815.38 -2577.66 -3101.08 -3773.59 -3965.06 -4126.22 -4242.42 -4262.02 -4271.29 -4282.36 -4289.51 -4285.76 -4284.16 -4287.65 -4282.66 -4274.89 -4265.16 -4258.10 -4248.71 -4228.71 -4222.46 -4214.44 -4207.47 -4202.39 -4198.16 -4196.93
-4340.93 -4340.87 -4344.47 -4348.47 -4346.70 -4345.12 -4349.34 -4350.59 -4348.64 -4351.06 -4353.13 -4355.27 -4360.05 -4367.22 -4368.98 -4368.95 -4375.35 -4378.26 -4379.71 -4378.67 -4383.40 -4384.17 -4383.81 -4384.57 -4384.66 -4384.93 -4390.25 -4391.94 -4389.12 -4387.76 -4385.89 -4383.99 -4379.34 -4375.31 -4366.55 -4354.61 -4352.83 -4344.68 -4343.59 -4338.38 -4291.54 -4249.35 -4088.28 -3963.42 -3969.89 -3043.21 -2553.16 -1983.82 -1626.80 -1371.18 -1191.24 -1056.59 -1163.30 -970.14 -892.58 -750.30 -575.95 -440.92 -288.98 -152.32 -128.78 -9.85 55.85 113.81 147.98 165.58 172.71 179.77 189.64 192.77 202.14 209.12 216.50 224.68 231.39 235.61 241.71 248.79 253.30 255.68 253.21 248.49 243.04 230.13 212.89 199.59 171.57 151.77 125.90 107.21 69.28 -309.27 -1194.05 -1466.21 -1376.05 -972.41 -504.62 -126.39 19.31 138.36 183.52 206.35 237.29 192.38 153.31 145.61 132.87 122.18 118.01 116.17 96.00 82.14 -213.60 -732.88 -1437.66 -1987.10 -2538.66 -3373.68 -3753.69 -4101.53 -4178.85 -4221.90 -4256.78 -4271.99 -4281.13 -4286.73 -4290.22 -4290.88 -4287.23 -4283.78 -4275.20 -4267.06 -4257.10 -4248.74 -4232.50 -4223.67 -4215.72 -4210.40 -4207.39 -4200.85 -4200.91
-4352.03 -4353.10 -4353.81 -4355.19 -4354.95 -4357.19 -4360.19 -4359.23 -4361.16 -4361.67 -4368.93 -4372.03 -4374.06 -4376.58 -4379.46 -4373.68 -4378.43 -4379.77 -4380.98 -4388.37 -4395.65 -4398.27 -4396.96 -4398.93 -4395.38 -4398.45 -4400.52 -4401.45 -4398.41 -4396.40 -4391.79 -4392.27 -4387.15 -4382.65 -4378.94 -4369.71 -4363.17 -4357.81 -4350.48 -4335.13 -4297.27 -4237.43 -4088.88 -4064.01 -3959.32 -3800.61 -3200.17 -2889.56 -2519.05 -2191.56 -1940.63 -1705.52 -1383.05 -1115.24 -1028.47 -844.72 -611.21 -502.55 -295.77 -181.09 -83.43 -47.14 33.58 120.32 144.59 153.97 160.63 167.99 174.80 187.65 186.18 199.10 206.24 215.57 221.29 224.84 230.84 232.54 233.13 235.74 236.90 235.38 229.07 219.03 204.88 179.64 162.75 144.51 128.08 101.90 75.56 60.87 -567.02 -1072.43 -981.22 -612.40 -239.34 1.31 65.60 99.90 97.60 166.35 194.68 159.34 147.72 132.25 120.75 117.35 89.89 91.71 72.76 -279.33 -810.15 -1241.98 -1605.11 -2292.96 -3137.92 -3732.51 -3876.83 -4139.25 -4202.73 -4222.41 -4249.28 -4264.62 -4277.00 -4285.26 -4288.59 -4289.18 -4286.04 -4282.82 -4275.50 -4270.43 -4262.24 -4244.05 -4232.79 -4226.50 -4219.21 -4213.45 -4209.56 -4205.05 -4205.11
-4362.57 -4364.60 -4364.07 -4364.51 -4365.07 -4367.04 -4368.85 -4369.94 -4374.91 -4375.79 -4378.42 -4379.76 -4384.57 -4386.22 -4384.56 -4384.70 -4385.69 -4386.21 -4387.89 -4394.27 -4398.40 -4408.19 -4404.16 -4407.00 -4410.32 -4410.60 -4410.40 -4410.41 -4410.64 -4406.65 -4406.63 -4403.21 -4400.02 -4391.91 -4383.66 -4377.77 -4368.44 -4365.07 -4357.44 -4342.79 -4295.77 -4252.80 -4187.31 -4071.33 -3972.21 -3779.26 -3519.76 -3269.96 -2934.73 -2668.35 -2298.55 -2004.90 -1433.57 -1269.42 -1049.74 -851.29 -647.80 -580.17 -355.89 -199.92 -93.21 -53.12 19.83 104.78 138.36 141.35 149.67 155.21 166.99 172.11 181.33 181.58 194.67 204.12 205.43 215.33 220.49 221.58 217.96 223.35 224.80 216.47 217.50 188.90 186.76 165.12 147.76 131.85 122.12 86.02 63.39 49.24 -351.37 -346.74 -465.79 -338.42 -62.91 76.17 61.63 -33.68 -78.46 33.35 65.98 53.51 59.11 120.75 102.59 88.20 76.13 -88.99 -208.76 -958.98 -1445.24 -1675.35 -1858.09 -2638.26 -3419.49 -3735.55 -4068.29 -4150.78 -4196.44 -4223.59 -4243.90 -4253.65 -4269.13 -4277.87 -4285.13 -4285.55 -4285.17 -4283.48 -4275.70 -4270.72 -4260.90 -4245.63 -4235.57 -4228.95 -4222.18 -4219.83 -4215.68 -4210.25 -4209.49
-4376.32 -4376.25 -4375.27 -4377.74 -4375.26 -4377.19 -4378.91 -4380.83 -4382.94 -4384.46 -4386.14 -4391.08 -4394.52 -4397.25 -4395.75 -4393.49 -4393.22 -4396.75 -4396.39 -4399.27 -4408.80 -4415.45 -4421.00 -4418.32 -4418.84 -4418.50 -4419.52 -4422.42 -4419.59 -4414.54 -4413.30 -4407.48 -4405.97 -4405.72 -4398.49 -4389.51 -4378.01 -4369.51 -4357.84 -4333.51 -4288.69 -4235.69 -4170.81 -4058.52 -3913.31 -3657.97 -3499.78 -3235.13 -2999.70 -2866.96 -2611.19 -2308.60 -1867.03 -1406.54 -1069.83 -980.43 -777.69 -544.30 -308.63 -205.31 -110.25 -59.74 18.02 93.96 134.43 137.41 145.06 152.47 159.92 161.79 167.29 177.56 185.67 191.47 193.82 204.40 205.65 209.57 205.65 197.31 197.91 188.54 185.59 181.14 176.18 149.43 137.06 124.74 109.06 83.07 51.37 43.26 -46.12 -119.38 -179.14 -56.57 75.42 53.25 -42.51 -219.34 -384.65 -286.82 -231.65 -217.71 -244.27 -14.29 72.70 -34.99 -483.53 -882.35 -1106.87 -1407.95 -1926.65 -2427.59 -2445.30 -2919.12 -3610.41 -3839.03 -4073.18 -4179.64 -4195.43 -4223.52 -4237.52 -4251.11 -4263.03 -4275.05 -4279.21 -4281.05 -4283.06 -4281.75 -4276.15 -4271.24 -4266.18 -4245.73 -4234.82 -4230.81 -4225.38 -4222.29 -4218.21 -4215.12 -4214.82
-4387.86 -4387.79 -4386.28 -4388.16 -4383.73 -4390.81 -4391.45 -4390.34 -4395.02 -4395.14 -4396.97 -4401.31 -4404.97 -4407.75 -4402.04 -4404.86 -4407.91 -4404.96 -4402.61 -4413.92 -4416.31 -4426.89 -4428.23 -4429.36 -4429.37 -4427.72 -4429.66 -4429.47 -4428.46 -4426.50 -4423.21 -4423.21 -4420.40 -4417.42 -4407.80 -4398.59 -4378.04 -4371.53 -4363.09 -4337.26 -4310.95 -4234.34 -4112.80 -3966.08 -3848.82 -3569.24 -3424.78 -3210.44 -3003.04 -2826.16 -2521.45 -2320.92 -1930.80 -1629.11 -1031.87 -904.44 -711.54 -469.69 -343.24 -215.64 -124.77 -49.26 -18.04 68.69 117.72 132.05 136.99 140.06 149.42 155.00 154.27 159.05 172.25 176.01 179.14 181.49 199.69 190.17 181.83 183.75 182.37 175.83 167.47 168.00 151.89 136.20 128.45 116.69 96.62 65.12 49.43 40.75 31.83 1.87 -31.54 28.73 23.66 -148.85 -262.80 -431.21 -590.69 -714.69 -585.24 -547.22 -470.68 -285.81 -515.97 -777.40 -834.10 -1231.41 -1560.56 -2399.86 -2749.05 -2930.33 -3149.15 -3328.01 -4032.83 -4094.12 -4170.21 -4186.48 -4200.06 -4214.68 -4234.72 -4249.50 -4261.86 -4272.01 -4275.47 -4276.64 -4278.85 -4279.50 -4277.20 -4273.91 -4265.16 -4248.18 -4237.48 -4232.81 -4229.69 -4226.45 -4222.69 -4219.48 -4218.84
-4399.33 -4399.25 -4401.25 -4395.81 -4398.11 -4400.46 -4401.27 -4401.99 -4403.30 -4406.40 -4410.05 -4413.79 -4411.29 -4417.75 -4410.21 -4412.20 -4412.98 -4413.42 -4417.18 -4423.08 -4425.37 -4433.76 -4438.11 -4435.62 -4437.17 -4436.68 -4440.05 -4439.80 -4437.09 -4437.34 -4433.29 -4433.01 -4431.36 -4422.09 -4409.93 -4398.53 -4384.20 -4375.52 -4360.44 -4347.15 -4322.43 -4276.85 -4148.75 -4012.78 -3769.64 -3583.98 -3423.90 -3277.84 -3036.78 -2841.15 -2491.28 -2206.09 -1988.95 -1579.95 -1281.35 -1041.35 -816.51 -525.25 -349.42 -240.14 -145.07 -101.87 -33.96 7.43 68.38 95.04 129.34 134.23 138.14 141.34 149.47 154.65 161.71 164.85 158.49 163.47 162.48 158.75 162.11 164.13 162.83 152.80 145.72 140.68 134.49 127.32 124.50 85.00 71.32 59.03 46.74 43.63 35.99 73.80 39.38 -37.01 -181.34 -388.82 -513.49 -596.12 -685.99 -1024.66 -1046.19 -864.29 -833.10 -651.54 -967.88 -1175.06 -1229.40 -1562.09 -2063.38 -3097.56 -3140.74 -3704.20 -3766.61 -3896.32 -4128.38 -4159.71 -4158.68 -4179.26 -4203.97 -4212.12 -4231.36 -4248.02 -4258.39 -4268.35 -4271.37 -4274.99 -4275.01 -4276.60 -4275.38 -4273.38 -4265.53 -4249.84 -4239.54 -4234.62 -4232.01 -4229.14 -4225.95 -4222.06 -4221.82
-4410.17 -4408.82 -4409.72 -4409.09 -4406.03 -4408.16 -4409.29 -4412.37 -4413.33 -4415.82 -4418.15 -4420.84 -4423.48 -4430.10 -4429.81 -4429.71 -4427.29 -4430.18 -4428.57 -4431.02 -4439.33 -4442.12 -4446.23 -4445.19 -4443.65 -4447.34 -4449.78 -4446.26 -4443.32 -4440.96 -4444.51 -4438.09 -4431.49 -4420.02 -4411.10 -4400.40 -4391.96 -4376.88 -4363.96 -4352.22 -4333.52 -4294.63 -4225.97 -4047.23 -3873.35 -3653.31 -3540.47 -3216.65 -2936.96 -2627.64 -2423.49 -2105.94 -1946.63 -1638.47 -1478.86 -1206.33 -900.54 -626.44 -416.02 -257.73 -211.22 -168.01 -79.74 -12.29 26.65 60.41 106.02 117.80 122.55 133.06 140.13 142.91 144.02 149.13 151.08 148.70 148.53 149.04 147.78 148.56 142.17 142.76 130.61 125.68 117.87 101.06 75.25 57.47 52.95 50.68 44.72 57.68 81.25 105.04 37.38 -286.92 -475.77 -591.32 -841.87 -931.33 -1216.30 -1472.38 -1405.30 -1243.02 -1464.75 -1335.75 -1484.07 -1960.67 -2177.80 -2255.29 -3133.94 -3625.49 -3792.83 -4032.83 -3963.46 -4056.67 -4133.98 -4154.94 -4163.26 -4174.15 -4206.91 -4214.07 -4230.49 -4242.28 -4254.79 -4259.94 -4265.80 -4270.62 -4272.14 -4273.74 -4274.65 -4274.11 -4263.41 -4249.68 -4239.69 -4237.11 -4233.82 -4231.38 -4228.91 -4223.30 -4223.37
-4419.72 -4418.65 -4419.48 -4419.46 -4419.19 -4419.37 -4422.37 -4422.61 -4423.92 -4425.94 -4425.65 -4429.50 -4432.43 -4436.37 -4439.20 -4443.29 -4436.53 -4442.02 -4443.33 -4444.55 -4448.49 -4446.70 -4452.38 -4452.54 -4453.88 -4455.42 -4455.32 -4451.37 -4449.24 -4447.58 -4448.73 -4443.46 -4435.89 -4425.02 -4409.68 -4401.14 -4392.14 -4375.52 -4360.70 -4351.09 -4336.04 -4317.95 -4263.18 -4130.03 -4085.97 -3884.77 -3533.68 -3308.14 -3085.70 -2769.23 -2420.73 -2062.00 -1843.52 -1676.93 -1462.66 -1206.23 -915.14 -702.67 -372.97 -319.39 -235.61 -159.21 -72.65 -37.51 -4.58 22.78 48.23 77.91 104.12 127.30 130.81 132.22 135.14 137.66 140.83 139.41 135.61 136.14 129.22 129.97 126.00 127.29 111.94 109.59 102.16 86.92 70.12 60.04 46.90 62.35 78.16 81.74 87.88 82.00 -66.18 -555.10 -859.30 -1140.25 -1246.90 -1310.49 -1520.57 -1789.04 -2206.54 -2743.45 -2641.38 -2597.57 -2696.86 -2635.81 -2995.07 -3200.32 -3652.48 -3915.40 -4046.52 -4069.80 -4109.16 -4128.71 -4140.03 -4149.75 -4168.35 -4186.74 -4207.09 -4221.48 -4230.83 -4241.15 -4250.94 -4257.73 -4263.48 -4268.60 -4270.17 -4273.25 -4276.06 -4275.10 -4268.45 -4247.34 -4240.88 -4238.78 -4234.56 -4232.31 -4228.97 -4223.06 -4223.12
-4428.84 -4427.96 -4428.31 -4428.94 -4428.01 -4431.30 -4430.30 -4428.83 -4431.53 -4433.62 -4436.99 -4439.44 -4441.07 -4442.26 -4446.79 -4450.23 -4452.76 -4455.28 -4455.33 -4455.22 -4459.38 -4459.73 -4460.28 -4459.06 -4460.17 -4462.08 -4460.28 -4458.30 -4457.60 -4453.85 -4450.20 -4446.51 -4435.39 -4428.74 -4413.80 -4397.30 -4386.84 -4372.46 -4365.31 -4352.85 -4332.69 -4315.54 -4279.23 -4178.76 -4082.84 -3825.80 -3500.83 -3246.46 -3029.10 -2647.49 -2380.25 -2006.42 -1886.69 -1660.85 -1454.65 -1273.70 -997.47 -685.37 -455.65 -383.91 -259.90 -182.11 -132.76 -88.79 -22.31 19.03 28.10 44.06 68.01 90.15 111.41 113.12 122.78 119.11 119.49 118.88 121.04 115.83 116.79 117.04 114.29 105.94 97.46 94.58 80.68 84.08 89.78 95.03 95.80 99.80 97.92 73.97 36.38 -9.30 -285.30 -965.93 -1656.51 -2019.14 -1608.28 -1717.50 -2278.23 -2723.91 -2740.96 -3308.06 -3325.62 -3556.76 -3733.46 -3414.46 -3703.95 -3709.00 -3888.21 -4082.03 -4116.55 -4119.29 -4124.39 -4130.71 -4140.84 -4154.66 -4169.75 -4196.78 -4210.80 -4220.70 -4228.96 -4237.96 -4242.83 -4255.29 -4260.81 -4267.53 -4270.92 -4273.61 -4277.75 -4279.93 -4271.57 -4247.21 -4242.50 -4238.72 -4235.89 -4231.81 -4227.06 -4220.37 -4220.43
-4437.55 -4437.48 -4439.25 -4438.22 -4437.36 -4439.56 -4436.54 -4436.94 -4441.03 -4441.00 -4442.41 -4445.11 -4447.42 -4450.57 -4454.35 -4460.07 -4463.15 -4464.43 -4465.75 -4465.56 -4467.20 -4469.82 -4467.84 -4472.59 -4468.85 -4469.09 -4464.84 -4464.36 -4463.77 -4459.18 -4451.19 -4444.97 -4439.50 -4424.73 -4417.67 -4400.23 -4391.46 -4380.98 -4370.94 -4356.96 -4345.63 -4322.34 -4283.86 -4200.07 -4081.19 -3900.41 -3707.49 -3339.04 -2981.84 -2528.18 -2204.91 -2000.63 -1893.20 -1705.29 -1507.57 -1261.06 -1059.93 -703.57 -572.51 -446.05 -352.19 -227.89 -179.71 -126.90 -33.14 -9.69 10.72 21.90 31.35 34.95 82.84 102.70 112.22 111.05 102.64 101.66 108.37 103.28 101.24 94.66 92.80 88.47 99.15 103.39 104.79 124.43 137.05 131.27 140.05 109.35 92.77 45.10 -131.16 -495.14 -609.77 -1200.16 -2470.41 -2666.81 -2235.36 -2586.85 -3349.96 -3729.04 -3438.84 -3623.20 -3824.12 -4006.97 -3995.95 -3897.90 -4016.45 -4066.65 -4073.37 -4092.19 -4124.15 -4129.99 -4134.78 -4139.76 -4154.79 -4168.74 -4184.36 -4205.49 -4220.51 -4227.42 -4229.11 -4240.59 -4243.57 -4252.30 -4263.52 -4267.34 -4274.08 -4275.63 -4278.59 -4281.07 -4268.40 -4249.21 -4242.37 -4238.99 -4235.72 -4229.71 -4221.06 -4214.81 -4214.87
-4445.52 -4445.45 -4446.72 -4446.83 -4445.80 -4444.88 -4447.00 -4445.92 -4449.50 -4450.57 -4450.81 -4454.38 -4457.83 -4459.02 -4462.10 -4467.24 -4471.50 -4472.83 -4472.78 -4473.74 -4475.94 -4478.29 -4479.01 -4477.83 -4477.18 -4477.78 -4471.69 -4470.57 -4468.52 -4461.58 -4455.62 -4448.42 -4439.49 -4426.08 -4417.36 -4402.40 -4395.41 -4381.20 -4375.11 -4361.86 -4352.90 -4337.55 -4308.64 -4237.38 -4184.76 -4100.17 -3906.94 -3698.62 -3139.19 -2532.11 -2170.66 -1885.76 -1714.15 -1631.21 -1489.61 -1363.88 -1159.76 -823.16 -624.44 -472.98 -427.48 -300.16 -204.81 -140.89 -86.26 -53.21 -14.80 3.92 15.67 22.32 35.51 77.58 107.67 100.67 91.45 84.33 90.52 91.94 90.28 84.21 83.23 104.62 114.04 128.50 162.81 156.39 155.93 140.30 101.13 61.42 -19.96 -156.86 -366.98 -635.18 -1321.28 -2264.18 -2814.92 -3159.70 -3025.97 -3352.30 -3967.44 -4094.43 -4107.93 -4006.64 -3996.47 -4113.08 -4113.83 -4118.68 -4110.24 -4125.36 -4128.58 -4130.43 -4131.79 -4141.10 -4145.51 -4150.93 -4166.83 -4178.60 -4199.11 -4214.82 -4227.14 -4232.09 -4236.50 -4239.18 -4242.31 -4249.75 -4262.02 -4270.76 -4275.93 -4279.28 -4286.84 -4280.63 -4271.78 -4248.56 -4241.11 -4237.20 -4232.07 -4224.31 -4218.02 -4208.92 -4206.28
-4452.69 -4452.62 -4454.89 -4455.05 -4455.93 -4454.83 -4455.32 -4454.35 -4458.30 -4458.14 -4460.12 -4460.57 -4465.34 -4466.04 -4471.72 -4478.06 -4477.38 -4482.31 -4481.87 -4478.89 -4482.01 -4484.78 -4485.57 -4487.31 -4484.52 -4482.18 -4480.04 -4476.54 -4471.72 -4466.41 -4462.01 -4455.19 -4446.76 -4433.46 -4416.87 -4408.68 -4400.86 -4393.18 -4371.79 -4362.89 -4348.98 -4331.19 -4315.71 -4298.99 -4260.91 -4213.66 -4091.36 -3737.40 -3476.00 -2545.05 -2181.98 -1753.13 -1608.94 -1541.46 -1438.26 -1383.82 -1136.76 -954.57 -805.21 -605.05 -484.18 -335.62 -268.45 -210.34 -112.99 -99.55 -68.08 -24.73 -1.27 15.76 43.51 104.22 104.70 99.15 94.11 88.51 97.90 96.34 107.95 107.57 124.18 147.04 147.58 173.27 164.46 158.75 128.15 37.06 17.77 -84.47 -241.88 -370.44 -582.63 -1214.28 -1701.67 -2544.14 -3143.90 -3496.21 -3763.06 -4150.36 -4133.98 -4136.16 -4129.35 -4124.60 -4120.71 -4129.15 -4137.68 -4135.35 -4132.87 -4134.85 -4135.22 -4144.18 -4152.50 -4155.34 -4165.02 -4170.35 -4197.27 -4203.20 -4212.03 -4217.82 -4225.97 -4235.57 -4237.88 -4241.68 -4246.74 -4253.07 -4264.76 -4275.53 -4278.68 -4288.52 -4292.95 -4296.17 -4274.23 -4247.83 -4240.85 -4232.76 -4227.19 -4211.31 -4204.71 -4194.20 -4194.26
-4459.13 -4458.70 -4459.82 -4460.68 -4461.28 -4461.28 -4462.49 -4463.04 -4463.97 -4464.63 -4466.64 -4469.51 -4471.19 -4474.64 -4479.58 -4483.29 -4484.48 -4490.12 -4493.09 -4489.34 -4491.90 -4491.08 -4492.50 -4492.47 -4491.47 -4486.41 -4483.32 -4480.78 -4475.98 -4472.67 -4467.18 -4459.42 -4449.05 -4436.22 -4428.22 -4420.84 -4407.36 -4397.57 -4381.72 -4369.66 -4351.28 -4335.55 -4321.76 -4309.93 -4288.75 -4241.42 -4120.61 -3915.51 -3242.47 -2528.46 -1842.53 -1333.08 -1288.41 -1339.03 -1379.94 -1323.15 -1210.37 -1077.24 -938.82 -772.84 -570.55 -406.61 -287.78 -224.59 -173.82 -150.30 -113.48 -67.49 -27.73 28.52 97.52 140.75 119.84 100.60 113.12 118.41 130.42 142.99 148.02 150.83 162.70 170.17 165.36 164.28 131.51 104.04 3.81 -73.56 -163.62 -352.32 -602.59 -849.12 -949.31 -1409.46 -1804.05 -2701.78 -3201.69 -3789.40 -4068.12 -4116.17 -4113.08 -4133.15 -4110.36 -4107.01 -4108.56 -4128.38 -4137.24 -4143.19 -4141.95 -4145.58 -4153.89 -4160.32 -4173.62 -4178.78 -4189.75 -4185.34 -4208.77 -4223.49 -4222.24 -4222.21 -4226.87 -4234.84 -4241.05 -4244.93 -4250.56 -4252.66 -4270.74 -4279.48 -4285.52 -4292.23 -4296.85 -4290.46 -4266.35 -4244.42 -4235.54 -4228.47 -4222.21 -4203.24 -4192.66 -4178.70 -4178.75
-4465.41 -4465.34 -4467.46 -4469.17 -4468.94 -4469.46 -4469.69 -4470.70 -4471.99 -4473.82 -4474.43 -4475.21 -4479.07 -4480.59 -4483.97 -4489.30 -4495.15 -4499.44 -4496.56 -4495.26 -4494.36 -4494.43 -4495.78 -4497.47 -4497.29 -4493.94 -4487.38 -4486.16 -4480.58 -4477.48 -4473.13 -4464.01 -4453.71 -4447.31 -4435.14 -4426.06 -4414.68 -4399.28 -4389.49 -4376.13 -4360.84 -4342.21 -4326.51 -4315.48 -4293.89 -4207.11 -4030.71 -3684.35 -2870.83 -1878.57 -1347.37 -898.38 -877.47 -1143.15 -1315.28 -1264.52 -1243.46 -1094.91 -1001.53 -799.92 -620.54 -424.40 -327.70 -261.90 -220.84 -198.71 -140.59 -101.61 -45.90 24.79 107.17 156.95 154.70 148.61 133.17 147.97 165.33 150.73 159.56 170.51 169.44 125.63 114.87 53.22 14.89 -16.46 -171.64 -237.02 -348.23 -470.18 -690.76 -1239.42 -1226.20 -1763.30 -2215.94 -3297.72 -3583.61 -3970.72 -4126.14 -4125.69 -4114.13 -4115.77 -4103.10 -4114.52 -4109.44 -4135.50 -4159.26 -4164.50 -4166.49 -4176.79 -4179.13 -4185.54 -4193.14 -4202.22 -4209.70 -4219.28 -4230.55 -4235.26 -4233.10 -4233.64 -4234.38 -4241.77 -4248.29 -4252.47 -4254.93 -4266.98 -4277.69 -4284.34 -4290.68 -4299.23 -4303.17 -4294.04 -4254.26 -4237.76 -4230.54 -4220.20 -4208.26 -4186.41 -4172.24 -4159.84 -4159.89
-4470.66 -4470.59 -4472.91 -4473.34 -4475.31 -4474.38 -4476.10 -4476.63 -4479.28 -4477.72 -4482.10 -4483.94 -4487.89 -4488.95 -4493.42 -4498.09 -4502.47 -4506.27 -4500.84 -4496.87 -4495.18 -4496.30 -4499.90 -4499.95 -4501.69 -4499.60 -4492.53 -4488.47 -4483.89 -4479.96 -4475.65 -4470.73 -4465.09 -4454.45 -4444.24 -4429.35 -4417.48 -4407.75 -4394.76 -4379.70 -4366.09 -4346.99 -4339.17 -4263.60 -4219.07 -3913.54 -3453.88 -2730.31 -2293.94 -1574.77 -944.58 -758.12 -710.69 -803.61 -929.90 -1111.79 -1102.11 -1083.64 -959.13 -792.74 -638.31 -483.24 -332.69 -285.87 -272.19 -265.49 -220.43 -178.27 -101.71 3.51 59.10 123.67 153.62 139.78 121.35 132.99 123.37 115.55 120.28 136.94 88.16 47.70 26.22 -41.12 -84.59 -176.67 -290.95 -395.41 -525.79 -628.01 -908.21 -1311.48 -1592.47 -1877.59 -2781.59 -3494.42 -3896.21 -4122.56 -4157.23 -4139.96 -4124.92 -4120.20 -4127.86 -4151.15 -4171.48 -4176.32 -4206.46 -4208.71 -4221.05 -4214.12 -4205.47 -4205.09 -4221.59 -4242.23 -4246.61 -4239.26 -4245.31 -4245.57 -4245.54 -4243.17 -4242.08 -4250.73 -4259.14 -4262.92 -4262.44 -4274.00 -4284.69 -4294.03 -4304.27 -4306.56 -4309.43 -4297.90 -4257.81 -4237.80 -4222.55 -4209.32 -4194.16 -4178.06 -4161.90 -4143.13 -4138.09
-4475.06 -4474.99 -4477.71 -4477.91 -4478.66 -4480.85 -4482.73 -4483.42 -4485.14 -4486.03 -4487.23 -4488.34 -4490.67 -4493.87 -4498.82 -4502.98 -4511.33 -4507.87 -4502.82 -4499.81 -4496.63 -4497.14 -4500.77 -4502.10 -4504.87 -4500.82 -4494.30 -4490.73 -4488.01 -4484.26 -4479.55 -4475.82 -4467.39 -4462.40 -4448.17 -4437.35 -4428.30 -4419.56 -4406.74 -4389.82 -4378.12 -4369.85 -4362.29 -4174.82 -3632.71 -3085.26 -2616.03 -2121.45 -1357.09 -1153.31 -823.65 -738.62 -687.46 -684.21 -765.44 -865.54 -925.59 -945.95 -821.86 -627.80 -567.47 -456.31 -225.76 -237.03 -316.30 -322.59 -314.95 -244.51 -161.51 -77.90 -9.90 57.03 91.04 17.61 46.55 2.91 19.97 -57.93 -25.62 1.75 -19.97 -136.93 -178.79 -220.36 -251.09 -345.52 -537.23 -735.29 -916.28 -1312.91 -1249.35 -1616.86 -1906.93 -2179.69 -2929.71 -3653.36 -4079.99 -4155.17 -4165.86 -4149.40 -4143.70 -4141.49 -4168.89 -4183.05 -4200.93 -4215.15 -4239.89 -4257.86 -4249.13 -4246.65 -4246.89 -4250.10 -4240.09 -4252.12 -4258.77 -4253.57 -4253.24 -4254.51 -4249.19 -4250.32 -4254.17 -4259.35 -4266.28 -4272.61 -4280.52 -4285.22 -4299.04 -4301.57 -4311.29 -4312.77 -4311.84 -4280.90 -4257.57 -4226.53 -4206.68 -4191.44 -4182.69 -4154.20 -4130.64 -4113.93 -4113.98
-4478.98 -4478.91 -4481.29 -4481.23 -4484.52 -4484.93 -4487.24 -4488.87 -4489.39 -4491.98 -4494.12 -4495.03 -4497.86 -4501.10 -4503.69 -4510.14 -4510.60 -4507.86 -4504.33 -4500.70 -4497.78 -4497.42 -4500.21 -4503.69 -4505.83 -4502.71 -4496.89 -4493.04 -4490.52 -4485.96 -4482.02 -4478.33 -4471.82 -4464.40 -4453.48 -4442.39 -4432.19 -4422.47 -4410.13 -4266.51 -4123.80 -4098.84 -4122.73 -3314.64 -2944.87 -2402.52 -1824.36 -1197.47 -1007.75 -920.65 -760.87 -721.78 -724.99 -723.02 -863.21 -819.97 -679.94 -595.24 -540.22 -470.95 -429.97 -326.03 -246.42 -286.99 -355.80 -424.33 -389.12 -358.60 -230.12 -179.60 -140.69 -28.28 -101.87 -133.73 -118.28 -115.59 -190.25 -182.34 -149.57 -194.92 -222.12 -258.76 -308.75 -432.46 -442.63 -583.20 -878.78 -1018.74 -1362.53 -1885.50 -1838.55 -2151.68 -2726.42 -3152.06 -3464.97 -3856.97 -4151.41 -4177.92 -4172.00 -4161.42 -4164.47 -4168.86 -4183.88 -4207.82 -4219.31 -4242.65 -4258.51 -4277.20 -4277.50 -4277.01 -4265.81 -4271.46 -4267.35 -4272.60 -4270.71 -4265.55 -4264.97 -4260.19 -4260.10 -4265.92 -4263.47 -4278.45 -4279.90 -4283.28 -4289.99 -4298.67 -4305.44 -4316.98 -4318.43 -4318.69 -4314.07 -4284.07 -4253.03 -4216.67 -4192.35 -4172.73 -4147.66 -4136.83 -4116.91 -4094.74 -4088.52
-4482.54 -4482.45 -4484.42 -4487.13 -4488.29 -4489.62 -4492.06 -4493.23 -4494.70 -4494.91 -4498.53 -4500.35 -4502.30 -4504.41 -4510.32 -4515.76 -4513.80 -4505.70 -4497.68 -4495.15 -4495.98 -4497.35 -4500.34 -4504.36 -4507.40 -4507.66 -4500.58 -4496.29 -4491.63 -4488.75 -4484.82 -4481.23 -4476.58 -4470.31 -4459.66 -4446.00 -4436.80 -4428.09 -4418.91 -4415.93 -4279.47 -4089.09 -3759.22 -3385.07 -2181.30 -1422.14 -1051.33 -969.49 -868.49 -786.75 -722.30 -755.43 -858.52 -1137.50 -1128.98 -1163.03 -800.31 -541.81 -533.51 -547.70 -452.49 -400.06 -629.49 -727.61 -834.59 -736.41 -670.11 -574.46 -441.12 -361.89 -282.55 -301.71 -436.26 -318.50 -321.69 -374.23 -368.47 -331.24 -344.48 -326.59 -353.83 -463.53 -511.00 -654.90 -670.81 -764.45 -986.78 -1320.52 -1667.79 -1928.63 -2569.52 -2883.77 -3188.01 -3789.03 -4059.68 -4086.78 -4150.72 -4174.48 -4166.18 -4167.83 -4177.77 -4188.25 -4207.94 -4216.93 -4223.55 -4244.06 -4260.33 -4286.70 -4290.30 -4285.18 -4286.75 -4282.65 -4278.31 -4279.52 -4280.18 -4277.94 -4274.31 -4270.07 -4273.31 -4274.60 -4278.99 -4282.33 -4291.17 -4297.07 -4304.02 -4312.63 -4314.48 -4323.84 -4325.59 -4324.06 -4319.47 -4281.44 -4236.18 -4201.15 -4180.36 -4165.32 -4133.79 -4111.18 -4081.32 -4062.35 -4062.40
-4482.29 -4482.65 -4482.08 -4485.15 -4485.74 -4487.62 -4489.13 -4489.82 -4492.98 -4497.48 -4493.27 -4500.56 -4500.97 -4503.70 -4510.70 -4516.80 -4512.29 -4499.85 -4496.69 -4500.08 -4499.30 -4500.30 -4503.74 -4504.38 -4507.14 -4507.02 -4502.79 -4498.98 -4495.11 -4490.31 -4488.06 -4485.37 -4482.73 -4476.93 -4462.93 -4451.05 -4442.38 -4434.49 -4427.66 -4422.33 -4385.47 -4215.51 -3437.00 -2644.56 -1479.93 -1093.77 -956.37 -898.53 -855.12 -811.52 -703.18 -887.76 -1338.92 -1929.17 -1971.45 -1767.87 -1057.41 -860.18 -637.49 -857.95 -1157.00 -1566.08 -1688.71 -1607.43 -1519.44 -1236.72 -885.11 -804.28 -683.29 -642.62 -738.02 -737.39 -776.57 -775.93 -544.19 -529.86 -483.88 -496.39 -541.58 -512.24 -562.87 -607.99 -816.61 -905.30 -1057.72 -1148.39 -1465.61 -1905.17 -1979.30 -2565.13 -3145.12 -3552.29 -3810.49 -4019.56 -4156.82 -4149.30 -4173.21 -4169.87 -4166.03 -4171.93 -4184.88 -4195.37 -4208.41 -4218.97 -4233.70 -4241.19 -4272.86 -4293.63 -4302.09 -4296.32 -4298.18 -4293.90 -4291.18 -4290.45 -4286.66 -4288.03 -4286.75 -4284.04 -4286.51 -4282.87 -4292.37 -4289.59 -4301.65 -4309.07 -4311.65 -4321.15 -4323.15 -4327.57 -4326.73 -4318.61 -4298.36 -4272.90 -4236.83 -4197.77 -4159.28 -4142.88 -4129.29 -4081.73 -4069.74 -4036.37 -4036.43
-4455.66 -4455.61 -4459.29 -4466.65 -4466.87 -4466.66 -4469.69 -4469.88 -4470.31 -4474.36 -4474.18 -4480.31 -4483.10 -4480.98 -4487.78 -4498.80 -4500.43 -4494.77 -4499.94 -4502.78 -4497.30 -4500.79 -4503.75 -4506.43 -4507.32 -4508.48 -4505.51 -4501.88 -4498.94 -4495.86 -4491.26 -4489.92 -4485.91 -4480.00 -4472.02 -4455.19 -4447.89 -4440.72 -4431.46 -4406.70 -4361.26 -3827.57 -3163.94 -1786.57 -1049.72 -830.22 -952.71 -1061.11 -1067.44 -822.70 -736.42 -1482.77 -1847.83 -2624.05 -2925.99 -2350.57 -1607.45 -1367.24 -1304.49 -1736.81 -1980.70 -2620.70 -2644.45 -2124.11 -1736.77 -1586.22 -1344.59 -1214.32 -1207.23 -1042.41 -928.47 -1002.45 -1101.33 -987.51 -806.21 -846.95 -869.04 -896.08 -934.03 -957.96 -933.44 -923.62 -982.68 -1327.71 -1516.57 -1785.66 -1995.82 -2332.83 -2462.56 -2832.39 -3435.28 -3878.05 -4024.66 -4131.13 -4177.39 -4173.26 -4162.62 -4161.27 -4161.20 -4169.81 -4180.68 -4193.65 -4206.03 -4222.38 -4233.99 -4245.28 -4270.04 -4296.67 -4307.97 -4304.39 -4303.11 -4301.65 -4302.47 -4297.89 -4296.22 -4299.00 -4294.71 -4292.00 -4294.92 -4294.79 -4297.95 -4302.80 -4307.20 -4317.02 -4325.13 -4327.70 -4328.32 -4325.61 -4312.49 -4295.29 -4271.95 -4239.03 -4207.88 -4175.42 -4141.50 -4124.14 -4092.79 -4061.80 -4036.57 -4011.07 -4011.12
-4449.33 -4449.26 -4451.66 -4452.82 -4453.96 -4456.05 -4457.27 -4461.08 -4463.95 -4464.30 -4467.80 -4469.54 -4472.36 -4474.67 -4476.93 -4480.42 -4486.62 -4488.55 -4492.72 -4495.18 -4497.48 -4499.66 -4503.02 -4505.22 -4508.69 -4509.52 -4508.19 -4506.10 -4503.24 -4500.52 -4495.95 -4495.24 -4493.00 -4483.03 -4476.14 -4467.58 -4456.34 -4449.32 -4436.73 -4412.42 -4173.19 -3654.10 -2807.25 -1465.47 -1087.27 -1061.38 -1225.44 -1737.96 -1624.94 -1283.34 -1070.17 -1442.84 -2294.31 -3341.22 -3620.35 -3127.96 -2655.80 -2617.84 -2563.34 -3018.06 -3298.70 -3421.15 -3010.98 -2830.83 -2420.70 -2025.36 -1801.26 -1870.81 -1594.20 -1616.05 -1294.25 -1199.25 -1308.65 -1316.51 -1252.28 -1109.77 -1254.83 -1185.22 -1513.07 -1215.75 -1306.98 -1551.37 -1424.33 -1742.94 -1879.15 -2174.73 -2441.28 -2953.66 -3046.75 -3346.34 -3668.08 -3965.06 -4132.18 -4169.01 -4168.18 -4158.67 -4154.91 -4153.72 -4157.16 -4163.07 -4174.98 -4185.96 -4196.50 -4215.75 -4236.33 -4252.08 -4277.32 -4300.10 -4304.25 -4307.03 -4307.64 -4308.07 -4309.41 -4307.74 -4306.28 -4307.10 -4302.33 -4301.74 -4301.98 -4304.39 -4308.36 -4315.02 -4323.06 -4328.22 -4335.14 -4335.34 -4337.20 -4325.56 -4301.15 -4280.84 -4251.65 -4226.86 -4192.11 -4162.75 -4127.50 -4097.09 -4074.58 -4030.70 -4015.66 -3986.96 -3987.02
-4453.77 -4453.69 -4455.12 -4455.09 -4456.36 -4457.94 -4459.73 -4462.12 -4464.34 -4467.72 -4470.96 -4472.65 -4473.98 -4478.96 -4480.16 -4483.82 -4486.68 -4490.28 -4493.92 -4495.97 -4498.30 -4501.23 -4502.85 -4504.89 -4506.70 -4508.70 -4509.21 -4508.57 -4506.76 -4502.97 -4502.45 -4499.85 -4497.88 -4493.48 -4484.94 -4477.36 -4463.47 -4459.85 -4455.16 -4405.70 -4190.31 -3594.65 -2394.63 -1760.45 -1625.94 -2083.08 -2695.23 -2772.23 -2835.67 -2275.19 -1548.53 -1873.92 -2477.44 -3595.73 -3972.92 -3812.38 -3732.03 -3301.12 -3495.30 -3929.95 -3849.86 -3828.72 -3416.80 -3143.49 -2894.80 -2748.47 -2705.08 -2139.69 -2268.52 -1937.74 -1732.26 -1783.10 -1676.68 -1687.04 -1705.85 -1504.11 -1584.61 -1701.53 -1621.53 -1860.83 -2019.76 -1972.02 -2026.69 -2282.60 -2492.79 -2558.52 -3161.74 -3529.96 -3800.63 -3803.81 -3874.60 -4085.17 -4159.39 -4164.70 -4160.87 -4152.94 -4149.96 -4155.20 -4157.69 -4163.97 -4172.60 -4182.51 -4192.12 -4213.53 -4235.56 -4261.77 -4280.36 -4305.28 -4305.81 -4308.40 -4311.68 -4313.59 -4313.93 -4313.50 -4313.88 -4313.74 -4314.08 -4313.66 -4314.02 -4318.42 -4320.24 -4324.55 -4330.20 -4334.88 -4338.48 -4337.20 -4336.91 -4329.83 -4294.30 -4270.02 -4230.30 -4217.74 -4177.97 -4142.80 -4118.69 -4080.85 -4048.68 -4025.61 -3992.29 -3964.98 -3965.04
-4459.05 -4458.64 -4459.27 -4460.41 -4461.52 -4463.24 -4465.68 -4467.47 -4469.73 -4472.02 -4473.45 -4477.01 -4481.18 -4483.96 -4485.60 -4489.20 -4490.30 -4495.00 -4497.05 -4500.31 -4502.95 -4503.92 -4506.73 -4508.97 -4509.99 -4511.62 -4510.72 -4511.18 -4510.23 -4508.79 -4506.44 -4504.26 -4497.81 -4493.17 -4492.73 -4483.83 -4475.93 -4466.65 -4463.77 -4408.16 -4280.77 -3242.47 -2702.79 -2094.77 -2418.24 -2784.85 -3300.91 -3755.18 -3592.99 -3427.25 -2366.00 -2354.65 -2829.89 -3486.94 -3972.69 -4095.74 -4088.65 -4081.36 -4049.08 -4235.75 -4289.42 -4086.38 -3937.44 -3732.99 -3505.25 -3235.55 -3210.71 -2994.37 -2672.29 -2320.77 -2202.92 -1945.43 -1892.87 -2186.15 -2141.66 -1927.23 -2013.36 -2031.79 -2124.98 -2212.73 -2600.85 -2617.74 -2635.02 -2610.97 -3054.59 -2944.16 -3194.81 -3798.10 -4061.90 -4013.18 -4001.14 -4114.51 -4150.34 -4153.99 -4152.58 -4146.34 -4146.67 -4156.83 -4163.03 -4167.79 -4172.58 -4182.44 -4198.62 -4215.71 -4235.74 -4269.18 -4291.77 -4305.58 -4313.21 -4316.67 -4316.64 -4316.50 -4316.93 -4317.94 -4322.18 -4321.17 -4323.06 -4324.12 -4320.96 -4325.76 -4330.72 -4337.63 -4339.40 -4345.34 -4342.14 -4336.74 -4332.40 -4312.29 -4290.73 -4258.10 -4229.23 -4201.87 -4166.81 -4126.43 -4095.31 -4066.91 -4026.93 -4002.28 -3968.94 -3945.40 -3945.46
-4464.32 -4464.24 -4464.32 -4466.63 -4466.47 -4467.11 -4467.70 -4470.88 -4473.38 -4476.28 -4479.42 -4482.51 -4486.33 -4488.55 -4491.10 -4494.00 -4497.83 -4500.80 -4502.77 -4505.13 -4509.22 -4510.45 -4513.40 -4515.56 -4517.92 -4516.42 -4516.93 -4516.32 -4514.70 -4512.74 -4511.29 -4510.50 -4503.29 -4501.31 -4495.75 -4491.45 -4484.06 -4474.98 -4468.72 -4410.53 -4187.74 -3768.32 -3162.79 -2953.71 -3098.18 -3656.09 -4065.82 -4256.22 -4174.89 -3711.52 -3296.50 -2808.18 -3152.33 -3314.30 -3947.92 -4190.49 -4275.51 -4311.85 -4332.32 -4389.03 -4384.07 -4343.95 -4274.46 -3991.86 -3931.63 -3831.57 -3626.78 -3427.02 -3299.69 -3349.12 -3124.70 -2764.92 -2663.85 -2709.55 -2500.11 -2579.01 -2335.80 -2692.20 -2524.00 -2760.62 -3238.06 -3297.31 -3584.52 -3666.01 -3561.82 -3421.92 -3595.28 -3932.86 -4093.10 -4157.13 -4136.85 -4142.48 -4142.75 -4145.47 -4151.45 -4151.56 -4153.53 -4162.07 -4168.26 -4169.67 -4174.66 -4186.40 -4201.86 -4219.70 -4242.73 -4263.84 -4287.73 -4308.16 -4316.56 -4318.00 -4318.48 -4318.82 -4320.08 -4323.34 -4323.67 -4326.74 -4329.02 -4332.09 -4334.30 -4336.10 -4336.93 -4341.90 -4346.47 -4350.04 -4348.74 -4340.87 -4330.87 -4304.13 -4280.47 -4249.59 -4219.84 -4178.71 -4154.20 -4118.42 -4078.23 -4048.77 -4017.67 -3978.06 -3950.25 -3928.28 -3928.34
-4469.48 -4469.40 -4469.95 -4469.39 -4471.30 -4471.87 -4475.94 -4475.57 -4478.42 -4479.54 -4483.99 -4487.47 -4490.50 -4493.88 -4495.90 -4499.40 -4502.16 -4505.97 -4507.35 -4510.46 -4513.32 -4517.09 -4518.49 -4519.58 -4520.40 -4521.71 -4522.44 -4521.43 -4518.73 -4518.24 -4517.57 -4515.78 -4514.93 -4508.34 -4505.74 -4499.95 -4491.88 -4480.81 -4471.48 -4468.90 -4406.35 -4115.81 -4016.35 -3879.02 -3916.24 -4273.04 -4336.39 -4399.54 -4361.29 -4181.21 -3929.94 -3652.30 -3545.64 -3586.06 -3948.61 -4227.39 -4349.16 -4383.12 -4402.57 -4409.60 -4415.13 -4383.50 -4347.52 -4326.44 -4235.30 -4218.33 -4120.94 -3965.92 -3840.57 -3815.18 -3723.92 -3633.41 -3486.74 -3019.82 -2997.41 -3029.60 -3335.40 -3290.78 -3130.96 -3331.06 -3596.80 -3765.64 -3793.26 -3975.77 -3881.81 -3961.10 -4078.89 -4104.70 -4131.95 -4156.16 -4154.18 -4146.42 -4142.62 -4148.14 -4156.70 -4161.21 -4162.79 -4169.78 -4173.63 -4174.09 -4182.00 -4190.02 -4205.63 -4224.62 -4250.01 -4263.18 -4296.66 -4312.00 -4317.26 -4318.37 -4318.20 -4319.11 -4322.66 -4323.76 -4326.73 -4333.05 -4337.25 -4339.90 -4340.44 -4342.83 -4345.52 -4350.34 -4351.92 -4353.10 -4353.51 -4352.78 -4331.56 -4304.27 -4272.86 -4236.14 -4202.07 -4168.13 -4132.40 -4086.27 -4059.38 -4030.58 -3997.76 -3961.00 -3940.62 -3916.46 -3913.27
-4474.34 -4474.26 -4473.98 -4475.78 -4474.32 -4475.35 -4477.50 -4479.96 -4481.21 -4485.60 -4489.68 -4492.22 -4495.53 -4499.09 -4502.85 -4505.57 -4509.08 -4511.60 -4515.47 -4517.31 -4518.26 -4522.56 -4524.82 -4524.05 -4524.54 -4524.83 -4527.23 -4527.15 -4522.68 -4523.36 -4523.86 -4520.93 -4520.25 -4515.09 -4512.34 -4509.40 -4499.14 -4486.08 -4471.91 -4466.14 -4463.11 -4381.48 -4276.52 -4225.79 -4256.29 -4415.04 -4418.06 -4420.23 -4398.61 -4322.11 -4188.62 -4041.49 -3928.22 -3950.67 -4194.69 -4283.28 -4381.69 -4414.65 -4420.62 -4427.01 -4428.57 -4426.23 -4424.93 -4403.10 -4387.98 -4333.97 -4321.15 -4235.76 -4181.88 -4300.32 -4298.95 -4041.56 -3773.76 -3370.57 -3286.23 -3455.37 -3828.94 -3743.98 -3676.07 -3715.91 -3876.34 -3991.07 -3996.56 -4134.83 -4197.45 -4267.03 -4229.60 -4216.56 -4190.66 -4170.51 -4158.28 -4149.79 -4146.87 -4152.32 -4167.48 -4171.82 -4170.27 -4173.37 -4176.15 -4178.99 -4183.80 -4195.95 -4207.63 -4235.06 -4249.98 -4270.52 -4297.81 -4310.40 -4317.53 -4319.82 -4319.34 -4320.11 -4322.01 -4325.44 -4329.45 -4333.51 -4341.37 -4346.74 -4347.57 -4347.60 -4348.78 -4352.02 -4353.63 -4349.80 -4348.61 -4352.31 -4333.07 -4294.71 -4267.08 -4227.60 -4197.69 -4145.38 -4119.74 -4080.25 -4038.85 -4015.37 -3984.85 -3947.34 -3919.24 -3899.84 -3899.91
-4478.81 -4478.73 -4478.71 -4478.50 -4478.99 -4480.29 -4482.12 -4483.39 -4486.65 -4488.70 -4493.49 -4495.57 -4497.83 -4503.61 -4506.82 -4510.95 -4513.79 -4516.87 -4519.98 -4523.40 -4525.01 -4527.68 -4529.47 -4528.95 -4529.46 -4531.88 -4532.46 -4531.94 -4534.45 -4529.34 -4529.34 -4526.83 -4523.65 -4523.27 -4520.62 -4518.06 -4507.98 -4498.94 -4486.92 -4473.23 -4468.65 -4458.98 -4463.54 -4442.53 -4453.11 -4445.18 -4442.06 -4429.96 -4416.18 -4384.63 -4340.59 -4284.45 -4257.47 -4315.01 -4326.74 -4385.90 -4420.51 -4428.67 -4434.21 -4442.64 -4436.79 -4434.78 -4438.18 -4435.34 -4432.14 -4395.71 -4396.30 -4372.82 -4410.04 -4410.24 -4431.15 -4304.16 -4092.27 -3926.05 -3874.05 -4072.00 -3992.75 -4009.40 -4057.62 -4065.51 -4128.81 -4226.39 -4216.92 -4277.40 -4278.19 -4250.83 -4226.56 -4213.53 -4189.68 -4173.20 -4161.68 -4153.38 -4149.19 -4154.29 -4168.07 -4179.96 -4180.96 -4184.13 -4182.21 -4183.52 -4189.12 -4197.96 -4217.90 -4236.51 -4254.02 -4276.93 -4291.32 -4301.90 -4308.86 -4314.05 -4319.34 -4319.56 -4322.03 -4324.87 -4329.62 -4336.71 -4342.36 -4347.30 -4351.79 -4353.50 -4352.17 -4352.77 -4353.01 -4350.06 -4342.24 -4334.37 -4317.88 -4285.14 -4254.97 -4211.14 -4174.23 -4139.26 -4114.65 -4062.43 -4029.64 -3989.61 -3958.76 -3933.25 -3908.14 -3890.78 -3888.41
-4482.75 -4482.66 -4482.87 -4482.31 -4483.05 -4485.31 -4485.75 -4487.57 -4489.89 -4492.80 -4497.24 -4499.91 -4504.28 -4508.18 -4513.36 -4516.24 -4519.49 -4522.91 -4526.00 -4528.45 -4532.07 -4532.82 -4534.12 -4533.41 -4535.09 -4537.53 -4536.97 -4539.67 -4539.14 -4537.15 -4534.99 -4533.69 -4530.16 -4529.06 -4527.08 -4524.11 -4520.56 -4507.51 -4499.26 -4482.80 -4489.91 -4491.16 -4482.88 -4478.36 -4469.63 -4461.10 -4441.98 -4433.59 -4419.53 -4408.76 -4397.17 -4394.96 -4382.84 -4382.76 -4390.66 -4415.78 -4427.23 -4439.15 -4448.04 -4450.55 -4447.11 -4443.48 -4443.25 -4438.52 -4432.88 -4419.12 -4416.50 -4413.17 -4420.29 -4423.86 -4418.49 -4356.84 -4288.03 -4290.94 -4212.74 -4236.38 -4216.64 -4198.42 -4223.98 -4228.27 -4234.62 -4278.88 -4273.64 -4271.47 -4275.10 -4251.64 -4215.15 -4199.26 -4183.02 -4169.88 -4168.34 -4155.94 -4151.61 -4157.10 -4176.72 -4183.47 -4189.63 -4194.66 -4187.90 -4188.07 -4195.59 -4204.23 -4223.69 -4238.69 -4262.03 -4276.31 -4282.31 -4293.06 -4305.68 -4312.12 -4316.67 -4318.78 -4320.65 -4322.74 -4330.01 -4336.70 -4342.74 -4347.17 -4352.30 -4354.39 -4352.10 -4350.19 -4347.79 -4343.83 -4327.62 -4320.04 -4297.16 -4265.81 -4255.82 -4181.64 -4156.32 -4126.50 -4075.21 -4039.94 -4006.24 -3968.42 -3946.47 -3928.30 -3898.91 -3878.08 -3878.15
-4486.10 -4486.01 -4486.17 -4485.80 -4486.76 -4487.43 -4488.55 -4490.82 -4493.32 -4495.95 -4500.28 -4503.79 -4508.10 -4511.07 -4517.17 -4520.92 -4524.40 -4528.79 -4530.70 -4535.03 -4537.64 -4536.34 -4534.13 -4534.49 -4537.69 -4539.62 -4543.79 -4545.07 -4545.93 -4542.81 -4540.80 -4538.27 -4537.75 -4535.50 -4529.31 -4529.83 -4523.90 -4512.73 -4508.82 -4504.49 -4494.75 -4499.43 -4491.87 -4486.20 -4474.42 -4464.42 -4437.99 -4432.45 -4416.17 -4407.02 -4400.75 -4394.50 -4395.03 -4401.95 -4408.25 -4424.00 -4434.34 -4446.02 -4454.06 -4462.19 -4458.64 -4445.30 -4443.61 -4434.37 -4423.46 -4416.71 -4407.31 -4405.98 -4411.71 -4409.09 -4404.84 -4399.92 -4390.35 -4372.38 -4351.60 -4341.49 -4286.26 -4281.31 -4296.77 -4273.79 -4275.33 -4276.51 -4266.16 -4259.47 -4250.00 -4230.07 -4211.61 -4194.68 -4188.31 -4178.42 -4165.04 -4158.44 -4157.20 -4160.67 -4179.10 -4188.33 -4197.61 -4199.93 -4193.73 -4193.88 -4199.86 -4211.45 -4222.99 -4245.40 -4260.94 -4279.09 -4285.37 -4289.13 -4300.01 -4310.83 -4315.07 -4316.59 -4317.24 -4319.83 -4326.26 -4333.83 -4339.29 -4344.15 -4347.41 -4350.35 -4348.66 -4342.83 -4337.68 -4334.40 -4320.52 -4303.50 -4284.84 -4247.13 -4218.78 -4171.89 -4146.44 -4096.58 -4061.98 -4026.04 -3991.07 -3964.42 -3932.76 -3909.25 -3885.31 -3869.08 -3869.16
-4488.86 -4488.77 -4488.87 -4488.64 -4489.55 -4490.35 -4491.84 -4494.11 -4496.13 -4499.71 -4504.33 -4507.82 -4511.99 -4518.01 -4522.18 -4525.25 -4528.45 -4533.05 -4535.48 -4541.30 -4541.72 -4539.89 -4537.25 -4540.20 -4540.24 -4542.68 -4547.10 -4548.18 -4547.91 -4546.73 -4544.69 -4542.46 -4540.17 -4538.56 -4536.19 -4534.56 -4530.11 -4524.65 -4519.07 -4510.02 -4497.00 -4500.25 -4499.10 -4491.70 -4474.04 -4460.36 -4439.55 -4430.01 -4413.81 -4404.00 -4393.77 -4391.70 -4392.47 -4397.53 -4407.67 -4420.22 -4437.49 -4450.18 -4458.04 -4470.05 -4471.05 -4457.92 -4442.01 -4431.81 -4419.92 -4407.68 -4401.82 -4399.34 -4401.68 -4393.69 -4390.21 -4382.39 -4378.94 -4377.44 -4365.42 -4346.75 -4322.14 -4301.44 -4301.46 -4282.36 -4269.88 -4270.66 -4257.31 -4255.09 -4249.24 -4232.47 -4219.67 -4205.84 -4203.13 -4187.11 -4181.87 -4173.77 -4173.66 -4179.24 -4186.50 -4192.14 -4211.92 -4204.74 -4199.15 -4199.59 -4205.08 -4215.95 -4231.40 -4249.02 -4262.69 -4274.66 -4281.04 -4286.00 -4297.18 -4305.74 -4313.58 -4313.22 -4314.63 -4317.09 -4323.18 -4328.91 -4336.45 -4340.49 -4343.41 -4345.78 -4341.99 -4331.41 -4324.92 -4316.44 -4299.66 -4286.83 -4260.94 -4231.65 -4194.30 -4148.43 -4122.50 -4081.24 -4040.79 -4012.73 -3978.65 -3946.12 -3921.35 -3894.22 -3873.67 -3862.58 -3861.35
-4491.10 -4490.95 -4491.19 -4491.86 -4492.61 -4493.55 -4494.86 -4496.94 -4500.26 -4503.70 -4506.26 -4511.92 -4516.51 -4521.63 -4525.32 -4530.65 -4533.53 -4538.50 -4544.73 -4545.58 -4543.73 -4543.07 -4541.33 -4543.86 -4544.22 -4547.83 -4550.51 -4549.37 -4546.95 -4548.30 -4547.69 -4544.69 -4544.49 -4542.35 -4540.39 -4537.95 -4535.53 -4530.80 -4522.94 -4514.31 -4507.93 -4507.30 -4504.71 -4486.35 -4473.05 -4453.08 -4440.55 -4417.20 -4413.36 -4399.21 -4389.32 -4384.98 -4386.92 -4392.17 -4402.89 -4418.64 -4437.36 -4447.23 -4461.68 -4467.61 -4470.70 -4461.46 -4449.09 -4435.33 -4418.89 -4411.32 -4406.28 -4404.94 -4399.53 -4384.03 -4375.10 -4370.05 -4364.86 -4359.99 -4355.69 -4339.04 -4312.80 -4299.34 -4292.79 -4276.17 -4266.98 -4258.33 -4254.71 -4256.83 -4251.97 -4242.08 -4233.76 -4219.46 -4211.34 -4204.68 -4184.15 -4181.88 -4188.89 -4191.23 -4201.26 -4212.97 -4217.60 -4207.93 -4205.07 -4204.98 -4211.32 -4219.50 -4232.92 -4248.50 -4264.15 -4276.88 -4280.12 -4286.03 -4296.02 -4300.08 -4306.16 -4307.37 -4305.16 -4311.17 -4312.02 -4322.05 -4322.91 -4330.64 -4331.36 -4330.37 -4327.09 -4316.49 -4301.17 -4300.26 -4282.09 -4269.00 -4238.80 -4207.25 -4162.01 -4122.70 -4097.36 -4043.21 -4021.94 -3993.14 -3958.09 -3934.56 -3910.88 -3890.88 -3869.21 -3855.41 -3854.50
