-5197.80 -5197.74 -5199.38 -5198.56 -5198.26 -5199.39 -5200.28 -5201.32 -5203.96 -5205.03 -5206.32 -5208.01 -5211.31 -5214.36 -5218.85 -5225.38 -5233.03 -5241.11 -5249.66 -5258.02 -5266.49 -5280.92 -5300.22 -5352.99 -5425.09 -5448.57 -5448.95 -5469.44 -5462.36 -5442.10 -5431.78 -5427.31 -5367.45 -5360.01 -5294.35 -5045.71 -4663.91 -4860.06 -4974.81 -4986.80 -5211.52 -5315.65 -5344.61 -5416.06 -5458.03 -5488.74 -5533.98 -5535.83 -5544.60 -5535.08 -5541.62 -5540.01 -5546.67 -5545.04 -5544.04 -5538.29 -5534.86 -5531.38 -5527.46 -5522.09 -5519.33 -5514.65 -5513.48 -5510.96 -5509.64 -5505.67 -5498.87 -5468.46 -5355.37 -5172.14 -4778.08 -4292.81 -3947.28 -3468.82 -3131.49 -2587.31 -2048.34 -1718.77 -1273.87 -1089.64 -850.57 -697.56 -625.18 -555.77 -248.73 -237.89 -9.17 63.92 221.73 223.92 235.11 239.92 240.47 227.55 230.65 219.32 145.43 -114.94 -280.34 -205.67 -263.01 -61.70 45.53 63.87 -73.24 -514.96 -898.55 -1067.12 -1045.31 -2119.21 -4195.15 -6296.45 -7130.27 -7725.93 -7746.91 -7582.08 -7119.19 -7159.33 -6876.68 -6045.38 -4225.95 -3743.15 -3758.20 -3855.04 -3993.28 -4021.21 -4018.84 -4007.66 -3992.04 -3985.84 -3976.93 -3971.64 -3963.84 -3959.87 -3953.47 -3948.10 -3941.82 -3936.41 -3933.46 -3929.89 -3929.95
-5211.51 -5212.63 -5207.43 -5206.42 -5202.24 -5206.72 -5203.57 -5203.51 -5203.96 -5205.56 -5207.98 -5208.65 -5211.54 -5217.69 -5219.06 -5229.24 -5232.55 -5246.17 -5250.57 -5260.74 -5267.86 -5269.96 -5244.66 -5208.05 -5258.13 -5319.49 -5389.45 -5403.78 -5414.31 -5404.20 -5374.21 -5304.20 -4982.73 -4777.03 -4544.67 -4186.62 -3516.34 -3346.76 -3684.81 -3910.01 -4187.66 -4234.53 -4720.91 -5089.89 -5070.51 -5442.27 -5478.22 -5494.66 -5495.57 -5507.45 -5509.57 -5522.71 -5541.06 -5540.63 -5536.00 -5531.01 -5527.07 -5520.70 -5517.46 -5511.02 -5506.66 -5502.89 -5498.36 -5491.90 -5499.08 -5504.43 -5478.17 -5449.41 -5320.60 -5185.41 -4899.32 -4478.59 -4025.43 -3371.16 -3159.76 -2462.91 -2004.05 -1657.76 -1288.88 -1074.31 -879.22 -727.21 -479.23 -383.97 132.23 171.66 222.98 230.64 224.55 240.42 260.83 252.74 255.88 266.78 281.98 267.74 103.26 -342.24 -1253.49 -1228.15 -1267.14 -1336.60 -1106.48 -230.63 -555.29 -478.60 -290.74 -269.01 -328.30 -531.50 -1087.80 -4560.93 -6416.46 -7547.31 -7532.63 -7285.27 -6782.58 -6623.29 -6284.95 -5411.06 -4569.57 -3487.42 -3580.90 -3834.74 -3955.28 -4027.96 -4024.38 -4009.10 -3994.91 -3982.40 -3973.72 -3968.04 -3960.43 -3956.39 -3950.46 -3945.04 -3938.31 -3934.41 -3932.47 -3928.49 -3928.55
-5256.71 -5256.71 -5264.32 -5238.91 -5240.86 -5239.72 -5224.54 -5221.04 -5216.50 -5220.65 -5216.17 -5214.43 -5218.69 -5220.60 -5232.71 -5236.29 -5246.45 -5260.27 -5265.17 -5271.93 -5267.43 -5248.00 -5209.54 -4946.65 -4630.86 -4540.59 -4938.47 -5118.95 -5083.38 -5269.68 -5129.91 -4719.55 -4437.31 -3990.66 -3410.06 -2887.58 -2528.52 -2517.85 -2701.90 -2680.90 -2861.94 -3522.39 -3429.75 -4024.75 -4382.84 -4824.50 -5421.79 -5406.60 -5443.92 -5445.87 -5482.30 -5498.86 -5514.94 -5521.57 -5523.68 -5520.43 -5517.47 -5517.25 -5512.08 -5506.53 -5502.56 -5494.70 -5490.67 -5475.62 -5472.99 -5484.33 -5466.07 -5409.75 -5251.94 -4946.00 -4628.33 -4118.53 -3804.05 -3440.48 -2708.95 -2309.30 -1884.21 -1481.82 -1164.70 -1069.85 -648.52 -458.92 -149.61 216.06 218.75 246.53 257.10 242.56 241.23 273.45 277.37 288.14 291.70 293.76 299.92 295.95 -108.63 -687.59 -2115.59 -3002.58 -2708.39 -2484.63 -2433.82 -1583.88 -1749.76 -1458.55 -1604.55 -556.17 -456.90 -367.91 -906.05 -2703.60 -5908.58 -6846.05 -6921.97 -6485.06 -6216.00 -5925.01 -5720.34 -5392.92 -4175.51 -3545.11 -3507.46 -3734.42 -3877.30 -4030.99 -4024.06 -4008.19 -3999.03 -3984.85 -3971.38 -3964.96 -3956.25 -3953.51 -3946.47 -3941.67 -3936.46 -3933.58 -3931.53 -3926.74 -3926.81
-5355.18 -5363.03 -5360.03 -5349.99 -5319.93 -5285.80 -5279.70 -5247.56 -5267.21 -5275.88 -5245.09 -5249.74 -5251.85 -5248.70 -5260.28 -5270.59 -5302.42 -5311.48 -5313.74 -5310.34 -5290.17 -5216.04 -4838.19 -4267.94 -3543.94 -3682.13 -3697.29 -4386.07 -4460.90 -4709.50 -4463.87 -3755.32 -3129.39 -2833.44 -2487.02 -2111.91 -1911.24 -1906.36 -2010.40 -2045.78 -2183.67 -2227.85 -2502.68 -2823.86 -3551.55 -4122.46 -4800.33 -5183.11 -5248.81 -5167.31 -5297.21 -5399.87 -5488.72 -5455.65 -5500.10 -5507.61 -5509.70 -5510.42 -5507.92 -5506.47 -5505.52 -5495.80 -5491.25 -5469.94 -5466.31 -5459.94 -5440.97 -5413.54 -5194.38 -4806.03 -4312.28 -4029.10 -3823.36 -3682.90 -2686.13 -2141.09 -1605.66 -1309.87 -790.32 -690.57 -149.58 90.42 122.41 256.68 267.07 273.51 274.12 273.39 279.45 286.96 302.70 301.07 306.02 311.29 339.85 343.57 65.58 -625.46 -1332.23 -2101.39 -2866.62 -3333.66 -3400.41 -3277.29 -3193.64 -2947.31 -2248.05 -1609.00 -867.90 -760.72 -1125.69 -2884.91 -4686.52 -6006.39 -5806.81 -5723.52 -5622.84 -5589.53 -5215.69 -4960.22 -4237.47 -3515.04 -3513.04 -3795.61 -3948.58 -4014.82 -4029.89 -4014.78 -4001.35 -3986.42 -3972.83 -3960.32 -3953.73 -3949.30 -3943.87 -3939.03 -3935.38 -3931.94 -3927.71 -3924.66 -3924.56
-5541.16 -5519.03 -5485.22 -5476.28 -5428.22 -5410.80 -5386.40 -5359.60 -5312.24 -5331.17 -5313.05 -5299.26 -5309.60 -5336.31 -5396.26 -5369.84 -5406.25 -5386.72 -5378.84 -5364.02 -5328.46 -5191.75 -4465.02 -3412.06 -2700.81 -2590.53 -3028.61 -3343.08 -3249.34 -3634.71 -3788.01 -3146.74 -2279.36 -1983.16 -1860.69 -1648.90 -1289.44 -1455.02 -1376.42 -1747.39 -1229.36 -1964.45 -2199.92 -2378.97 -2664.26 -3048.48 -3990.79 -4517.90 -4590.62 -4713.36 -4919.78 -5209.00 -5166.47 -5297.70 -5408.87 -5493.71 -5480.48 -5498.86 -5482.73 -5490.02 -5497.93 -5495.04 -5488.07 -5476.01 -5449.95 -5445.54 -5292.95 -5285.83 -5107.92 -4668.64 -4206.54 -3738.06 -3541.18 -3352.45 -3107.20 -2357.87 -1098.74 -700.21 -362.79 46.99 247.17 257.60 261.31 269.95 277.01 295.23 310.40 299.27 301.72 320.69 322.97 321.05 327.89 342.13 357.84 328.78 272.31 21.40 -112.40 -621.08 -1571.93 -3445.86 -3698.54 -3813.62 -3927.40 -3918.61 -3298.37 -2699.37 -2142.48 -1692.69 -1171.28 -1619.81 -2043.53 -2964.71 -3111.81 -2930.79 -4714.05 -4745.57 -4374.78 -4445.94 -4193.05 -3767.35 -3605.98 -3771.43 -4003.84 -4038.28 -4037.86 -4020.27 -4001.01 -3983.94 -3969.94 -3960.77 -3956.81 -3945.53 -3941.69 -3937.12 -3934.60 -3929.16 -3927.63 -3923.64 -3923.70
-5696.79 -5696.62 -5634.39 -5612.50 -5588.91 -5593.18 -5585.78 -5537.24 -5511.66 -5464.59 -5434.74 -5400.68 -5473.88 -5481.57 -5501.18 -5498.53 -5485.79 -5549.26 -5548.35 -5513.60 -5399.51 -5160.79 -4285.94 -3445.76 -2282.48 -2174.81 -2178.17 -2344.93 -2465.83 -2750.54 -2720.01 -2400.45 -2028.72 -1625.50 -1223.40 -590.36 -602.83 -357.25 -541.47 -668.04 -288.99 -1634.05 -1965.55 -1904.05 -2035.22 -2201.37 -2793.54 -3237.42 -3687.40 -3470.57 -3614.51 -3950.18 -4244.93 -4421.62 -4940.97 -5222.85 -5449.46 -5367.01 -5186.76 -5348.31 -5433.19 -5471.52 -5388.96 -5372.90 -5260.30 -5027.75 -5041.08 -4396.13 -4079.48 -3682.77 -3107.55 -3135.87 -3223.26 -2439.22 -1639.99 -1130.41 -337.59 82.67 234.10 247.50 259.12 266.73 280.28 295.38 321.13 327.76 338.65 327.69 331.26 335.69 349.59 355.55 371.94 376.79 373.49 339.64 344.34 137.73 72.16 -462.52 -1744.37 -3478.56 -3689.34 -3962.65 -4032.69 -4029.09 -3989.38 -4022.96 -3663.35 -2659.33 -1877.18 -1351.53 -1323.27 -1421.17 -1583.11 -1945.86 -2708.24 -2992.71 -3427.10 -4260.13 -4239.32 -3878.73 -3546.43 -3748.68 -3985.62 -4040.06 -4045.65 -4026.73 -4003.77 -3989.28 -3969.83 -3962.24 -3951.93 -3946.82 -3941.27 -3934.21 -3931.82 -3927.61 -3925.15 -3923.08 -3922.51
-5790.32 -5790.21 -5791.62 -5735.81 -5704.46 -5691.51 -5671.80 -5646.55 -5668.77 -5641.11 -5619.77 -5586.10 -5601.45 -5628.29 -5643.40 -5711.35 -5722.10 -5786.35 -5701.83 -5675.16 -5579.63 -5169.19 -4112.59 -3151.70 -2300.24 -2204.21 -2214.33 -2175.33 -2089.08 -2177.09 -2203.59 -2189.47 -1751.30 -1100.67 -490.07 -175.82 120.46 260.52 37.07 -12.48 167.90 24.77 -1765.75 -1473.84 -1209.68 -1627.79 -1976.26 -2323.58 -2481.16 -2558.77 -2703.22 -2796.61 -3104.64 -3350.71 -4179.45 -4913.14 -4994.04 -4948.38 -4834.31 -4858.31 -5006.81 -4676.77 -5000.27 -5020.29 -4676.83 -4314.80 -4314.15 -3493.40 -3370.11 -2534.62 -2466.11 -2209.68 -1642.01 -1030.87 -329.13 84.94 259.11 259.68 261.01 264.67 268.56 277.86 303.15 328.83 332.04 339.12 357.44 372.66 365.41 374.45 383.60 406.29 409.77 399.00 380.49 339.02 342.82 309.89 165.92 -249.27 -2394.93 -3206.66 -3527.18 -3793.43 -3744.18 -3840.64 -4059.52 -4305.15 -4429.34 -3910.22 -3129.96 -2517.42 -1519.56 -1131.45 -988.27 -965.96 -1692.63 -1981.32 -2916.58 -3912.32 -3983.85 -3810.99 -3632.60 -3745.75 -3888.55 -4029.25 -4049.85 -4036.31 -4009.00 -3994.55 -3975.37 -3963.40 -3952.55 -3945.93 -3939.06 -3933.53 -3929.96 -3926.23 -3923.92 -3920.54 -3920.60
-5825.99 -5825.91 -5824.68 -5806.87 -5805.71 -5803.94 -5793.70 -5780.20 -5791.03 -5779.10 -5748.58 -5766.31 -5749.48 -5790.40 -5814.28 -5800.24 -5803.24 -5835.82 -5833.03 -5807.95 -5691.74 -5394.58 -4258.68 -3483.89 -2581.17 -2581.03 -2680.11 -2551.94 -2197.09 -2102.45 -2200.29 -1939.74 -1533.04 -384.89 -26.65 291.80 326.22 346.69 293.98 220.44 182.23 144.05 -1028.24 -584.98 -259.56 -578.49 -1199.74 -1700.28 -1721.05 -2094.10 -2170.74 -1978.58 -1958.31 -2954.75 -3065.75 -3498.77 -3751.26 -3920.78 -3738.83 -3913.88 -3675.80 -4005.27 -3810.33 -4078.28 -3633.46 -3046.65 -2566.86 -2464.80 -2231.57 -2144.93 -1726.57 -1407.12 -1061.59 -651.05 249.69 259.85 267.69 268.46 275.38 290.64 293.94 298.96 320.72 338.38 370.94 393.21 407.09 396.12 398.37 417.02 413.21 432.26 432.47 413.86 396.30 349.10 346.48 469.11 256.93 -129.83 -1565.45 -2556.77 -3173.97 -3373.63 -3560.87 -3705.85 -4057.03 -4459.28 -4675.33 -4811.89 -4261.35 -3398.81 -2687.33 -1749.85 -1206.88 -1021.70 -1164.60 -1356.46 -1986.48 -2898.90 -3452.53 -3764.01 -3656.63 -3800.22 -3960.36 -4025.43 -4047.32 -4037.04 -4017.75 -3994.10 -3981.84 -3969.76 -3956.43 -3945.78 -3938.46 -3932.03 -3928.23 -3924.28 -3922.18 -3918.92 -3918.98
-5832.47 -5832.33 -5831.92 -5830.26 -5830.22 -5827.46 -5829.26 -5834.37 -5827.39 -5825.89 -5820.15 -5828.90 -5841.47 -5849.26 -5859.77 -5874.25 -5880.17 -5887.58 -5892.93 -5866.62 -5775.07 -5615.90 -4876.37 -3929.77 -3867.25 -3474.17 -3726.69 -3760.57 -3003.09 -2738.59 -2626.22 -1052.58 -395.49 173.90 134.68 295.18 408.55 487.55 475.26 404.46 304.36 202.43 -75.79 -140.64 221.91 219.73 -146.96 -781.74 -1101.70 -980.07 -798.15 -1180.95 -1645.60 -1002.58 -2393.06 -2493.17 -2457.50 -2731.91 -2619.70 -2399.32 -2495.29 -2664.06 -2502.31 -2884.39 -2661.94 -2284.14 -2274.24 -2013.98 -2046.52 -1970.05 -1497.08 -293.25 86.04 258.05 302.12 347.59 321.84 305.12 298.93 319.40 323.65 334.44 348.66 378.09 396.96 416.85 426.50 425.95 439.39 445.66 456.00 463.92 467.35 448.28 420.66 391.51 396.03 456.86 435.03 -72.01 -279.74 -1346.11 -2644.39 -3105.17 -3357.45 -3765.87 -3962.70 -4251.66 -4475.74 -4822.41 -4842.45 -4744.25 -3627.39 -3207.80 -2350.33 -1391.99 -1243.49 -1148.86 -1181.66 -1953.47 -2858.32 -3500.12 -3550.98 -3784.80 -3984.95 -4016.86 -4039.47 -4031.88 -4022.93 -4004.81 -3989.16 -3974.04 -3958.26 -3950.46 -3940.68 -3933.33 -3929.17 -3924.28 -3920.25 -3917.43 -3917.49
-5829.85 -5830.27 -5830.66 -5832.02 -5833.05 -5835.92 -5837.78 -5839.96 -5842.33 -5840.17 -5846.36 -5854.03 -5857.56 -5868.43 -5875.89 -5881.35 -5890.65 -5897.70 -5902.19 -5903.11 -5873.09 -5762.53 -5393.89 -5075.18 -4967.80 -5192.51 -5085.62 -4622.23 -3745.50 -2700.61 -1832.14 -82.19 132.26 221.08 240.03 255.50 365.38 615.26 630.21 466.54 318.56 295.54 273.10 238.38 249.10 254.44 237.43 240.06 231.27 221.94 219.58 218.81 -603.06 -723.30 -1531.70 -1984.50 -1894.08 -2099.63 -1872.24 -1946.77 -1940.16 -1810.70 -1985.12 -2130.69 -2230.21 -2028.13 -1987.71 -1896.70 -1749.03 -1608.45 -1161.90 116.47 265.61 287.78 386.89 495.06 434.45 343.71 352.33 348.40 340.35 359.02 365.98 402.55 416.75 441.05 455.40 461.10 468.14 456.89 477.27 512.10 491.58 482.19 449.57 432.76 432.91 452.56 514.44 270.20 -56.44 -494.00 -1323.91 -1895.55 -3090.10 -3689.63 -3979.06 -4041.24 -4328.34 -4601.70 -4742.84 -4879.43 -4804.85 -4465.61 -3479.01 -2851.71 -2407.15 -1469.81 -1366.29 -1615.59 -2064.26 -2421.84 -3175.92 -3659.34 -3868.21 -4008.13 -4048.97 -4033.36 -4021.19 -4010.86 -3997.31 -3981.99 -3964.66 -3952.27 -3943.67 -3935.50 -3928.09 -3923.30 -3919.75 -3917.06 -3916.49
-5824.92 -5825.54 -5826.36 -5828.05 -5829.25 -5831.82 -5834.67 -5839.55 -5842.18 -5845.37 -5851.81 -5857.02 -5863.24 -5871.64 -5877.76 -5885.59 -5890.30 -5900.08 -5900.81 -5905.03 -5901.50 -5884.52 -5828.62 -5729.71 -5725.63 -5735.61 -5595.24 -5486.93 -5001.73 -1703.24 -390.16 49.36 213.75 222.60 238.62 251.17 334.06 419.69 615.44 566.84 623.33 537.86 414.10 302.88 304.86 296.66 255.20 260.69 248.12 235.05 233.00 224.81 219.46 80.53 92.83 -307.96 -969.93 -999.03 -1308.58 -1517.57 -1417.35 -1526.63 -1646.51 -1667.71 -1869.49 -1897.79 -1991.43 -1854.59 -1353.36 -949.89 -360.98 207.11 289.36 320.74 403.14 568.30 558.30 397.99 380.72 362.92 369.43 397.94 400.41 421.46 440.69 456.10 477.06 496.28 494.66 502.61 531.55 538.83 537.05 514.12 489.24 472.98 488.75 484.24 566.57 693.26 222.64 62.90 -21.43 -1150.35 -2090.97 -3134.94 -3809.40 -3877.96 -4046.14 -4424.67 -4439.17 -4675.39 -4841.56 -4929.42 -4711.69 -4141.87 -3674.13 -3025.07 -2155.42 -1451.91 -1309.21 -1525.18 -2720.10 -3623.21 -4072.93 -4135.52 -4066.93 -4050.10 -4022.54 -4014.09 -4001.60 -3983.83 -3968.68 -3959.20 -3945.88 -3938.17 -3931.88 -3924.63 -3919.21 -3916.42 -3915.73
-5818.10 -5818.04 -5817.61 -5820.27 -5824.84 -5825.47 -5828.26 -5833.31 -5838.24 -5842.07 -5848.67 -5855.23 -5863.02 -5869.08 -5877.43 -5883.99 -5890.41 -5897.74 -5900.57 -5905.10 -5905.24 -5897.58 -5878.64 -5868.29 -5853.74 -5818.03 -5813.93 -5850.08 -5930.09 -2937.07 -274.70 133.03 210.82 227.69 253.74 286.66 321.71 379.89 521.70 696.56 740.00 723.85 590.34 330.17 333.52 361.62 412.01 363.16 352.56 262.74 265.20 258.11 227.46 220.45 214.00 209.36 190.86 165.50 -29.50 -491.96 -810.49 -1097.62 -1230.45 -1400.53 -1613.28 -1754.97 -1955.02 -1651.11 -392.20 98.24 175.31 285.20 414.03 444.90 497.94 553.72 545.26 431.26 394.20 388.19 394.17 402.64 411.91 433.38 453.19 471.85 498.88 515.30 524.71 529.22 546.68 552.36 567.18 546.22 529.04 534.08 527.78 523.09 546.13 766.64 565.84 288.00 132.81 -102.34 -698.18 -2418.70 -3713.05 -3778.04 -4008.25 -4256.56 -4451.93 -4666.68 -4844.95 -5069.94 -5249.03 -5116.51 -4989.76 -4526.21 -3429.97 -2210.72 -1517.72 -1294.44 -2449.79 -3719.73 -4242.88 -4193.09 -4140.34 -4086.05 -4050.34 -4020.57 -4008.57 -3992.00 -3975.19 -3964.56 -3951.20 -3940.59 -3933.15 -3927.42 -3919.16 -3914.74 -3914.80
-5809.17 -5810.20 -5811.33 -5812.03 -5811.76 -5819.03 -5818.48 -5826.14 -5832.16 -5838.63 -5841.89 -5850.33 -5859.95 -5866.47 -5873.38 -5880.72 -5886.59 -5894.12 -5899.58 -5903.06 -5899.99 -5899.49 -5895.77 -5874.52 -5855.50 -5833.73 -5848.57 -5971.73 -6299.79 -6383.83 -1911.44 93.54 214.07 226.85 253.08 290.86 325.94 365.15 420.65 499.46 606.24 671.61 575.36 471.03 671.98 686.56 765.95 566.95 487.50 294.45 265.99 263.63 250.72 233.30 228.27 218.45 220.09 215.41 209.70 48.26 -389.52 -691.09 -764.12 -1050.53 -909.76 -1300.35 -1006.25 -606.09 -102.13 186.59 259.87 358.57 393.01 463.97 482.22 481.58 453.11 404.22 394.00 399.75 410.41 411.68 433.64 454.00 468.70 488.65 509.12 528.47 546.23 555.44 569.55 586.75 595.83 582.03 582.74 553.23 544.65 567.10 590.32 541.22 338.66 341.14 284.72 -93.80 -379.32 -3031.85 -3491.65 -3671.58 -3874.58 -4139.24 -4466.28 -4515.44 -4734.26 -5009.00 -5199.39 -5296.86 -5267.19 -5012.17 -4297.29 -3157.81 -1646.73 -1329.38 -2165.82 -3634.33 -4160.08 -4280.60 -4189.36 -4113.17 -4066.92 -4036.45 -4009.20 -3995.24 -3980.51 -3970.65 -3958.45 -3946.31 -3936.60 -3927.74 -3920.98 -3914.86 -3913.74
-5797.83 -5797.77 -5797.03 -5801.73 -5804.96 -5809.04 -5811.39 -5817.38 -5819.75 -5827.52 -5836.49 -5845.18 -5849.66 -5861.10 -5868.48 -5877.60 -5881.89 -5887.28 -5894.83 -5898.68 -5893.55 -5886.50 -5871.11 -5856.07 -5836.10 -5829.78 -5899.94 -6071.46 -6286.62 -6189.19 -543.90 189.09 212.70 231.77 248.43 296.35 332.98 366.40 394.27 418.72 522.87 655.41 669.58 669.70 896.91 899.76 925.41 646.67 420.02 405.11 348.32 272.12 252.42 255.74 249.71 238.03 226.64 226.12 217.99 151.04 -3.71 -37.51 -280.17 -345.56 -31.33 -153.86 -261.02 182.22 225.44 275.30 311.79 374.27 411.89 425.12 417.24 414.81 402.55 394.07 395.37 404.10 411.71 423.59 445.34 466.89 491.59 505.90 525.87 543.67 565.89 573.56 594.22 623.79 634.36 632.62 609.64 597.04 601.92 629.91 623.43 403.44 346.14 594.33 371.71 -54.06 -815.80 -2460.67 -3036.34 -3580.20 -3632.68 -3810.76 -4144.91 -4320.33 -4667.81 -4902.38 -5142.24 -5314.82 -5356.82 -5217.40 -4705.31 -2957.50 -1754.38 -1256.83 -1581.80 -2413.70 -3906.16 -4128.07 -4259.65 -4172.32 -4109.54 -4038.50 -4027.68 -4000.85 -3986.80 -3969.68 -3961.33 -3947.55 -3938.13 -3929.66 -3920.40 -3912.42 -3912.48
-5783.74 -5783.69 -5783.87 -5786.74 -5788.09 -5793.78 -5795.05 -5804.13 -5810.00 -5817.56 -5823.90 -5835.21 -5841.89 -5851.78 -5860.89 -5869.67 -5877.69 -5883.40 -5887.54 -5891.92 -5890.31 -5874.51 -5843.09 -5828.50 -5815.85 -5826.76 -6006.50 -6260.19 -6280.85 -5713.57 -1238.13 207.27 229.29 236.58 249.03 277.45 345.33 459.28 509.63 484.14 487.30 518.29 636.54 762.82 1072.74 1243.16 1097.04 737.28 605.96 620.57 450.38 327.51 290.76 276.73 273.08 266.27 252.90 232.12 223.11 229.45 238.85 235.69 247.99 248.03 253.61 268.78 283.03 282.70 327.61 370.59 374.13 396.89 388.00 366.80 371.73 387.69 389.22 389.82 395.23 404.36 412.55 435.44 452.28 471.93 500.71 510.91 545.91 564.40 576.13 587.16 610.99 630.65 637.64 651.12 660.69 651.35 622.93 660.76 670.41 576.66 520.20 659.33 504.26 195.78 -620.25 -1575.80 -2424.52 -3025.23 -3587.38 -3839.94 -4035.96 -4299.20 -4577.73 -4786.66 -5078.99 -5273.47 -5371.25 -5326.56 -4802.22 -3246.10 -1866.73 -922.79 -915.84 -1157.45 -2631.85 -3756.96 -4304.09 -4227.22 -4139.76 -4090.40 -4038.43 -4013.67 -3986.36 -3977.54 -3967.91 -3953.05 -3942.03 -3932.11 -3921.17 -3910.96 -3911.02
-5766.81 -5766.76 -5764.61 -5769.58 -5778.28 -5782.57 -5786.34 -5794.38 -5800.97 -5804.00 -5816.28 -5822.80 -5833.06 -5843.52 -5851.08 -5861.95 -5868.94 -5873.90 -5882.34 -5887.99 -5890.62 -5867.95 -5842.45 -5820.51 -5808.30 -5842.71 -6027.82 -6249.17 -6135.69 -530.08 185.06 225.09 235.75 239.06 244.39 285.43 346.30 472.03 563.32 573.75 591.65 580.95 600.95 787.36 982.48 1313.24 1327.64 942.72 851.10 664.94 433.77 370.05 325.47 328.36 299.28 291.84 270.60 239.89 250.28 278.04 271.81 270.85 267.64 271.02 278.47 299.53 327.44 371.00 399.65 378.08 377.54 346.67 327.52 344.01 359.30 361.61 368.71 377.36 387.43 400.31 412.47 439.05 466.63 487.73 506.73 524.82 551.28 562.70 583.77 597.49 618.68 634.36 645.57 669.61 685.58 658.58 644.28 698.91 725.99 639.08 540.96 677.00 678.28 292.43 26.45 -439.10 -1111.97 -2095.24 -3242.47 -3775.99 -4060.16 -4380.25 -4516.99 -4786.52 -4958.17 -5204.49 -5368.46 -5323.10 -4822.00 -3715.43 -2193.21 -829.43 -827.18 -989.96 -1944.24 -2699.91 -3782.11 -4192.61 -4141.70 -4108.52 -4057.18 -4023.27 -3996.64 -3980.59 -3969.36 -3956.47 -3945.56 -3932.33 -3922.17 -3911.59 -3911.66
-5746.82 -5748.79 -5750.70 -5753.04 -5756.87 -5763.18 -5773.29 -5775.41 -5781.58 -5793.22 -5803.80 -5811.14 -5823.28 -5834.54 -5847.00 -5854.70 -5866.11 -5871.64 -5878.23 -5882.42 -5886.74 -5864.29 -5839.24 -5809.13 -5806.02 -5904.91 -6092.61 -4730.12 -1932.44 138.79 214.55 223.44 237.15 242.34 240.49 271.61 327.55 403.74 477.17 459.90 614.43 699.36 578.11 663.36 841.81 1097.46 1389.54 1278.66 812.81 535.51 455.82 427.98 356.60 358.62 348.02 323.97 302.74 283.39 295.12 290.94 292.45 281.91 292.72 292.45 360.80 398.11 389.51 389.10 384.34 371.72 342.89 325.34 320.81 323.59 334.35 354.55 360.52 372.84 386.39 405.09 415.40 441.40 466.69 488.54 508.15 532.26 552.29 565.49 583.40 598.70 621.48 636.02 647.79 680.49 696.48 695.66 703.43 713.25 771.84 666.60 623.37 720.00 725.41 481.27 242.64 -49.58 -384.35 -2284.64 -3309.62 -3933.52 -4151.16 -4340.58 -4528.45 -4796.44 -4994.68 -5241.82 -5351.27 -5328.91 -5106.94 -3870.63 -1958.51 -848.16 -695.41 -924.81 -1145.37 -2104.56 -2799.88 -3793.77 -4062.89 -4109.04 -4079.15 -4052.00 -4012.44 -3987.41 -3973.73 -3958.51 -3947.37 -3932.76 -3923.94 -3912.88 -3911.10
-5723.38 -5723.33 -5723.85 -5730.21 -5738.41 -5742.12 -5745.84 -5756.58 -5764.15 -5779.09 -5789.85 -5801.55 -5812.66 -5820.17 -5840.12 -5844.76 -5857.47 -5866.21 -5874.75 -5883.15 -5885.11 -5868.88 -5832.49 -5802.80 -5755.80 -5870.92 -5963.83 -4055.13 -1142.20 36.83 215.79 237.87 251.91 260.68 262.04 300.12 353.29 461.50 437.77 503.26 686.07 774.83 643.79 729.83 831.71 1084.59 1326.56 1186.59 949.50 747.95 618.83 525.63 416.02 378.23 371.17 358.09 334.67 313.90 310.35 314.14 326.89 354.70 390.65 429.05 453.63 411.12 378.86 341.40 331.96 331.88 325.10 316.12 316.64 319.82 331.11 339.78 352.08 369.71 380.80 402.17 418.21 437.97 460.66 488.00 511.79 534.93 551.59 564.38 594.87 608.16 626.81 645.10 661.70 687.14 710.36 735.51 742.34 751.47 799.00 832.40 747.56 646.91 536.02 454.23 250.73 54.26 -174.70 -708.92 -2651.09 -3955.95 -4126.15 -4340.78 -4613.20 -4848.95 -5023.55 -5232.95 -5339.44 -5318.95 -4961.09 -4506.30 -1914.30 -885.37 -697.74 -856.92 -961.62 -1944.23 -2658.35 -3444.64 -3932.48 -3923.80 -4070.23 -4055.61 -4024.09 -3997.44 -3979.35 -3958.03 -3948.72 -3937.33 -3922.26 -3908.99 -3909.05
-5695.94 -5695.89 -5691.09 -5701.69 -5705.91 -5718.68 -5717.47 -5738.80 -5746.53 -5753.80 -5765.17 -5786.42 -5798.47 -5810.70 -5825.91 -5840.97 -5850.57 -5862.67 -5869.61 -5882.03 -5885.02 -5862.47 -5740.83 -5732.03 -5520.96 -5189.17 -4712.60 -3276.56 -855.38 196.42 225.71 242.89 253.54 278.55 310.68 324.14 419.42 500.92 455.37 544.62 692.65 910.97 829.01 709.13 793.22 910.08 1172.37 1276.96 1003.81 867.96 697.03 484.44 444.30 396.71 381.58 388.51 358.98 339.25 369.69 352.72 362.86 431.97 503.58 487.40 431.79 391.85 365.15 335.18 331.01 324.47 317.92 311.90 312.31 316.95 324.71 332.51 344.26 368.13 381.24 394.85 419.71 446.21 463.93 481.18 514.25 536.41 555.90 580.27 596.86 624.35 642.58 664.06 675.70 696.22 722.64 745.76 757.83 799.61 856.06 881.86 823.96 672.71 493.02 780.69 447.14 251.27 -135.40 -1044.10 -2672.61 -3479.51 -4018.87 -4359.15 -4624.58 -4724.90 -5069.31 -5222.24 -5305.30 -5275.12 -5103.35 -3657.09 -2090.12 -851.31 -577.36 -696.71 -1081.65 -1584.99 -2725.52 -3091.33 -3335.89 -3755.66 -4071.29 -4055.73 -4031.84 -4010.07 -3980.63 -3962.14 -3946.10 -3933.16 -3920.76 -3904.58 -3904.64
-5662.78 -5662.73 -5663.96 -5669.27 -5675.24 -5684.48 -5699.11 -5705.16 -5719.65 -5733.57 -5747.20 -5773.73 -5783.34 -5802.83 -5820.18 -5833.34 -5842.23 -5853.86 -5860.60 -5855.48 -5848.10 -5755.70 -5565.43 -5234.71 -4601.47 -4555.60 -2931.09 -1623.46 216.45 239.12 246.27 250.14 274.90 305.72 343.93 338.51 393.93 474.06 512.34 698.35 880.19 942.54 897.82 824.70 909.87 1031.73 1205.93 1216.12 1059.49 775.42 671.29 562.02 502.65 444.63 442.35 432.71 398.43 395.53 393.50 445.85 480.88 561.61 528.58 453.26 400.94 372.02 353.68 330.62 328.86 321.26 314.37 311.62 310.37 311.47 319.93 332.63 353.36 365.50 380.39 397.42 424.96 445.54 466.38 492.06 518.70 533.90 574.35 584.42 601.08 641.37 650.42 670.18 685.84 704.25 725.23 741.80 762.76 806.72 838.16 775.55 701.05 616.73 521.65 923.05 539.75 134.44 -168.90 -1046.36 -2528.89 -3305.52 -3728.92 -4095.07 -4212.63 -4302.85 -5139.40 -5166.20 -5236.76 -5216.02 -5000.30 -3671.98 -2121.80 -686.62 -484.47 -611.96 -904.14 -1600.73 -2238.58 -2630.40 -3001.58 -3532.41 -4009.74 -4031.81 -4036.49 -4010.70 -3986.26 -3959.23 -3943.66 -3928.18 -3915.74 -3900.47 -3900.54
-5627.68 -5630.63 -5628.68 -5642.15 -5645.74 -5650.16 -5657.56 -5686.37 -5697.45 -5715.44 -5721.67 -5747.70 -5771.34 -5784.67 -5803.80 -5818.82 -5832.28 -5840.94 -5850.07 -5776.84 -5682.53 -5395.58 -4430.72 -3674.24 -3396.71 -3014.10 -2364.49 -254.95 224.77 249.36 267.38 277.16 309.17 322.36 367.18 441.30 434.23 479.83 627.35 629.34 837.32 1005.21 1051.23 981.43 1055.02 1131.08 1156.32 1150.94 1093.34 825.87 635.50 640.20 527.02 467.75 451.44 448.06 434.59 421.06 464.88 587.03 639.47 578.92 450.01 404.38 383.77 362.99 350.96 334.26 328.96 324.64 315.96 312.19 310.23 309.94 314.20 327.27 336.65 357.14 377.29 390.08 424.69 436.48 452.92 494.72 517.78 532.13 574.47 591.17 615.39 636.59 660.82 671.82 698.53 711.86 736.61 751.89 764.46 809.42 829.28 819.58 719.24 682.54 673.41 889.76 758.89 293.47 -34.26 -929.67 -2202.58 -3007.65 -3505.09 -3844.17 -4147.79 -4370.48 -4827.79 -5174.93 -5207.79 -5215.63 -4938.57 -3646.33 -1961.73 -586.69 -487.79 -490.39 -834.23 -1326.69 -1640.18 -2201.42 -3133.10 -3473.12 -3523.92 -3834.17 -3996.06 -4018.48 -3984.87 -3962.98 -3941.08 -3923.13 -3911.38 -3895.73 -3895.80
-5589.79 -5589.74 -5588.95 -5595.37 -5589.90 -5621.21 -5626.54 -5644.42 -5657.60 -5680.84 -5703.45 -5729.57 -5747.73 -5773.59 -5788.83 -5786.13 -5804.51 -5796.29 -5623.08 -5572.51 -5127.84 -4595.54 -3666.18 -2441.27 -2202.27 -2231.65 -2086.63 -542.05 248.35 268.99 285.17 312.43 330.67 363.86 506.54 527.15 524.14 470.65 520.31 625.23 867.80 1039.16 1132.52 1031.12 1053.66 1018.69 1024.95 1014.67 824.70 820.41 669.14 582.67 519.27 495.71 461.90 452.81 444.71 464.15 561.59 629.47 564.89 475.60 422.98 396.64 392.42 363.86 354.05 340.64 333.79 324.44 320.32 313.57 310.42 309.84 311.59 318.95 337.15 358.37 376.75 398.65 411.40 442.49 467.42 485.20 513.51 541.22 569.85 598.36 617.47 636.53 661.92 681.88 707.48 722.59 736.36 754.75 777.53 803.42 827.18 797.44 739.13 792.54 853.85 990.42 648.66 251.27 119.31 -235.42 -1317.84 -2700.58 -3503.07 -3966.92 -4109.32 -4430.61 -4699.09 -5075.75 -5203.19 -5164.53 -4834.00 -3699.32 -1451.40 -719.63 -353.60 -417.79 -504.52 -1053.77 -1637.39 -1980.50 -2499.80 -2760.60 -3249.49 -3710.91 -3982.19 -4014.16 -3981.58 -3960.29 -3937.30 -3924.36 -3907.51 -3892.36 -3892.43
-5548.83 -5548.79 -5542.05 -5553.48 -5560.16 -5566.91 -5570.10 -5611.81 -5627.62 -5658.09 -5681.17 -5700.99 -5734.65 -5750.44 -5747.93 -5738.63 -5619.46 -5496.70 -5171.35 -4560.29 -3913.26 -3624.02 -2669.35 -2089.78 -1821.74 -1700.20 -893.64 229.79 279.19 288.68 324.44 354.07 355.02 367.06 568.91 666.13 663.14 486.61 501.45 558.51 855.67 973.26 1111.63 1028.53 927.65 914.53 896.94 875.76 785.27 782.96 732.78 636.44 556.20 527.93 508.76 502.34 478.12 529.11 646.17 613.09 557.10 487.29 430.44 396.41 394.67 364.88 356.97 345.35 334.23 322.50 317.68 316.22 311.01 310.37 310.41 315.21 333.90 344.74 372.16 394.19 410.04 432.39 458.51 487.48 515.46 544.34 562.04 600.92 623.99 646.05 661.39 692.17 720.26 741.64 749.51 755.18 793.54 815.04 836.74 842.88 863.63 902.54 917.08 949.81 449.51 228.03 193.97 -69.69 -1252.62 -2929.38 -3665.02 -4067.98 -4319.79 -4540.90 -4751.88 -5038.12 -5182.77 -5127.77 -4639.12 -3664.16 -1335.28 -518.46 -262.27 -332.93 -464.10 -803.62 -1264.30 -1368.45 -1961.37 -2732.79 -3425.83 -3526.04 -3951.31 -4003.85 -3980.04 -3951.33 -3933.40 -3913.31 -3900.17 -3889.16 -3889.23
-5505.14 -5507.68 -5503.82 -5501.38 -5510.85 -5514.46 -5540.56 -5563.03 -5602.92 -5622.36 -5647.77 -5678.56 -5684.72 -5670.08 -5657.07 -5420.09 -5128.62 -4470.05 -3978.12 -3506.02 -3334.90 -2251.08 -2118.41 -1836.38 -1483.69 -878.39 -142.83 251.50 276.88 323.66 353.47 400.10 389.57 404.72 486.69 662.82 690.92 628.90 520.59 658.93 741.58 951.16 1069.30 1051.70 963.03 874.05 829.00 816.87 765.62 753.36 711.60 656.08 585.06 548.80 532.97 513.33 521.21 574.18 581.13 528.23 494.26 484.22 454.99 413.80 393.18 378.21 365.04 347.82 335.12 326.97 317.98 315.75 312.37 310.39 309.55 312.59 324.51 345.96 374.80 390.83 418.39 442.38 454.20 488.43 522.93 551.86 575.96 620.89 638.93 656.52 685.79 703.74 722.91 744.31 756.57 769.93 786.02 813.76 839.21 854.08 825.35 836.68 935.08 994.17 685.53 235.87 69.59 -689.37 -1365.85 -2611.28 -3477.27 -4030.78 -4409.89 -4588.68 -4779.72 -5026.27 -5157.39 -5089.92 -4638.75 -3064.07 -1291.49 -424.85 -250.54 -302.46 -458.01 -662.15 -892.64 -1305.49 -1862.52 -2648.83 -3024.13 -3456.98 -3921.94 -3977.01 -3973.08 -3954.43 -3919.40 -3902.83 -3888.19 -3885.51 -3885.59
-5459.92 -5459.87 -5451.74 -5463.47 -5469.37 -5474.87 -5491.12 -5518.22 -5540.72 -5579.12 -5588.95 -5600.36 -5575.29 -5399.11 -5002.48 -4570.44 -3919.73 -3543.88 -2984.60 -2440.22 -1934.95 -1738.69 -1698.17 -1562.78 -1047.10 -467.22 103.31 273.44 284.98 358.47 425.24 503.97 440.21 482.37 518.77 552.13 704.32 758.81 654.79 739.07 927.47 1011.51 1041.31 978.21 905.25 875.11 826.32 784.07 749.00 723.85 654.62 624.70 590.79 564.81 559.48 542.21 549.29 589.31 576.32 557.13 526.49 481.43 480.02 442.04 403.59 383.23 365.94 351.37 343.88 328.52 320.54 318.57 314.80 311.09 309.13 311.75 326.27 350.93 373.75 381.51 433.52 443.83 460.78 495.09 521.63 556.43 586.04 613.04 640.33 669.27 691.44 720.26 734.02 754.83 764.09 783.03 796.25 812.55 834.34 801.06 710.64 809.33 926.75 958.40 627.00 229.13 -139.84 -1017.21 -1980.74 -2832.79 -3381.85 -4073.48 -4359.42 -4502.92 -4797.85 -4987.43 -5064.05 -4866.38 -4538.38 -2690.34 -1589.69 -339.55 -216.14 -252.96 -426.91 -562.59 -792.35 -1252.94 -1670.73 -2387.11 -3036.42 -3365.03 -3924.92 -3963.06 -3964.36 -3941.40 -3918.12 -3900.54 -3887.64 -3880.83 -3880.66
-5418.48 -5418.43 -5408.11 -5407.58 -5418.56 -5434.13 -5460.41 -5485.38 -5515.68 -5552.19 -5541.56 -5422.10 -5133.68 -4984.85 -4502.48 -3844.64 -3360.73 -2754.63 -2314.60 -2060.52 -1679.45 -1591.60 -1573.41 -1607.48 -1163.10 -12.54 225.60 272.77 273.59 334.34 466.38 573.82 496.91 490.66 637.91 621.08 781.01 897.50 838.17 759.30 838.19 1009.05 1032.81 933.78 858.87 836.49 788.45 761.79 729.09 704.57 678.85 629.79 620.63 590.10 587.27 603.75 610.91 631.23 610.95 587.85 582.99 495.96 480.55 454.50 424.36 382.00 377.50 363.12 347.27 328.98 322.09 318.65 314.50 311.96 310.05 311.40 329.83 350.88 371.65 389.37 424.19 441.43 468.69 497.11 521.39 558.85 580.93 613.13 643.13 678.15 692.72 717.98 731.62 751.56 770.37 785.32 792.41 790.57 792.49 753.07 661.37 800.48 852.26 960.18 681.20 213.47 25.56 -881.32 -1677.44 -3081.46 -3765.17 -3944.30 -4345.72 -4501.55 -4719.37 -4860.31 -4944.50 -4646.16 -4013.96 -2387.55 -681.62 -269.29 -179.70 -253.93 -373.32 -549.88 -772.71 -1124.46 -1657.16 -2084.82 -2779.11 -3384.76 -3737.19 -3950.63 -3956.72 -3937.91 -3911.17 -3898.98 -3886.99 -3874.76 -3874.84
-5381.34 -5381.28 -5363.96 -5362.23 -5356.27 -5368.42 -5419.11 -5440.27 -5488.11 -5522.22 -5490.53 -5258.25 -4727.83 -4073.49 -3354.27 -3172.10 -2883.09 -2644.44 -2253.76 -1953.17 -1677.31 -1537.98 -1582.59 -1484.53 -689.97 98.69 217.94 275.53 323.36 422.96 574.86 658.91 610.96 585.37 535.79 634.91 828.97 951.11 991.66 963.01 944.08 1037.29 1013.33 920.43 837.30 828.94 773.68 735.26 714.83 695.25 679.08 653.54 643.52 640.27 632.36 632.52 641.47 674.25 633.51 632.34 666.89 557.55 542.14 463.89 430.21 382.24 378.61 362.91 341.23 334.45 322.27 322.29 317.88 312.14 310.67 312.72 326.64 346.07 362.33 386.76 424.19 439.09 476.13 489.26 541.76 566.14 593.72 625.31 654.17 683.89 702.48 716.78 741.19 755.78 769.17 786.02 797.29 815.47 805.93 711.18 601.73 694.33 722.10 889.80 436.99 224.05 64.01 -535.75 -1754.02 -2691.06 -3044.87 -3967.33 -4354.99 -4454.64 -4609.00 -4770.63 -4799.32 -4393.89 -3356.22 -1828.59 -548.36 -180.03 -169.42 -288.51 -423.23 -620.84 -826.49 -1128.80 -1488.67 -2059.40 -2810.15 -3215.10 -3715.31 -3921.86 -3948.52 -3926.22 -3909.29 -3899.68 -3887.53 -3871.03 -3871.10
-5352.01 -5350.25 -5332.86 -5326.86 -5327.41 -5340.21 -5397.92 -5440.29 -5481.35 -5537.26 -5404.29 -5146.09 -4302.76 -3689.89 -3220.89 -3025.38 -2930.06 -2716.72 -2368.48 -1911.78 -1689.18 -1622.87 -1705.51 -996.67 -282.81 256.88 274.75 303.89 348.75 492.45 543.10 611.48 682.62 742.32 646.67 635.73 779.00 831.01 1008.21 1037.24 1076.61 1059.73 979.15 862.50 819.92 769.46 746.64 735.87 709.01 687.32 674.09 659.07 655.23 663.48 684.29 706.14 735.26 755.98 684.80 674.95 769.01 852.39 585.30 500.89 461.59 395.31 380.71 366.08 347.76 338.59 325.42 322.52 319.99 315.37 309.74 310.84 324.29 346.21 357.83 385.12 414.60 433.49 476.61 505.46 534.49 558.74 588.14 624.80 658.74 683.73 699.97 726.64 747.64 758.69 776.02 783.62 796.62 827.31 817.09 753.16 653.72 544.40 519.91 621.68 417.39 185.57 60.71 -229.51 -755.54 -1179.22 -2820.63 -4125.09 -4452.22 -4571.73 -4661.44 -4723.24 -4577.44 -4001.90 -2155.80 -792.71 -255.25 -145.05 -156.84 -279.08 -451.25 -727.46 -1191.85 -1460.24 -1634.93 -2094.02 -3010.89 -3551.12 -3857.80 -3934.64 -3939.01 -3916.51 -3902.07 -3896.13 -3882.74 -3870.78 -3870.86
-5358.90 -5358.81 -5339.59 -5322.01 -5318.55 -5340.71 -5355.88 -5386.17 -5452.49 -5255.36 -4980.81 -4631.39 -4125.02 -3480.38 -3257.38 -3139.80 -3112.36 -2949.12 -2494.03 -1880.88 -1656.01 -1746.63 -1861.72 -276.82 150.88 256.24 266.42 289.74 302.86 387.25 427.01 513.52 677.62 869.54 796.86 727.59 721.09 708.26 845.29 1017.79 1069.43 910.12 854.46 872.18 823.74 744.68 731.16 713.56 694.31 687.19 670.72 655.00 654.62 667.52 696.21 714.56 810.41 846.98 787.46 728.62 788.02 822.60 633.46 531.72 507.14 401.22 386.14 384.13 361.96 341.58 331.47 325.10 320.64 316.37 309.09 314.61 331.04 349.27 357.85 395.67 412.29 447.25 479.58 513.24 530.08 563.72 599.66 620.10 661.44 680.56 702.89 736.41 751.23 771.75 780.44 787.03 803.04 821.81 839.98 729.72 705.16 621.90 611.82 471.67 234.08 185.53 133.98 -70.29 -473.59 -1033.89 -2477.08 -4279.91 -4512.97 -4713.38 -4693.60 -4608.62 -4211.41 -3530.74 -1497.83 -374.41 -168.97 -97.52 -184.48 -307.53 -429.04 -777.53 -1087.58 -1677.01 -1952.56 -2476.52 -3395.13 -3790.91 -3940.65 -3954.45 -3933.83 -3925.49 -3898.20 -3894.19 -3876.80 -3868.63 -3868.71
-5434.84 -5430.07 -5341.97 -5213.66 -5190.57 -5209.10 -5145.86 -4940.22 -4849.92 -4670.50 -4265.19 -3815.23 -3780.00 -3552.62 -3554.82 -3383.07 -3347.42 -3124.40 -2557.23 -1862.58 -1582.67 -1375.32 -692.72 152.11 222.35 254.89 267.72 279.50 318.11 406.45 513.20 572.67 723.47 807.84 859.22 867.23 914.83 891.73 928.73 1038.56 1044.90 955.47 854.72 781.18 742.19 728.56 691.47 683.13 684.58 656.88 652.59 649.19 654.98 666.59 689.64 710.66 806.97 850.41 859.48 814.36 807.95 810.38 702.97 619.62 607.64 463.88 437.40 409.24 379.54 353.42 336.79 327.28 321.54 313.69 307.60 310.31 323.35 336.42 358.95 382.70 412.51 443.89 464.62 494.81 526.20 563.69 610.98 621.87 653.25 686.29 712.73 747.94 759.51 778.86 781.96 787.96 807.45 826.32 831.42 757.10 694.06 777.00 867.95 435.97 229.38 182.70 80.83 -83.51 -334.66 -1143.03 -1933.12 -3507.35 -4163.37 -4663.31 -4684.28 -4601.86 -3527.03 -2479.42 -766.46 -320.52 -96.75 -103.49 -146.77 -264.54 -497.00 -864.30 -1304.97 -1800.56 -2165.64 -2820.91 -3578.85 -3914.40 -3969.25 -3955.65 -3930.09 -3915.95 -3900.77 -3886.20 -3876.52 -3868.80 -3868.89
-5229.27 -5229.44 -4904.48 -4808.37 -4708.95 -4463.38 -4347.75 -4098.11 -3871.92 -3754.33 -3800.68 -3681.65 -3633.18 -3690.14 -3730.21 -3711.34 -3604.05 -3207.33 -2547.44 -2013.78 -1347.12 -980.72 -312.69 216.76 232.28 265.91 267.07 267.48 352.76 451.72 476.29 520.82 593.02 641.45 838.23 954.06 1059.63 1082.71 1049.67 962.07 987.77 984.14 899.17 796.78 718.91 656.58 668.66 669.41 656.87 635.98 631.48 629.91 637.00 648.46 666.13 701.31 742.37 841.64 914.01 897.29 881.10 942.43 863.46 742.92 595.20 465.24 449.66 448.51 403.12 374.88 355.42 334.39 326.07 316.02 308.16 312.87 323.47 332.23 353.62 369.83 400.83 437.88 456.82 475.51 528.55 561.56 595.34 629.96 668.23 688.38 716.10 746.87 761.07 779.04 786.39 791.35 815.58 831.88 837.92 787.76 833.10 1016.41 657.31 334.91 233.17 163.51 17.06 -292.92 -625.23 -1251.98 -1876.08 -1974.72 -3307.52 -4333.91 -4528.21 -4332.09 -3277.64 -1669.13 -468.87 -191.65 -68.49 -109.56 -220.90 -375.87 -518.99 -740.23 -1254.65 -1932.79 -2606.54 -3356.61 -3565.09 -3874.42 -3966.41 -3946.56 -3924.48 -3911.99 -3895.06 -3885.66 -3870.95 -3865.17 -3865.25
-4213.49 -4214.87 -4146.70 -3899.28 -3924.67 -3557.41 -3547.59 -3469.90 -3490.23 -3509.06 -3549.07 -3614.44 -3676.59 -3752.49 -3779.25 -3809.78 -3754.47 -3469.35 -2680.25 -2094.43 -1382.37 -847.19 -150.97 218.01 231.06 265.73 267.41 267.96 337.84 368.75 399.64 497.70 578.57 578.38 652.69 784.82 982.62 1052.56 954.05 817.51 909.23 925.94 826.50 760.57 678.66 628.15 631.16 636.23 633.56 615.55 618.97 615.41 615.02 621.92 642.34 679.37 690.98 831.33 882.82 944.30 965.56 942.35 800.88 609.30 566.07 551.05 486.80 461.19 401.93 384.99 371.72 350.22 336.27 317.76 308.83 308.99 311.55 325.42 340.43 366.61 390.18 431.44 464.46 483.18 516.34 558.98 585.20 628.86 647.06 686.46 707.42 729.43 766.60 782.42 793.11 810.92 827.19 848.56 860.97 852.92 937.70 846.20 420.00 291.81 233.90 153.31 32.51 -83.69 -526.80 -894.63 -1169.43 -1643.65 -2615.89 -3320.60 -4077.03 -3353.86 -2709.60 -1306.60 -364.67 -63.31 -63.59 -117.67 -240.42 -391.48 -497.43 -741.60 -1341.49 -2278.99 -2903.68 -3403.08 -3759.14 -3792.90 -3963.45 -3944.15 -3922.32 -3906.16 -3890.99 -3878.18 -3868.35 -3862.25 -3862.33
-3413.43 -3414.79 -3425.93 -3461.42 -3366.87 -3335.40 -3321.71 -3348.77 -3428.96 -3486.43 -3551.53 -3609.35 -3705.92 -3755.27 -3799.83 -3841.15 -3844.89 -3687.97 -3315.18 -2376.91 -1455.70 -707.65 102.43 193.59 234.31 264.67 267.10 268.08 308.90 409.55 464.31 577.28 716.99 793.21 831.98 866.00 958.39 1023.50 936.54 713.01 874.59 864.57 736.86 680.54 662.13 614.82 607.95 605.25 603.73 589.36 604.99 603.09 597.83 608.51 632.54 647.76 677.36 761.38 834.00 839.04 952.87 936.63 819.29 674.87 730.87 629.09 510.82 464.09 411.04 394.38 363.59 355.25 343.10 315.04 308.21 304.49 303.94 319.99 332.47 366.67 392.90 420.94 450.96 473.28 526.66 543.82 573.02 613.44 647.25 671.09 703.92 722.75 772.79 794.16 796.82 793.54 839.44 826.17 860.74 909.10 948.35 567.08 335.38 257.11 221.99 180.15 106.63 56.05 -117.49 -431.56 -765.57 -1401.00 -1961.07 -2142.31 -2249.41 -2374.04 -1708.34 -516.01 -93.75 -47.44 -63.08 -119.59 -178.33 -347.29 -440.06 -768.70 -1367.74 -2432.40 -3289.84 -3514.04 -3759.61 -3887.65 -3955.70 -3936.76 -3915.33 -3899.08 -3884.19 -3876.61 -3866.27 -3859.16 -3859.24
-3326.96 -3327.02 -3314.21 -3296.41 -3287.46 -3301.58 -3330.16 -3373.87 -3440.82 -3490.78 -3568.23 -3624.37 -3701.12 -3747.88 -3810.04 -3861.97 -3861.50 -3772.88 -3517.03 -2329.86 -1999.92 -1087.99 -120.60 131.13 240.70 259.96 265.79 279.06 325.84 380.14 498.60 589.72 713.18 779.97 917.55 830.85 859.54 920.84 828.44 737.59 814.82 818.21 700.12 614.93 597.72 565.95 574.52 575.10 560.46 564.80 575.99 571.79 578.48 599.73 615.02 635.89 665.05 728.01 754.44 818.65 968.90 976.87 842.05 859.71 878.26 728.24 534.92 553.45 474.53 411.81 375.65 357.20 338.46 313.56 307.92 303.92 307.94 324.27 336.42 367.77 392.66 404.57 446.56 468.83 495.82 532.44 563.64 606.51 635.52 678.98 686.92 746.59 771.54 801.02 805.96 768.49 821.99 811.10 886.62 983.23 786.22 360.32 289.27 251.86 220.63 196.85 160.53 86.54 -104.56 -210.03 -821.11 -1216.30 -1487.37 -1702.27 -1814.51 -1440.55 -639.23 -213.63 -51.75 -56.94 -82.42 -115.50 -175.24 -291.71 -453.64 -734.79 -1544.10 -2318.27 -3386.65 -3630.47 -3851.77 -3973.50 -3951.40 -3929.93 -3908.10 -3896.17 -3880.08 -3869.29 -3863.81 -3856.02 -3856.11
-3388.19 -3387.76 -3364.26 -3337.18 -3338.27 -3357.17 -3373.00 -3409.77 -3460.60 -3529.55 -3587.11 -3635.98 -3707.08 -3769.09 -3810.91 -3859.44 -3871.40 -3833.62 -3463.18 -2699.16 -1614.15 -874.24 -150.30 165.41 229.23 251.61 256.48 267.56 289.64 311.62 420.19 514.14 554.43 724.40 790.78 613.67 715.02 763.86 699.04 610.52 647.87 714.58 636.06 586.31 542.14 551.43 552.00 537.55 544.71 541.34 547.56 549.09 563.73 588.01 606.95 626.26 643.35 712.43 794.88 884.20 933.57 1016.47 984.19 962.24 926.50 801.21 687.43 607.76 526.58 478.15 440.05 379.72 332.62 316.97 308.04 303.87 308.31 322.40 335.31 354.99 374.95 402.46 437.92 471.07 500.10 538.78 556.53 588.52 618.57 656.48 687.99 735.41 775.49 811.74 793.84 727.17 726.95 763.10 921.16 812.46 430.29 366.41 274.11 225.32 221.93 192.99 137.45 13.49 -95.23 -288.85 -743.65 -1020.29 -1412.07 -1432.86 -1311.37 -967.67 -533.36 -138.13 -44.92 -65.54 -105.62 -124.59 -184.02 -298.15 -490.83 -724.19 -1586.51 -2220.81 -3017.35 -3738.99 -3929.74 -3965.14 -3943.30 -3927.33 -3906.57 -3891.46 -3876.92 -3865.47 -3860.22 -3852.66 -3852.74
-3432.85 -3432.88 -3405.66 -3390.06 -3378.78 -3387.77 -3411.53 -3471.99 -3491.78 -3559.29 -3609.62 -3662.32 -3721.47 -3765.06 -3825.42 -3856.07 -3858.36 -3698.85 -3319.55 -2647.50 -1754.63 -1072.45 -450.72 61.59 139.07 239.79 243.23 252.90 267.50 293.25 379.05 359.52 427.61 660.20 711.69 555.97 483.94 558.53 548.99 500.58 567.02 630.22 592.67 520.85 490.14 499.51 525.98 511.06 513.96 517.57 529.76 542.42 551.55 573.65 583.72 612.66 641.45 696.51 728.95 868.29 960.88 981.06 957.80 859.12 856.55 919.90 864.58 803.77 617.79 616.78 523.68 421.86 362.02 318.78 311.91 306.99 306.95 316.71 332.43 348.30 381.67 408.09 440.31 458.89 514.19 535.16 549.66 585.96 619.50 657.39 681.83 721.77 759.97 783.04 732.81 736.99 643.31 763.04 1029.06 668.88 367.92 319.81 262.98 229.08 196.39 151.78 52.51 -9.05 -175.06 -330.21 -724.36 -1193.18 -1363.90 -1420.52 -1273.31 -822.95 -394.53 -58.56 -47.26 -76.92 -112.11 -146.56 -224.09 -326.20 -562.90 -789.57 -1210.40 -2130.44 -3064.58 -3630.35 -3941.51 -3956.92 -3936.83 -3922.71 -3897.54 -3886.21 -3870.84 -3862.58 -3857.38 -3848.96 -3849.05
-3486.71 -3486.92 -3465.61 -3440.23 -3446.14 -3438.23 -3457.60 -3492.10 -3516.66 -3576.77 -3644.74 -3686.96 -3740.24 -3787.76 -3830.12 -3858.52 -3809.86 -3561.23 -3136.65 -2367.65 -1172.17 -801.96 -393.57 -268.06 -91.39 139.51 233.13 243.48 247.04 263.07 317.30 376.59 470.07 560.90 656.42 520.30 431.39 517.36 497.84 448.99 467.51 489.54 475.88 470.98 469.49 483.47 481.77 482.61 491.64 503.21 510.39 531.13 548.74 570.62 583.70 586.25 625.21 658.23 727.64 783.68 954.90 969.85 936.38 822.97 739.10 832.53 877.03 881.06 774.53 820.56 584.34 452.85 372.99 331.37 318.87 308.54 303.88 311.64 326.83 343.20 379.34 402.58 424.43 457.01 475.94 528.52 553.39 583.29 615.28 663.15 694.70 726.20 702.97 654.34 649.70 690.11 672.66 863.37 1004.29 659.77 483.88 282.90 257.51 213.24 155.40 82.83 23.85 -85.04 -165.99 -378.80 -717.24 -1209.15 -1385.42 -1404.83 -1344.39 -1043.96 -252.90 -148.15 -80.29 -105.04 -123.94 -159.80 -254.86 -388.90 -713.76 -1069.83 -1601.88 -2465.46 -3251.37 -3563.62 -3750.47 -3923.10 -3936.23 -3906.46 -3895.54 -3881.96 -3867.49 -3858.23 -3852.67 -3845.74 -3845.85
-3541.41 -3541.48 -3522.92 -3497.43 -3497.78 -3513.73 -3539.94 -3562.31 -3609.63 -3641.71 -3671.82 -3718.68 -3767.56 -3801.30 -3833.72 -3854.29 -3762.62 -3452.25 -2561.40 -1601.68 -950.49 -621.52 -628.14 -583.66 -300.54 7.18 168.40 231.66 237.21 249.14 255.50 320.99 363.29 435.80 483.81 361.47 372.38 427.73 441.19 392.36 410.73 421.40 401.02 412.56 447.28 448.76 454.06 457.79 465.53 481.95 495.89 510.03 539.46 548.23 573.96 587.37 626.10 656.29 712.34 743.97 840.49 886.01 841.46 825.31 738.98 715.06 785.96 789.23 716.27 658.45 573.14 466.44 373.47 342.53 330.32 324.16 305.70 309.72 320.29 346.24 363.76 400.72 423.47 455.42 483.38 519.76 541.18 584.28 604.76 655.13 695.52 723.76 703.41 629.08 558.52 604.57 719.77 1017.01 652.49 500.95 338.21 263.97 237.84 192.97 92.58 29.13 -56.97 -116.85 -182.26 -433.19 -681.13 -1320.31 -1382.12 -1453.32 -1406.06 -1097.00 -614.20 -312.80 -159.39 -135.67 -151.31 -179.47 -299.22 -502.86 -872.89 -1270.22 -1932.55 -2546.38 -3249.59 -3510.47 -3848.01 -3928.90 -3932.77 -3905.01 -3889.28 -3878.44 -3865.52 -3856.98 -3850.36 -3843.21 -3843.31
-3598.79 -3598.80 -3575.09 -3567.64 -3552.67 -3559.10 -3581.49 -3605.18 -3639.95 -3663.09 -3701.75 -3752.76 -3783.47 -3811.27 -3847.85 -3851.03 -3732.74 -3296.98 -2110.55 -1449.89 -916.07 -578.61 -565.73 -667.32 -430.76 -115.61 111.92 202.61 227.18 238.96 243.52 274.62 284.67 366.50 375.50 340.99 337.41 344.11 360.18 355.20 366.19 372.22 391.97 400.78 407.78 411.69 427.85 442.00 450.51 464.76 476.60 501.70 531.24 539.93 564.64 583.55 617.20 634.85 697.06 741.00 769.50 799.58 745.81 707.87 714.05 644.18 726.63 729.93 655.13 567.04 559.01 473.67 384.28 351.43 334.05 325.49 310.15 305.18 312.99 324.67 358.60 383.59 424.44 444.48 488.81 506.41 534.32 582.76 607.58 626.48 687.36 720.07 692.69 648.16 575.47 585.22 747.11 631.92 373.98 328.37 290.89 241.81 203.26 136.07 88.54 29.46 -49.83 -98.65 -217.94 -497.69 -844.53 -1282.32 -1446.80 -1465.77 -1441.80 -1275.23 -939.06 -540.67 -420.52 -153.66 -185.58 -230.98 -339.48 -626.41 -870.84 -1430.25 -2063.20 -2761.89 -3228.58 -3632.59 -3879.73 -3941.46 -3923.71 -3893.19 -3884.76 -3871.98 -3859.72 -3853.38 -3847.90 -3842.82 -3842.92
-3656.29 -3656.27 -3632.22 -3630.68 -3619.38 -3614.20 -3639.13 -3662.84 -3681.21 -3715.36 -3749.50 -3776.33 -3801.84 -3841.96 -3855.89 -3859.81 -3705.30 -3403.24 -2339.30 -1580.72 -1042.77 -664.74 -565.83 -589.47 -394.30 -140.46 10.81 189.30 201.13 224.88 230.58 246.21 262.87 281.07 310.63 326.47 330.11 330.94 342.73 340.50 335.98 334.74 347.26 368.79 384.36 388.24 404.80 419.72 437.52 451.42 465.25 484.04 513.78 536.00 562.27 581.04 613.61 641.90 684.51 719.30 699.61 689.77 719.75 678.00 693.30 627.62 642.59 582.77 583.02 517.78 517.47 463.46 409.13 378.33 345.91 331.02 314.97 306.24 303.98 331.58 364.07 395.30 422.94 439.08 470.62 511.52 542.47 577.21 610.32 646.57 679.61 718.97 681.76 584.35 517.12 599.66 523.19 378.56 357.77 309.67 270.19 239.78 189.13 133.82 84.55 16.94 -56.49 -139.12 -213.09 -591.08 -987.93 -1251.45 -1454.33 -1472.63 -1472.88 -1425.49 -1299.90 -830.69 -579.89 -343.42 -215.61 -305.22 -454.19 -790.11 -1150.45 -1665.71 -2383.12 -3037.31 -3341.90 -3709.68 -3955.45 -3940.97 -3919.17 -3887.10 -3869.95 -3867.42 -3858.29 -3851.35 -3845.73 -3841.33 -3841.43
-3712.23 -3712.20 -3694.61 -3673.74 -3691.81 -3683.31 -3692.33 -3709.73 -3731.32 -3748.86 -3789.35 -3807.86 -3828.85 -3849.98 -3876.65 -3882.02 -3795.96 -3646.63 -2996.77 -2409.37 -1454.57 -975.78 -707.79 -593.85 -454.14 -289.22 -65.79 30.06 141.25 210.86 212.96 232.04 257.11 264.70 292.36 286.83 305.18 298.79 323.97 318.13 319.10 327.83 333.56 342.17 360.58 373.62 391.17 402.70 422.16 433.94 459.67 482.65 509.93 535.90 562.25 580.80 610.57 704.09 723.98 685.46 650.44 636.04 640.98 621.72 591.80 590.17 564.39 563.41 537.29 494.92 463.79 425.01 417.71 375.05 360.34 336.12 319.11 307.65 308.95 331.69 374.28 393.85 424.00 443.38 476.41 510.77 536.16 567.31 610.71 650.62 682.90 725.22 707.50 649.60 718.37 761.11 394.32 351.31 337.92 301.70 274.69 227.05 176.17 122.69 65.04 -7.26 -95.58 -170.87 -216.46 -558.07 -997.76 -1375.24 -1450.86 -1476.79 -1484.47 -1487.00 -1453.41 -1302.90 -872.78 -578.89 -278.78 -381.27 -570.02 -778.21 -1409.87 -2109.90 -2342.35 -3388.58 -3616.35 -3769.52 -3961.78 -3933.29 -3906.77 -3896.19 -3878.04 -3868.23 -3855.04 -3846.88 -3842.83 -3840.12 -3840.21
-3765.20 -3765.67 -3754.20 -3738.76 -3733.36 -3744.99 -3736.43 -3750.76 -3789.70 -3783.12 -3814.92 -3827.85 -3853.79 -3873.46 -3886.01 -3899.94 -3848.44 -3692.38 -3315.14 -2879.55 -2403.66 -1549.76 -1006.90 -660.67 -585.80 -554.78 -249.46 -255.17 -198.22 78.90 146.40 166.90 246.23 254.11 255.03 253.65 272.80 273.00 287.89 299.52 303.57 306.16 317.36 334.42 343.18 354.39 387.67 391.67 413.27 430.43 445.74 484.84 496.70 548.20 560.18 635.29 705.96 753.86 752.37 650.20 627.30 611.86 595.72 586.52 561.45 534.66 529.97 525.27 505.31 484.55 452.63 422.44 411.99 380.85 358.20 338.53 317.70 307.13 327.99 352.25 375.15 397.18 431.23 467.65 485.37 500.63 545.36 567.36 607.67 637.69 677.15 716.83 719.91 713.18 652.74 493.25 371.45 327.78 294.84 263.06 244.12 206.24 173.01 97.37 18.27 -43.40 -122.38 -180.18 -255.27 -574.32 -1087.05 -1352.62 -1459.77 -1478.61 -1504.62 -1543.24 -1529.09 -1467.45 -1080.35 -627.98 -329.01 -455.26 -708.33 -982.11 -1381.60 -1957.11 -2444.70 -3320.81 -3817.75 -3978.58 -3960.90 -3937.97 -3907.94 -3897.05 -3883.59 -3866.56 -3853.93 -3847.74 -3841.90 -3838.33 -3838.42
-3814.01 -3813.96 -3803.85 -3794.86 -3793.82 -3788.58 -3801.56 -3799.95 -3814.32 -3839.26 -3855.32 -3861.63 -3872.48 -3884.87 -3907.47 -3919.16 -3922.39 -3899.76 -3724.88 -3589.78 -2946.85 -2029.97 -1354.53 -819.16 -652.52 -581.07 -532.83 -571.34 -420.31 -149.95 -15.47 108.50 193.05 231.44 243.21 244.06 250.24 266.55 273.09 280.40 285.24 289.53 295.36 316.42 333.67 342.22 370.24 387.94 397.70 427.97 449.50 489.22 513.71 610.03 603.65 720.94 805.82 808.71 723.70 636.57 609.35 586.03 575.91 551.04 539.56 527.34 521.31 496.54 472.53 463.29 446.95 421.15 398.45 367.63 351.25 330.18 315.84 310.76 327.94 358.27 383.48 409.75 439.72 475.18 494.69 512.52 541.90 568.33 600.61 638.79 671.08 696.00 720.16 695.02 595.89 345.07 299.16 291.91 261.54 234.80 192.76 145.57 85.10 27.50 -67.39 -99.41 -146.44 -202.36 -397.00 -681.41 -1185.61 -1381.60 -1461.29 -1477.42 -1500.32 -1563.89 -1575.38 -1534.16 -1130.19 -781.36 -394.68 -503.53 -765.01 -1173.16 -1535.81 -2220.54 -3027.26 -3555.68 -4001.93 -3977.03 -3960.01 -3940.96 -3904.68 -3893.78 -3878.50 -3866.56 -3855.28 -3847.63 -3842.36 -3835.61 -3835.70
-3858.33 -3859.42 -3849.61 -3837.52 -3827.82 -3825.59 -3836.45 -3845.51 -3852.03 -3867.12 -3878.68 -3883.79 -3897.59 -3909.76 -3919.05 -3930.08 -3939.58 -3932.93 -3897.81 -3672.21 -3467.96 -2718.77 -1377.45 -963.13 -605.77 -548.46 -591.19 -626.60 -644.28 -400.73 1.32 98.14 185.89 223.19 224.72 231.06 240.17 248.46 247.71 264.95 269.79 274.71 286.14 303.91 321.40 329.92 348.10 380.76 404.97 437.39 459.89 486.33 555.79 607.80 633.90 764.12 873.46 842.46 730.86 654.05 606.69 572.73 556.47 534.59 523.47 510.51 499.78 486.92 465.61 440.37 422.91 393.24 372.29 353.07 338.17 319.88 312.16 316.57 333.33 356.69 385.55 418.24 432.51 473.22 498.75 517.66 537.83 574.55 595.29 636.19 662.75 678.17 705.81 538.50 387.20 305.82 251.98 245.41 238.17 194.39 160.69 94.23 23.66 -23.44 -71.91 -120.83 -176.63 -225.43 -366.84 -791.99 -1313.60 -1413.50 -1466.91 -1474.27 -1505.26 -1580.98 -1595.67 -1556.91 -1179.27 -780.87 -440.48 -600.51 -855.01 -1226.09 -1779.30 -2486.70 -2769.61 -3547.23 -3944.67 -3983.38 -3957.87 -3934.41 -3910.80 -3895.53 -3880.18 -3864.42 -3858.95 -3847.01 -3841.58 -3833.32 -3833.40
-3898.69 -3898.64 -3886.23 -3887.33 -3892.99 -3893.06 -3874.72 -3884.39 -3894.26 -3896.71 -3904.55 -3915.09 -3920.02 -3926.99 -3938.29 -3946.24 -3956.67 -3961.42 -3961.06 -3873.18 -3694.55 -2905.87 -1971.97 -1247.20 -693.31 -547.27 -528.26 -561.91 -618.56 -574.82 -341.57 -37.30 157.48 197.59 217.64 224.16 226.65 232.89 242.21 252.00 254.85 263.22 270.83 290.83 306.05 315.66 341.61 375.46 391.34 442.91 466.64 488.10 584.04 638.67 744.23 808.34 844.56 776.10 718.89 657.48 608.26 566.52 538.37 510.70 493.99 478.52 468.44 474.21 440.66 419.13 401.91 376.18 364.00 345.47 333.18 316.84 310.51 326.76 343.03 367.57 392.45 417.14 440.49 467.77 495.61 513.69 532.82 554.68 600.15 604.03 628.56 675.04 692.94 452.16 310.21 287.30 230.67 204.41 199.33 152.79 110.31 66.68 -13.55 -82.96 -122.95 -142.97 -179.22 -201.75 -490.21 -864.64 -1213.50 -1466.01 -1474.13 -1477.91 -1507.04 -1578.48 -1592.95 -1525.85 -1081.45 -724.72 -435.53 -534.40 -924.50 -1329.57 -1602.88 -2383.00 -3430.92 -3725.03 -3993.67 -3977.41 -3953.33 -3933.85 -3914.90 -3887.60 -3877.89 -3866.84 -3855.55 -3847.70 -3842.21 -3833.62 -3833.70
-3935.65 -3935.60 -3927.78 -3924.55 -3920.46 -3917.97 -3922.45 -3920.82 -3924.32 -3934.43 -3941.81 -3934.66 -3941.12 -3952.12 -3949.53 -3957.95 -3963.79 -3970.46 -3963.23 -3935.73 -3579.28 -2966.15 -1973.29 -1129.41 -607.84 -554.96 -541.26 -587.33 -643.37 -716.88 -750.78 -534.34 -296.56 121.70 187.03 215.56 222.91 226.63 234.08 237.69 243.10 251.21 262.86 273.45 291.87 309.37 327.83 353.40 388.76 436.34 491.88 569.14 572.60 670.13 778.98 857.97 880.38 816.20 715.55 645.69 594.40 571.18 513.65 494.83 477.52 465.85 448.85 432.21 418.94 402.37 391.82 376.00 348.40 334.17 324.69 315.81 307.05 321.20 342.80 370.78 403.81 421.73 453.34 472.15 503.95 515.81 527.59 555.02 587.00 606.22 613.51 597.11 460.48 315.44 295.67 241.19 217.72 175.57 164.94 128.60 81.90 11.76 -48.16 -96.01 -134.57 -150.33 -173.81 -269.37 -467.63 -710.96 -1090.78 -1378.37 -1472.75 -1478.39 -1508.76 -1569.20 -1562.30 -1467.60 -964.22 -671.51 -343.67 -515.13 -865.56 -1589.70 -2222.42 -2856.09 -3675.70 -4013.69 -3994.01 -3971.52 -3958.66 -3922.62 -3907.12 -3894.81 -3875.07 -3867.25 -3856.22 -3845.96 -3839.34 -3833.27 -3832.59
-3969.25 -3969.19 -3960.83 -3962.72 -3962.49 -3958.10 -3955.04 -3955.59 -3962.99 -3957.46 -3964.69 -3968.97 -3969.68 -3971.20 -3974.51 -3982.03 -3983.01 -3983.87 -3963.64 -3878.98 -3369.12 -2898.15 -1833.68 -1029.25 -714.48 -768.73 -976.31 -848.64 -858.85 -954.88 -986.59 -996.11 -981.28 38.59 45.14 148.35 190.18 209.84 218.01 224.11 234.83 237.96 252.18 261.90 270.45 284.81 314.28 354.71 406.79 435.16 526.37 639.41 608.11 665.75 781.44 866.60 836.02 783.59 716.24 630.01 565.93 535.76 503.19 470.17 457.60 449.41 439.51 424.91 405.75 384.61 371.01 348.53 336.59 326.97 318.24 312.94 304.76 326.35 346.93 380.68 399.88 430.31 456.56 473.36 506.34 516.74 530.25 547.11 569.34 595.95 589.98 532.58 391.91 311.24 272.66 223.97 203.20 164.02 116.37 73.43 26.71 -12.85 -30.44 -103.81 -121.31 -153.32 -186.06 -341.06 -656.50 -956.34 -1147.43 -1417.34 -1470.42 -1480.31 -1495.63 -1564.87 -1572.02 -1377.90 -901.54 -523.06 -438.77 -705.49 -1148.59 -1858.28 -3095.86 -3816.47 -4030.42 -4013.65 -3996.81 -3968.40 -3953.66 -3923.63 -3903.74 -3893.55 -3878.11 -3868.78 -3858.37 -3847.84 -3839.23 -3831.79 -3831.87
-3999.40 -4000.64 -3997.02 -3989.92 -3988.38 -3983.93 -3987.33 -3982.15 -3991.45 -3994.50 -3995.77 -3995.70 -4001.22 -3990.67 -3991.98 -3998.51 -3999.89 -4001.65 -3968.65 -3816.96 -3388.02 -2599.72 -1763.98 -1264.51 -1264.58 -1305.47 -1351.42 -1480.93 -1703.71 -1584.97 -1734.81 -1825.95 -1899.53 -1342.46 -387.53 77.26 123.58 155.10 168.71 202.46 222.75 231.84 245.29 257.77 268.51 285.86 311.88 349.04 444.18 465.61 570.04 675.20 745.33 772.97 740.27 763.95 763.74 690.05 669.98 612.56 557.24 517.07 484.57 464.39 452.26 435.54 425.60 410.11 394.71 371.47 357.50 339.45 331.38 318.21 308.39 304.56 304.03 331.29 347.39 374.74 399.74 435.71 458.49 483.23 506.65 516.15 537.11 549.57 567.13 590.54 565.50 538.51 386.02 311.72 273.23 211.90 181.29 123.48 85.66 15.46 -23.85 -56.35 -93.14 -90.03 -121.24 -156.47 -187.21 -354.24 -608.75 -1107.55 -1355.15 -1466.69 -1477.43 -1484.92 -1508.71 -1559.89 -1531.99 -1458.42 -842.51 -576.14 -711.74 -1312.14 -1649.00 -2179.44 -3434.04 -4041.72 -4029.01 -4001.65 -3983.70 -3971.47 -3946.20 -3928.31 -3912.01 -3892.09 -3878.81 -3868.03 -3857.27 -3849.32 -3839.12 -3830.30 -3830.38
-4025.60 -4025.54 -4018.79 -4013.00 -4014.72 -4023.29 -4015.53 -4012.14 -4017.33 -4016.57 -4022.65 -4020.05 -4021.93 -4017.44 -4017.59 -4020.03 -4023.14 -4017.86 -4004.59 -3875.02 -3545.16 -2769.32 -2178.84 -1898.67 -1897.00 -2115.79 -2250.56 -2411.80 -2459.87 -2782.37 -2723.56 -2558.05 -2704.75 -1755.65 -628.99 -216.08 -56.39 12.22 69.17 87.95 97.43 199.85 224.50 237.97 257.38 273.96 292.34 351.00 448.58 504.60 599.88 702.57 864.10 776.23 750.87 619.27 648.20 642.10 600.66 560.37 534.72 518.98 479.52 459.81 441.47 424.63 407.74 404.16 368.34 355.16 345.64 332.08 319.79 312.66 307.31 303.38 305.08 327.91 351.87 374.44 406.06 419.81 467.77 478.78 503.66 518.59 533.81 550.92 578.50 594.99 635.24 495.42 374.03 292.93 262.83 215.85 179.60 129.77 67.70 7.19 -71.16 -74.96 -109.73 -111.24 -144.33 -196.79 -287.91 -468.06 -737.64 -1094.82 -1393.07 -1431.57 -1477.71 -1494.00 -1536.54 -1571.56 -1534.54 -1225.76 -837.52 -831.48 -946.04 -1623.64 -2326.12 -2573.42 -3320.47 -4034.84 -4022.66 -3998.39 -3986.07 -3975.73 -3942.24 -3929.24 -3906.84 -3895.25 -3877.42 -3869.52 -3856.44 -3849.01 -3838.82 -3828.51 -3828.58
-4048.25 -4048.20 -4043.40 -4046.48 -4045.33 -4041.33 -4047.14 -4042.30 -4038.77 -4048.91 -4049.24 -4043.43 -4042.54 -4041.06 -4048.76 -4042.89 -4042.23 -4045.61 -4035.11 -3919.37 -3719.23 -3369.49 -3064.36 -2966.73 -2916.20 -3408.83 -3493.19 -3477.57 -3650.91 -3564.36 -3641.16 -3652.28 -3559.61 -2279.77 -1238.73 -671.57 -282.32 -168.19 -233.93 -255.20 -53.14 196.45 225.73 241.92 248.82 262.54 277.58 332.92 452.27 545.56 570.70 752.62 824.71 743.51 634.79 487.24 505.60 541.33 520.41 517.87 543.83 504.73 467.84 450.29 430.77 414.88 394.56 364.95 350.92 344.42 325.81 320.89 313.29 304.45 302.34 302.99 305.74 330.50 352.38 385.91 406.18 435.76 471.30 479.93 509.66 515.78 541.68 556.95 587.96 605.36 685.52 565.10 433.83 307.96 267.25 233.85 188.84 124.96 57.24 -10.25 -62.39 -98.97 -135.23 -149.78 -189.16 -291.18 -378.13 -630.53 -901.52 -1086.42 -1251.26 -1373.82 -1460.99 -1494.68 -1543.02 -1572.19 -1514.58 -1238.40 -1052.55 -1126.12 -1495.49 -1880.89 -2634.84 -3486.63 -3647.28 -4007.24 -4017.68 -4000.48 -3982.42 -3970.94 -3949.83 -3928.43 -3908.84 -3896.76 -3878.41 -3865.52 -3855.77 -3845.80 -3838.26 -3827.67 -3827.74
-4070.74 -4070.68 -4065.54 -4069.32 -4064.19 -4069.19 -4067.89 -4061.73 -4066.06 -4071.32 -4071.59 -4066.57 -4067.68 -4071.08 -4066.61 -4069.55 -4062.07 -4066.49 -4058.85 -4047.77 -3986.24 -3790.57 -3687.77 -3620.72 -3714.12 -3798.03 -3896.96 -3890.39 -4028.02 -4055.84 -4123.51 -4066.61 -3936.08 -3745.26 -2608.97 -1280.58 -457.92 -289.26 -433.16 -409.51 -274.65 59.65 208.29 185.77 246.97 262.87 272.88 310.61 390.77 428.11 530.86 669.51 645.83 575.34 548.24 458.53 461.32 457.20 453.84 415.42 488.65 495.00 462.50 446.35 417.87 398.74 379.33 358.45 342.28 331.41 323.02 315.45 309.79 302.14 301.89 302.81 306.05 327.25 351.46 381.63 402.32 431.31 472.93 484.03 520.03 529.27 539.58 569.99 605.53 649.24 602.50 432.56 375.83 308.50 247.59 216.13 159.44 105.05 42.35 -19.80 -79.57 -199.95 -210.40 -283.50 -325.51 -390.77 -678.07 -802.50 -964.51 -1070.43 -1208.03 -1286.81 -1407.43 -1468.96 -1524.27 -1588.16 -1532.04 -1579.51 -1422.12 -1406.91 -1916.63 -2455.43 -2933.89 -3671.35 -3840.60 -4007.37 -4017.48 -3996.53 -3979.16 -3956.12 -3946.13 -3921.05 -3907.70 -3895.61 -3875.47 -3866.12 -3853.92 -3843.69 -3837.79 -3829.31 -3829.38
-4091.75 -4091.70 -4088.84 -4091.40 -4086.53 -4092.12 -4092.58 -4095.13 -4094.49 -4091.99 -4097.57 -4098.29 -4090.85 -4093.09 -4094.08 -4101.67 -4096.04 -4098.14 -4100.70 -4086.68 -4102.80 -4100.91 -4031.05 -4033.49 -4056.56 -4093.04 -4105.23 -4152.21 -4158.66 -4188.48 -4205.49 -4201.23 -4168.26 -3912.98 -2768.50 -1793.09 -820.90 -640.17 -683.44 -661.84 -509.49 -268.96 -136.32 -66.69 214.46 260.44 273.05 288.34 334.25 408.22 553.65 590.95 567.74 469.96 458.40 410.93 383.64 399.70 403.79 364.18 429.26 435.28 437.49 423.19 414.16 399.05 375.42 349.32 336.76 329.36 322.77 311.15 302.80 301.92 301.10 301.80 305.27 317.81 350.60 389.72 404.34 439.78 465.49 490.55 516.44 531.48 535.33 551.04 659.11 633.57 476.21 353.70 326.27 290.68 237.44 202.51 168.70 63.07 10.48 -26.18 -194.89 -272.84 -318.61 -386.31 -487.28 -624.31 -808.82 -945.56 -1013.14 -1051.11 -1078.99 -1189.37 -1353.82 -1432.28 -1578.42 -1609.85 -1609.35 -1719.39 -1759.14 -1732.98 -2404.56 -2736.33 -3108.10 -3802.41 -3980.31 -4022.42 -4012.08 -3991.21 -3973.19 -3956.61 -3941.95 -3922.38 -3904.97 -3892.08 -3877.87 -3865.05 -3851.93 -3843.24 -3837.63 -3829.49 -3829.56
-4111.23 -4111.18 -4106.62 -4109.44 -4111.56 -4112.69 -4110.98 -4113.92 -4118.67 -4120.04 -4121.97 -4123.71 -4126.19 -4124.96 -4125.46 -4124.94 -4123.75 -4120.55 -4120.53 -4132.22 -4127.95 -4130.81 -4121.39 -4144.04 -4138.45 -4172.86 -4187.29 -4196.71 -4209.99 -4224.59 -4233.88 -4242.68 -4205.54 -4019.06 -3128.31 -2467.69 -1439.63 -951.91 -821.55 -736.89 -731.91 -678.38 -347.18 -92.62 170.84 265.26 274.98 278.10 319.81 392.43 514.61 485.42 458.48 411.93 374.63 372.55 372.45 365.56 360.16 357.04 360.34 367.42 406.45 419.96 425.60 395.85 390.23 354.22 332.36 327.47 317.19 302.50 300.55 300.15 300.18 300.00 304.37 320.52 360.14 377.92 402.62 447.00 466.85 488.87 513.41 518.05 501.42 521.55 656.03 669.55 408.08 323.57 290.58 258.92 180.71 168.42 139.14 41.10 -40.25 -166.03 -460.35 -455.19 -589.15 -737.50 -743.76 -834.34 -919.68 -988.78 -1008.98 -1031.89 -1065.06 -1108.59 -1242.14 -1424.14 -1565.78 -1630.16 -1626.08 -1391.64 -1727.89 -1949.66 -2684.31 -3117.17 -3543.13 -3843.62 -4008.20 -4028.90 -4007.84 -3989.05 -3968.56 -3955.59 -3936.84 -3918.23 -3905.27 -3890.09 -3875.90 -3862.34 -3853.02 -3843.72 -3837.96 -3829.99 -3830.06
-4128.23 -4128.17 -4128.74 -4128.85 -4133.35 -4135.37 -4132.26 -4133.56 -4135.35 -4136.53 -4139.63 -4139.76 -4139.10 -4145.67 -4152.54 -4152.26 -4151.83 -4149.72 -4154.17 -4149.88 -4163.74 -4167.51 -4174.28 -4183.10 -4181.22 -4199.33 -4206.03 -4217.32 -4228.24 -4233.61 -4244.69 -4253.22 -4240.30 -4196.10 -3707.23 -3031.44 -1617.82 -1224.97 -903.22 -785.23 -800.09 -791.35 -532.91 -172.00 241.88 252.84 269.64 278.04 297.48 339.44 411.18 428.08 347.09 359.44 342.12 320.47 328.71 317.27 332.80 329.14 327.54 322.85 363.75 405.75 453.36 418.92 400.71 377.02 350.40 324.91 317.38 303.90 298.97 298.67 297.60 298.77 308.72 327.68 341.98 375.77 394.66 433.68 455.20 492.27 490.63 494.31 475.46 661.34 630.54 441.50 306.25 281.05 221.80 178.54 148.01 141.38 41.63 -71.41 -182.57 -365.24 -606.79 -767.37 -853.39 -931.56 -915.83 -953.24 -986.65 -988.28 -987.16 -996.01 -1008.01 -989.51 -1057.54 -1183.74 -1286.87 -1407.40 -1534.50 -1283.31 -1435.67 -2402.50 -2945.91 -3523.33 -3911.76 -3996.42 -4026.43 -4014.89 -3996.14 -3982.07 -3961.33 -3947.98 -3932.87 -3917.61 -3901.85 -3886.64 -3871.70 -3861.67 -3851.82 -3844.16 -3837.68 -3830.10 -3830.17
-4144.62 -4144.57 -4144.38 -4150.51 -4154.04 -4156.34 -4158.81 -4160.88 -4157.95 -4161.19 -4165.23 -4165.71 -4168.88 -4164.71 -4175.32 -4174.16 -4175.84 -4178.95 -4176.30 -4180.99 -4186.73 -4189.85 -4201.42 -4209.23 -4210.48 -4228.04 -4227.71 -4236.24 -4245.03 -4251.78 -4258.08 -4266.81 -4269.90 -4218.99 -3958.86 -3399.06 -2456.41 -1381.58 -1035.90 -793.17 -790.27 -834.48 -701.69 -279.45 124.11 249.25 269.71 268.90 280.43 289.89 313.48 312.09 307.01 317.18 306.19 306.43 306.29 302.55 306.57 302.47 310.86 314.15 324.31 394.19 482.78 460.39 399.80 392.57 355.53 325.98 318.91 306.63 297.74 297.29 296.91 296.15 299.01 319.69 336.71 379.94 404.96 429.44 452.48 478.24 463.40 426.96 403.76 823.53 438.50 295.44 272.65 242.81 183.16 150.32 136.60 74.32 -82.14 -296.23 -419.48 -684.21 -842.80 -905.11 -961.56 -985.35 -986.41 -985.84 -986.34 -979.87 -940.27 -894.18 -811.39 -785.47 -787.95 -699.00 -807.33 -924.68 -1101.06 -1235.28 -1650.05 -2402.06 -3021.26 -3647.23 -3857.62 -3991.45 -4022.71 -4007.88 -3993.07 -3977.58 -3958.49 -3945.62 -3931.48 -3917.68 -3898.85 -3885.79 -3872.48 -3858.61 -3853.09 -3845.00 -3837.13 -3830.71 -3830.78
-4163.83 -4165.58 -4167.56 -4166.99 -4168.11 -4171.91 -4174.83 -4174.33 -4186.00 -4188.15 -4184.55 -4188.43 -4188.51 -4199.73 -4199.08 -4201.03 -4200.58 -4209.95 -4208.76 -4211.06 -4215.48 -4214.81 -4221.69 -4226.36 -4238.08 -4239.05 -4249.59 -4250.66 -4259.18 -4268.51 -4270.08 -4272.37 -4275.20 -4262.08 -4128.46 -3640.11 -2737.77 -1854.99 -1116.56 -820.28 -772.60 -836.88 -696.83 -339.55 42.03 245.67 258.01 248.19 263.12 264.79 276.96 271.64 280.30 293.01 301.89 293.45 291.76 286.36 286.00 295.29 294.26 304.96 318.95 364.67 459.93 497.24 456.54 408.16 371.01 326.51 319.44 302.36 295.14 294.96 295.05 295.36 299.05 309.84 335.70 356.33 382.57 402.71 451.09 473.40 472.01 443.02 487.06 448.11 291.86 285.49 253.71 182.90 72.81 70.75 53.53 -13.31 -290.89 -495.54 -633.61 -678.20 -899.92 -944.06 -976.28 -982.85 -969.20 -960.24 -865.79 -832.34 -748.67 -698.87 -498.97 -356.40 -158.29 -311.60 -460.13 -817.57 -990.31 -1395.32 -1562.86 -2483.56 -2915.18 -3528.22 -3798.50 -3975.41 -4014.69 -4003.15 -3984.86 -3967.89 -3952.46 -3945.22 -3928.05 -3916.59 -3897.54 -3886.97 -3871.15 -3863.53 -3850.00 -3842.78 -3837.09 -3831.69 -3830.91
-4179.96 -4179.91 -4178.76 -4184.12 -4188.86 -4187.75 -4194.80 -4199.12 -4202.01 -4203.34 -4210.49 -4211.24 -4214.24 -4217.34 -4222.89 -4218.89 -4215.66 -4226.64 -4229.82 -4234.37 -4239.82 -4240.19 -4252.02 -4255.04 -4260.30 -4261.51 -4270.79 -4275.74 -4271.65 -4281.26 -4283.06 -4285.30 -4290.13 -4285.12 -4152.53 -3711.34 -3184.68 -2060.18 -1185.18 -840.96 -771.40 -812.86 -826.11 -371.80 -67.56 65.32 177.92 192.34 235.44 223.48 234.50 259.79 261.46 271.40 267.95 250.66 251.74 267.58 265.85 262.01 269.46 278.97 293.66 346.03 409.09 489.21 544.35 449.71 414.77 350.17 320.14 301.50 293.80 293.48 293.19 293.44 296.29 302.17 320.22 339.82 371.77 387.15 439.37 461.12 476.54 474.33 638.87 707.51 289.15 248.37 197.88 139.74 -6.67 -42.47 -120.86 -198.58 -545.80 -692.46 -798.82 -822.47 -929.57 -955.02 -975.47 -946.47 -900.78 -816.60 -648.87 -553.92 -298.06 -183.53 -171.40 -17.96 -61.71 -39.88 -377.68 -687.79 -1055.94 -1432.78 -1681.23 -2113.14 -2877.97 -3328.65 -3778.28 -3963.85 -3985.80 -3979.95 -3971.40 -3959.84 -3949.82 -3931.83 -3920.99 -3910.59 -3895.63 -3887.46 -3871.88 -3861.02 -3849.25 -3843.05 -3836.46 -3830.99 -3831.06
-4193.85 -4193.80 -4194.97 -4197.91 -4206.01 -4204.49 -4208.16 -4212.91 -4217.79 -4225.38 -4224.29 -4227.00 -4229.42 -4233.02 -4236.75 -4239.82 -4241.73 -4247.00 -4250.91 -4261.19 -4259.80 -4268.89 -4270.90 -4275.72 -4282.38 -4281.80 -4285.80 -4291.96 -4298.17 -4297.15 -4298.20 -4298.54 -4301.31 -4299.94 -4230.08 -3885.88 -3290.47 -2568.87 -1360.35 -1003.41 -780.36 -785.37 -801.94 -564.70 -334.94 -120.29 -49.31 75.73 144.91 173.89 150.94 119.41 173.78 248.63 248.57 232.19 238.07 240.74 253.07 255.55 258.61 268.04 278.00 292.31 363.83 423.06 568.60 569.93 510.02 384.17 328.25 308.59 291.95 291.55 291.13 291.14 295.01 305.70 316.42 335.13 354.43 386.01 418.84 431.69 443.46 476.85 632.34 1293.09 284.45 218.90 145.25 74.41 -49.63 -119.63 -195.85 -451.48 -703.66 -897.33 -908.45 -911.41 -930.78 -924.90 -856.33 -749.57 -654.38 -468.44 -282.02 -133.01 -41.31 11.42 33.30 43.71 7.17 -31.87 -318.87 -806.21 -1111.32 -1490.96 -1756.61 -2242.40 -2697.36 -3260.46 -3498.47 -3831.91 -3970.76 -3973.11 -3965.39 -3956.02 -3940.93 -3928.95 -3917.23 -3904.88 -3894.52 -3882.59 -3869.26 -3859.90 -3851.15 -3842.56 -3837.87 -3830.85 -3830.92
-4206.88 -4206.82 -4207.37 -4213.18 -4213.25 -4222.46 -4221.78 -4229.86 -4229.93 -4236.65 -4240.30 -4244.78 -4250.63 -4254.70 -4256.85 -4258.02 -4265.96 -4272.07 -4274.06 -4283.54 -4283.21 -4287.10 -4291.24 -4294.14 -4300.98 -4306.54 -4309.26 -4303.48 -4307.34 -4308.72 -4314.31 -4315.71 -4314.29 -4314.06 -4239.61 -4157.93 -3497.56 -2783.43 -1701.83 -1039.16 -871.70 -746.14 -719.71 -640.34 -462.03 -377.24 -274.69 -227.16 -198.20 -150.11 -77.74 -90.78 -52.07 159.24 201.94 207.55 175.19 174.87 236.62 231.17 248.17 255.35 261.76 271.93 326.21 371.53 462.60 527.47 532.63 505.34 455.53 328.92 294.67 289.63 288.86 287.97 288.79 298.57 311.52 324.43 342.40 374.58 404.32 407.30 419.18 461.47 485.63 1107.27 477.92 197.62 107.43 46.20 -48.61 -147.57 -376.36 -535.84 -770.64 -792.42 -815.52 -736.87 -771.38 -846.45 -751.98 -651.15 -547.39 -390.62 -169.15 -58.72 17.64 10.51 18.60 -2.51 -36.26 -128.96 -330.37 -695.30 -1175.61 -1522.00 -1918.40 -2253.90 -2735.97 -3001.36 -3465.54 -3875.44 -3954.64 -3967.97 -3960.46 -3953.37 -3936.08 -3923.73 -3912.31 -3902.58 -3893.68 -3884.40 -3869.25 -3859.32 -3851.40 -3841.70 -3834.40 -3830.85 -3830.92
-4219.30 -4220.83 -4223.30 -4225.02 -4229.26 -4231.57 -4236.56 -4240.36 -4245.27 -4250.24 -4253.92 -4258.94 -4262.21 -4264.25 -4269.66 -4276.06 -4279.93 -4282.99 -4293.43 -4297.21 -4304.59 -4308.46 -4312.34 -4320.94 -4323.62 -4326.29 -4327.67 -4329.45 -4325.30 -4331.64 -4326.88 -4326.58 -4324.27 -4322.54 -4312.64 -4215.41 -3947.50 -2728.58 -2330.72 -1617.89 -1024.63 -786.86 -691.31 -598.28 -537.63 -471.43 -381.45 -345.45 -317.92 -359.54 -501.08 -523.58 -600.47 -233.88 -83.20 79.24 -57.76 -21.39 -20.96 181.78 219.50 242.58 250.64 259.31 274.78 301.20 319.25 374.36 447.86 510.07 389.32 320.59 288.24 288.46 286.85 286.59 287.79 292.64 296.42 316.71 337.31 352.24 378.62 396.28 409.14 435.10 464.59 867.50 709.23 182.83 119.12 63.47 -52.47 -197.38 -358.57 -521.22 -579.37 -675.71 -665.46 -638.42 -651.16 -731.12 -654.14 -585.14 -394.97 -265.39 -207.44 -96.70 -6.78 -12.16 -23.73 -75.69 -152.27 -304.18 -494.58 -710.06 -1320.34 -1822.32 -2401.84 -2718.28 -2958.03 -3197.49 -3521.41 -3820.88 -3948.74 -3964.83 -3953.79 -3946.87 -3933.96 -3920.30 -3909.56 -3903.24 -3894.09 -3879.20 -3869.43 -3859.86 -3850.89 -3840.48 -3835.84 -3830.81 -3830.87
-4231.32 -4231.27 -4238.10 -4237.46 -4245.00 -4245.73 -4251.76 -4254.14 -4258.49 -4261.85 -4269.57 -4274.30 -4278.87 -4283.36 -4287.26 -4289.67 -4298.47 -4301.83 -4308.90 -4312.14 -4318.88 -4327.52 -4331.84 -4335.17 -4333.72 -4340.72 -4342.85 -4347.68 -4346.32 -4343.55 -4345.29 -4343.00 -4340.83 -4332.65 -4323.50 -4221.26 -4087.79 -3581.24 -2502.37 -1931.82 -1387.31 -1023.30 -856.10 -647.99 -619.83 -469.88 -428.05 -427.35 -413.14 -558.88 -681.27 -769.63 -756.26 -479.46 -408.57 -281.68 -305.16 -307.00 -268.31 -118.09 69.19 208.45 230.03 237.88 250.33 265.59 288.59 284.70 339.63 325.33 298.88 284.89 286.16 285.19 284.32 284.04 284.50 284.17 290.02 292.27 308.28 338.22 356.29 361.19 387.07 408.94 428.41 464.84 625.91 161.05 18.92 -167.58 -144.47 -212.75 -276.95 -350.83 -424.53 -509.17 -550.53 -524.70 -516.51 -518.81 -434.49 -379.55 -285.00 -253.30 -173.19 -46.27 -10.70 -16.68 -30.89 -99.07 -184.40 -492.44 -621.81 -1082.37 -1761.02 -2392.43 -2791.78 -3170.15 -3524.74 -3610.30 -3769.02 -3928.80 -3930.82 -3934.32 -3935.04 -3945.28 -3929.41 -3919.87 -3909.30 -3901.96 -3893.24 -3880.23 -3869.10 -3858.73 -3850.62 -3843.29 -3838.52 -3830.81 -3830.87
-4243.23 -4244.65 -4248.06 -4252.66 -4256.20 -4259.67 -4260.01 -4266.50 -4269.82 -4274.45 -4283.00 -4283.68 -4290.62 -4294.16 -4304.21 -4306.73 -4310.97 -4315.41 -4327.47 -4335.88 -4337.73 -4342.18 -4345.26 -4352.08 -4357.65 -4359.60 -4361.72 -4361.74 -4361.78 -4359.99 -4359.81 -4357.40 -4351.25 -4349.55 -4340.80 -4334.26 -4207.19 -3805.10 -3538.24 -2606.35 -1787.93 -1442.13 -1231.81 -932.51 -667.75 -660.83 -530.57 -498.30 -552.11 -646.66 -771.57 -755.42 -693.33 -493.67 -469.59 -432.07 -422.57 -367.92 -327.01 -287.47 -171.41 -66.71 107.13 232.65 234.15 243.52 257.03 265.42 271.68 279.13 279.08 280.29 278.84 281.03 280.43 280.95 279.00 281.38 280.50 286.26 300.79 318.70 331.09 341.76 373.04 376.46 386.29 386.10 390.88 167.82 -90.71 -261.51 -276.07 -247.19 -279.27 -363.35 -423.31 -455.94 -440.70 -427.26 -378.88 -365.25 -275.83 -238.97 -177.96 -117.05 -56.43 -16.35 -1.73 -13.91 -37.46 -96.51 -229.08 -550.21 -752.73 -1160.92 -1979.30 -2600.67 -3121.54 -3553.31 -3635.54 -3770.28 -3919.02 -3930.43 -3924.28 -3922.08 -3915.43 -3934.36 -3930.33 -3917.25 -3910.57 -3902.26 -3892.19 -3884.46 -3868.74 -3859.34 -3851.62 -3844.41 -3839.56 -3831.00 -3831.06
-4254.60 -4256.09 -4258.22 -4263.24 -4266.86 -4272.79 -4276.09 -4280.25 -4283.78 -4288.70 -4291.22 -4296.89 -4299.45 -4306.34 -4309.53 -4318.43 -4325.96 -4332.68 -4338.24 -4343.47 -4348.36 -4358.11 -4360.90 -4366.31 -4371.58 -4379.10 -4376.83 -4381.15 -4374.69 -4374.38 -4373.79 -4369.88 -4369.39 -4363.25 -4357.87 -4334.97 -4302.43 -4033.12 -3782.54 -3439.52 -2751.16 -2632.17 -2013.56 -1611.24 -1419.89 -822.34 -758.26 -666.09 -662.70 -704.82 -787.28 -776.53 -768.87 -780.64 -690.18 -505.19 -451.87 -380.91 -302.47 -257.14 -205.21 -151.76 -4.75 147.66 227.82 224.55 229.59 236.49 234.53 239.76 246.47 254.13 267.93 275.72 274.43 277.30 274.74 277.57 277.91 278.44 288.58 297.47 320.19 334.95 340.41 355.29 339.00 329.43 301.19 216.26 -183.46 -316.64 -316.11 -277.42 -290.80 -372.89 -410.78 -365.42 -333.35 -306.59 -239.63 -215.81 -167.18 -124.15 -67.48 -61.21 -31.20 -16.49 -7.38 -10.72 -39.28 -106.02 -232.55 -486.52 -750.31 -1181.82 -1629.23 -2570.57 -3153.13 -3504.44 -3751.75 -3880.32 -3916.05 -3939.08 -3933.25 -3923.27 -3912.49 -3913.68 -3925.88 -3917.08 -3909.14 -3901.61 -3890.95 -3882.63 -3869.71 -3859.58 -3853.40 -3843.73 -3839.72 -3831.39 -3831.46
-4265.37 -4265.31 -4270.31 -4270.91 -4274.81 -4278.29 -4286.03 -4290.05 -4294.28 -4298.70 -4301.80 -4308.01 -4315.90 -4319.27 -4328.33 -4333.90 -4337.45 -4342.08 -4353.46 -4357.81 -4364.59 -4369.98 -4375.42 -4382.21 -4383.43 -4391.54 -4392.84 -4395.46 -4391.56 -4393.47 -4385.53 -4386.96 -4378.62 -4375.95 -4361.13 -4354.57 -4344.71 -4304.13 -4162.45 -3997.17 -3934.01 -3277.78 -3072.46 -2806.16 -2014.46 -1439.42 -1030.75 -846.16 -728.60 -752.65 -777.59 -785.00 -795.76 -800.76 -742.74 -540.89 -502.05 -392.90 -261.42 -222.28 -157.18 -104.35 -2.01 82.09 140.36 181.19 214.97 214.05 216.28 226.76 228.98 237.26 253.35 263.30 265.81 271.28 271.18 272.55 271.81 272.76 276.76 293.85 300.76 316.46 316.37 324.34 316.03 306.05 276.26 203.29 -19.02 -316.59 -354.35 -371.63 -354.55 -381.45 -343.37 -260.32 -183.59 -145.53 -116.03 -101.97 -81.07 -71.55 -45.58 -38.21 -36.74 -24.30 -18.39 -28.48 -78.90 -170.93 -341.09 -530.11 -821.48 -1264.31 -1918.13 -2682.18 -3441.11 -3615.91 -3829.96 -3914.23 -3934.36 -3937.31 -3937.11 -3926.47 -3911.52 -3914.52 -3926.01 -3915.67 -3905.95 -3899.82 -3893.60 -3882.98 -3871.29 -3859.99 -3854.44 -3843.27 -3841.42 -3831.95 -3832.01
-4275.91 -4275.85 -4278.20 -4281.57 -4287.27 -4292.75 -4296.58 -4300.87 -4301.12 -4305.57 -4312.85 -4320.84 -4321.10 -4327.51 -4335.82 -4345.99 -4350.41 -4359.29 -4363.93 -4371.72 -4379.12 -4385.73 -4390.49 -4391.80 -4401.88 -4401.89 -4406.84 -4407.34 -4407.65 -4405.59 -4402.46 -4397.98 -4394.99 -4388.90 -4377.66 -4361.64 -4355.88 -4344.79 -4293.12 -4245.95 -4094.23 -3996.76 -3836.30 -3463.30 -2936.93 -2102.62 -1424.95 -1257.30 -1069.09 -961.51 -889.59 -859.97 -865.05 -893.17 -812.14 -677.15 -526.38 -439.19 -264.45 -155.58 -102.74 -63.81 -6.03 14.98 71.55 93.29 149.50 189.67 197.23 215.72 222.69 231.18 246.59 252.74 255.95 257.08 263.83 265.43 264.97 266.82 266.91 273.53 286.43 287.29 301.11 302.64 308.92 280.87 257.76 232.49 -43.43 -220.83 -390.47 -406.01 -403.26 -356.25 -271.14 -117.44 -120.18 -74.88 -69.19 -57.26 -52.71 -50.65 -47.60 -41.23 -42.41 -34.15 -45.62 -57.82 -104.94 -180.74 -347.70 -573.42 -810.07 -1303.13 -2157.26 -2783.28 -3495.28 -3691.71 -3830.11 -3926.54 -3930.19 -3930.60 -3931.61 -3931.75 -3922.90 -3918.74 -3920.06 -3914.62 -3907.42 -3898.98 -3893.15 -3884.91 -3866.63 -3861.02 -3852.88 -3846.01 -3839.82 -3833.97 -3832.66
-4286.57 -4286.51 -4291.74 -4297.93 -4300.39 -4301.11 -4308.97 -4312.52 -4313.70 -4319.34 -4323.95 -4328.42 -4335.51 -4344.88 -4349.06 -4352.66 -4361.82 -4369.47 -4375.73 -4378.45 -4390.01 -4393.81 -4400.02 -4405.19 -4410.91 -4414.69 -4423.36 -4426.38 -4424.14 -4422.15 -4418.33 -4414.65 -4406.62 -4399.65 -4388.81 -4373.97 -4370.74 -4359.58 -4357.98 -4351.53 -4303.36 -4260.20 -4097.34 -3970.23 -3975.24 -3043.70 -2548.95 -1974.87 -1611.61 -1349.76 -1164.91 -1024.78 -1130.16 -933.99 -857.22 -717.62 -544.04 -412.48 -261.28 -119.40 -74.99 -29.26 -3.48 33.84 62.73 99.51 113.42 147.86 182.72 199.17 216.71 225.72 235.92 244.22 248.23 256.54 260.23 259.23 259.47 260.79 258.40 258.61 261.66 272.81 275.63 291.12 285.67 272.38 257.11 249.01 32.34 -107.88 -307.74 -382.77 -372.29 -296.07 -184.91 -91.09 -46.73 -31.96 -32.73 -49.68 -51.76 -52.89 -55.33 -55.00 -52.89 -63.77 -79.95 -122.72 -201.51 -239.28 -478.48 -769.85 -1062.87 -1672.53 -2272.06 -3122.71 -3501.65 -3826.73 -3879.10 -3907.78 -3925.82 -3927.33 -3929.62 -3930.42 -3929.00 -3926.50 -3921.31 -3917.42 -3909.23 -3901.47 -3892.53 -3884.86 -3869.35 -3860.96 -3852.32 -3846.83 -3842.07 -3833.27 -3833.33
-4294.98 -4296.10 -4298.80 -4303.47 -4308.12 -4311.92 -4318.29 -4321.45 -4327.03 -4329.63 -4339.91 -4346.65 -4350.11 -4354.28 -4359.72 -4357.43 -4365.80 -4371.39 -4375.86 -4389.41 -4400.24 -4408.76 -4413.27 -4419.83 -4421.53 -4430.44 -4434.32 -4436.94 -4434.09 -4431.18 -4424.03 -4422.91 -4414.10 -4407.15 -4400.53 -4388.46 -4379.84 -4373.06 -4364.29 -4348.29 -4309.70 -4248.84 -4098.72 -4072.68 -3965.24 -3804.35 -3198.80 -2883.36 -2507.67 -2176.34 -1920.56 -1682.61 -1355.68 -1086.24 -998.72 -816.10 -585.04 -478.11 -273.28 -154.81 -38.57 -4.02 20.91 56.29 78.55 93.97 109.91 140.84 154.86 196.50 205.35 216.14 227.91 241.11 246.93 251.82 255.28 253.39 252.01 251.27 247.10 246.91 247.94 258.68 263.89 268.41 276.02 268.14 258.66 249.04 207.67 43.79 -140.70 -287.12 -272.79 -199.73 -108.46 -37.81 -22.48 -12.80 -69.89 -82.82 -65.96 -78.80 -71.48 -68.91 -80.00 -92.72 -186.88 -218.83 -311.90 -449.01 -803.32 -1051.03 -1313.83 -2077.83 -2912.20 -3496.18 -3623.83 -3860.85 -3899.15 -3905.78 -3918.67 -3923.27 -3927.53 -3929.77 -3929.84 -3927.96 -3923.24 -3918.81 -3911.23 -3905.98 -3897.92 -3879.88 -3868.88 -3861.96 -3853.56 -3846.59 -3841.25 -3834.00 -3834.07
-4301.65 -4303.08 -4308.28 -4310.61 -4317.14 -4321.52 -4326.95 -4331.32 -4341.18 -4343.97 -4348.90 -4353.91 -4361.80 -4364.58 -4366.80 -4368.82 -4373.41 -4377.11 -4382.41 -4393.70 -4402.68 -4417.97 -4418.82 -4428.04 -4436.86 -4441.43 -4443.62 -4445.48 -4446.01 -4441.19 -4438.87 -4432.87 -4427.04 -4415.32 -4404.47 -4395.88 -4384.55 -4379.95 -4371.35 -4356.17 -4308.48 -4265.00 -4199.02 -4081.79 -3981.81 -3785.76 -3524.31 -3270.30 -2929.50 -2660.03 -2284.64 -1987.11 -1410.69 -1247.82 -1024.51 -827.89 -624.39 -559.92 -336.64 -178.58 -67.01 -8.21 27.35 54.53 76.45 81.47 103.82 115.66 141.91 169.97 192.14 187.48 212.98 233.99 236.94 245.30 246.65 246.36 243.96 245.02 239.29 237.96 241.13 247.28 253.04 262.71 264.03 257.31 253.66 242.08 235.27 141.75 -60.21 -65.79 -116.48 -114.18 -37.42 13.11 13.54 -44.63 -110.20 -113.09 -115.23 -120.39 -121.18 -97.89 -113.68 -179.20 -231.25 -374.98 -460.92 -855.34 -1214.49 -1446.86 -1654.27 -2439.68 -3204.85 -3502.65 -3800.96 -3870.19 -3896.28 -3906.01 -3915.92 -3918.72 -3924.29 -3928.38 -3930.26 -3928.15 -3924.19 -3921.81 -3913.10 -3907.65 -3897.36 -3881.35 -3870.15 -3862.54 -3854.31 -3848.58 -3843.59 -3835.04 -3834.93
-4312.47 -4312.39 -4315.11 -4322.01 -4324.71 -4330.94 -4338.10 -4343.29 -4348.96 -4353.47 -4357.93 -4366.07 -4372.07 -4377.11 -4380.12 -4378.72 -4381.74 -4388.43 -4391.36 -4398.47 -4411.53 -4424.12 -4434.71 -4439.51 -4443.63 -4447.06 -4451.56 -4456.09 -4453.99 -4448.07 -4445.13 -4436.94 -4430.84 -4428.27 -4418.24 -4407.25 -4393.45 -4384.19 -4371.67 -4347.03 -4302.12 -4249.14 -4184.10 -4071.69 -3925.69 -3667.92 -3508.52 -3240.99 -3000.11 -2865.71 -2606.37 -2299.93 -1855.06 -1393.44 -1054.72 -964.41 -763.49 -528.63 -295.52 -191.18 -91.64 -32.00 24.73 49.39 67.91 75.26 87.51 108.16 127.41 141.73 156.68 168.95 187.60 216.06 226.86 236.53 237.32 239.72 237.29 233.13 230.37 227.61 234.07 242.17 249.30 248.65 252.41 251.34 249.05 241.40 229.29 200.34 110.06 62.39 2.52 4.98 36.15 20.07 -22.36 -149.47 -287.64 -232.73 -203.77 -176.75 -205.40 -171.19 -156.43 -255.42 -513.16 -753.22 -928.53 -1213.44 -1724.59 -2253.35 -2267.70 -2721.98 -3394.06 -3602.94 -3805.38 -3896.17 -3898.06 -3908.75 -3913.80 -3918.63 -3923.29 -3929.96 -3930.06 -3928.35 -3925.73 -3923.87 -3916.32 -3910.23 -3903.87 -3881.60 -3868.67 -3862.91 -3854.64 -3848.99 -3842.59 -3837.17 -3836.07
-4321.90 -4321.83 -4327.91 -4331.14 -4331.39 -4343.88 -4350.15 -4354.50 -4362.10 -4366.06 -4370.67 -4377.40 -4383.45 -4390.12 -4387.46 -4391.82 -4397.57 -4396.25 -4395.30 -4413.77 -4418.00 -4433.58 -4439.85 -4445.73 -4451.30 -4453.09 -4459.78 -4461.37 -4460.78 -4458.02 -4453.27 -4450.51 -4444.34 -4438.95 -4426.64 -4415.51 -4392.82 -4385.61 -4376.88 -4350.97 -4325.03 -4248.88 -4128.01 -3980.72 -3863.28 -3582.54 -3436.45 -3221.11 -3010.93 -2830.91 -2523.85 -2320.66 -1925.98 -1625.59 -1025.02 -897.55 -702.61 -461.33 -333.70 -206.68 -115.17 -37.06 -1.16 39.64 61.04 70.75 84.06 104.28 120.22 135.28 140.60 148.59 161.73 180.53 215.79 224.41 234.82 231.05 227.84 229.36 225.64 225.22 230.43 236.45 239.14 242.38 243.10 243.59 242.49 236.10 227.13 214.84 193.44 147.03 78.91 66.10 22.28 -102.77 -171.80 -327.19 -489.28 -610.30 -474.88 -443.98 -353.19 -307.94 -503.63 -662.49 -698.84 -1058.35 -1379.01 -2252.03 -2597.62 -2767.31 -2967.29 -3129.61 -3801.86 -3851.63 -3906.28 -3902.30 -3904.19 -3907.96 -3914.78 -3924.13 -3928.51 -3931.03 -3930.63 -3929.17 -3926.64 -3924.62 -3920.22 -3914.29 -3903.44 -3884.13 -3870.48 -3862.86 -3857.14 -3849.93 -3844.37 -3838.02 -3837.04
-4330.97 -4330.90 -4337.81 -4337.97 -4345.06 -4353.41 -4359.56 -4365.78 -4372.05 -4378.25 -4386.87 -4393.00 -4390.68 -4402.03 -4396.62 -4400.66 -4402.50 -4405.24 -4410.62 -4420.89 -4425.37 -4438.63 -4447.40 -4450.50 -4456.42 -4457.91 -4467.08 -4468.21 -4466.79 -4465.79 -4460.70 -4457.53 -4453.00 -4441.67 -4426.68 -4413.76 -4398.31 -4389.11 -4373.97 -4361.03 -4336.88 -4292.26 -4164.58 -4029.35 -3786.87 -3601.38 -3440.45 -3292.97 -3048.04 -2852.19 -2499.06 -2213.37 -1993.68 -1582.33 -1282.57 -1040.16 -814.61 -521.06 -344.61 -234.97 -139.67 -94.40 -20.53 16.53 45.51 67.89 82.51 96.81 118.73 124.22 139.26 147.04 155.43 180.64 194.04 214.55 216.12 213.10 215.76 217.30 218.01 220.94 222.58 226.24 231.77 238.20 239.43 234.59 234.64 230.29 222.39 212.15 201.35 186.02 101.34 23.09 -101.69 -281.35 -388.90 -471.37 -570.18 -926.50 -954.15 -777.81 -752.58 -566.98 -870.67 -1061.80 -1109.52 -1439.03 -1931.45 -2954.51 -2991.03 -3537.22 -3575.10 -3687.89 -3897.01 -3906.52 -3897.67 -3899.61 -3912.02 -3910.50 -3919.11 -3925.65 -3930.18 -3932.40 -3932.13 -3929.33 -3927.38 -3925.68 -3921.84 -3915.16 -3905.19 -3886.06 -3872.00 -3863.06 -3857.36 -3850.82 -3845.06 -3838.93 -3838.01
-4339.70 -4339.65 -4343.91 -4349.12 -4353.85 -4359.20 -4367.03 -4376.48 -4381.64 -4390.06 -4397.21 -4402.26 -4406.81 -4415.80 -4416.89 -4418.63 -4417.56 -4422.39 -4422.33 -4427.52 -4438.52 -4443.18 -4452.00 -4455.81 -4458.71 -4466.00 -4472.00 -4470.37 -4468.83 -4466.57 -4468.83 -4460.65 -4451.19 -4437.70 -4426.77 -4414.68 -4405.62 -4389.89 -4377.23 -4365.97 -4348.35 -4310.64 -4242.97 -4064.87 -3892.10 -3672.09 -3559.19 -3234.88 -2954.08 -2640.98 -2436.69 -2118.00 -1955.96 -1646.89 -1486.24 -1210.68 -902.77 -626.18 -414.62 -254.88 -207.79 -163.87 -74.97 -1.36 22.67 55.89 88.29 97.19 101.03 117.98 133.19 146.02 157.50 172.15 181.17 190.11 199.97 204.66 206.74 209.72 210.67 213.54 213.45 211.26 217.32 228.75 227.25 226.84 223.71 221.47 215.21 202.68 194.70 176.34 88.66 -164.57 -331.47 -445.95 -689.25 -788.97 -1091.96 -1360.48 -1308.46 -1157.59 -1382.12 -1251.86 -1391.66 -1859.22 -2069.15 -2134.98 -3000.51 -3482.49 -3627.74 -3854.12 -3774.47 -3840.40 -3904.30 -3908.04 -3898.71 -3901.47 -3918.45 -3920.35 -3922.61 -3928.28 -3930.51 -3932.02 -3932.63 -3930.64 -3928.84 -3926.15 -3923.36 -3917.96 -3903.29 -3885.89 -3870.92 -3864.96 -3856.98 -3851.58 -3847.41 -3838.92 -3838.98
-4347.23 -4347.49 -4351.99 -4359.67 -4365.05 -4369.82 -4378.64 -4387.13 -4394.36 -4402.52 -4405.44 -4413.88 -4419.14 -4424.17 -4427.22 -4432.78 -4427.40 -4435.09 -4437.16 -4439.93 -4445.12 -4446.24 -4454.42 -4459.70 -4463.41 -4468.11 -4472.99 -4471.59 -4469.57 -4468.89 -4469.70 -4461.85 -4453.47 -4440.64 -4423.49 -4414.27 -4404.50 -4387.46 -4373.15 -4364.53 -4350.69 -4333.93 -4280.43 -4148.92 -4105.70 -3905.09 -3554.00 -3328.65 -3104.87 -2787.26 -2437.69 -2077.29 -1856.35 -1688.49 -1471.96 -1212.90 -919.58 -705.78 -372.91 -318.78 -233.28 -156.37 -69.25 -33.14 5.40 44.11 71.16 84.82 95.80 112.95 125.30 139.07 150.21 160.58 171.10 183.20 187.29 195.87 198.08 202.25 201.76 203.37 201.02 203.17 208.79 216.51 216.69 215.50 213.76 211.47 204.93 199.14 179.31 150.66 37.61 -369.07 -669.19 -954.00 -1067.89 -1142.79 -1375.31 -1664.84 -2093.08 -2638.16 -2544.05 -2501.55 -2593.90 -2530.06 -2879.43 -3073.77 -3510.90 -3760.17 -3876.80 -3883.76 -3910.32 -3911.80 -3908.15 -3905.94 -3909.89 -3916.65 -3923.45 -3929.68 -3927.22 -3932.72 -3931.82 -3933.57 -3934.04 -3933.79 -3930.95 -3928.56 -3926.35 -3919.82 -3909.09 -3882.65 -3871.73 -3866.40 -3856.70 -3852.25 -3847.56 -3839.91 -3839.97
-4354.44 -4354.72 -4359.89 -4365.87 -4370.75 -4382.74 -4386.90 -4392.95 -4403.42 -4412.93 -4420.70 -4428.17 -4431.30 -4433.39 -4437.81 -4441.54 -4445.28 -4448.91 -4449.17 -4449.11 -4453.97 -4456.08 -4459.94 -4461.35 -4465.79 -4469.85 -4472.76 -4472.52 -4473.24 -4471.37 -4467.21 -4463.66 -4450.15 -4442.30 -4425.67 -4408.58 -4397.58 -4383.46 -4376.75 -4364.92 -4346.74 -4331.11 -4296.03 -4197.31 -4102.37 -3846.23 -3521.73 -3267.37 -3049.72 -2667.14 -2398.67 -2022.84 -1901.93 -1673.82 -1465.44 -1282.63 -1003.95 -689.57 -456.45 -383.13 -256.98 -178.36 -126.43 -80.83 -10.73 32.93 50.88 69.66 84.95 102.20 117.59 122.67 145.90 155.38 159.68 169.98 174.68 179.04 186.08 192.99 195.89 193.82 197.24 200.63 202.01 203.52 205.10 204.89 205.36 206.08 187.35 159.60 130.94 103.20 -96.30 -735.22 -1428.38 -1802.85 -1415.59 -1537.45 -2119.40 -2578.71 -2613.43 -3190.14 -3215.04 -3444.04 -3615.76 -3295.40 -3574.49 -3571.70 -3733.03 -3913.17 -3939.49 -3931.25 -3921.17 -3913.96 -3911.66 -3911.80 -3914.69 -3929.92 -3932.70 -3933.54 -3932.43 -3931.67 -3933.10 -3934.89 -3935.77 -3936.41 -3934.17 -3929.55 -3928.63 -3927.20 -3913.42 -3882.74 -3874.03 -3865.43 -3859.71 -3852.99 -3848.54 -3840.95 -3841.02
-4361.47 -4361.40 -4369.01 -4375.04 -4380.73 -4390.46 -4395.52 -4400.97 -4416.40 -4421.66 -4427.39 -4435.39 -4440.19 -4445.01 -4449.52 -4454.58 -4457.16 -4457.85 -4458.93 -4458.49 -4460.33 -4463.48 -4463.65 -4468.86 -4469.62 -4473.39 -4472.37 -4474.13 -4474.56 -4471.37 -4463.03 -4457.14 -4451.54 -4435.45 -4428.08 -4409.63 -4400.94 -4390.63 -4381.48 -4368.68 -4358.43 -4336.95 -4300.00 -4217.70 -4099.64 -3920.16 -3727.52 -3359.42 -3001.83 -2547.12 -2222.59 -2016.73 -1907.83 -1718.05 -1517.16 -1268.64 -1065.54 -706.28 -572.99 -443.14 -347.93 -221.11 -172.00 -116.34 -17.89 9.30 33.36 54.14 73.96 89.66 105.89 117.18 135.74 144.05 146.62 157.08 167.26 169.38 178.76 182.93 186.44 184.64 184.92 191.04 196.74 198.01 198.81 200.78 201.55 175.50 152.18 124.07 24.86 -262.08 -357.41 -937.26 -2229.11 -2440.01 -2019.51 -2395.65 -3172.32 -3571.00 -3294.50 -3488.64 -3693.62 -3878.01 -3867.13 -3762.64 -3874.64 -3914.70 -3909.40 -3921.54 -3940.11 -3935.69 -3925.78 -3922.06 -3924.22 -3923.79 -3930.34 -3943.17 -3944.19 -3944.04 -3939.62 -3935.86 -3934.49 -3935.47 -3938.58 -3939.23 -3937.19 -3934.58 -3930.30 -3926.95 -3910.22 -3884.98 -3874.60 -3866.75 -3861.28 -3854.85 -3847.97 -3842.08 -3842.14
-4368.17 -4368.10 -4375.53 -4381.05 -4387.56 -4396.94 -4405.91 -4411.35 -4423.65 -4431.77 -4439.28 -4446.18 -4453.18 -4455.84 -4459.55 -4463.92 -4467.72 -4467.11 -4465.66 -4465.61 -4467.60 -4469.73 -4471.06 -4471.45 -4473.87 -4476.61 -4474.44 -4475.38 -4473.53 -4469.96 -4464.69 -4457.83 -4448.08 -4434.18 -4425.83 -4409.67 -4403.16 -4389.94 -4383.55 -4371.99 -4363.71 -4350.36 -4322.97 -4253.14 -4201.34 -4117.64 -3924.66 -3716.61 -3157.10 -2548.88 -2186.57 -1899.12 -1725.51 -1641.79 -1496.82 -1369.51 -1163.03 -823.13 -621.64 -467.05 -419.10 -287.99 -188.47 -121.60 -64.97 -24.87 16.74 40.87 63.45 74.00 95.59 105.56 126.67 131.15 136.08 141.70 151.30 156.02 167.06 173.51 173.46 175.48 169.07 181.15 183.08 187.70 184.33 178.38 158.44 141.34 99.19 14.24 -122.29 -358.45 -1041.99 -1991.88 -2557.61 -2915.23 -2796.28 -3144.36 -3778.95 -3923.97 -3945.89 -3855.72 -3855.00 -3975.31 -3971.31 -3972.95 -3960.88 -3964.98 -3961.24 -3949.42 -3943.92 -3941.24 -3937.45 -3932.80 -3935.66 -3937.33 -3946.78 -3952.38 -3954.17 -3949.83 -3945.30 -3939.68 -3935.66 -3936.68 -3940.05 -3942.05 -3940.99 -3938.80 -3938.26 -3926.78 -3913.62 -3885.91 -3874.09 -3869.02 -3861.23 -3854.46 -3849.85 -3844.25 -3843.34
-4375.48 -4375.41 -4383.41 -4390.08 -4398.53 -4407.27 -4413.39 -4419.53 -4432.39 -4439.94 -4447.20 -4453.25 -4462.23 -4464.37 -4471.17 -4476.82 -4474.85 -4477.95 -4474.67 -4470.08 -4472.22 -4474.70 -4475.46 -4477.13 -4477.53 -4477.45 -4476.28 -4475.63 -4473.78 -4470.39 -4465.96 -4460.46 -4452.68 -4438.71 -4422.25 -4414.00 -4406.35 -4398.81 -4378.73 -4370.33 -4357.94 -4341.59 -4327.03 -4311.30 -4274.19 -4227.11 -4106.67 -3751.69 -3489.73 -2558.01 -2192.25 -1761.88 -1616.54 -1547.47 -1441.58 -1385.27 -1132.47 -948.27 -796.17 -593.62 -470.45 -317.10 -244.44 -183.60 -80.85 -64.01 -24.42 22.15 50.27 67.45 86.10 103.08 115.20 121.28 123.69 131.58 134.59 145.49 153.14 162.08 164.38 162.98 162.23 171.43 162.50 156.83 151.04 115.66 105.87 80.63 -17.10 -109.18 -300.65 -919.10 -1408.53 -2259.44 -2873.49 -3237.07 -3522.42 -3928.57 -3930.32 -3948.39 -3958.74 -3962.53 -3966.29 -3978.43 -3986.97 -3980.82 -3972.47 -3968.31 -3960.44 -3961.26 -3961.19 -3953.23 -3953.35 -3949.38 -3963.67 -3963.74 -3960.40 -3956.22 -3956.65 -3952.09 -3948.28 -3943.05 -3939.76 -3939.66 -3942.95 -3945.65 -3943.37 -3944.82 -3944.86 -3943.39 -3916.34 -3886.75 -3877.65 -3869.02 -3864.07 -3855.24 -3851.08 -3844.48 -3844.55
-4382.80 -4383.18 -4389.43 -4396.22 -4403.38 -4411.32 -4421.21 -4430.15 -4438.17 -4445.79 -4454.25 -4462.52 -4468.64 -4474.09 -4479.91 -4483.31 -4482.82 -4485.12 -4486.78 -4479.92 -4481.25 -4479.17 -4479.95 -4480.60 -4480.46 -4477.45 -4476.42 -4476.35 -4473.88 -4471.96 -4468.54 -4461.42 -4452.42 -4439.71 -4431.31 -4423.88 -4410.67 -4401.10 -4385.87 -4374.74 -4357.73 -4342.06 -4330.28 -4318.30 -4297.66 -4251.02 -4130.31 -3926.26 -3252.55 -2536.35 -1847.73 -1336.71 -1290.40 -1337.42 -1375.30 -1317.76 -1200.91 -1065.02 -923.02 -752.57 -546.67 -377.77 -256.13 -189.05 -130.02 -103.40 -57.38 -9.29 24.71 52.71 77.21 90.81 105.10 115.69 107.25 116.92 127.17 137.45 144.27 145.57 145.15 148.70 143.86 152.70 145.11 140.27 109.66 75.28 36.50 -79.37 -300.75 -543.68 -637.81 -1100.35 -1502.50 -2411.25 -2920.12 -3521.26 -3816.46 -3886.48 -3900.91 -3941.05 -3931.80 -3938.00 -3945.82 -3969.12 -3977.95 -3980.41 -3974.74 -3973.34 -3974.12 -3972.24 -3977.59 -3975.12 -3977.33 -3964.06 -3977.26 -3982.46 -3970.13 -3960.95 -3956.17 -3953.38 -3951.46 -3946.55 -3943.00 -3941.15 -3946.58 -3948.85 -3947.89 -3948.51 -3948.18 -3936.49 -3909.92 -3886.04 -3876.52 -3870.07 -3864.42 -3857.04 -3852.19 -3845.75 -3845.81
-4390.22 -4390.15 -4398.39 -4403.94 -4412.28 -4420.16 -4426.88 -4436.08 -4445.53 -4455.56 -4460.47 -4468.12 -4476.41 -4480.44 -4484.80 -4490.03 -4494.07 -4495.76 -4489.82 -4486.75 -4483.32 -4481.51 -4482.18 -4483.97 -4484.58 -4482.27 -4478.09 -4478.12 -4475.23 -4473.78 -4471.21 -4463.66 -4454.49 -4448.43 -4436.37 -4427.26 -4415.52 -4401.45 -4391.52 -4377.96 -4363.16 -4345.08 -4330.91 -4320.46 -4298.83 -4210.18 -4035.26 -3687.37 -2872.91 -1877.74 -1346.18 -893.44 -870.27 -1134.29 -1305.31 -1248.74 -1224.00 -1070.80 -973.97 -771.95 -585.00 -386.32 -284.42 -209.90 -164.41 -137.99 -75.60 -35.62 0.13 10.79 46.19 73.59 81.69 76.69 75.15 95.43 112.57 105.53 119.68 127.71 132.58 119.69 125.59 120.13 121.96 111.26 56.34 15.46 -59.01 -163.11 -379.77 -920.59 -907.86 -1448.14 -1904.50 -2999.55 -3296.58 -3698.54 -3869.26 -3890.12 -3901.05 -3913.28 -3919.01 -3937.49 -3940.77 -3969.70 -3995.82 -3998.14 -3995.17 -3999.04 -3995.65 -3994.18 -3994.86 -3995.01 -3994.44 -3996.19 -3996.72 -3991.39 -3981.77 -3971.64 -3963.42 -3961.18 -3957.90 -3951.55 -3945.31 -3947.38 -3951.54 -3950.98 -3951.76 -3953.24 -3952.54 -3941.20 -3899.18 -3883.37 -3878.62 -3871.83 -3866.54 -3859.01 -3853.14 -3847.11 -3847.17
-4397.09 -4397.02 -4405.66 -4410.28 -4419.04 -4425.58 -4434.35 -4442.98 -4452.36 -4459.28 -4470.01 -4476.80 -4485.46 -4489.35 -4495.08 -4499.59 -4502.38 -4504.45 -4495.53 -4489.14 -4484.31 -4483.96 -4485.58 -4485.57 -4487.93 -4486.97 -4481.29 -4479.37 -4476.90 -4474.65 -4471.78 -4468.37 -4463.58 -4453.65 -4443.63 -4428.57 -4417.41 -4407.00 -4394.78 -4379.23 -4365.36 -4346.60 -4338.10 -4261.57 -4218.01 -3912.01 -3450.36 -2725.31 -2287.86 -1567.90 -933.30 -743.87 -692.64 -785.61 -905.14 -1084.90 -1070.24 -1048.19 -920.24 -749.47 -594.62 -429.27 -277.44 -222.55 -205.32 -188.69 -141.40 -103.13 -66.59 -42.45 -43.01 22.31 57.35 48.47 53.69 64.11 73.30 72.71 91.33 112.45 100.77 92.78 96.85 93.36 90.05 52.05 -17.86 -101.80 -222.42 -313.59 -584.30 -986.33 -1268.14 -1559.24 -2473.49 -3195.05 -3607.23 -3852.25 -3899.04 -3902.63 -3901.96 -3914.53 -3936.17 -3969.79 -3996.50 -4006.10 -4037.52 -4037.43 -4046.34 -4032.71 -4018.77 -4012.19 -4020.05 -4033.16 -4030.73 -4015.95 -4010.48 -4000.00 -3993.30 -3981.97 -3969.30 -3968.85 -3962.62 -3959.77 -3951.60 -3951.96 -3953.38 -3956.72 -3958.35 -3958.53 -3959.69 -3946.86 -3907.88 -3889.03 -3878.86 -3873.08 -3866.70 -3860.46 -3855.02 -3849.36 -3848.60
