-5083.64 -5083.54 -5151.61 -5224.82 -5263.57 -5282.88 -5296.78 -5304.79 -5313.08 -5321.56 -5326.70 -5331.77 -5338.68 -5342.51 -5349.02 -5351.01 -5358.84 -5367.12 -5375.49 -5387.31 -5392.10 -5402.96 -5410.87 -5421.37 -5424.97 -5432.95 -5437.72 -5444.37 -5451.10 -5459.28 -5468.20 -5470.52 -5476.91 -5479.07 -5486.97 -5490.26 -5497.04 -5498.38 -5507.92 -5512.57 -5517.57 -5522.22 -5530.02 -5537.96 -5547.41 -5555.31 -5567.73 -5577.45 -5588.04 -5598.38 -5611.59 -5622.09 -5629.77 -5635.35 -5639.46 -5640.13 -5640.18 -5632.72 -5621.16 -5610.01 -5596.26 -5585.14 -5572.87 -5564.38 -5555.06 -5552.24 -5550.12 -5546.80 -5548.30 -5550.79 -5547.94 -5546.25 -5546.49 -5547.21 -5547.31 -5547.25 -5532.26 -5465.81 -5406.72 -4939.61 -4361.68 -3596.79 -3008.28 -2473.97 -2384.89 -2708.24 -3837.61 -5870.14 -6055.50 -6018.01 -5763.66 -5436.34 -5043.63 -4871.35 -4558.89 -4468.35 -4412.27 -3809.35 -2604.08 -1915.59 -1218.55 -1019.31 -971.48 -1233.17 -2063.01 -3175.23 -3554.96 -5820.73 -8412.26 -9522.10 -10079.37 -10147.75 -10169.90 -10103.12 -9771.19 -8021.79 -6418.79 -4558.37 -4251.88 -4217.78 -4259.35 -4289.94 -4314.11 -4324.21 -4331.66 -4336.36 -4340.45 -4342.20 -4340.50 -4339.40 -4338.20 -4330.57 -4321.37 -4307.84 -4297.88 -4286.64 -4275.26 -4256.11 -4233.47 -4218.99 -4219.03
-5081.69 -5081.60 -5147.57 -5202.50 -5259.06 -5283.25 -5305.20 -5314.03 -5323.63 -5334.24 -5337.40 -5341.81 -5347.51 -5354.47 -5356.18 -5362.39 -5370.90 -5372.80 -5383.80 -5392.89 -5402.34 -5410.66 -5421.75 -5427.44 -5434.37 -5441.40 -5447.74 -5452.15 -5458.57 -5465.87 -5472.06 -5477.80 -5481.10 -5485.09 -5493.64 -5497.42 -5500.90 -5507.70 -5513.45 -5515.49 -5521.79 -5529.20 -5532.86 -5543.68 -5554.18 -5562.89 -5573.47 -5582.79 -5596.26 -5608.11 -5615.26 -5626.75 -5633.50 -5641.26 -5643.75 -5644.74 -5643.83 -5639.89 -5630.61 -5617.70 -5603.91 -5592.32 -5580.89 -5572.08 -5564.46 -5561.62 -5559.91 -5561.85 -5565.71 -5561.15 -5561.50 -5559.46 -5555.31 -5560.80 -5557.68 -5526.16 -5485.43 -5317.27 -5129.36 -4692.86 -4047.14 -3418.44 -2758.62 -2432.02 -2404.81 -2958.90 -4797.81 -5753.95 -6068.45 -5997.51 -5748.69 -5336.51 -4782.57 -4585.71 -4419.88 -4305.02 -4222.75 -3627.00 -2497.48 -1658.05 -1297.15 -796.96 -896.84 -1190.79 -1795.11 -2436.02 -3296.87 -5018.66 -7088.26 -9033.86 -9651.90 -10140.81 -10134.02 -10069.63 -9848.47 -8442.50 -6784.71 -4984.70 -4318.47 -4217.79 -4247.06 -4290.57 -4312.54 -4325.96 -4335.15 -4342.05 -4346.03 -4350.58 -4351.63 -4350.32 -4345.43 -4343.48 -4332.31 -4322.60 -4314.79 -4310.12 -4290.35 -4271.08 -4257.99 -4240.72 -4240.77
-5082.70 -5084.28 -5120.35 -5180.66 -5253.63 -5277.67 -5312.39 -5324.27 -5332.08 -5341.84 -5348.79 -5356.19 -5360.04 -5362.66 -5370.25 -5372.89 -5378.25 -5389.26 -5398.36 -5408.17 -5414.34 -5424.36 -5430.40 -5436.04 -5444.19 -5446.56 -5453.89 -5457.52 -5468.40 -5474.71 -5478.95 -5485.30 -5489.81 -5491.92 -5498.66 -5504.47 -5510.06 -5512.32 -5519.34 -5524.40 -5532.12 -5537.27 -5541.93 -5551.45 -5558.36 -5574.49 -5580.23 -5589.44 -5601.70 -5616.42 -5622.53 -5631.33 -5639.92 -5645.18 -5648.14 -5647.64 -5645.76 -5643.75 -5635.17 -5628.52 -5610.16 -5599.29 -5586.72 -5582.64 -5571.82 -5567.91 -5570.44 -5571.32 -5575.12 -5576.04 -5570.49 -5569.63 -5565.32 -5565.06 -5563.30 -5473.21 -5362.82 -5260.78 -4843.40 -4667.94 -4058.50 -3570.70 -2903.34 -2475.32 -2507.94 -3518.19 -5268.03 -5848.24 -6094.75 -6091.80 -5134.45 -4810.79 -4441.84 -4308.22 -4306.46 -4117.81 -4062.09 -4057.50 -2820.59 -1820.89 -1189.85 -686.64 -684.05 -1310.79 -1742.48 -2193.76 -2932.82 -4584.32 -7046.99 -8418.54 -9490.08 -9911.83 -10069.44 -10014.42 -9938.35 -9378.35 -7450.96 -5602.96 -4382.71 -4232.02 -4243.41 -4298.64 -4311.82 -4327.36 -4338.99 -4349.66 -4351.25 -4353.53 -4357.82 -4359.99 -4355.96 -4351.03 -4347.28 -4341.69 -4331.60 -4320.09 -4315.26 -4295.72 -4281.20 -4263.68 -4262.40
-5087.75 -5089.10 -5105.50 -5142.24 -5247.84 -5264.42 -5312.11 -5332.27 -5342.48 -5353.60 -5356.91 -5363.66 -5369.08 -5374.17 -5380.85 -5385.23 -5391.63 -5399.01 -5407.18 -5415.95 -5422.68 -5430.61 -5436.59 -5443.42 -5450.02 -5455.19 -5461.48 -5466.54 -5472.94 -5479.02 -5484.76 -5491.72 -5493.79 -5499.62 -5503.41 -5508.88 -5515.67 -5519.19 -5525.94 -5528.23 -5536.43 -5540.32 -5551.09 -5559.31 -5566.27 -5576.01 -5585.86 -5596.50 -5611.71 -5618.90 -5628.70 -5637.66 -5644.29 -5647.19 -5651.89 -5650.78 -5647.18 -5644.12 -5635.75 -5628.30 -5615.63 -5604.26 -5597.51 -5588.31 -5584.00 -5582.46 -5581.56 -5581.81 -5585.78 -5585.64 -5584.90 -5578.96 -5580.29 -5574.39 -5537.90 -5431.75 -5240.36 -5065.85 -4743.12 -4383.09 -3947.47 -3594.61 -2938.21 -2506.08 -2654.37 -4174.77 -5005.71 -6078.89 -6015.41 -5819.75 -4498.82 -3129.39 -3405.64 -4081.81 -3976.27 -3961.68 -4010.86 -3965.31 -3454.17 -2014.14 -1137.63 -669.34 -693.65 -1278.84 -1854.25 -2548.75 -3731.70 -5342.51 -6702.92 -8737.85 -9235.95 -9521.95 -9895.40 -9983.03 -9964.49 -9736.89 -8035.60 -5913.06 -4622.99 -4309.49 -4250.41 -4286.01 -4320.20 -4335.40 -4349.80 -4351.77 -4356.66 -4364.27 -4368.23 -4367.38 -4367.54 -4365.49 -4359.13 -4350.99 -4344.83 -4337.93 -4324.14 -4315.57 -4295.47 -4280.74 -4280.48
-5094.15 -5094.07 -5110.24 -5142.61 -5189.60 -5264.75 -5311.90 -5337.03 -5347.41 -5358.34 -5367.18 -5371.45 -5377.16 -5386.26 -5390.51 -5393.73 -5403.08 -5408.97 -5414.35 -5424.48 -5431.35 -5439.37 -5446.48 -5450.09 -5456.51 -5461.49 -5468.04 -5471.54 -5474.77 -5482.56 -5486.82 -5492.39 -5497.07 -5502.06 -5506.75 -5514.02 -5518.10 -5523.78 -5529.93 -5535.98 -5540.84 -5551.07 -5554.57 -5559.57 -5573.84 -5580.93 -5588.04 -5606.92 -5613.87 -5623.81 -5635.81 -5642.02 -5647.49 -5653.27 -5654.41 -5652.65 -5649.68 -5642.78 -5638.96 -5631.73 -5621.30 -5609.76 -5602.56 -5594.45 -5591.88 -5589.38 -5592.24 -5593.06 -5595.39 -5596.16 -5590.23 -5587.78 -5588.21 -5584.80 -5568.37 -5370.53 -5151.20 -4795.01 -4237.30 -4076.50 -3682.36 -3301.65 -2762.06 -2656.82 -3032.30 -4398.79 -5787.45 -5728.05 -4977.05 -4313.99 -2423.14 -2146.77 -3223.29 -3583.82 -3800.31 -3843.11 -3833.78 -3716.49 -3679.20 -2088.00 -1198.54 -793.29 -730.61 -1042.17 -1632.05 -2512.53 -3393.77 -4374.42 -5881.45 -7820.99 -8940.33 -9360.24 -9859.53 -9960.53 -9945.01 -9705.58 -8423.78 -6137.10 -4990.70 -4326.18 -4256.82 -4287.82 -4325.69 -4339.57 -4355.98 -4363.30 -4369.44 -4372.72 -4377.29 -4380.14 -4379.46 -4378.61 -4374.90 -4371.42 -4364.10 -4355.19 -4345.03 -4324.48 -4308.49 -4299.01 -4299.08
-5101.90 -5101.82 -5118.49 -5137.82 -5181.27 -5247.89 -5310.82 -5339.33 -5355.84 -5364.43 -5372.09 -5378.91 -5388.41 -5394.01 -5397.19 -5405.93 -5412.70 -5420.61 -5430.61 -5433.10 -5438.23 -5448.03 -5453.01 -5461.93 -5465.65 -5470.61 -5473.30 -5476.83 -5480.73 -5484.99 -5488.74 -5492.52 -5498.88 -5503.47 -5508.12 -5515.87 -5522.33 -5527.65 -5534.55 -5538.44 -5546.65 -5552.52 -5559.31 -5566.01 -5576.20 -5584.92 -5595.83 -5608.89 -5618.25 -5629.13 -5642.12 -5649.04 -5652.09 -5657.21 -5657.33 -5654.17 -5648.45 -5642.91 -5638.06 -5633.27 -5625.31 -5619.21 -5611.04 -5605.52 -5602.49 -5602.47 -5603.13 -5607.36 -5606.72 -5601.84 -5596.52 -5594.92 -5594.11 -5588.98 -5574.03 -5488.91 -4860.24 -4580.46 -4133.11 -3815.65 -3245.11 -2948.57 -2598.43 -3043.43 -3381.62 -5750.63 -5957.95 -4946.48 -3525.38 -2150.27 -1746.91 -1878.12 -2889.86 -3416.26 -3590.71 -3528.39 -3536.09 -3440.21 -3370.60 -2359.55 -1451.61 -925.12 -789.95 -1045.26 -1568.05 -2250.82 -2835.63 -3332.83 -5250.99 -7497.18 -9055.22 -9589.05 -9907.58 -9913.07 -9881.65 -9777.42 -9059.57 -7722.82 -5115.09 -4430.03 -4272.91 -4297.93 -4331.70 -4352.54 -4370.50 -4376.79 -4378.96 -4387.64 -4391.79 -4397.92 -4395.42 -4393.60 -4388.41 -4386.14 -4379.40 -4374.08 -4361.53 -4351.51 -4337.27 -4315.97 -4316.03
-5107.71 -5109.18 -5121.44 -5141.86 -5180.15 -5231.31 -5296.22 -5336.26 -5358.99 -5371.26 -5379.62 -5386.61 -5393.57 -5400.99 -5407.06 -5416.86 -5421.79 -5427.67 -5433.82 -5439.61 -5445.57 -5451.64 -5461.92 -5468.50 -5470.99 -5473.90 -5477.88 -5483.13 -5483.69 -5485.82 -5489.69 -5493.05 -5500.78 -5504.45 -5510.08 -5518.24 -5524.12 -5531.49 -5537.69 -5543.04 -5549.32 -5557.38 -5563.70 -5571.08 -5584.80 -5591.86 -5603.20 -5612.63 -5624.59 -5637.30 -5644.68 -5651.33 -5658.81 -5659.68 -5659.17 -5655.83 -5649.63 -5644.60 -5639.04 -5635.91 -5629.78 -5620.18 -5616.32 -5611.52 -5609.64 -5611.21 -5613.53 -5612.51 -5612.46 -5606.78 -5603.04 -5601.23 -5597.82 -5592.68 -5580.87 -5512.99 -5148.98 -4405.88 -4002.01 -3677.24 -3194.01 -2753.62 -2536.34 -3531.84 -4898.77 -6446.64 -6028.79 -4293.19 -2790.36 -1234.63 -1063.82 -2162.04 -2735.20 -3185.42 -3424.96 -3325.25 -3325.64 -3235.29 -3110.01 -2613.94 -1640.52 -988.66 -792.39 -980.24 -1670.61 -2353.14 -3193.56 -3944.90 -6147.38 -8316.83 -9148.69 -9565.37 -9891.27 -9867.40 -9822.72 -9743.97 -9217.59 -7659.76 -5410.48 -4495.68 -4298.80 -4317.35 -4342.38 -4363.72 -4378.07 -4388.74 -4391.76 -4399.37 -4401.43 -4407.83 -4415.33 -4411.96 -4411.74 -4406.47 -4398.90 -4391.43 -4381.33 -4367.01 -4348.62 -4334.45 -4334.51
-5112.42 -5112.34 -5124.63 -5141.91 -5173.11 -5208.29 -5276.37 -5328.59 -5362.31 -5374.10 -5387.77 -5394.40 -5406.91 -5410.64 -5419.83 -5423.34 -5432.61 -5437.14 -5443.78 -5448.38 -5453.30 -5461.46 -5466.45 -5471.38 -5475.13 -5479.17 -5482.27 -5484.98 -5485.77 -5489.07 -5491.32 -5495.52 -5501.32 -5507.24 -5511.00 -5521.53 -5526.25 -5534.85 -5541.68 -5548.70 -5555.74 -5563.09 -5571.02 -5577.43 -5589.31 -5597.77 -5610.98 -5613.65 -5634.31 -5639.76 -5651.84 -5658.49 -5662.25 -5663.79 -5662.80 -5659.07 -5652.07 -5647.57 -5640.42 -5637.44 -5635.03 -5634.42 -5632.11 -5625.39 -5627.17 -5624.19 -5624.98 -5622.60 -5621.62 -5616.16 -5614.63 -5612.59 -5599.98 -5569.39 -5546.88 -5458.46 -5205.44 -4668.41 -3906.45 -3496.80 -3162.01 -2796.32 -2710.24 -3317.67 -4513.55 -6910.67 -7002.86 -3840.77 -2029.02 -859.53 -1090.42 -1824.42 -2798.42 -2955.38 -3105.48 -2873.04 -2868.93 -2924.17 -2798.86 -2498.49 -1510.56 -924.49 -663.63 -917.38 -1523.81 -2254.15 -3093.16 -4583.33 -6558.15 -8510.41 -9158.64 -9207.34 -9764.37 -9790.47 -9772.55 -9749.61 -9274.58 -8156.04 -5878.67 -4519.64 -4346.72 -4318.15 -4352.52 -4373.14 -4390.23 -4399.31 -4407.09 -4416.35 -4422.94 -4430.47 -4427.92 -4431.91 -4427.51 -4428.14 -4433.49 -4417.42 -4405.44 -4387.58 -4372.88 -4354.56 -4354.62
-5116.38 -5117.98 -5130.70 -5148.05 -5163.04 -5199.21 -5256.73 -5313.61 -5344.99 -5378.05 -5391.37 -5408.48 -5410.95 -5420.46 -5426.03 -5431.76 -5438.24 -5445.23 -5450.27 -5453.38 -5461.41 -5468.08 -5471.87 -5475.62 -5479.27 -5481.22 -5484.53 -5487.07 -5488.08 -5489.18 -5493.12 -5496.59 -5501.97 -5507.28 -5513.50 -5522.10 -5527.88 -5536.88 -5543.54 -5550.04 -5558.93 -5568.67 -5575.40 -5584.60 -5594.71 -5604.03 -5615.55 -5623.67 -5640.66 -5645.35 -5656.83 -5660.26 -5666.92 -5667.46 -5664.53 -5661.01 -5654.63 -5649.62 -5643.71 -5641.52 -5640.67 -5640.62 -5635.47 -5633.91 -5634.86 -5634.53 -5631.53 -5632.45 -5628.44 -5626.82 -5621.86 -5618.99 -5566.13 -5527.36 -5501.46 -5273.32 -5117.11 -4645.07 -4206.61 -3421.94 -3242.38 -2654.82 -2401.82 -4105.37 -5369.70 -7094.57 -6753.71 -4031.08 -1871.93 -957.73 -1217.89 -1837.59 -2447.93 -2953.60 -2876.27 -2606.85 -2455.62 -2546.42 -2534.56 -2213.47 -1366.25 -841.63 -664.51 -1171.93 -1576.04 -2262.32 -3230.35 -4667.94 -6832.71 -8524.27 -8872.28 -8848.51 -9460.11 -9689.54 -9733.80 -9711.14 -9538.23 -8254.26 -6086.54 -4721.37 -4354.22 -4328.07 -4367.35 -4385.55 -4399.20 -4412.33 -4415.44 -4431.78 -4437.65 -4446.08 -4450.86 -4448.96 -4450.27 -4447.36 -4443.53 -4430.22 -4430.99 -4417.11 -4394.30 -4377.11 -4377.17
-5119.83 -5119.75 -5132.75 -5149.74 -5164.20 -5188.46 -5216.94 -5301.06 -5347.10 -5371.18 -5404.50 -5412.34 -5416.53 -5425.42 -5433.67 -5440.87 -5445.94 -5451.39 -5456.85 -5461.77 -5467.44 -5470.95 -5476.17 -5480.46 -5483.09 -5485.38 -5487.57 -5489.17 -5490.22 -5491.08 -5493.31 -5498.96 -5502.97 -5508.35 -5512.41 -5522.40 -5528.38 -5538.13 -5545.92 -5552.87 -5562.60 -5573.06 -5579.96 -5589.43 -5600.57 -5612.14 -5621.61 -5631.90 -5643.54 -5653.93 -5662.69 -5667.82 -5670.89 -5672.39 -5668.76 -5666.00 -5658.76 -5655.37 -5649.74 -5646.44 -5644.19 -5640.56 -5640.60 -5639.17 -5638.17 -5640.82 -5642.26 -5637.24 -5634.68 -5628.44 -5629.23 -5620.70 -5567.42 -5424.06 -5269.95 -5101.19 -4840.30 -4816.85 -4506.48 -3613.71 -3213.80 -2515.76 -2340.28 -2893.57 -4339.95 -6891.65 -6837.20 -4784.50 -1663.58 -1146.02 -1306.06 -1930.60 -2674.61 -2817.18 -2605.74 -2197.77 -2173.40 -2274.32 -2252.43 -1844.44 -1393.29 -1009.67 -836.52 -1133.21 -1608.32 -2300.19 -3359.44 -3951.67 -6952.97 -8362.51 -8526.20 -8799.92 -9492.05 -9681.33 -9697.04 -9692.95 -9647.22 -8740.72 -7078.96 -4878.63 -4431.51 -4342.71 -4378.48 -4399.94 -4412.15 -4425.42 -4440.63 -4449.76 -4452.81 -4463.57 -4466.36 -4477.83 -4471.96 -4471.42 -4466.13 -4463.55 -4447.32 -4433.61 -4418.65 -4404.64 -4400.95
-5123.58 -5123.51 -5138.37 -5156.16 -5167.62 -5189.70 -5212.34 -5249.97 -5315.51 -5367.55 -5403.86 -5416.72 -5427.35 -5434.63 -5440.96 -5447.37 -5454.89 -5459.86 -5462.55 -5467.88 -5473.92 -5477.42 -5480.07 -5483.93 -5485.26 -5486.89 -5489.37 -5490.26 -5492.40 -5494.92 -5497.28 -5500.64 -5504.11 -5508.72 -5514.31 -5521.57 -5528.64 -5535.97 -5543.11 -5554.56 -5564.15 -5575.09 -5585.69 -5593.79 -5604.24 -5618.89 -5628.99 -5638.34 -5648.65 -5660.77 -5667.29 -5672.40 -5675.09 -5676.30 -5674.23 -5668.17 -5664.12 -5657.86 -5654.18 -5652.20 -5649.10 -5646.53 -5639.46 -5639.19 -5641.57 -5641.39 -5640.12 -5637.56 -5637.26 -5625.11 -5627.14 -5622.58 -5539.05 -5309.00 -5089.05 -4729.12 -4595.31 -4526.07 -4080.30 -3410.68 -2869.06 -2363.24 -2337.45 -2749.93 -5155.80 -6469.88 -6632.68 -4884.11 -1459.19 -1149.37 -1331.89 -1833.70 -2391.12 -2485.32 -2211.17 -1995.45 -1985.28 -1971.76 -1939.66 -1698.73 -1535.32 -919.80 -955.74 -1192.68 -1633.81 -2259.43 -2770.18 -3895.42 -5862.44 -7602.05 -8396.56 -8950.74 -9297.73 -9702.12 -9703.72 -9685.72 -9550.68 -9110.36 -6751.77 -5207.59 -4440.84 -4376.32 -4399.53 -4418.98 -4435.37 -4444.21 -4451.36 -4466.89 -4476.90 -4485.63 -4491.85 -4489.83 -4495.55 -4490.82 -4490.71 -4481.17 -4482.75 -4460.80 -4439.74 -4424.78 -4424.84
-5128.80 -5128.73 -5144.11 -5153.28 -5174.96 -5188.00 -5209.60 -5247.11 -5288.86 -5367.30 -5400.18 -5417.29 -5430.45 -5437.66 -5449.04 -5454.31 -5461.80 -5466.61 -5471.41 -5476.36 -5478.28 -5481.49 -5484.21 -5486.15 -5487.28 -5488.05 -5489.63 -5491.05 -5494.24 -5496.39 -5499.62 -5502.59 -5506.03 -5510.34 -5513.99 -5519.80 -5526.60 -5534.20 -5543.49 -5555.68 -5566.40 -5575.92 -5588.93 -5594.73 -5607.05 -5622.95 -5635.22 -5644.26 -5656.25 -5664.73 -5673.14 -5678.54 -5678.88 -5679.96 -5677.09 -5672.64 -5669.25 -5663.74 -5661.02 -5654.99 -5652.45 -5648.03 -5641.96 -5641.76 -5642.77 -5643.54 -5641.48 -5635.28 -5634.55 -5631.01 -5623.32 -5584.64 -5436.15 -5186.09 -4892.02 -4501.24 -4326.81 -4282.10 -3964.98 -3450.26 -2826.74 -2481.70 -2420.25 -2789.81 -4968.28 -6620.40 -6417.68 -4211.21 -1410.65 -1078.56 -1318.95 -1743.24 -2120.05 -1755.80 -1753.49 -1781.47 -1786.65 -1698.94 -1673.29 -1718.18 -1462.49 -868.34 -870.95 -1462.19 -1828.26 -2535.70 -3179.99 -4415.37 -5465.17 -7339.12 -8656.17 -8944.57 -9408.92 -9694.34 -9685.99 -9661.78 -9562.06 -8894.63 -7843.26 -5357.77 -4629.36 -4440.78 -4412.00 -4435.26 -4451.54 -4456.82 -4466.09 -4478.80 -4492.77 -4499.41 -4512.89 -4513.76 -4517.35 -4513.09 -4513.22 -4508.14 -4495.02 -4485.53 -4466.23 -4447.04 -4447.10
-5132.73 -5134.92 -5145.66 -5163.67 -5178.20 -5194.47 -5219.53 -5238.86 -5293.67 -5346.48 -5380.08 -5398.04 -5409.84 -5436.80 -5451.16 -5463.08 -5468.87 -5475.42 -5476.06 -5481.90 -5486.17 -5487.88 -5489.10 -5490.50 -5491.02 -5491.65 -5492.02 -5492.89 -5495.08 -5498.67 -5500.73 -5503.09 -5506.20 -5510.35 -5514.03 -5519.47 -5524.70 -5530.62 -5542.72 -5555.00 -5565.33 -5579.75 -5587.15 -5603.90 -5615.21 -5627.97 -5644.47 -5651.39 -5660.60 -5674.52 -5679.46 -5683.10 -5685.62 -5684.80 -5682.11 -5676.88 -5673.24 -5668.63 -5662.88 -5658.22 -5651.75 -5647.88 -5645.03 -5644.79 -5644.51 -5646.74 -5643.95 -5632.69 -5630.40 -5633.95 -5629.18 -5578.65 -5361.62 -5053.00 -4596.05 -4447.49 -4194.99 -4127.32 -3670.54 -3413.53 -2837.97 -2527.68 -2452.89 -2857.39 -4855.19 -6467.06 -6025.19 -3529.84 -1539.59 -900.03 -1000.64 -1376.82 -1502.63 -1687.70 -1571.81 -1549.25 -1646.79 -1585.86 -1526.89 -1523.74 -1417.12 -840.66 -1052.12 -1458.99 -1932.32 -2452.89 -3469.14 -4492.85 -5813.94 -7291.97 -8620.39 -8996.11 -9463.09 -9605.74 -9642.74 -9622.41 -9578.67 -9387.04 -7678.71 -5700.21 -4755.83 -4462.94 -4422.10 -4449.90 -4460.36 -4476.33 -4483.75 -4498.56 -4507.40 -4522.36 -4530.24 -4532.91 -4531.01 -4534.89 -4535.63 -4528.93 -4518.60 -4507.89 -4482.93 -4467.25 -4467.31
-5137.07 -5137.00 -5150.31 -5166.59 -5185.64 -5197.42 -5214.97 -5229.40 -5266.12 -5298.92 -5332.57 -5356.44 -5379.74 -5415.49 -5446.99 -5462.92 -5474.24 -5476.78 -5485.11 -5488.95 -5492.38 -5492.49 -5495.62 -5495.24 -5495.56 -5495.93 -5495.93 -5495.86 -5497.96 -5499.81 -5501.57 -5502.68 -5505.20 -5508.42 -5512.70 -5515.29 -5522.76 -5531.40 -5543.67 -5552.57 -5564.74 -5581.45 -5593.79 -5606.46 -5622.55 -5634.98 -5643.87 -5659.31 -5666.32 -5678.80 -5684.65 -5688.84 -5691.00 -5688.65 -5685.63 -5681.73 -5679.55 -5672.03 -5664.38 -5656.53 -5650.19 -5646.55 -5643.97 -5641.69 -5644.92 -5646.46 -5641.91 -5636.85 -5627.82 -5627.16 -5618.97 -5491.32 -5371.51 -5149.97 -4758.67 -4098.05 -4018.15 -3672.22 -3458.99 -3214.47 -3031.35 -2880.29 -2578.62 -2778.29 -5023.50 -6452.25 -5623.32 -2337.98 -831.00 -599.19 -746.71 -1100.89 -1156.58 -1255.83 -1408.81 -1421.47 -1454.67 -1403.81 -1485.53 -1499.09 -1075.82 -849.03 -1117.96 -1445.50 -1951.30 -2409.30 -3379.03 -4567.73 -5710.05 -7711.90 -8807.86 -9096.45 -9266.32 -9602.14 -9594.51 -9592.09 -9559.73 -9273.51 -7539.98 -5849.51 -5046.09 -4487.92 -4445.89 -4467.68 -4479.16 -4495.79 -4503.16 -4511.91 -4524.95 -4533.93 -4543.55 -4544.78 -4552.75 -4549.00 -4545.40 -4538.13 -4527.62 -4516.51 -4503.20 -4483.78 -4483.84
-5142.31 -5142.25 -5157.11 -5173.72 -5190.18 -5201.80 -5219.02 -5236.68 -5253.07 -5278.22 -5287.64 -5306.11 -5327.91 -5399.92 -5421.55 -5458.79 -5477.41 -5485.55 -5491.22 -5494.51 -5498.13 -5499.75 -5501.48 -5500.80 -5500.23 -5501.44 -5500.59 -5499.55 -5500.31 -5501.64 -5502.33 -5502.82 -5505.42 -5506.90 -5511.53 -5515.70 -5520.41 -5531.23 -5540.57 -5550.67 -5571.35 -5582.89 -5599.56 -5609.08 -5627.44 -5638.75 -5650.22 -5665.21 -5674.09 -5684.77 -5690.39 -5694.48 -5695.28 -5693.82 -5691.98 -5684.69 -5681.06 -5677.10 -5660.12 -5653.43 -5650.37 -5648.00 -5642.28 -5639.80 -5639.25 -5640.94 -5634.91 -5633.00 -5626.05 -5617.68 -5609.83 -5497.09 -5278.48 -5134.04 -4657.61 -4184.08 -3821.89 -3442.26 -3235.85 -3133.20 -3033.90 -2838.22 -2831.01 -3013.57 -4547.85 -5477.28 -4555.70 -1466.21 -593.80 -362.82 -532.67 -753.91 -922.45 -1088.50 -1236.21 -1270.59 -1337.63 -1376.53 -1431.66 -1343.27 -881.17 -698.65 -1068.14 -1409.57 -2268.46 -3763.42 -4351.08 -6145.04 -7264.41 -8461.37 -8881.85 -9113.57 -9281.09 -9540.49 -9557.69 -9569.67 -9526.62 -9264.85 -8299.55 -6439.99 -5150.95 -4583.84 -4479.15 -4482.87 -4495.32 -4508.11 -4518.89 -4517.78 -4536.79 -4541.42 -4547.16 -4554.47 -4556.06 -4554.56 -4550.08 -4547.81 -4536.48 -4524.22 -4511.79 -4495.91 -4495.98
-5148.76 -5148.69 -5162.52 -5180.20 -5190.48 -5208.70 -5225.46 -5237.51 -5249.19 -5260.62 -5276.40 -5283.79 -5306.72 -5337.78 -5396.95 -5435.12 -5471.23 -5487.00 -5498.89 -5501.73 -5504.64 -5506.56 -5505.70 -5508.22 -5507.24 -5507.40 -5504.33 -5505.45 -5504.57 -5505.09 -5504.05 -5504.11 -5504.96 -5506.90 -5511.53 -5515.64 -5520.91 -5529.39 -5541.87 -5555.03 -5570.26 -5583.39 -5602.30 -5616.87 -5629.06 -5644.65 -5655.99 -5670.64 -5679.66 -5687.38 -5695.57 -5698.75 -5699.50 -5696.43 -5693.65 -5684.11 -5679.01 -5674.86 -5666.15 -5659.72 -5650.47 -5647.43 -5642.22 -5639.11 -5639.07 -5636.01 -5628.49 -5620.65 -5617.69 -5608.29 -5581.75 -5358.21 -5047.95 -4722.10 -4505.34 -4114.83 -3722.98 -3388.77 -3158.71 -2985.55 -2857.57 -2800.80 -2712.37 -2886.08 -3356.32 -4246.22 -2281.23 -705.71 -191.86 -167.52 -256.66 -642.13 -911.08 -1089.29 -1169.08 -1233.19 -1251.94 -1307.98 -1361.20 -1075.03 -743.74 -596.18 -903.55 -1584.49 -2631.17 -5454.45 -5261.64 -7100.21 -8635.59 -8837.45 -9073.66 -9242.65 -9371.56 -9532.80 -9539.07 -9532.89 -9526.20 -9442.27 -8970.93 -6761.23 -5300.29 -4749.69 -4514.96 -4497.57 -4509.48 -4517.37 -4521.37 -4533.40 -4537.60 -4544.34 -4549.20 -4555.79 -4556.45 -4555.28 -4551.01 -4546.71 -4538.36 -4527.13 -4517.68 -4502.60 -4502.67
-5155.27 -5157.76 -5171.45 -5182.55 -5198.04 -5214.61 -5226.56 -5242.98 -5254.27 -5263.02 -5277.26 -5285.53 -5299.82 -5314.02 -5362.42 -5395.16 -5431.53 -5484.69 -5498.12 -5507.28 -5510.31 -5514.15 -5514.19 -5513.84 -5514.90 -5513.86 -5512.32 -5509.40 -5507.07 -5507.23 -5506.19 -5505.46 -5506.82 -5509.48 -5513.10 -5517.70 -5523.09 -5532.67 -5544.06 -5558.64 -5573.83 -5591.72 -5607.11 -5622.19 -5635.76 -5648.56 -5664.42 -5673.88 -5686.02 -5692.85 -5699.67 -5702.47 -5700.85 -5697.84 -5691.59 -5683.48 -5680.91 -5676.72 -5667.80 -5661.41 -5650.89 -5646.17 -5641.28 -5637.38 -5633.23 -5629.43 -5625.73 -5616.03 -5608.59 -5603.07 -5568.03 -5263.78 -4995.71 -4597.41 -4207.94 -3890.97 -3686.57 -3351.22 -3046.61 -2807.25 -2687.91 -2691.71 -2550.57 -2578.98 -3045.33 -3184.44 -1354.29 -296.13 -7.45 3.98 -83.79 -533.58 -933.37 -1147.71 -1164.50 -1203.80 -1223.14 -1271.84 -1268.89 -1067.61 -568.46 -536.50 -1059.37 -1921.20 -2827.61 -4477.29 -5637.64 -7263.40 -8672.75 -9011.03 -9035.38 -9342.58 -9448.12 -9517.98 -9480.16 -9470.84 -9445.35 -9242.85 -8693.93 -7235.95 -5636.69 -4731.38 -4535.24 -4500.34 -4516.64 -4525.67 -4533.76 -4538.18 -4539.05 -4542.65 -4547.77 -4550.38 -4552.26 -4550.00 -4547.08 -4540.21 -4534.05 -4524.32 -4516.79 -4505.03 -4505.10
-5162.13 -5162.07 -5173.21 -5188.22 -5204.50 -5218.92 -5230.86 -5243.75 -5256.08 -5269.53 -5280.06 -5288.34 -5297.80 -5308.19 -5329.22 -5364.85 -5425.57 -5473.50 -5496.24 -5509.50 -5517.16 -5519.85 -5522.26 -5523.28 -5522.66 -5519.95 -5518.53 -5515.88 -5514.09 -5510.75 -5511.21 -5511.54 -5510.53 -5513.38 -5517.16 -5521.57 -5532.48 -5539.05 -5550.94 -5565.15 -5581.14 -5596.18 -5613.65 -5626.67 -5642.37 -5653.66 -5672.75 -5681.79 -5693.52 -5697.54 -5703.36 -5704.19 -5704.52 -5697.45 -5692.19 -5683.96 -5680.26 -5673.49 -5669.05 -5658.92 -5654.12 -5645.31 -5640.50 -5633.90 -5630.17 -5627.23 -5622.09 -5615.35 -5609.36 -5587.98 -5514.45 -5281.59 -4824.57 -4653.30 -4093.05 -3649.08 -3458.93 -3086.04 -2839.15 -2602.25 -2226.31 -2236.16 -2259.37 -2114.10 -2100.54 -1595.00 -807.12 -11.35 1.99 -4.29 -46.91 -381.83 -904.54 -1057.90 -1165.22 -1165.32 -1206.35 -1236.83 -1204.31 -1027.68 -718.19 -872.06 -1204.67 -1909.73 -3319.01 -3933.15 -5258.12 -5808.44 -6167.26 -7258.93 -9017.08 -9211.75 -9424.57 -9458.47 -9424.39 -9459.80 -9384.03 -9225.25 -8807.82 -7637.49 -5798.02 -4846.11 -4542.61 -4504.48 -4520.12 -4534.32 -4537.92 -4539.84 -4538.17 -4541.74 -4544.93 -4543.88 -4541.28 -4537.26 -4534.79 -4526.99 -4525.30 -4517.79 -4511.48 -4503.44 -4502.71
-5171.94 -5174.62 -5185.58 -5196.81 -5211.16 -5228.06 -5237.33 -5252.90 -5262.11 -5274.43 -5283.23 -5292.33 -5301.41 -5309.48 -5327.86 -5338.65 -5371.96 -5424.76 -5479.26 -5513.96 -5523.83 -5527.05 -5530.38 -5529.01 -5528.37 -5528.89 -5527.45 -5525.04 -5520.94 -5517.56 -5515.96 -5515.67 -5518.05 -5520.29 -5523.18 -5528.63 -5535.37 -5548.01 -5561.69 -5572.07 -5587.34 -5601.97 -5615.57 -5635.61 -5650.29 -5662.54 -5676.12 -5689.21 -5696.83 -5702.33 -5705.61 -5708.46 -5709.10 -5701.27 -5696.11 -5687.38 -5683.78 -5674.64 -5668.14 -5659.85 -5650.83 -5645.71 -5639.27 -5633.03 -5625.69 -5618.89 -5613.12 -5610.34 -5602.05 -5581.78 -5476.58 -5214.39 -4865.14 -4429.61 -4095.25 -3547.06 -3277.43 -3064.68 -2683.40 -2153.23 -2007.42 -2099.97 -2051.54 -1702.97 -1660.15 -1074.79 -265.48 -14.54 2.34 0.55 -57.74 -103.83 -437.39 -891.94 -1097.15 -1132.39 -1194.27 -1226.51 -1250.14 -908.53 -762.88 -1040.27 -1376.54 -1881.61 -2613.56 -3565.50 -4433.70 -5033.43 -5668.03 -6929.63 -8553.94 -9045.94 -9332.29 -9350.09 -9338.91 -9333.57 -9321.11 -9239.86 -9068.15 -7504.75 -5820.62 -4903.57 -4571.06 -4504.04 -4521.56 -4537.40 -4539.26 -4537.76 -4535.18 -4534.46 -4535.29 -4534.11 -4531.22 -4527.56 -4522.54 -4513.96 -4510.02 -4507.79 -4502.48 -4494.99 -4495.07
-5183.22 -5185.92 -5194.96 -5207.60 -5220.25 -5229.36 -5244.95 -5254.47 -5268.59 -5277.34 -5288.73 -5297.97 -5304.60 -5311.52 -5322.41 -5336.24 -5351.68 -5388.17 -5442.16 -5492.74 -5519.89 -5529.76 -5534.19 -5536.37 -5536.06 -5534.45 -5532.09 -5529.49 -5527.80 -5525.41 -5523.43 -5524.39 -5526.14 -5530.43 -5530.27 -5536.48 -5545.85 -5555.09 -5567.92 -5581.49 -5593.08 -5614.95 -5625.18 -5642.20 -5657.35 -5670.77 -5683.23 -5690.70 -5701.52 -5705.97 -5709.60 -5710.84 -5711.39 -5706.26 -5702.43 -5694.01 -5688.94 -5676.81 -5671.67 -5660.68 -5653.72 -5647.94 -5640.11 -5631.91 -5627.68 -5619.17 -5615.81 -5607.53 -5595.89 -5535.88 -5424.44 -5072.71 -4774.87 -4323.17 -3907.42 -3339.67 -3062.44 -2666.19 -2397.12 -2109.66 -1737.00 -1365.35 -1499.02 -1300.88 -1046.12 -526.64 -124.40 -0.06 9.91 7.52 9.00 2.73 -317.87 -745.65 -1088.22 -938.60 -779.67 -931.06 -1049.17 -780.56 -656.14 -728.82 -1099.69 -1815.66 -2552.69 -3618.00 -4194.73 -5080.45 -6129.73 -7427.77 -8944.74 -8958.46 -9166.41 -9219.13 -9232.93 -9254.43 -9240.77 -9204.61 -8974.48 -8129.55 -5789.42 -4949.30 -4565.61 -4526.97 -4520.64 -4538.10 -4537.47 -4535.57 -4528.20 -4523.47 -4526.36 -4517.81 -4513.05 -4508.87 -4504.70 -4501.73 -4498.11 -4491.97 -4488.92 -4483.51 -4483.59
-5195.25 -5195.20 -5203.24 -5214.57 -5229.57 -5239.21 -5251.95 -5260.68 -5273.56 -5278.44 -5291.55 -5301.24 -5306.90 -5316.49 -5323.54 -5334.06 -5347.20 -5366.74 -5406.38 -5461.76 -5515.59 -5533.76 -5538.08 -5541.07 -5542.63 -5541.50 -5540.31 -5538.40 -5535.31 -5535.38 -5534.09 -5531.80 -5533.73 -5535.30 -5541.18 -5546.85 -5558.22 -5563.58 -5581.26 -5589.01 -5598.58 -5619.86 -5629.11 -5649.79 -5661.96 -5678.43 -5686.69 -5699.64 -5707.46 -5710.84 -5713.38 -5716.01 -5715.00 -5713.00 -5704.50 -5699.82 -5690.99 -5683.30 -5678.50 -5667.85 -5656.04 -5649.83 -5642.37 -5634.56 -5625.81 -5620.55 -5616.11 -5606.95 -5578.81 -5497.76 -5362.02 -5148.29 -4659.51 -4232.08 -3727.49 -3397.67 -2766.07 -2545.15 -2119.23 -1790.57 -1536.20 -1284.79 -1172.86 -899.82 -820.51 -463.37 -44.75 8.85 17.43 18.24 19.57 12.22 -142.69 -398.26 -607.43 -430.56 -474.18 -694.79 -915.68 -346.16 -206.23 -392.87 -1253.30 -1712.81 -2452.41 -3484.13 -4325.33 -5260.19 -6714.35 -7738.26 -8842.10 -8910.65 -9014.59 -9136.36 -9180.87 -9169.38 -9134.63 -9142.84 -8838.18 -7785.19 -6342.07 -4924.85 -4693.54 -4528.13 -4519.67 -4527.96 -4530.18 -4529.90 -4521.77 -4520.20 -4511.95 -4506.45 -4505.10 -4496.36 -4488.90 -4479.02 -4477.45 -4474.76 -4473.11 -4469.94 -4470.86
-5207.54 -5207.48 -5219.86 -5226.40 -5235.41 -5243.72 -5258.47 -5267.31 -5277.38 -5285.33 -5296.76 -5302.05 -5309.71 -5315.65 -5327.66 -5334.98 -5346.34 -5362.62 -5380.02 -5434.40 -5490.37 -5520.93 -5541.05 -5545.71 -5548.55 -5548.97 -5548.30 -5547.58 -5546.44 -5542.47 -5540.33 -5540.45 -5543.13 -5546.58 -5549.58 -5557.93 -5564.97 -5578.66 -5586.44 -5600.48 -5612.76 -5630.48 -5643.43 -5658.84 -5671.27 -5683.28 -5695.83 -5705.88 -5712.29 -5714.71 -5719.29 -5720.55 -5719.46 -5717.11 -5713.78 -5704.89 -5698.25 -5688.82 -5679.38 -5668.66 -5658.29 -5651.95 -5645.18 -5636.94 -5626.70 -5620.81 -5614.08 -5600.67 -5547.48 -5455.62 -5268.70 -5095.08 -4718.20 -4196.11 -3878.19 -3576.57 -3052.80 -2765.91 -2127.29 -1734.76 -1371.39 -1136.15 -985.19 -554.97 -384.84 -9.88 -6.26 13.76 29.87 27.46 27.02 29.04 6.47 -93.21 -129.30 -128.11 -125.79 -377.13 -421.39 -223.31 -166.45 -474.03 -989.97 -2060.91 -2687.54 -3164.70 -4419.45 -5363.27 -6601.40 -7989.25 -8762.48 -8856.14 -9025.34 -9032.53 -9076.26 -9041.24 -9021.34 -9033.88 -8821.01 -7905.36 -5881.25 -4887.75 -4672.65 -4529.11 -4526.31 -4529.48 -4531.47 -4525.84 -4519.24 -4509.56 -4501.41 -4492.92 -4487.53 -4480.14 -4466.04 -4471.01 -4462.54 -4459.15 -4458.16 -4456.01 -4456.08
-5219.33 -5222.04 -5228.67 -5236.01 -5244.21 -5252.09 -5266.70 -5274.32 -5281.35 -5292.67 -5299.31 -5305.64 -5312.66 -5320.12 -5328.02 -5334.24 -5343.42 -5354.57 -5367.72 -5400.56 -5454.84 -5515.71 -5535.80 -5545.86 -5554.39 -5554.78 -5555.46 -5553.94 -5552.48 -5549.45 -5552.21 -5552.34 -5552.90 -5556.07 -5565.48 -5569.49 -5577.92 -5587.70 -5599.86 -5613.94 -5631.71 -5643.03 -5652.59 -5669.11 -5684.77 -5695.00 -5705.69 -5713.08 -5719.72 -5725.25 -5725.30 -5726.21 -5725.45 -5723.75 -5717.65 -5712.52 -5701.73 -5693.04 -5681.31 -5673.24 -5662.88 -5653.74 -5645.14 -5634.86 -5623.82 -5615.49 -5609.84 -5600.62 -5501.03 -5385.93 -5146.03 -5007.18 -4602.03 -4270.11 -3897.83 -3519.46 -3058.71 -2620.73 -2293.73 -1760.20 -1200.41 -769.85 -533.32 -119.85 -22.05 5.46 20.37 25.43 38.53 37.87 46.49 53.16 31.91 12.88 3.04 -13.17 -37.01 -51.76 -164.48 -108.05 -209.49 -492.63 -1235.31 -1947.93 -2626.12 -3553.99 -4496.48 -5442.77 -6676.88 -8114.01 -8653.53 -8836.52 -8989.16 -8954.25 -8920.01 -8893.66 -8874.84 -8859.93 -8775.22 -7966.87 -5952.84 -4776.17 -4587.46 -4522.83 -4525.11 -4526.74 -4528.62 -4519.20 -4511.48 -4501.17 -4491.91 -4484.53 -4472.97 -4461.69 -4454.36 -4446.97 -4442.23 -4439.17 -4439.82 -4438.61 -4439.96
-5230.62 -5231.25 -5235.18 -5243.56 -5254.41 -5261.84 -5270.82 -5277.57 -5290.28 -5295.55 -5302.71 -5308.25 -5315.35 -5324.09 -5329.02 -5338.54 -5342.91 -5355.64 -5363.71 -5383.75 -5417.90 -5488.77 -5528.99 -5549.41 -5559.48 -5561.58 -5561.16 -5560.51 -5558.03 -5559.34 -5558.65 -5559.74 -5565.60 -5569.71 -5571.37 -5585.71 -5592.57 -5605.22 -5615.69 -5628.14 -5641.54 -5654.08 -5669.95 -5679.01 -5697.00 -5704.79 -5715.37 -5722.36 -5728.13 -5732.15 -5736.53 -5733.54 -5732.12 -5729.42 -5722.44 -5715.36 -5707.06 -5690.06 -5684.85 -5677.07 -5668.34 -5657.67 -5650.03 -5639.77 -5629.43 -5616.65 -5610.61 -5596.31 -5529.74 -5443.36 -5137.87 -4970.44 -4717.66 -4365.64 -4080.66 -3501.81 -2907.76 -2543.37 -2173.53 -1739.39 -839.45 -469.70 -119.80 -27.36 -5.93 25.10 42.11 50.43 66.14 68.40 73.64 85.83 70.73 49.11 27.99 -2.76 -14.40 -17.57 -49.37 -67.27 -171.26 -655.44 -1234.87 -2091.76 -2974.02 -3693.32 -4343.38 -5858.99 -6753.30 -7762.94 -8332.96 -8623.86 -8843.12 -8747.77 -8761.72 -8787.64 -8756.41 -8703.39 -8640.90 -6668.03 -5666.34 -4616.96 -4492.26 -4496.02 -4524.42 -4526.66 -4524.07 -4515.73 -4504.99 -4491.02 -4479.29 -4469.41 -4452.53 -4446.61 -4438.24 -4428.21 -4425.63 -4425.92 -4428.00 -4423.04 -4423.12
-5242.34 -5244.35 -5249.22 -5255.57 -5262.13 -5269.43 -5276.28 -5286.25 -5293.15 -5298.72 -5304.28 -5310.29 -5318.13 -5324.03 -5330.95 -5338.97 -5346.01 -5357.15 -5365.22 -5378.27 -5395.26 -5454.92 -5503.65 -5548.57 -5565.06 -5567.65 -5568.28 -5569.25 -5568.92 -5566.41 -5566.20 -5568.26 -5576.97 -5582.33 -5585.16 -5594.52 -5602.36 -5614.35 -5626.64 -5643.32 -5655.57 -5678.67 -5685.41 -5698.72 -5713.02 -5723.08 -5734.44 -5732.77 -5742.00 -5741.59 -5741.79 -5740.38 -5739.65 -5734.97 -5728.72 -5718.97 -5712.77 -5701.64 -5693.48 -5680.24 -5671.81 -5664.93 -5650.86 -5646.01 -5631.61 -5621.85 -5606.09 -5589.92 -5503.97 -5404.26 -5126.99 -4931.42 -4620.20 -4191.86 -3497.36 -2919.11 -2623.06 -2195.28 -1932.96 -1175.73 -461.85 -151.53 -15.74 -6.74 19.04 47.69 70.97 78.92 92.30 105.88 123.60 113.21 96.58 98.89 75.00 34.41 4.41 9.31 -12.43 -26.48 -157.12 -538.85 -1334.99 -1997.10 -2688.35 -3575.72 -4547.34 -5715.27 -7009.77 -7713.76 -7865.92 -8020.45 -8548.98 -8612.77 -8612.62 -8592.79 -8550.27 -8586.26 -8369.07 -7005.25 -5351.15 -4550.50 -4445.25 -4482.48 -4497.36 -4526.03 -4521.70 -4509.53 -4497.28 -4481.76 -4470.89 -4450.86 -4442.24 -4432.19 -4423.61 -4416.61 -4413.44 -4410.32 -4408.84 -4405.67 -4405.74
-5253.84 -5253.79 -5255.99 -5263.05 -5268.37 -5278.47 -5286.15 -5291.94 -5298.26 -5302.97 -5309.11 -5315.14 -5320.34 -5325.48 -5334.07 -5341.94 -5349.31 -5358.25 -5366.79 -5377.10 -5392.52 -5427.62 -5464.92 -5537.24 -5562.96 -5573.69 -5576.03 -5575.18 -5575.18 -5573.93 -5573.52 -5578.49 -5584.13 -5586.82 -5589.88 -5578.75 -5573.73 -5606.27 -5620.87 -5641.21 -5653.46 -5677.34 -5692.64 -5708.63 -5723.24 -5733.59 -5745.01 -5749.35 -5754.25 -5751.16 -5751.86 -5749.31 -5746.08 -5739.46 -5734.94 -5725.92 -5717.27 -5703.69 -5696.98 -5686.81 -5675.47 -5672.00 -5663.09 -5649.10 -5635.11 -5627.95 -5604.00 -5582.13 -5528.45 -5439.53 -5068.68 -4728.28 -4229.29 -4024.58 -3366.60 -2848.33 -2476.99 -2109.43 -1705.42 -797.46 -151.00 -12.51 -5.40 22.76 59.61 76.37 82.53 88.58 116.73 134.76 132.74 129.35 126.91 114.91 91.46 70.88 74.42 39.60 4.26 -24.55 -84.32 -240.28 -888.42 -956.71 -2031.67 -3478.28 -3969.13 -5806.90 -6228.28 -6825.98 -7455.54 -7793.62 -8210.26 -8415.32 -8449.65 -8416.60 -8391.81 -8389.71 -8047.64 -6826.21 -5215.24 -4529.06 -4393.00 -4459.49 -4491.07 -4517.31 -4516.29 -4498.32 -4487.40 -4476.36 -4456.96 -4445.43 -4431.13 -4418.94 -4411.93 -4398.80 -4394.33 -4386.24 -4388.95 -4389.78 -4389.86
-5265.33 -5265.28 -5268.31 -5278.26 -5281.98 -5286.50 -5291.04 -5297.24 -5302.40 -5309.87 -5312.55 -5319.00 -5323.83 -5330.59 -5335.86 -5345.40 -5352.03 -5360.97 -5369.19 -5378.03 -5390.35 -5411.09 -5464.15 -5484.39 -5564.65 -5580.79 -5579.44 -5581.15 -5579.97 -5576.83 -5574.61 -5570.61 -5568.14 -5566.41 -5532.69 -5513.67 -5472.16 -5431.57 -5509.21 -5537.02 -5609.19 -5642.49 -5664.15 -5685.19 -5718.27 -5727.19 -5753.52 -5756.39 -5763.50 -5761.90 -5758.69 -5751.69 -5754.51 -5746.00 -5738.00 -5730.43 -5724.32 -5709.14 -5699.66 -5686.23 -5680.24 -5671.03 -5666.23 -5653.70 -5641.21 -5631.07 -5615.37 -5584.34 -5521.79 -5318.54 -4984.99 -4413.55 -4052.57 -3622.87 -3412.91 -2719.71 -2365.78 -2049.55 -1147.89 -574.54 -12.89 4.71 23.43 45.72 57.69 86.38 115.87 133.72 154.25 155.99 159.39 163.98 149.93 146.85 132.56 96.03 85.83 63.91 39.47 -21.78 -46.41 -101.44 -269.25 -535.04 -1382.71 -2206.06 -2316.30 -3699.47 -3531.42 -4588.01 -5938.27 -7247.51 -7970.27 -8172.92 -8258.45 -8038.58 -8036.48 -8047.00 -7740.63 -6640.96 -5171.88 -4318.30 -4315.94 -4389.87 -4473.90 -4503.82 -4508.90 -4490.81 -4483.58 -4466.28 -4448.00 -4434.61 -4414.46 -4411.88 -4393.71 -4387.33 -4383.21 -4376.46 -4374.11 -4372.52 -4373.84
-5278.99 -5278.94 -5286.47 -5289.71 -5291.82 -5295.55 -5299.55 -5304.77 -5312.94 -5312.31 -5319.27 -5323.81 -5329.17 -5333.41 -5339.95 -5347.73 -5355.24 -5366.57 -5373.79 -5383.11 -5391.27 -5404.14 -5421.39 -5471.50 -5540.42 -5561.48 -5560.26 -5575.73 -5566.27 -5545.35 -5531.50 -5524.79 -5464.60 -5457.69 -5392.26 -5147.08 -4771.51 -4968.02 -5092.65 -5110.67 -5348.80 -5459.90 -5499.49 -5585.09 -5641.01 -5678.65 -5735.81 -5747.78 -5760.40 -5756.11 -5760.81 -5759.64 -5759.61 -5752.56 -5744.01 -5735.64 -5725.71 -5714.43 -5705.46 -5695.78 -5684.05 -5673.41 -5665.61 -5657.04 -5651.32 -5639.55 -5627.69 -5591.64 -5476.01 -5287.71 -4889.43 -4397.08 -4045.60 -3563.66 -3233.49 -2728.85 -2331.78 -2042.34 -895.51 -223.19 -8.71 7.19 46.37 72.53 87.12 103.89 135.36 155.87 172.64 187.08 201.21 218.76 230.76 166.94 144.95 171.56 122.76 66.74 35.61 -15.55 -40.32 -130.23 -511.49 -328.10 -254.90 -660.56 -1069.10 -1247.68 -1237.28 -2326.05 -4409.34 -6516.41 -7360.70 -7970.50 -8001.56 -7853.32 -7406.60 -7461.77 -7212.69 -6403.33 -4614.17 -4154.36 -4191.13 -4305.39 -4462.01 -4503.57 -4504.52 -4491.97 -4470.98 -4458.03 -4438.07 -4426.28 -4405.56 -4395.32 -4383.83 -4373.97 -4364.76 -4361.46 -4363.57 -4357.83 -4357.91
-5303.82 -5306.48 -5303.41 -5305.70 -5302.30 -5311.23 -5312.12 -5314.40 -5317.91 -5322.74 -5328.61 -5331.12 -5335.88 -5344.75 -5344.38 -5358.17 -5361.25 -5377.12 -5380.88 -5389.89 -5396.86 -5397.38 -5371.54 -5333.32 -5379.20 -5437.64 -5504.87 -5517.47 -5524.10 -5512.67 -5481.53 -5407.46 -5089.34 -4883.83 -4653.76 -4298.52 -3636.97 -3474.15 -3821.10 -4053.44 -4345.20 -4401.76 -4892.93 -5263.93 -5263.56 -5637.88 -5688.85 -5711.89 -5718.64 -5733.81 -5736.83 -5749.10 -5759.33 -5757.72 -5749.14 -5739.85 -5731.51 -5719.86 -5711.11 -5698.16 -5688.23 -5674.79 -5665.21 -5651.01 -5648.96 -5648.12 -5614.26 -5579.60 -5446.52 -5304.46 -5010.33 -4583.80 -4126.27 -3501.48 -3295.03 -2711.31 -2345.17 -2020.42 -670.49 -51.50 4.36 45.85 86.00 102.58 126.10 139.36 214.69 342.57 411.62 457.87 464.48 308.25 310.93 408.73 357.52 374.26 116.69 83.96 45.64 -13.45 -36.67 -497.36 -1468.11 -712.28 -824.71 -646.97 -443.14 -437.25 -514.01 -725.75 -1289.68 -4772.73 -6632.81 -7777.68 -7778.61 -7546.99 -7062.55 -6922.82 -6603.28 -5765.55 -4930.21 -3887.97 -3997.76 -4278.86 -4413.75 -4499.99 -4499.72 -4483.26 -4464.91 -4444.15 -4426.65 -4413.89 -4394.18 -4383.18 -4370.35 -4362.11 -4351.33 -4344.48 -4348.96 -4342.50 -4342.57
-5359.33 -5359.33 -5370.50 -5345.24 -5351.50 -5355.59 -5340.90 -5340.22 -5337.14 -5345.67 -5341.30 -5341.43 -5347.62 -5349.96 -5364.59 -5369.17 -5380.38 -5395.32 -5400.25 -5407.09 -5401.73 -5381.03 -5339.82 -5075.30 -4758.40 -4665.24 -5058.27 -5237.66 -5202.06 -5383.32 -5242.31 -4831.85 -4550.44 -4106.85 -3533.64 -3021.48 -2673.53 -2676.38 -2869.61 -2863.78 -3038.81 -3729.22 -3664.18 -4264.58 -4624.51 -5070.02 -5645.02 -5639.75 -5673.19 -5675.51 -5713.34 -5729.73 -5745.79 -5749.09 -5747.35 -5743.26 -5734.58 -5726.22 -5718.02 -5708.48 -5696.21 -5679.72 -5670.14 -5645.12 -5637.06 -5635.72 -5611.38 -5544.46 -5381.01 -5065.62 -4738.12 -4229.07 -3922.77 -3606.56 -3041.50 -2501.04 -2034.37 -1100.38 -439.82 -37.01 24.55 64.08 92.75 128.55 148.28 218.86 477.91 622.08 714.98 883.56 808.00 664.19 672.46 798.32 691.55 566.86 225.40 117.50 51.97 -11.74 -38.66 -262.39 -2800.14 -2202.62 -2026.56 -1643.74 -1776.42 -722.45 -637.62 -558.63 -1101.66 -2904.34 -6118.44 -7067.14 -7158.85 -6730.07 -6485.47 -6204.16 -6028.85 -5718.99 -4531.26 -3921.54 -3911.60 -4159.79 -4317.21 -4488.08 -4488.03 -4473.37 -4462.96 -4438.14 -4414.80 -4401.86 -4378.51 -4373.11 -4355.74 -4346.09 -4338.96 -4336.47 -4331.98 -4328.04 -4328.12
-5467.63 -5476.62 -5475.75 -5468.08 -5439.53 -5406.43 -5403.08 -5371.58 -5395.03 -5407.38 -5376.15 -5382.75 -5386.32 -5383.14 -5395.87 -5407.21 -5440.54 -5450.09 -5453.14 -5449.65 -5429.16 -5353.70 -4973.55 -4401.82 -3676.18 -3811.04 -3825.32 -4509.48 -4582.37 -4829.11 -4583.77 -3881.53 -3264.82 -2975.57 -2642.54 -2275.91 -2097.13 -2103.12 -2233.84 -2239.04 -2292.80 -2508.40 -2869.82 -3241.93 -3886.26 -4531.18 -5136.77 -5463.59 -5504.71 -5410.44 -5535.25 -5635.98 -5721.85 -5689.09 -5729.23 -5734.74 -5733.86 -5731.76 -5723.53 -5718.38 -5710.51 -5693.90 -5681.46 -5650.05 -5636.99 -5619.46 -5593.02 -5556.25 -5324.21 -4925.81 -4431.44 -4174.08 -4019.75 -3970.14 -3174.37 -1899.45 -792.39 -194.71 -109.07 -21.62 25.48 70.07 102.56 145.64 188.13 279.87 485.65 824.42 1122.75 1293.48 1189.48 1127.50 1274.99 1186.01 1367.79 941.48 398.36 124.64 44.26 -9.08 -29.33 -597.74 -3488.59 -3979.72 -3713.74 -3194.21 -2432.20 -1792.00 -1054.46 -948.28 -1315.30 -3080.66 -4888.49 -6219.22 -6029.76 -5960.14 -5870.43 -5862.57 -5512.92 -5276.99 -4582.11 -3879.80 -3897.45 -4213.09 -4373.17 -4456.47 -4478.13 -4465.72 -4450.74 -4430.94 -4409.83 -4381.72 -4368.33 -4358.05 -4343.89 -4334.70 -4325.81 -4323.34 -4315.74 -4313.57 -4311.07
-5665.21 -5642.38 -5608.77 -5601.71 -5554.72 -5539.73 -5516.55 -5491.55 -5443.13 -5466.43 -5449.32 -5436.37 -5447.56 -5476.13 -5538.49 -5511.41 -5549.31 -5528.99 -5521.30 -5506.39 -5470.60 -5332.74 -4603.91 -3549.36 -2835.93 -2724.11 -3159.24 -3469.77 -3374.48 -3761.64 -3916.39 -3290.44 -2451.68 -2173.65 -2052.01 -1823.20 -1311.91 -1501.78 -1415.07 -1944.25 -1357.64 -2255.83 -2810.72 -2780.36 -2964.02 -3449.88 -4485.34 -4917.39 -4929.43 -4980.01 -5173.72 -5454.53 -5418.91 -5539.89 -5645.19 -5722.76 -5710.02 -5725.74 -5706.85 -5710.52 -5711.46 -5702.31 -5688.56 -5666.37 -5629.38 -5615.92 -5448.47 -5428.12 -5238.66 -4794.22 -4337.48 -3929.93 -3830.39 -3451.39 -2354.14 -660.78 -197.14 -32.95 -15.08 25.95 61.27 88.85 125.01 163.83 196.57 244.97 299.62 685.82 1045.05 1110.86 1402.34 1532.43 1583.30 1495.75 1476.92 780.51 522.97 107.33 50.93 15.57 -24.82 -459.07 -3825.17 -4770.26 -4771.98 -4250.82 -3523.89 -2922.43 -2356.25 -1903.70 -1361.93 -1810.70 -2236.93 -3166.19 -3325.94 -3157.11 -4956.48 -5000.39 -4652.87 -4733.11 -4520.91 -4115.06 -3974.73 -4158.86 -4412.33 -4460.14 -4467.20 -4452.32 -4432.65 -4408.24 -4388.00 -4369.55 -4364.93 -4341.63 -4332.16 -4320.22 -4314.27 -4304.61 -4302.06 -4296.35 -4296.40
-5831.39 -5831.21 -5767.18 -5745.88 -5723.96 -5731.88 -5726.33 -5677.75 -5653.43 -5606.28 -5576.72 -5542.63 -5618.72 -5626.38 -5646.67 -5643.97 -5631.14 -5696.51 -5695.79 -5661.26 -5546.60 -5306.47 -4429.93 -3588.52 -2422.18 -2311.60 -2311.51 -2474.56 -2596.75 -2887.44 -2891.85 -2592.08 -2234.60 -1690.51 -1253.20 -613.25 -466.13 -188.23 -163.23 -441.74 -382.31 -1649.96 -1681.66 -1162.02 -1485.59 -1860.20 -2836.94 -3603.55 -4101.32 -3851.85 -3963.35 -4284.38 -4558.06 -4718.62 -5207.88 -5478.71 -5683.04 -5598.62 -5419.04 -5574.00 -5654.33 -5684.42 -5597.71 -5565.94 -5443.45 -5194.78 -5197.06 -4540.95 -4214.06 -3819.46 -3281.27 -3373.46 -3548.75 -1939.23 -761.45 -158.06 19.97 26.91 19.07 45.82 87.05 106.78 143.45 168.25 228.42 258.54 297.13 452.64 538.44 733.18 906.26 1157.42 1308.65 1534.53 1570.92 902.26 688.58 163.23 120.72 49.55 4.80 -58.80 -2713.08 -5569.30 -5241.94 -4587.70 -4360.36 -4280.07 -3909.99 -2893.85 -2092.98 -1548.85 -1516.08 -1616.96 -1789.35 -2160.74 -2932.93 -3239.89 -3693.79 -4543.42 -4538.25 -4191.28 -3895.11 -4111.75 -4370.16 -4435.71 -4451.32 -4434.89 -4411.00 -4393.94 -4366.96 -4360.86 -4341.61 -4329.54 -4317.78 -4304.44 -4297.50 -4290.86 -4285.85 -4283.09 -4280.95
-5936.71 -5936.59 -5941.93 -5879.59 -5847.33 -5837.82 -5818.17 -5793.56 -5818.36 -5791.38 -5770.10 -5735.38 -5750.98 -5778.25 -5793.15 -5863.55 -5874.38 -5941.02 -5853.89 -5827.83 -5732.06 -5318.25 -4259.83 -3297.31 -2442.71 -2343.33 -2348.81 -2310.89 -2230.41 -2340.12 -2401.71 -2428.90 -1532.99 -697.74 -476.41 -270.77 -69.25 -52.14 -56.14 -90.02 -27.46 -32.37 -292.48 -40.08 -32.57 -570.82 -1317.56 -2353.49 -3121.24 -3099.88 -3189.06 -3265.06 -3545.53 -3768.74 -4563.38 -5212.13 -5273.56 -5198.20 -5071.49 -5088.34 -5233.69 -4898.70 -5212.59 -5219.55 -4856.29 -4484.40 -4470.36 -3643.04 -3513.35 -2692.94 -2675.24 -2487.02 -1325.80 -379.19 -102.48 36.89 66.88 77.37 68.51 78.34 113.17 125.04 162.24 202.27 237.31 271.23 292.49 347.54 417.85 496.02 586.25 713.47 943.03 1244.65 1479.19 1352.97 976.99 677.59 320.87 78.54 4.61 -41.73 -2612.57 -5144.65 -4710.18 -4738.24 -4507.01 -4605.26 -4700.61 -4168.33 -3380.08 -2752.03 -1725.10 -1327.08 -1186.30 -1168.62 -1912.42 -2211.83 -3163.42 -4179.48 -4267.22 -4110.82 -3946.44 -4085.59 -4239.50 -4397.74 -4424.61 -4419.54 -4394.44 -4373.89 -4356.62 -4337.10 -4321.66 -4314.20 -4302.22 -4288.08 -4283.08 -4279.89 -4271.08 -4263.91 -4263.96
-5985.52 -5985.43 -5987.72 -5963.34 -5964.52 -5965.44 -5954.32 -5938.44 -5951.42 -5939.65 -5906.66 -5926.17 -5907.07 -5948.64 -5973.17 -5956.95 -5960.17 -5993.70 -5990.98 -5966.56 -5848.26 -5549.72 -4411.58 -3634.17 -2725.51 -2719.46 -2815.00 -2693.05 -2366.06 -2301.63 -2455.81 -1885.64 -961.08 -262.96 -74.52 -16.76 -12.91 5.01 16.25 -2.56 -2.06 10.64 -6.85 -1.50 -15.06 -79.05 -680.55 -1182.90 -1529.96 -2185.53 -2342.16 -1726.62 -1526.38 -3516.38 -3665.43 -4012.87 -4144.74 -4230.45 -4004.34 -4164.25 -3926.17 -4238.00 -4035.74 -4279.22 -3812.79 -3219.33 -2743.61 -2641.17 -2442.38 -2379.47 -1879.51 -970.96 -418.09 -271.17 33.38 53.73 82.06 87.90 94.07 113.12 143.82 155.49 178.33 210.34 261.54 294.67 329.89 361.45 393.31 429.44 488.00 547.11 693.19 981.67 1105.24 1322.83 1167.72 758.52 294.21 159.10 40.18 -17.45 -63.45 -130.81 -2479.67 -4074.50 -4934.65 -4824.62 -4990.27 -5082.87 -4530.43 -3656.25 -2926.77 -1962.71 -1405.64 -1221.63 -1375.00 -1572.13 -2213.83 -3142.54 -3707.60 -4041.58 -3948.82 -4105.89 -4281.10 -4363.38 -4387.33 -4383.96 -4378.32 -4356.46 -4329.74 -4320.19 -4303.13 -4289.05 -4280.41 -4267.31 -4262.09 -4251.59 -4247.94 -4245.77 -4245.82
-6006.82 -6005.21 -6006.81 -6005.04 -6003.84 -5998.60 -6002.08 -6010.51 -5998.44 -5997.09 -5990.32 -5997.42 -6011.41 -6016.60 -6027.14 -6041.89 -6046.53 -6053.28 -6058.34 -6031.37 -5935.73 -5775.24 -5033.99 -4082.27 -4015.60 -3612.89 -3863.02 -3917.92 -3245.60 -2754.27 -2498.51 -999.04 -289.46 -93.78 -23.12 26.01 43.41 40.97 34.29 29.54 37.84 37.50 20.43 23.90 8.79 -21.99 -58.26 -410.62 -449.67 -581.17 -657.20 -825.78 -772.43 -382.93 -2014.02 -2335.50 -2981.97 -3141.95 -2980.23 -2721.10 -2814.06 -2950.97 -2790.21 -3113.07 -2866.32 -2469.45 -2517.14 -2333.65 -2366.40 -2295.56 -1434.36 -212.57 -27.01 34.03 51.60 86.34 120.58 122.88 121.48 149.55 163.26 183.20 201.50 245.85 285.44 302.44 334.04 379.25 399.25 425.99 459.60 504.39 521.85 605.66 735.32 1111.83 1237.06 851.35 434.75 147.01 84.74 35.01 -26.49 -73.05 -121.25 -2336.67 -4968.71 -4977.34 -4920.98 -5119.83 -5114.82 -5023.54 -3890.61 -3464.13 -2580.64 -1596.74 -1445.92 -1354.91 -1389.69 -2170.95 -3081.18 -3747.38 -3811.16 -4060.59 -4269.85 -4308.38 -4352.30 -4349.44 -4339.35 -4323.52 -4317.70 -4300.94 -4282.97 -4270.86 -4257.33 -4244.69 -4243.42 -4232.02 -4224.57 -4226.09 -4226.14
-6022.49 -6021.22 -6022.96 -6025.89 -6022.16 -6024.70 -6029.64 -6030.00 -6030.75 -6021.56 -6026.44 -6035.95 -6035.35 -6046.56 -6053.36 -6056.28 -6065.62 -6069.79 -6076.67 -6074.27 -6042.02 -5929.51 -5556.38 -5232.50 -5116.24 -5328.85 -5222.00 -4788.34 -4040.60 -2400.43 -1603.17 -155.91 -104.18 -60.19 11.29 20.22 63.07 86.44 84.41 35.32 37.34 51.99 44.99 51.42 52.19 48.57 25.73 23.23 20.57 -10.31 -35.82 -23.78 -213.58 -230.91 -606.72 -843.65 -1522.21 -2175.29 -2059.61 -2356.25 -2347.05 -2086.04 -2363.40 -2458.27 -2505.27 -2350.53 -2410.19 -2381.70 -1687.82 -1277.01 -715.43 25.96 44.57 60.57 78.62 122.89 153.11 175.01 160.88 171.27 168.34 199.37 203.34 250.89 287.66 305.37 344.19 375.49 409.90 437.10 454.20 476.42 521.06 539.98 609.32 794.78 1092.06 1051.58 752.10 363.43 87.34 72.01 36.33 8.65 -67.03 -2134.52 -4916.69 -5272.10 -4962.90 -4960.07 -5030.94 -5149.20 -5089.88 -4753.72 -3743.28 -3097.52 -2638.62 -1674.98 -1571.49 -1819.82 -2266.31 -2628.07 -3388.63 -3892.72 -4113.33 -4262.11 -4307.72 -4308.36 -4303.65 -4299.25 -4281.08 -4270.78 -4257.94 -4244.30 -4239.60 -4229.86 -4218.44 -4214.22 -4209.75 -4207.26 -4204.61
-6038.60 -6037.22 -6038.66 -6039.01 -6042.62 -6042.67 -6042.38 -6038.09 -6047.27 -6049.72 -6052.42 -6055.07 -6063.04 -6064.40 -6067.54 -6073.89 -6076.60 -6084.46 -6082.85 -6087.48 -6079.00 -6059.38 -5997.72 -5891.80 -5872.16 -5871.70 -5749.28 -5725.42 -5406.34 -1858.92 -499.19 -115.10 -46.50 -19.25 14.96 19.20 71.03 104.77 124.72 81.45 78.54 71.16 80.43 74.87 80.24 62.28 44.98 36.71 25.43 22.25 21.69 19.57 13.57 -40.31 -63.54 -286.49 -588.22 -895.73 -1338.43 -1770.58 -1478.71 -1543.04 -1880.92 -2052.81 -2401.65 -2479.96 -2341.27 -1077.27 -100.84 -23.94 5.26 35.75 56.28 78.14 92.65 160.33 242.59 198.53 195.84 197.37 205.01 227.67 238.20 262.08 293.63 307.18 330.44 372.48 400.93 424.03 448.22 462.78 509.14 523.78 553.18 706.51 928.72 1183.99 1004.07 760.86 171.14 140.60 90.72 25.85 -7.16 -1097.84 -3236.82 -4053.92 -4780.83 -4850.49 -4831.11 -4938.50 -5119.48 -5224.91 -5008.75 -4423.31 -3940.56 -3270.01 -2370.29 -1640.45 -1489.78 -1692.37 -2899.36 -3806.85 -4272.54 -4336.83 -4299.81 -4290.10 -4278.91 -4270.74 -4254.84 -4247.61 -4236.24 -4223.44 -4213.72 -4205.86 -4198.96 -4194.76 -4186.25 -4184.10 -4181.22
-6054.80 -6054.72 -6059.02 -6058.11 -6054.73 -6060.71 -6060.65 -6058.62 -6060.74 -6064.82 -6061.24 -6069.98 -6072.69 -6074.72 -6083.86 -6090.99 -6089.99 -6095.96 -6094.57 -6096.03 -6092.31 -6080.11 -6054.40 -6033.48 -6002.71 -5958.26 -5979.67 -6372.58 -6712.88 -3237.57 -317.82 -67.77 -21.15 -2.40 16.45 24.71 58.82 112.12 153.96 154.28 151.99 103.06 101.25 101.05 87.29 76.04 68.69 68.35 56.26 41.42 39.73 29.35 21.69 8.07 -24.25 -45.82 -80.33 -114.57 -136.69 -370.12 -505.70 -551.04 -1005.82 -1503.24 -1921.27 -1646.98 -964.38 -284.70 22.80 27.91 37.48 46.61 80.61 99.07 131.48 219.29 304.84 258.80 223.95 220.12 229.13 237.76 246.77 259.74 285.30 305.51 319.09 352.96 373.57 415.69 442.00 455.77 479.47 499.53 509.29 532.76 784.83 1078.17 1035.71 562.13 263.75 197.19 147.18 71.69 58.63 38.84 -812.71 -2973.18 -4609.10 -5041.66 -5045.89 -4965.39 -5108.53 -5346.99 -5550.80 -5421.27 -5292.85 -4812.60 -3674.02 -2401.15 -1684.50 -1443.66 -2592.47 -3878.89 -4405.48 -4357.30 -4312.78 -4270.52 -4233.68 -4228.01 -4218.54 -4211.20 -4206.21 -4196.32 -4191.95 -4180.08 -4169.74 -4165.72 -4156.18 -4156.12 -4156.17
-6070.53 -6069.30 -6070.63 -6072.64 -6077.84 -6072.14 -6078.96 -6074.86 -6074.07 -6076.05 -6081.93 -6085.80 -6091.22 -6093.11 -6096.66 -6098.78 -6105.88 -6104.99 -6105.37 -6107.64 -6101.02 -6093.10 -6078.48 -6044.81 -6009.52 -6003.31 -6129.39 -6582.51 -7205.72 -2774.98 -158.23 -44.68 -14.78 -0.61 13.04 25.62 46.83 92.29 157.94 237.35 225.08 156.79 130.48 149.04 134.19 120.79 122.75 98.93 97.02 73.60 65.22 59.43 33.82 24.43 11.49 -14.93 -24.46 -52.09 -63.48 -99.91 -148.35 -149.28 -170.14 -778.03 -731.14 -729.77 -237.39 17.96 28.85 38.89 50.61 63.47 78.79 118.40 175.17 260.37 363.98 328.74 280.08 239.85 259.82 251.37 265.95 280.08 296.67 306.09 332.70 368.28 375.78 401.03 433.58 441.54 462.00 485.65 488.34 490.87 583.55 702.60 918.24 833.67 977.03 596.63 264.74 133.64 107.50 55.95 2.70 -28.23 -1205.56 -4990.79 -5062.90 -4826.04 -4982.33 -5267.74 -5488.78 -5593.74 -5570.42 -5304.74 -4551.76 -3361.00 -1785.87 -1442.21 -2267.48 -3749.39 -4276.76 -4402.46 -4319.48 -4263.12 -4226.48 -4197.72 -4197.48 -4183.95 -4175.18 -4166.97 -4160.90 -4152.57 -4148.85 -4141.44 -4138.32 -4133.42 -4130.20
-6084.50 -6084.43 -6088.45 -6087.80 -6086.85 -6088.87 -6088.80 -6089.96 -6092.91 -6096.31 -6094.54 -6098.27 -6103.63 -6107.28 -6108.86 -6113.87 -6112.28 -6115.82 -6114.56 -6116.84 -6105.33 -6094.86 -6066.78 -6040.36 -5999.09 -6005.03 -6363.64 -6813.87 -4914.91 -318.27 -127.03 -41.26 -11.51 4.78 18.26 36.43 57.71 89.94 136.39 226.33 228.32 182.58 184.55 192.21 222.70 184.42 186.91 114.00 113.46 106.39 80.00 73.28 61.71 41.66 27.84 15.13 1.20 0.30 -15.96 -36.40 -50.22 -44.05 -89.73 -96.51 -37.40 13.02 16.64 35.28 38.06 50.17 58.93 81.04 104.16 115.01 233.73 331.89 414.65 411.79 331.69 281.18 269.42 265.66 279.28 288.91 299.50 310.80 334.31 350.31 365.60 382.45 407.92 424.79 440.37 479.43 484.96 485.00 527.13 614.65 782.85 1066.15 1123.99 700.53 308.60 195.46 135.06 105.97 43.77 -28.55 -1774.36 -4560.38 -4596.31 -4655.03 -4892.77 -5145.31 -5422.40 -5605.63 -5652.47 -5500.05 -4963.98 -3137.43 -1881.19 -1345.38 -1660.82 -2485.56 -3988.73 -4203.57 -4354.63 -4276.30 -4223.93 -4182.14 -4155.91 -4154.69 -4144.19 -4147.28 -4133.86 -4135.60 -4119.06 -4117.98 -4105.82 -4103.94 -4103.99
-6096.86 -6096.78 -6100.41 -6102.92 -6105.51 -6105.68 -6109.20 -6108.36 -6109.87 -6107.37 -6113.02 -6116.36 -6117.53 -6122.18 -6124.58 -6127.10 -6126.88 -6127.19 -6130.11 -6129.22 -6121.18 -6095.28 -6053.48 -6017.22 -5993.31 -6029.57 -6479.37 -7057.90 -6086.71 -1623.42 -156.46 -33.32 0.12 16.41 34.62 39.65 63.46 112.21 144.23 224.42 243.35 215.22 205.19 240.69 339.05 408.14 308.69 188.03 145.71 121.86 85.56 86.79 75.05 52.29 30.68 27.98 19.69 4.03 -3.34 -4.26 -5.46 -6.51 -4.74 -1.50 9.46 29.60 37.29 45.85 53.99 60.66 72.27 86.93 118.50 137.71 219.03 289.01 447.10 443.35 353.45 288.65 283.92 281.46 284.49 290.54 299.76 308.24 329.15 339.24 344.45 365.04 399.03 401.21 412.24 477.86 480.26 482.98 512.96 557.48 678.01 928.32 1167.83 1048.93 700.57 306.63 142.82 121.87 68.82 -679.23 -2771.41 -4697.59 -4810.37 -4643.98 -4783.48 -5008.27 -5339.79 -5551.26 -5656.11 -5605.87 -5045.81 -3417.84 -1978.94 -976.57 -961.28 -1188.66 -2673.16 -3804.49 -4356.61 -4290.29 -4207.46 -4169.71 -4142.40 -4129.91 -4114.25 -4112.51 -4111.70 -4105.73 -4106.70 -4091.36 -4083.48 -4078.09 -4078.14
-6108.18 -6108.10 -6113.26 -6115.07 -6114.39 -6114.68 -6119.04 -6117.04 -6119.09 -6123.26 -6125.72 -6127.45 -6132.96 -6136.62 -6139.87 -6142.91 -6145.47 -6150.86 -6144.79 -6141.98 -6137.19 -6100.86 -6064.12 -6026.03 -5998.99 -6075.64 -6430.67 -6762.06 -6110.72 -196.50 -84.99 -10.13 1.08 33.80 48.42 52.45 71.41 113.59 153.83 204.38 255.11 246.76 250.85 303.81 442.32 449.27 441.16 254.27 212.89 139.66 107.65 93.19 83.90 80.92 60.94 42.62 26.97 8.37 4.90 7.56 -0.72 5.12 4.59 10.19 22.45 33.58 48.05 54.24 60.12 66.15 71.22 91.45 108.62 149.02 195.13 242.23 323.27 363.01 324.65 290.83 287.51 282.50 284.93 290.31 299.22 308.04 316.25 324.85 342.14 348.85 382.83 395.61 415.45 461.59 466.96 478.78 494.74 529.96 630.88 888.24 1188.43 1104.63 877.76 457.30 169.68 113.39 80.61 31.44 -1089.95 -3680.51 -4928.80 -4707.84 -4725.56 -4999.91 -5200.11 -5477.97 -5644.97 -5591.07 -5055.35 -3897.04 -2305.75 -873.07 -850.74 -1006.88 -1959.05 -2709.94 -3795.60 -4213.25 -4177.24 -4161.85 -4131.93 -4104.97 -4093.29 -4091.94 -4088.15 -4078.53 -4075.18 -4069.75 -4058.66 -4055.62 -4055.67
-6116.80 -6116.75 -6120.76 -6123.99 -6126.86 -6127.95 -6128.68 -6133.65 -6133.32 -6132.87 -6137.04 -6142.08 -6145.26 -6145.68 -6150.71 -6153.37 -6152.39 -6156.85 -6157.69 -6157.68 -6150.70 -6114.84 -6083.14 -6039.83 -6033.28 -6270.74 -6418.98 -4563.95 -1845.96 -165.36 -34.66 -10.42 12.77 30.76 54.49 64.84 90.34 123.64 141.52 182.27 265.17 290.24 293.55 316.98 443.80 596.85 511.30 419.16 246.23 178.56 154.85 127.20 94.48 85.26 80.06 53.60 42.40 31.91 24.99 18.53 16.33 18.33 26.45 27.34 41.34 55.20 57.23 58.90 71.77 72.37 77.73 94.80 109.82 149.81 169.59 218.21 252.78 293.69 283.32 283.76 282.28 278.48 284.27 286.57 296.20 308.04 317.31 322.31 334.20 347.30 370.20 378.68 382.29 421.00 439.41 478.47 501.12 514.74 531.93 659.64 1088.37 1160.62 969.15 487.09 295.39 203.07 105.41 3.26 -421.02 -3408.09 -5112.58 -4722.22 -4751.46 -5002.00 -5233.13 -5510.39 -5625.05 -5595.57 -5351.53 -4051.03 -2052.35 -878.67 -711.12 -922.96 -1135.40 -2092.28 -2780.14 -3785.08 -4062.67 -4127.20 -4108.06 -4100.07 -4080.22 -4060.99 -4060.09 -4057.09 -4052.45 -4046.10 -4044.32 -4037.26 -4034.42
-6122.72 -6122.65 -6128.61 -6129.29 -6135.18 -6137.25 -6143.78 -6143.22 -6145.17 -6147.51 -6151.59 -6153.35 -6160.05 -6164.92 -6167.06 -6168.73 -6173.92 -6172.38 -6173.91 -6170.54 -6166.55 -6136.26 -6088.83 -6053.60 -6103.01 -6332.68 -6460.13 -3698.05 -825.09 -119.56 -38.49 -4.45 26.18 43.41 53.57 66.77 93.54 137.94 167.11 216.17 299.62 340.70 306.71 359.16 423.05 620.22 579.44 395.63 277.88 235.98 179.93 157.92 128.85 105.40 93.83 71.31 56.52 46.98 41.08 35.87 37.03 39.47 50.51 54.73 52.52 62.17 68.26 82.01 83.53 82.93 90.74 108.87 124.09 151.89 177.30 204.45 229.79 255.62 264.83 271.57 269.04 269.92 275.06 283.97 295.28 305.26 314.68 322.00 338.62 351.46 366.33 373.98 384.80 407.13 427.09 452.43 476.80 501.53 530.45 585.49 981.89 1237.88 1255.42 744.91 407.98 210.20 106.67 61.95 -543.47 -4205.67 -5435.21 -4841.91 -4885.32 -5057.10 -5255.31 -5496.22 -5612.73 -5586.63 -5197.05 -4717.65 -2003.55 -915.24 -693.87 -839.26 -932.17 -1909.04 -2624.78 -3409.71 -3910.39 -3912.33 -4077.73 -4072.97 -4057.84 -4052.09 -4046.60 -4040.50 -4037.30 -4031.83 -4020.29 -4014.47 -4014.53
-6126.17 -6126.10 -6132.00 -6136.25 -6141.24 -6145.26 -6149.60 -6150.20 -6152.33 -6160.63 -6163.46 -6166.19 -6169.55 -6173.24 -6180.12 -6184.57 -6184.57 -6190.48 -6191.90 -6188.70 -6183.56 -6146.98 -6021.34 -6022.95 -5986.40 -5283.64 -4403.93 -2474.77 -774.78 -51.61 -22.02 -1.57 23.23 44.06 71.02 93.05 113.80 142.11 182.97 233.39 304.14 405.36 362.90 365.13 405.06 530.51 529.44 511.83 350.08 279.01 211.17 189.91 161.13 119.69 107.69 91.14 70.44 56.44 63.70 55.44 55.23 54.68 72.97 74.09 69.85 74.32 83.16 87.25 90.46 96.52 102.42 117.96 126.57 155.57 168.90 188.64 218.06 238.83 253.02 256.49 263.16 265.71 272.60 279.81 293.58 304.83 314.87 323.50 334.14 348.00 356.38 365.42 383.36 413.45 425.25 431.37 452.94 473.87 517.38 532.13 802.30 1226.75 1347.48 866.05 590.91 328.68 127.81 57.17 -154.09 -1973.89 -5428.01 -5168.11 -4928.77 -4947.46 -5312.27 -5484.72 -5584.32 -5549.04 -5357.99 -3832.56 -2188.44 -881.84 -575.91 -670.10 -1039.64 -1539.49 -2672.22 -3041.07 -3295.00 -3733.71 -4061.21 -4051.32 -4044.92 -4037.54 -4026.45 -4021.83 -4018.45 -4010.70 -4004.63 -3994.80 -3994.86
-6125.63 -6125.56 -6133.62 -6137.93 -6145.34 -6148.34 -6153.10 -6157.36 -6162.20 -6165.88 -6169.59 -6175.28 -6181.56 -6183.54 -6191.93 -6195.71 -6202.31 -6207.26 -6199.22 -6185.66 -6162.98 -6054.89 -5863.71 -5582.41 -5243.39 -4893.54 -1757.03 -613.39 -63.87 -16.75 -9.78 -1.53 22.89 50.58 84.81 118.79 140.31 174.00 223.81 290.81 382.12 423.83 419.42 413.43 441.29 561.88 583.73 514.59 364.19 260.28 231.29 214.66 187.28 147.59 129.50 110.53 88.92 84.53 76.59 71.22 78.83 80.25 82.93 90.91 92.66 92.02 103.09 99.15 98.13 105.90 111.82 116.38 129.47 145.07 166.32 192.57 215.80 223.34 233.05 242.31 245.53 251.57 268.62 279.80 293.56 301.47 320.43 324.04 332.81 347.01 348.42 359.13 382.10 412.51 425.39 430.52 441.46 447.71 480.05 510.30 662.04 1069.50 1271.43 973.70 478.92 231.01 81.81 27.67 -32.74 -656.47 -2393.81 -5070.97 -4630.79 -4558.87 -5398.44 -5448.02 -5528.13 -5494.15 -5262.55 -3858.59 -2232.55 -716.04 -485.01 -583.55 -861.28 -1542.06 -2176.52 -2567.74 -2941.13 -3477.83 -3978.95 -4014.79 -4034.45 -4026.56 -4015.40 -4005.09 -3999.48 -3993.68 -3985.64 -3979.43 -3979.49
-6125.80 -6126.62 -6131.66 -6142.52 -6146.27 -6150.32 -6157.10 -6162.06 -6166.18 -6173.89 -6180.90 -6188.05 -6192.23 -6198.37 -6205.64 -6205.71 -6208.36 -6208.28 -6203.09 -6122.18 -6011.77 -5720.05 -4778.95 -4141.31 -4051.84 -2906.48 -1291.16 -108.06 -58.31 -15.16 -7.13 8.08 38.40 53.37 82.20 133.34 147.85 194.70 251.69 270.91 352.98 438.88 482.06 447.91 482.37 576.33 596.09 537.73 399.31 307.04 230.26 223.05 198.95 170.07 144.69 131.87 109.55 100.43 102.13 92.73 82.23 105.06 101.37 111.10 114.46 107.26 116.00 118.46 111.21 116.47 116.70 121.62 130.33 143.13 155.98 180.62 194.27 207.32 220.26 228.43 239.13 241.72 256.91 278.53 287.59 297.59 319.75 328.72 335.43 346.23 349.08 351.04 368.31 390.24 418.12 433.53 440.20 446.43 475.34 510.23 568.59 1055.97 1179.25 844.10 469.81 175.78 92.27 31.16 -33.47 -180.06 -1489.73 -4478.24 -4633.22 -4659.49 -5091.76 -5475.03 -5514.04 -5511.61 -5214.10 -3844.36 -2077.44 -621.53 -485.61 -471.92 -787.95 -1266.52 -1571.27 -2130.08 -3069.49 -3414.90 -3472.62 -3803.06 -3985.44 -4019.93 -4005.60 -3997.31 -3987.94 -3982.42 -3975.95 -3968.39 -3968.46
-6126.95 -6126.88 -6134.57 -6142.32 -6146.95 -6157.00 -6159.48 -6167.16 -6175.26 -6183.50 -6187.64 -6194.16 -6201.46 -6207.29 -6213.24 -6203.33 -6197.99 -6179.34 -6001.91 -5935.71 -5475.35 -4934.71 -4039.74 -2925.57 -2600.14 -1695.68 -670.55 -172.58 -40.60 -11.84 -6.33 9.03 36.25 67.16 113.18 131.91 187.50 206.41 223.23 292.71 423.80 489.82 551.94 523.99 526.88 596.84 516.19 478.47 323.13 309.65 255.19 229.71 201.50 177.31 165.73 151.27 134.37 129.78 134.07 146.36 158.14 153.71 133.71 135.76 132.87 128.29 127.67 126.22 126.54 125.01 125.93 126.32 132.63 139.86 156.48 166.87 184.88 198.99 209.75 222.29 223.50 244.10 264.53 274.22 288.78 301.58 316.59 331.96 340.07 347.26 349.53 350.40 361.27 378.61 400.22 429.13 433.75 440.59 461.15 505.55 548.59 805.56 1044.72 790.65 433.47 214.97 130.17 53.86 -4.68 -375.80 -1734.09 -4870.38 -4673.15 -4723.26 -4979.50 -5380.79 -5522.99 -5474.04 -5119.51 -3917.15 -1559.16 -781.67 -365.00 -397.30 -471.39 -996.44 -1568.81 -1908.06 -2428.87 -2694.37 -3192.47 -3672.33 -3962.42 -4005.87 -3996.52 -3989.67 -3981.45 -3977.50 -3970.37 -3963.81 -3963.88
-6129.12 -6129.05 -6136.65 -6143.37 -6150.38 -6159.80 -6165.48 -6173.14 -6179.82 -6188.84 -6194.85 -6201.92 -6209.94 -6209.41 -6194.34 -6166.35 -6038.00 -5898.72 -5563.66 -4940.05 -4272.71 -3982.73 -3063.68 -2629.55 -2365.54 -686.44 -194.29 -85.22 -17.16 -10.87 5.11 25.72 52.62 81.00 140.72 203.62 246.55 229.04 251.16 273.89 410.97 450.49 551.82 579.33 605.40 580.56 521.06 438.12 368.90 329.68 289.11 257.73 210.22 181.70 182.93 174.39 146.15 144.91 155.55 171.35 169.07 170.53 153.77 140.79 144.86 140.34 140.29 143.14 139.08 135.22 133.14 132.38 134.35 137.60 154.37 162.21 174.21 182.34 198.78 207.59 216.35 228.62 247.09 268.71 281.79 299.62 312.96 331.21 344.16 351.64 351.88 350.11 354.81 368.93 389.93 408.88 412.84 419.17 434.11 474.27 499.36 661.32 945.24 819.36 400.02 188.98 102.99 66.51 -1.69 -1059.11 -4360.42 -5011.39 -4769.58 -4844.12 -5052.02 -5365.22 -5523.90 -5460.52 -4932.29 -3897.36 -1451.02 -585.23 -283.87 -326.17 -435.69 -753.12 -1198.56 -1299.81 -1891.58 -2667.01 -3370.07 -3484.32 -3929.38 -3999.32 -3992.81 -3982.38 -3976.45 -3971.25 -3966.74 -3964.37 -3964.45
-6133.18 -6133.69 -6139.88 -6149.07 -6157.80 -6165.74 -6172.15 -6181.77 -6186.62 -6195.64 -6202.36 -6201.73 -6190.39 -6162.04 -6123.15 -5873.37 -5567.64 -4891.51 -4390.00 -3894.55 -3713.82 -2645.61 -2646.67 -2414.32 -1187.96 -220.00 -129.24 -57.53 -21.16 -2.81 18.69 48.28 68.73 107.16 134.41 212.72 277.30 296.18 277.74 322.54 335.59 399.03 521.88 599.19 609.27 542.96 493.34 430.61 380.17 336.60 287.92 266.79 238.47 210.57 203.19 192.60 179.53 184.06 189.73 196.52 187.90 182.82 173.24 156.58 157.73 152.30 154.62 148.14 144.20 143.62 138.46 136.68 137.67 141.71 147.65 158.48 164.52 178.89 193.91 201.36 218.39 231.13 237.68 261.45 281.50 303.05 316.37 338.93 350.80 354.29 354.39 352.35 351.86 359.01 367.07 379.50 389.92 398.74 417.34 435.53 467.07 453.84 638.53 772.56 458.26 187.74 122.50 70.99 12.99 -726.22 -4336.56 -5133.71 -4897.10 -4925.34 -5100.32 -5375.62 -5517.54 -5439.01 -4954.54 -3293.06 -1427.16 -493.26 -289.81 -308.14 -437.45 -622.11 -839.07 -1240.96 -1796.77 -2587.01 -2970.19 -3420.41 -3904.27 -3976.94 -3989.90 -3982.97 -3971.82 -3968.03 -3964.63 -3969.28 -3969.35
-6141.33 -6141.25 -6151.09 -6157.62 -6163.05 -6173.40 -6182.68 -6190.93 -6203.90 -6206.77 -6198.65 -6165.62 -6117.30 -5914.95 -5499.59 -5045.44 -4376.99 -3983.82 -3410.91 -2852.55 -2341.51 -2158.70 -2259.13 -1916.10 -603.45 -311.48 -126.83 -57.36 -21.95 -8.99 35.88 64.68 74.30 107.65 137.82 168.21 238.76 316.80 334.31 372.62 425.86 438.55 525.60 573.71 552.46 518.53 484.42 425.82 369.58 336.98 300.24 277.48 245.38 227.30 214.17 204.64 204.80 212.67 221.38 215.36 206.20 191.83 185.14 179.73 174.55 168.27 161.18 156.36 152.35 147.12 143.27 141.26 140.08 141.39 150.18 154.98 162.97 172.41 184.40 190.13 220.82 230.77 238.87 263.24 276.87 300.47 319.69 334.51 350.69 356.63 357.48 355.39 353.89 354.87 358.09 361.08 365.52 372.87 403.92 407.52 396.73 366.62 408.37 434.21 355.56 177.39 120.92 90.45 49.51 -706.51 -2669.91 -5196.01 -4998.21 -4917.26 -5151.66 -5351.56 -5443.71 -5232.86 -4866.21 -2918.06 -1752.16 -418.31 -264.99 -279.40 -415.75 -536.18 -750.28 -1199.43 -1616.29 -2337.72 -2996.23 -3334.92 -3913.67 -3972.50 -3988.53 -3982.86 -3975.76 -3975.29 -3969.98 -3975.62 -3977.46
-6158.05 -6157.96 -6166.30 -6172.97 -6178.06 -6187.52 -6199.73 -6209.61 -6216.68 -6211.16 -6175.76 -6054.09 -5695.44 -5527.28 -5018.64 -4337.95 -3837.68 -3208.25 -2757.05 -2486.93 -2094.75 -2048.75 -2167.56 -1783.77 -708.80 -272.15 -171.84 -104.83 -24.28 3.50 42.85 65.80 93.31 102.68 194.71 212.24 268.94 390.38 409.32 400.94 422.66 486.33 572.90 542.82 503.81 471.77 423.13 399.42 363.36 329.86 301.12 278.80 262.53 235.42 231.14 228.86 227.16 229.65 227.98 229.71 228.58 211.63 203.46 195.19 188.87 178.70 175.63 166.48 161.81 152.91 148.13 143.68 141.18 143.44 146.97 151.86 162.43 170.84 180.42 192.80 207.74 224.73 238.70 260.21 273.34 297.45 310.59 327.11 346.49 357.96 360.48 358.21 352.88 353.35 353.40 355.17 359.27 365.39 374.90 382.45 370.40 350.72 303.51 274.58 250.08 156.44 117.13 84.15 57.22 -72.58 -3497.69 -4809.55 -4881.62 -4912.45 -5093.75 -5245.88 -5335.68 -5013.32 -4335.46 -2619.15 -832.71 -369.92 -254.53 -288.71 -381.39 -534.84 -738.39 -1081.67 -1613.77 -2047.45 -2750.27 -3370.76 -3736.41 -3968.86 -3992.44 -3988.23 -3983.22 -3982.66 -3990.30 -3988.63 -3988.71
-6181.89 -6181.80 -6187.83 -6191.90 -6205.36 -6214.11 -6222.36 -6230.29 -6232.51 -6248.44 -6172.51 -5909.59 -5340.56 -4658.91 -3901.92 -3692.57 -3384.07 -3121.27 -2710.77 -2402.02 -2131.90 -2032.13 -2207.06 -1548.48 -547.42 -258.41 -195.70 -137.26 -50.45 1.93 44.21 78.87 120.37 180.81 179.88 228.96 324.29 409.81 457.64 458.15 463.75 544.73 582.69 515.56 472.72 463.40 419.19 374.95 360.66 325.93 305.46 290.44 282.78 257.72 240.45 243.14 242.57 253.74 254.54 250.05 243.94 218.47 212.71 206.96 198.26 186.53 183.39 172.60 164.88 159.18 148.77 146.49 140.18 142.30 145.52 150.88 156.22 165.81 175.23 187.50 207.14 219.92 243.07 252.61 284.25 297.16 313.67 333.29 348.04 357.96 360.21 359.52 356.67 352.84 351.17 351.55 353.91 355.23 362.05 363.72 363.19 340.15 322.85 260.39 206.48 170.09 116.36 76.32 30.43 -55.23 -2113.77 -4452.10 -4921.14 -4929.06 -4997.06 -5169.13 -5200.97 -4764.15 -3671.50 -2061.61 -708.27 -287.06 -249.07 -331.86 -444.58 -617.97 -806.62 -1104.74 -1466.39 -2035.26 -2799.41 -3212.98 -3737.13 -3959.86 -4001.66 -4000.37 -4001.69 -4003.47 -4008.76 -4004.89 -4004.98
-6215.50 -6215.07 -6219.85 -6224.74 -6234.46 -6240.62 -6287.50 -6297.43 -6296.48 -6312.51 -6123.36 -5830.69 -4951.81 -4291.69 -3792.47 -3571.03 -3449.59 -3208.03 -2840.77 -2374.15 -2175.48 -2175.68 -1987.31 -774.62 -440.35 -202.51 -146.98 -72.06 -44.27 2.09 43.19 84.61 153.75 246.01 231.39 225.12 318.13 356.00 440.81 492.29 590.21 599.24 552.83 465.17 439.25 414.54 399.02 378.82 354.62 313.79 306.20 295.69 292.26 272.87 258.79 263.82 298.04 305.61 288.68 266.32 264.25 252.91 225.42 224.60 216.75 197.60 188.58 180.96 171.44 163.75 152.07 147.34 141.05 140.19 143.52 146.41 149.46 160.08 170.31 182.27 198.12 217.79 244.41 258.00 276.54 292.95 306.43 332.70 340.89 353.33 357.28 359.01 358.74 360.79 356.57 356.19 356.56 352.21 352.20 336.95 320.85 320.02 324.54 246.73 196.94 153.05 113.47 85.41 38.82 -37.20 -2033.64 -4216.74 -4959.26 -5062.58 -5071.44 -5130.72 -4976.44 -4370.63 -2428.22 -997.63 -416.60 -275.17 -252.11 -339.62 -489.88 -737.97 -1194.89 -1450.48 -1624.52 -2088.38 -3018.72 -3574.25 -3899.76 -3993.92 -4016.02 -4012.18 -4004.29 -4023.17 -4028.78 -4026.72 -4026.81
-6285.09 -6284.95 -6291.74 -6287.87 -6288.75 -6297.53 -6303.40 -6296.93 -6312.79 -6087.16 -5778.99 -5357.36 -4813.06 -4120.93 -3863.81 -3704.19 -3651.13 -3464.42 -2982.77 -2373.70 -2187.81 -2283.13 -1745.47 -431.89 -254.63 -209.38 -161.10 -74.90 -13.15 0.85 47.54 91.97 153.85 247.59 285.29 282.75 309.75 311.01 369.35 481.31 578.56 531.04 484.40 461.14 419.87 370.98 368.56 354.97 337.86 321.59 307.53 297.41 297.69 291.90 283.28 281.42 349.51 365.11 342.89 322.77 301.19 269.89 249.45 237.70 224.33 214.90 198.09 187.47 179.27 163.48 154.79 147.78 141.47 139.37 140.75 144.92 149.88 158.26 166.00 181.59 193.89 211.53 236.49 251.92 265.47 293.91 304.47 327.92 336.05 345.75 354.20 359.17 366.57 376.02 374.37 370.84 360.35 351.65 342.69 283.77 277.62 282.59 265.53 212.32 152.48 133.92 109.00 64.53 -7.13 -406.11 -1882.46 -4212.43 -5268.44 -5224.59 -5134.26 -5030.37 -4606.20 -3887.03 -1762.21 -573.37 -335.21 -232.16 -281.88 -382.18 -482.11 -800.36 -1102.47 -1690.33 -1963.43 -2489.75 -3428.92 -3829.45 -3999.91 -4032.57 -4031.46 -4033.09 -4033.07 -4042.61 -4045.93 -4047.66 -4047.76
-6419.46 -6415.87 -6355.56 -6253.12 -6236.34 -6235.57 -6151.99 -5916.05 -5786.63 -5531.50 -5087.44 -4574.56 -4503.18 -4218.42 -4184.79 -3968.92 -3906.99 -3658.28 -3067.08 -2381.24 -2136.59 -1765.25 -846.23 -284.75 -260.98 -203.38 -132.18 -62.15 -13.52 -0.90 41.04 103.98 181.48 244.50 320.85 348.01 391.67 410.24 414.51 499.49 537.96 507.97 440.34 416.93 393.20 359.65 346.82 333.79 327.45 305.90 301.94 296.24 295.44 293.61 305.63 330.47 372.11 387.82 400.21 382.86 336.17 287.26 271.70 246.78 236.92 223.10 218.91 198.09 184.39 166.65 156.47 148.50 142.04 139.29 139.46 142.03 147.73 152.91 165.49 179.01 193.62 206.24 222.02 244.39 259.95 285.04 297.30 309.93 332.29 341.75 355.18 362.98 372.64 385.67 387.58 382.52 368.76 352.95 328.02 280.49 261.28 231.34 210.34 163.80 125.96 96.71 74.54 50.69 -37.62 -748.52 -1470.30 -3831.09 -5001.19 -5246.92 -5163.87 -5063.78 -3907.22 -2809.17 -1008.88 -529.56 -269.37 -241.74 -262.52 -354.11 -566.00 -909.74 -1341.10 -1832.73 -2193.69 -2862.05 -3627.92 -3984.70 -4050.83 -4044.98 -4051.25 -4051.47 -4054.26 -4059.21 -4061.25 -4071.64 -4071.75
-6265.60 -6265.71 -5973.71 -5896.91 -5802.13 -5554.22 -5401.91 -5117.99 -4860.86 -4677.93 -4642.58 -4459.31 -4377.98 -4376.58 -4381.05 -4330.04 -4180.74 -3750.76 -3069.84 -2542.12 -1916.45 -1403.24 -363.17 -301.18 -243.08 -161.19 -99.03 -58.23 -16.87 -2.26 36.74 105.22 144.79 191.76 301.93 371.39 451.45 515.63 511.20 457.27 458.65 463.63 415.17 387.36 361.06 335.46 336.42 314.08 307.80 295.87 291.22 288.24 285.79 286.02 289.06 331.08 363.81 393.29 427.86 427.09 364.88 313.10 285.56 271.69 257.22 226.88 221.15 219.10 194.76 178.46 165.15 147.74 143.46 139.20 138.82 142.46 147.99 152.88 164.05 172.14 189.80 204.33 222.61 236.35 261.49 279.48 293.82 305.86 328.88 339.75 348.76 366.56 377.04 389.14 390.59 385.57 374.84 353.37 325.72 290.98 258.21 214.88 163.57 136.84 101.03 72.60 55.89 -23.20 -272.57 -1290.13 -2262.71 -2804.86 -4583.94 -5252.70 -5245.11 -4990.82 -3770.51 -1996.42 -716.02 -402.19 -245.22 -260.06 -343.55 -468.83 -598.10 -805.58 -1307.31 -1994.05 -2664.27 -3426.18 -3643.20 -3963.65 -4070.19 -4075.15 -4064.98 -4070.79 -4076.83 -4079.03 -4094.39 -4091.89 -4092.00
-5291.68 -5293.01 -5252.31 -5035.99 -5062.89 -4697.62 -4658.39 -4527.86 -4507.40 -4457.52 -4439.64 -4429.82 -4444.57 -4451.33 -4442.87 -4444.10 -4346.12 -4029.07 -3218.17 -2633.18 -1945.31 -1070.63 -367.77 -309.63 -227.18 -147.20 -91.23 -42.80 -17.04 -3.58 16.05 86.48 132.29 164.83 210.39 279.68 392.45 438.83 453.46 385.20 400.08 409.95 362.61 338.34 320.61 319.71 302.86 295.01 294.18 283.07 283.35 278.44 276.87 283.10 285.01 309.70 327.13 367.68 400.95 429.72 410.51 348.36 312.55 283.75 282.94 265.27 236.84 224.77 197.31 184.52 170.92 149.82 142.35 137.11 138.66 140.09 142.26 149.20 157.75 170.39 185.15 205.04 226.96 237.80 254.89 277.03 289.63 304.36 315.46 333.44 344.71 362.47 380.46 388.22 388.81 380.02 367.82 336.02 304.80 281.38 231.99 207.93 167.24 118.71 80.18 38.90 23.55 -198.07 -800.41 -1966.10 -2697.15 -3129.96 -4683.77 -5274.28 -5269.30 -4595.42 -3425.31 -1695.38 -629.08 -266.84 -242.11 -277.56 -375.17 -503.16 -595.59 -821.97 -1413.88 -2351.19 -2986.29 -3489.77 -3855.83 -3906.27 -4097.47 -4096.19 -4091.27 -4091.40 -4094.31 -4100.58 -4104.22 -4111.80 -4111.92
-4518.65 -4519.96 -4564.30 -4620.94 -4534.57 -4486.49 -4450.39 -4436.41 -4446.57 -4459.57 -4458.00 -4466.62 -4472.57 -4480.87 -4483.52 -4488.83 -4462.17 -4265.11 -3875.51 -2931.97 -1912.39 -972.26 -334.76 -286.91 -209.23 -159.82 -105.43 -50.30 -28.92 -4.08 3.03 62.62 152.30 222.66 293.43 324.40 369.54 412.87 381.88 323.76 365.93 371.58 321.12 297.59 299.73 294.90 280.60 276.17 275.89 265.69 270.84 269.67 267.16 272.92 284.68 296.04 309.90 340.13 382.73 433.71 453.65 394.64 368.25 309.74 287.24 281.18 242.55 232.80 205.32 189.25 164.42 150.37 141.83 133.99 135.09 136.52 138.53 146.65 152.77 170.11 185.41 201.67 216.78 229.86 260.16 268.84 282.92 298.22 314.19 323.23 343.57 353.96 371.81 381.21 383.12 379.77 352.04 338.89 301.88 259.58 228.24 193.24 153.08 128.23 70.92 31.68 -10.43 -47.44 -733.53 -1826.54 -2584.52 -3992.09 -5249.24 -5451.59 -5271.79 -4746.63 -2903.02 -1067.38 -364.37 -261.08 -244.09 -281.31 -323.87 -468.49 -549.55 -864.59 -1460.65 -2529.79 -3390.87 -3623.70 -3888.58 -4035.34 -4114.31 -4109.56 -4109.82 -4111.71 -4113.42 -4112.25 -4124.10 -4130.52 -4130.65
-4443.35 -4443.38 -4462.82 -4463.08 -4468.23 -4470.73 -4471.78 -4478.47 -4481.48 -4481.28 -4484.07 -4488.50 -4497.01 -4500.48 -4507.43 -4513.94 -4477.50 -4361.65 -4086.98 -2904.55 -2583.61 -1377.33 -451.83 -293.74 -211.75 -176.11 -123.58 -65.69 -45.59 -10.66 12.40 24.84 85.06 135.69 282.50 304.18 293.35 310.59 277.84 281.86 319.99 308.39 298.89 272.68 258.64 250.84 252.72 254.52 245.94 249.29 256.85 255.61 258.22 266.06 275.20 296.76 313.21 338.39 352.82 431.66 463.90 410.09 375.79 375.55 324.39 286.64 244.34 232.14 209.03 190.22 167.16 152.35 139.19 130.18 128.21 133.31 136.41 146.44 153.09 170.10 183.62 191.00 214.89 227.05 243.51 261.31 278.76 293.35 305.01 323.30 327.57 361.42 369.10 375.09 373.86 352.16 341.96 320.93 275.38 244.31 208.21 172.23 135.43 106.55 71.98 26.25 -16.78 -47.84 -1033.06 -1629.92 -3653.17 -4750.75 -5379.37 -5558.86 -5349.35 -4186.72 -1885.14 -811.28 -342.81 -261.64 -261.78 -281.05 -325.66 -424.65 -576.03 -850.13 -1660.27 -2433.53 -3508.10 -3763.11 -4009.96 -4142.07 -4136.08 -4132.88 -4126.24 -4129.71 -4126.93 -4132.84 -4138.15 -4147.68 -4147.82
-4500.37 -4499.96 -4504.33 -4503.86 -4509.26 -4513.00 -4510.31 -4504.06 -4507.33 -4506.25 -4503.20 -4503.76 -4511.19 -4515.65 -4518.00 -4523.86 -4496.26 -4434.37 -4040.88 -3280.25 -2151.76 -1175.88 -464.73 -273.91 -227.62 -189.21 -148.13 -125.65 -96.36 -52.10 5.44 25.36 48.72 115.34 152.32 166.32 214.54 238.37 224.83 216.61 228.67 225.90 229.91 234.26 233.47 229.41 229.42 231.53 236.43 234.93 237.83 239.48 249.88 261.38 273.73 288.62 305.10 328.49 360.97 432.57 472.53 433.71 406.53 406.79 356.95 296.37 278.37 230.67 220.79 195.26 169.09 154.13 135.78 129.67 125.82 127.97 132.24 138.77 148.02 158.92 172.36 188.68 206.30 229.05 244.41 263.40 273.87 282.79 300.46 314.43 320.92 353.25 367.45 367.85 365.01 337.65 321.66 294.64 262.71 221.49 176.57 152.68 111.22 85.42 66.35 25.81 -202.61 -612.68 -1144.60 -2064.15 -3498.60 -4320.44 -5486.38 -5551.97 -5059.64 -3828.60 -2133.22 -703.27 -358.35 -270.21 -284.78 -292.95 -337.31 -439.89 -625.40 -856.57 -1719.52 -2352.44 -3163.50 -3902.72 -4099.88 -4157.54 -4148.35 -4147.69 -4146.04 -4146.19 -4145.04 -4150.65 -4156.74 -4163.20 -4163.38
-4526.40 -4526.28 -4527.43 -4532.33 -4530.12 -4528.94 -4527.57 -4535.81 -4526.91 -4524.61 -4526.70 -4521.81 -4523.52 -4524.75 -4529.92 -4531.40 -4505.70 -4296.48 -3902.21 -3229.01 -2365.23 -1469.82 -679.31 -293.41 -279.05 -205.40 -188.95 -177.68 -134.27 -89.24 -2.04 12.63 21.76 64.96 109.92 136.21 127.51 141.32 160.17 163.61 182.30 174.56 172.82 205.84 206.27 204.06 213.98 213.86 216.49 217.06 223.75 234.80 240.91 255.74 267.05 281.86 299.79 326.31 346.87 420.15 478.06 484.37 466.51 422.39 389.33 318.87 313.43 270.22 234.27 202.28 166.16 155.78 137.12 126.37 123.37 123.24 126.12 131.38 144.89 151.79 173.86 186.84 202.26 216.21 245.33 253.58 265.67 278.30 294.37 304.72 312.48 342.22 362.07 358.24 342.90 325.86 297.69 267.41 237.67 184.53 156.80 128.40 99.87 70.61 46.01 16.12 -453.98 -868.68 -1723.23 -2117.37 -3372.65 -4746.59 -5332.05 -5530.62 -5021.13 -3407.69 -1809.87 -505.77 -320.67 -278.08 -290.43 -315.82 -384.08 -482.66 -709.46 -937.50 -1357.67 -2286.92 -3237.05 -3817.16 -4130.79 -4168.69 -4165.07 -4168.00 -4167.12 -4163.65 -4161.12 -4164.31 -4170.45 -4177.13 -4177.24
-4549.87 -4550.05 -4551.21 -4550.72 -4554.45 -4549.57 -4545.44 -4546.29 -4537.54 -4534.25 -4541.35 -4541.78 -4537.96 -4538.50 -4538.22 -4529.26 -4446.39 -4169.81 -3725.42 -2945.45 -1759.21 -1312.06 -550.19 -330.81 -303.20 -248.56 -226.17 -193.66 -159.66 -101.35 -9.80 -4.92 0.58 19.48 67.98 81.84 86.46 115.48 119.18 122.70 136.81 129.93 143.79 172.59 173.20 187.38 184.87 192.68 199.41 207.34 211.57 227.14 238.79 253.95 264.67 269.25 290.41 313.17 366.66 400.71 477.89 479.64 462.53 445.74 411.81 400.18 377.61 315.22 247.13 223.84 168.02 158.49 134.22 123.35 120.05 120.96 123.31 126.06 137.54 148.58 167.35 180.79 192.97 208.72 226.25 245.62 260.11 265.35 283.94 301.04 311.07 330.01 342.62 342.68 330.80 304.37 277.68 241.09 199.98 162.06 149.74 97.97 91.26 57.89 36.53 -58.22 -352.07 -1373.22 -1708.42 -2188.64 -3323.26 -4909.37 -5429.86 -5488.05 -5272.11 -4206.44 -1253.03 -799.90 -370.94 -302.33 -303.56 -328.53 -419.02 -550.80 -874.51 -1232.97 -1774.70 -2647.64 -3445.56 -3768.78 -3974.32 -4162.60 -4181.91 -4173.88 -4174.75 -4175.49 -4172.37 -4181.98 -4183.53 -4190.16 -4190.19
-4566.65 -4566.59 -4567.30 -4568.21 -4568.90 -4569.40 -4567.49 -4566.31 -4566.67 -4561.57 -4552.38 -4548.25 -4545.03 -4548.01 -4547.72 -4521.47 -4407.64 -4063.44 -3146.05 -2170.09 -1523.94 -1233.50 -1167.81 -913.47 -414.85 -274.98 -251.00 -226.79 -195.65 -142.96 -116.82 -81.51 -37.25 2.45 32.42 46.79 52.05 91.79 89.77 90.66 105.53 126.06 126.81 131.32 156.76 161.55 166.90 174.27 179.31 191.53 202.39 212.96 234.40 237.00 255.22 266.93 287.34 312.82 351.91 366.85 400.25 418.65 405.06 394.54 378.26 386.10 371.65 309.05 261.77 205.53 164.06 145.70 123.24 119.29 115.85 114.86 117.53 121.77 130.35 148.96 156.68 175.33 189.84 205.17 219.48 234.48 252.22 265.05 271.04 293.37 308.34 317.69 329.18 329.40 314.91 282.94 254.96 227.81 186.94 165.54 122.65 94.63 60.11 29.96 -63.72 -234.53 -1078.26 -1622.64 -1678.62 -2364.19 -3192.90 -5256.54 -5430.60 -5618.69 -5444.57 -4284.33 -2457.51 -1340.40 -599.75 -369.83 -345.49 -354.40 -466.59 -671.42 -1042.77 -1446.83 -2117.28 -2741.63 -3460.68 -3731.42 -4088.95 -4178.90 -4204.24 -4189.55 -4185.79 -4186.83 -4189.76 -4191.46 -4194.43 -4202.28 -4202.33
-4581.41 -4581.34 -4581.08 -4583.82 -4581.46 -4581.14 -4576.91 -4574.51 -4574.94 -4571.06 -4567.24 -4561.23 -4558.26 -4555.91 -4553.02 -4521.15 -4377.29 -3912.89 -2690.69 -2016.87 -1484.26 -1158.40 -1152.64 -1149.73 -585.26 -295.66 -276.99 -267.43 -212.33 -175.29 -168.41 -126.12 -59.09 -0.99 27.62 41.72 41.51 59.95 62.63 62.00 67.06 82.40 110.87 113.60 126.73 135.53 146.64 157.59 164.33 176.41 186.88 206.90 226.09 229.18 247.63 262.27 282.31 297.79 327.16 346.93 358.70 370.37 356.53 334.14 323.39 327.33 286.87 285.43 251.14 184.27 152.43 134.02 121.45 117.13 110.02 109.30 114.05 119.31 124.71 133.15 154.81 163.71 185.22 192.63 217.58 226.55 238.12 256.50 267.28 279.02 298.36 310.50 314.57 311.91 298.86 271.92 242.06 203.74 179.71 145.75 105.60 73.69 43.08 -138.12 -621.25 -1450.34 -1593.62 -1551.36 -1692.38 -2551.31 -3708.18 -5139.03 -5584.71 -5637.73 -5533.53 -4831.47 -3575.12 -2045.34 -1514.43 -405.20 -419.20 -413.80 -511.97 -801.60 -1048.42 -1617.44 -2263.30 -2975.97 -3451.08 -3872.26 -4139.07 -4220.48 -4212.70 -4194.41 -4197.10 -4203.15 -4201.30 -4203.93 -4209.17 -4215.28 -4215.35
-4594.07 -4593.99 -4594.20 -4596.98 -4594.84 -4592.25 -4590.25 -4589.63 -4588.34 -4584.49 -4578.10 -4573.89 -4565.94 -4563.64 -4561.41 -4525.82 -4343.40 -4021.11 -2924.13 -2149.65 -1596.41 -1222.69 -1147.77 -1152.12 -702.94 -320.03 -316.54 -282.40 -274.61 -233.43 -190.46 -154.19 -60.69 -19.93 3.43 15.98 30.17 43.96 52.45 54.72 56.48 54.92 68.68 84.42 111.48 116.72 133.28 137.78 148.15 164.57 176.45 189.67 206.73 224.81 243.63 255.98 274.89 289.86 305.42 334.26 325.80 309.46 304.50 296.17 282.09 289.50 282.60 247.96 217.75 186.87 155.96 131.10 118.32 112.27 106.30 101.51 104.54 109.86 119.08 133.45 145.20 163.75 178.49 187.31 203.46 221.73 231.20 246.02 261.61 275.75 288.82 297.82 295.51 291.23 274.78 249.09 212.97 169.24 153.74 116.41 90.26 53.20 21.38 -398.39 -996.89 -1564.47 -1475.46 -1425.87 -1576.59 -2783.41 -4114.78 -4986.80 -5605.44 -5657.12 -5650.46 -5425.10 -4848.54 -3024.13 -1994.71 -1042.46 -468.19 -486.82 -630.83 -972.17 -1339.86 -1866.23 -2597.23 -3268.96 -3590.85 -3973.00 -4235.88 -4228.10 -4220.35 -4204.63 -4202.74 -4210.91 -4210.07 -4214.34 -4218.58 -4226.00 -4226.08
-4605.73 -4605.65 -4606.79 -4604.85 -4609.32 -4605.48 -4603.18 -4600.45 -4598.88 -4593.63 -4591.41 -4583.54 -4575.46 -4571.97 -4566.68 -4546.13 -4435.44 -4263.80 -3588.69 -2986.60 -2008.11 -1528.78 -1267.76 -1166.91 -942.23 -595.81 -366.57 -320.01 -294.34 -256.61 -212.17 -151.56 -96.16 -39.83 -18.76 -0.01 15.31 22.34 35.75 36.51 43.13 50.41 57.75 67.05 87.00 101.26 117.39 119.86 136.08 145.18 165.62 182.47 204.12 222.52 241.22 257.50 274.35 301.96 320.51 314.70 303.97 288.31 286.61 284.72 260.21 246.56 237.23 222.93 182.92 168.79 135.44 124.07 114.13 105.62 101.37 96.51 100.47 102.80 109.65 125.98 143.54 153.09 164.07 178.63 193.58 216.66 228.13 241.92 258.91 271.99 280.25 281.29 279.77 250.95 240.52 197.87 164.41 136.41 118.63 88.96 67.95 21.44 -167.08 -609.95 -1344.37 -1455.54 -1348.04 -1425.25 -1559.05 -2702.25 -4110.05 -5342.29 -5593.33 -5669.06 -5681.48 -5607.29 -5424.91 -4749.43 -3048.60 -1905.26 -673.13 -607.86 -755.01 -962.73 -1608.74 -2320.35 -2561.76 -3631.74 -3874.28 -4039.54 -4252.41 -4242.07 -4229.44 -4227.18 -4220.57 -4219.81 -4218.83 -4220.79 -4229.58 -4235.96 -4236.04
-4616.90 -4617.25 -4618.30 -4618.13 -4617.40 -4618.45 -4613.21 -4610.58 -4612.44 -4601.31 -4596.73 -4591.33 -4584.32 -4578.87 -4568.76 -4558.50 -4483.77 -4303.56 -3906.71 -3456.34 -2963.24 -2094.48 -1548.52 -1221.99 -1148.57 -1067.54 -533.89 -408.77 -350.31 -280.71 -220.18 -180.55 -125.78 -91.95 -63.08 -24.42 5.05 11.43 13.13 24.33 29.10 30.50 41.21 57.93 66.56 79.52 107.30 104.05 120.07 135.19 148.28 181.11 192.13 214.01 231.30 260.83 298.86 317.95 335.84 292.33 283.54 273.03 261.73 259.86 243.10 216.79 207.52 187.47 176.59 164.56 132.82 121.00 107.65 100.36 93.30 91.74 95.58 101.11 108.26 115.88 132.07 146.02 159.75 177.22 187.30 199.85 236.48 250.23 261.91 270.01 269.02 261.95 255.64 232.27 186.27 169.83 141.42 102.87 80.62 48.36 38.00 12.68 -89.78 -731.74 -1277.06 -1369.52 -1354.77 -1468.02 -1693.01 -2757.19 -4434.21 -5278.02 -5614.81 -5667.75 -5701.22 -5713.22 -5549.73 -5215.82 -3723.68 -1965.65 -780.93 -676.14 -898.70 -1172.96 -1582.85 -2177.79 -2679.60 -3576.10 -4090.31 -4270.51 -4263.92 -4254.74 -4239.25 -4236.67 -4234.91 -4234.19 -4233.69 -4233.56 -4237.48 -4244.41 -4244.49
-4627.58 -4627.50 -4628.55 -4629.71 -4629.85 -4627.49 -4626.69 -4621.05 -4619.90 -4616.95 -4610.20 -4601.67 -4588.92 -4584.66 -4578.84 -4574.38 -4550.92 -4513.86 -4318.02 -4172.34 -3510.20 -2578.68 -1892.28 -1354.07 -1218.83 -1128.18 -1025.52 -988.23 -451.81 -324.07 -256.32 -201.65 -179.71 -138.86 -107.41 -82.11 -33.23 -0.41 0.09 0.26 5.60 15.28 19.23 38.36 56.69 67.55 84.69 92.53 97.05 118.03 138.71 165.26 181.19 209.70 246.82 268.35 309.19 341.60 337.29 297.31 269.09 251.52 246.67 231.01 220.60 208.90 197.93 172.09 161.18 149.53 127.46 119.42 104.35 93.65 88.97 86.07 87.60 95.83 103.03 112.16 125.38 135.87 146.98 173.83 187.19 200.80 239.25 259.89 268.23 268.73 264.22 246.22 217.31 176.46 165.71 137.36 132.96 102.79 62.60 19.80 3.23 -200.77 -668.82 -1120.84 -1262.34 -1302.94 -1372.62 -1557.00 -2176.03 -3119.49 -4770.18 -5400.35 -5629.57 -5664.30 -5692.85 -5744.03 -5684.88 -5409.38 -3796.29 -2480.92 -888.85 -747.09 -960.64 -1369.42 -1743.52 -2448.91 -3280.76 -3818.00 -4282.25 -4279.58 -4274.08 -4267.49 -4255.14 -4250.35 -4246.40 -4243.54 -4240.61 -4242.75 -4244.95 -4251.26 -4251.34
-4637.63 -4638.17 -4638.52 -4639.12 -4637.06 -4635.28 -4634.11 -4632.39 -4628.57 -4623.06 -4614.42 -4608.20 -4600.07 -4594.27 -4587.23 -4579.05 -4567.84 -4549.83 -4495.31 -4250.39 -4038.19 -3273.19 -1913.91 -1495.81 -1132.56 -1085.92 -1162.21 -1228.62 -981.49 -554.94 -267.43 -237.72 -197.85 -170.29 -162.15 -139.19 -78.06 -40.21 -36.89 -10.45 -7.04 1.18 12.15 28.15 45.35 56.09 64.41 74.86 86.10 112.89 129.09 156.73 190.79 217.32 268.13 298.25 346.37 362.23 346.26 299.43 250.48 243.11 230.66 218.26 209.91 195.07 180.28 167.11 155.39 133.82 120.93 105.86 95.02 88.37 84.55 81.11 81.20 85.61 92.67 105.15 112.66 125.51 129.88 160.20 177.48 199.07 230.97 256.40 266.95 267.46 240.28 207.72 171.32 150.84 123.54 106.42 87.17 70.53 37.08 5.30 -52.31 -521.25 -960.90 -1212.12 -1236.88 -1285.25 -1402.81 -1554.64 -1869.99 -3394.86 -5218.66 -5499.17 -5639.28 -5655.20 -5691.79 -5761.50 -5709.39 -5490.21 -3941.08 -2427.32 -1029.21 -833.63 -1051.64 -1426.65 -2001.10 -2722.54 -3018.93 -3820.92 -4234.88 -4291.40 -4285.92 -4278.03 -4266.01 -4258.87 -4257.14 -4251.41 -4250.31 -4254.33 -4256.18 -4257.84 -4257.91
-4647.61 -4647.54 -4647.52 -4650.13 -4652.09 -4651.27 -4644.11 -4642.92 -4639.39 -4633.35 -4626.44 -4618.25 -4612.22 -4600.96 -4596.55 -4589.10 -4581.87 -4578.50 -4560.58 -4457.88 -4270.30 -3464.53 -2516.86 -1782.25 -1217.37 -1068.57 -1053.98 -1112.58 -1160.81 -868.74 -478.58 -332.29 -239.64 -218.86 -191.48 -178.87 -149.90 -112.57 -64.27 -18.42 -15.85 -13.57 -5.16 14.21 25.72 37.82 45.46 57.89 71.78 96.06 106.06 138.77 188.26 225.91 290.75 301.53 370.25 375.88 348.84 297.88 251.97 229.28 211.92 196.51 183.59 173.90 168.68 165.94 142.07 125.25 112.37 95.17 89.13 81.60 78.85 76.18 74.06 78.06 80.69 92.90 101.95 113.95 123.67 142.92 168.78 191.42 214.34 240.49 267.11 267.11 251.11 232.41 145.30 109.18 105.51 103.97 70.18 44.75 26.87 -84.87 -310.95 -737.40 -1125.28 -1260.95 -1292.11 -1320.61 -1413.89 -1471.92 -2265.72 -3692.42 -5031.83 -5650.99 -5655.02 -5656.65 -5687.39 -5748.51 -5702.53 -5332.54 -3549.12 -2166.76 -881.55 -762.14 -1120.75 -1538.27 -1824.60 -2626.50 -3699.27 -4005.95 -4299.36 -4298.63 -4290.53 -4286.17 -4276.86 -4265.64 -4262.48 -4263.10 -4260.46 -4262.52 -4263.51 -4266.16 -4266.24
-4657.32 -4657.25 -4658.27 -4659.49 -4658.99 -4657.66 -4657.27 -4652.89 -4649.31 -4644.11 -4640.45 -4626.26 -4621.03 -4616.70 -4604.05 -4598.68 -4588.62 -4585.09 -4560.03 -4525.92 -4154.81 -3531.77 -2523.78 -1669.40 -1129.89 -1071.24 -1058.76 -1101.99 -1181.83 -1289.64 -1207.10 -571.80 -464.76 -263.03 -225.02 -193.60 -185.63 -167.00 -143.29 -114.73 -73.81 -36.65 -19.24 -6.80 7.16 22.50 24.77 28.69 47.58 78.07 87.80 126.56 172.00 231.48 282.24 326.62 363.85 363.58 307.41 283.03 255.01 231.56 191.77 182.75 170.97 167.09 156.24 140.23 127.98 118.75 106.32 94.77 78.78 71.65 70.42 68.87 68.05 69.63 70.51 82.96 90.24 100.90 116.78 133.21 163.04 182.35 204.31 237.73 252.26 226.00 210.12 189.03 147.74 85.32 73.43 53.74 41.80 31.63 -20.02 -350.08 -848.25 -1237.78 -1235.30 -1246.08 -1321.57 -1363.79 -1433.55 -1683.82 -2376.41 -3261.86 -4714.97 -5522.54 -5653.24 -5655.67 -5680.93 -5711.66 -5528.88 -5076.78 -3133.01 -2016.67 -675.10 -740.90 -1060.19 -1804.62 -2454.23 -3109.36 -3950.47 -4308.35 -4304.29 -4304.66 -4301.50 -4288.92 -4283.50 -4276.29 -4271.83 -4270.59 -4269.63 -4270.43 -4271.06 -4272.44 -4272.36
-4666.62 -4666.55 -4667.11 -4669.83 -4670.61 -4668.74 -4666.09 -4663.52 -4662.80 -4654.38 -4649.96 -4644.49 -4637.68 -4627.95 -4619.88 -4616.96 -4605.82 -4596.36 -4564.46 -4470.43 -3946.65 -3470.14 -2390.32 -1572.49 -1244.61 -1291.91 -1487.24 -1351.39 -1363.94 -1486.27 -1589.57 -1197.88 -983.17 -288.10 -283.29 -239.05 -225.16 -205.47 -196.63 -179.15 -119.01 -79.09 -53.68 -40.12 -34.41 -24.62 8.19 22.76 23.85 43.79 70.09 124.76 183.13 247.43 273.73 291.08 306.80 282.47 262.29 229.13 221.42 205.45 179.22 151.86 147.24 144.74 136.07 131.28 119.83 101.75 91.44 81.74 72.27 66.68 63.93 63.15 60.93 59.16 63.83 74.10 80.12 88.37 97.32 107.67 132.05 152.78 184.12 218.17 229.29 223.22 208.60 139.47 107.25 60.28 40.05 36.01 25.74 6.64 -163.35 -650.20 -1197.76 -1289.56 -1252.85 -1264.15 -1311.79 -1411.62 -1504.03 -1919.24 -2978.27 -4141.34 -4896.36 -5578.45 -5649.96 -5649.04 -5660.69 -5706.02 -5607.73 -4704.09 -2934.15 -1492.60 -777.90 -909.03 -1346.64 -2074.48 -3336.29 -4077.25 -4314.73 -4315.67 -4312.29 -4311.44 -4307.82 -4293.73 -4289.44 -4287.15 -4281.60 -4280.12 -4280.02 -4276.82 -4276.23 -4278.12 -4278.19
-4675.37 -4676.04 -4678.01 -4677.47 -4678.21 -4676.70 -4676.80 -4673.13 -4674.21 -4669.57 -4665.50 -4659.68 -4656.89 -4641.39 -4633.14 -4629.45 -4623.99 -4617.28 -4570.57 -4409.39 -3969.28 -3169.75 -2323.40 -1813.48 -1801.99 -1834.13 -1867.07 -1986.04 -2203.67 -2095.68 -2295.19 -2364.12 -2147.68 -1409.40 -590.30 -272.53 -266.86 -249.44 -244.44 -218.66 -154.96 -124.32 -93.92 -81.63 -51.74 -32.88 -5.08 2.46 2.75 17.64 80.36 132.96 219.06 283.22 226.14 215.87 235.64 209.04 210.91 198.16 203.03 183.27 153.46 145.43 140.04 133.33 128.78 123.23 110.26 91.19 85.33 75.62 67.80 59.15 51.18 49.30 52.94 50.96 50.74 54.46 65.68 76.64 85.73 99.23 118.36 129.05 175.01 196.80 211.01 205.57 209.97 165.72 84.45 46.04 36.20 26.30 3.93 -61.66 -339.33 -921.50 -1379.23 -1293.95 -1313.88 -1275.55 -1349.93 -1463.54 -1544.99 -2106.47 -2871.55 -4774.85 -5479.49 -5646.28 -5639.32 -5647.47 -5666.03 -5686.66 -5387.56 -5026.80 -2440.78 -1055.31 -974.22 -1511.82 -1854.72 -2405.19 -3684.21 -4316.44 -4318.83 -4315.81 -4314.60 -4320.52 -4313.29 -4308.81 -4302.95 -4293.48 -4291.00 -4288.09 -4285.06 -4283.91 -4282.36 -4282.69 -4282.76
-4682.99 -4682.92 -4683.51 -4684.01 -4685.92 -4688.86 -4686.24 -4684.12 -4684.56 -4678.79 -4678.47 -4672.73 -4669.19 -4661.46 -4655.04 -4648.02 -4644.87 -4630.52 -4611.07 -4469.85 -4130.59 -3341.86 -2741.65 -2452.38 -2438.56 -2645.52 -2774.86 -2922.03 -2962.09 -3287.04 -3242.68 -3133.57 -3226.05 -1958.02 -861.70 -466.56 -371.32 -295.91 -280.99 -255.53 -249.54 -220.51 -161.82 -119.39 -89.02 -48.40 -14.14 -8.73 -7.92 22.27 85.10 135.39 226.00 235.05 211.59 167.29 185.69 172.92 145.76 152.03 122.43 157.49 138.29 126.00 120.01 120.12 113.10 114.76 94.59 84.99 76.92 64.45 58.09 54.07 49.21 44.29 44.66 43.78 45.61 48.44 54.15 59.13 71.95 80.37 91.06 109.64 147.60 160.40 183.98 192.24 164.41 114.05 82.59 28.94 28.49 19.10 -13.76 -116.69 -681.27 -1264.26 -1439.29 -1339.66 -1390.60 -1373.81 -1461.63 -1628.75 -2020.52 -2796.86 -3743.91 -5001.24 -5556.00 -5606.10 -5637.08 -5649.94 -5684.41 -5633.04 -5356.38 -4155.42 -2098.86 -1312.92 -1204.90 -1826.38 -2541.61 -2807.04 -3579.55 -4317.32 -4322.62 -4324.78 -4328.12 -4333.20 -4321.48 -4312.32 -4311.29 -4306.56 -4300.44 -4296.43 -4292.33 -4289.80 -4286.44 -4286.43 -4286.50
-4689.11 -4689.05 -4690.81 -4693.75 -4695.48 -4694.80 -4697.56 -4695.65 -4693.10 -4694.99 -4693.04 -4686.39 -4682.75 -4676.85 -4677.73 -4668.97 -4664.28 -4658.42 -4642.24 -4513.16 -4305.58 -3945.40 -3631.74 -3521.79 -3463.50 -3944.56 -4021.99 -3995.09 -4158.05 -4066.52 -4151.55 -4170.43 -4105.97 -2623.87 -1555.87 -1102.28 -484.74 -364.86 -314.48 -308.31 -287.61 -224.53 -176.95 -148.77 -131.64 -86.71 -38.60 -23.80 -10.95 2.68 33.19 115.14 176.34 152.20 127.52 100.42 113.93 109.66 105.58 123.99 113.71 106.18 111.53 109.75 106.59 106.10 100.32 87.40 80.61 75.01 58.10 54.93 51.95 40.68 36.98 38.65 38.36 35.15 39.20 43.10 45.58 48.77 60.87 65.04 75.85 85.69 118.43 137.67 149.04 141.38 112.66 91.17 35.66 7.57 -22.11 -15.30 -30.35 -197.63 -1112.81 -1530.04 -1490.68 -1443.10 -1517.35 -1553.03 -1655.31 -2077.26 -2421.97 -3594.19 -4723.78 -5331.20 -5504.58 -5576.32 -5626.39 -5650.93 -5682.49 -5621.16 -5260.04 -3700.71 -2228.09 -1585.89 -1724.78 -2085.24 -2856.03 -3735.64 -3914.48 -4300.44 -4331.75 -4334.44 -4338.69 -4342.38 -4336.92 -4331.08 -4320.23 -4312.86 -4305.36 -4302.24 -4295.94 -4293.75 -4291.91 -4290.59 -4290.65
-4696.93 -4696.87 -4698.39 -4702.47 -4702.07 -4705.78 -4706.20 -4704.11 -4705.71 -4706.73 -4705.45 -4701.11 -4699.48 -4699.66 -4693.21 -4692.26 -4681.47 -4680.05 -4664.36 -4646.21 -4580.64 -4367.96 -4257.03 -4178.83 -4262.53 -4338.33 -4429.10 -4411.19 -4544.38 -4561.82 -4624.39 -4577.86 -4456.32 -4268.99 -3155.02 -1871.31 -731.66 -461.36 -379.45 -342.46 -328.10 -263.33 -210.69 -239.35 -174.69 -106.31 -71.32 -45.98 -39.06 -1.62 26.66 74.27 85.85 62.05 63.61 58.64 79.70 75.28 88.91 85.60 79.12 86.04 100.88 96.68 97.00 89.27 85.88 81.50 73.27 62.82 55.53 51.51 44.91 29.24 30.20 33.88 28.79 26.98 25.01 31.03 35.20 36.60 43.10 43.16 55.55 64.56 80.61 98.73 97.68 89.31 76.30 36.30 16.69 -45.26 -240.99 -333.79 -462.07 -1118.51 -1561.36 -1554.12 -1557.61 -1764.34 -1783.82 -2187.88 -2379.83 -2606.56 -4012.04 -4582.98 -5221.27 -5488.07 -5565.03 -5566.18 -5611.23 -5637.33 -5666.57 -5608.21 -4845.20 -4293.50 -2716.48 -1869.40 -2133.54 -2678.94 -3171.10 -3931.45 -4118.27 -4308.61 -4340.38 -4345.18 -4345.54 -4338.39 -4340.06 -4334.20 -4328.14 -4322.11 -4313.11 -4307.56 -4301.37 -4298.53 -4296.56 -4296.96 -4297.03
-4705.25 -4705.19 -4707.56 -4710.85 -4711.24 -4715.94 -4717.63 -4720.43 -4720.44 -4718.45 -4721.25 -4721.48 -4715.37 -4716.10 -4715.19 -4720.08 -4711.78 -4710.13 -4707.99 -4686.03 -4694.58 -4684.35 -4602.38 -4596.36 -4609.44 -4634.41 -4639.02 -4677.12 -4677.21 -4698.91 -4709.62 -4702.79 -4667.99 -4416.70 -3288.45 -2334.37 -1331.42 -989.50 -1028.71 -657.45 -365.06 -317.55 -306.23 -307.31 -248.16 -191.69 -143.68 -95.51 -84.04 -37.32 -20.11 7.78 19.12 22.70 45.64 42.12 44.78 56.69 60.35 46.49 45.64 51.72 76.66 71.59 80.75 79.69 78.47 72.61 66.20 57.68 52.63 40.52 28.90 24.62 14.91 18.64 15.96 15.82 16.85 19.61 24.68 28.76 32.40 36.85 37.50 39.69 58.47 70.78 66.45 56.28 44.49 19.64 13.60 -125.96 -552.14 -1022.88 -1537.81 -1526.73 -1566.80 -1645.88 -1936.46 -2093.78 -2244.93 -2707.08 -3254.62 -3978.20 -4739.45 -5356.68 -5597.46 -5659.99 -5629.67 -5603.05 -5630.41 -5643.37 -5705.73 -5672.37 -5156.47 -3680.55 -2886.08 -2060.65 -2632.70 -2964.18 -3356.01 -4080.75 -4276.15 -4338.12 -4356.26 -4352.60 -4353.69 -4353.85 -4351.76 -4341.77 -4336.18 -4329.24 -4319.13 -4312.65 -4307.41 -4303.60 -4301.88 -4301.87 -4301.94
-4714.04 -4713.97 -4715.47 -4719.32 -4723.04 -4725.37 -4726.79 -4729.94 -4734.87 -4736.17 -4737.32 -4738.78 -4741.09 -4740.37 -4740.76 -4739.61 -4737.70 -4731.38 -4725.86 -4733.07 -4718.63 -4714.51 -4695.67 -4707.09 -4694.26 -4717.26 -4722.85 -4724.87 -4730.76 -4739.42 -4742.86 -4747.24 -4704.35 -4516.37 -3632.72 -2976.58 -1979.62 -1564.40 -1398.13 -1107.61 -630.29 -570.68 -366.08 -334.15 -306.63 -255.52 -193.10 -172.35 -159.74 -117.53 -69.62 -25.19 0.27 6.22 14.68 22.73 32.30 32.95 28.62 35.10 36.64 39.05 54.42 62.76 64.72 79.62 73.01 64.55 54.40 51.49 36.86 26.96 22.72 16.31 11.25 6.77 10.99 11.94 6.71 6.20 10.61 17.43 22.10 24.84 28.05 30.52 31.86 48.88 37.53 26.10 14.78 -20.22 -81.73 -202.64 -473.69 -1279.70 -1575.99 -1597.98 -1825.24 -2240.61 -3330.12 -3090.04 -3522.92 -4293.51 -4594.22 -5147.37 -5398.82 -5700.64 -5685.47 -5749.10 -5726.53 -5644.80 -5579.70 -5586.64 -5592.49 -5473.36 -4691.28 -3263.65 -2430.43 -2301.53 -2922.50 -3360.62 -3810.92 -4134.29 -4320.87 -4361.98 -4366.52 -4363.93 -4359.27 -4357.74 -4356.89 -4348.82 -4342.50 -4333.80 -4326.56 -4318.25 -4313.01 -4308.45 -4306.73 -4307.08 -4307.15
