-10817.85 -10818.99 -10848.18 -10902.89 -10965.64 -10986.10 -11015.76 -11042.80 -11092.92 -11107.54 -11110.81 -11111.26 -11107.91 -11105.19 -11102.07 -11091.31 -11091.89 -11096.86 -11101.29 -11104.22 -11102.66 -11047.26 -10986.85 -10979.93 -10986.43 -10989.96 -10999.64 -11005.91 -11039.73 -11065.38 -11074.24 -11086.44 -11095.49 -11101.17 -11118.82 -11164.92 -11212.57 -11226.29 -11236.36 -11241.38 -11246.15 -11241.28 -11216.00 -11175.23 -11175.48 -11178.55 -11181.39 -11185.59 -11210.22 -11303.52 -11345.49 -11354.47 -11353.70 -11351.79 -11347.68 -11330.30 -11272.26 -11247.81 -11239.44 -11234.42 -11231.10 -11231.35 -11251.74 -11278.40 -11300.86 -11303.51 -11303.17 -11302.86 -11303.34 -11308.82 -11323.76 -11327.16 -11330.40 -11330.93 -11328.52 -11317.77 -11290.64 -11237.25 -11222.64 -11224.00 -11213.42 -11204.68 -11198.04 -11205.26 -11222.73 -11716.57 -12787.99 -13328.99 -13392.06 -12876.51 -9418.65 -8595.89 -6639.53 -5742.93 -5768.03 -5248.01 -4948.19 -4530.46 -2976.46 -2113.84 -1563.86 -1111.16 -1085.77 -1616.24 -1983.56 -2377.56 -3317.93 -5598.82 -8490.23 -9865.98 -11566.26 -13255.76 -13959.98 -13989.43 -13673.92 -12082.04 -8534.76 -6341.02 -5488.19 -5444.03 -5435.96 -5438.27 -5434.46 -5415.97 -5381.35 -5334.41 -5309.79 -5284.61 -5262.47 -5241.15 -5229.15 -5208.16 -5181.09 -5156.56 -5149.12 -5145.89 -5144.30 -5142.49 -5141.81 -5141.05 -5141.15
-10823.93 -10825.07 -10836.74 -10869.51 -10963.49 -10978.66 -11018.57 -11057.57 -11101.60 -11118.18 -11119.72 -11119.43 -11116.33 -11116.93 -11111.01 -11103.82 -11102.70 -11105.85 -11106.19 -11110.66 -11108.72 -11061.85 -10997.15 -10989.43 -10994.91 -11000.80 -11011.51 -11021.44 -11044.11 -11068.52 -11081.84 -11094.16 -11099.13 -11109.41 -11122.58 -11165.28 -11212.89 -11225.05 -11233.13 -11237.46 -11243.67 -11245.83 -11210.13 -11175.83 -11172.89 -11176.31 -11179.60 -11182.64 -11220.60 -11283.18 -11346.77 -11351.61 -11350.62 -11349.59 -11343.75 -11323.16 -11271.52 -11245.94 -11234.41 -11232.26 -11229.75 -11228.18 -11243.09 -11282.30 -11298.41 -11301.02 -11300.20 -11300.71 -11299.64 -11304.80 -11316.52 -11323.70 -11322.09 -11321.69 -11316.82 -11309.71 -11276.58 -11228.26 -11201.95 -11190.56 -11170.75 -11164.74 -11144.33 -11116.96 -11184.61 -11877.11 -12518.24 -13349.85 -12940.00 -11684.11 -8395.82 -6295.32 -5678.12 -5248.04 -5040.12 -4821.73 -4825.96 -4577.55 -3731.45 -2265.42 -1479.54 -1091.28 -1093.05 -1574.65 -2056.38 -2639.15 -3908.08 -5923.27 -8258.81 -10202.21 -11058.78 -12938.36 -13946.97 -13991.47 -13947.31 -12978.82 -9468.68 -6619.14 -5639.28 -5478.43 -5436.60 -5436.47 -5428.93 -5414.16 -5370.03 -5345.40 -5312.30 -5285.45 -5260.90 -5244.03 -5222.30 -5206.84 -5178.13 -5156.39 -5149.03 -5145.99 -5143.49 -5142.09 -5141.14 -5140.28 -5140.31
-10845.06 -10845.04 -10860.72 -10888.62 -10926.29 -10996.80 -11041.32 -11073.16 -11077.15 -11099.13 -11096.36 -11101.00 -11106.32 -11096.58 -11087.20 -11083.73 -11083.45 -11092.00 -11103.47 -11103.10 -11092.08 -11059.43 -11027.14 -11037.92 -11036.49 -11049.53 -11065.47 -11055.21 -11047.71 -11074.49 -11085.25 -11095.44 -11103.54 -11112.79 -11121.60 -11168.17 -11188.93 -11203.42 -11205.57 -11211.17 -11218.91 -11187.02 -11192.11 -11180.03 -11174.74 -11178.02 -11179.93 -11188.02 -11206.77 -11259.84 -11331.52 -11339.29 -11335.92 -11330.86 -11329.80 -11311.07 -11274.76 -11233.06 -11227.63 -11223.41 -11219.23 -11219.22 -11223.46 -11269.21 -11282.59 -11283.69 -11280.79 -11287.17 -11285.14 -11287.21 -11318.99 -11320.54 -11319.25 -11316.09 -11310.01 -11302.03 -11261.07 -11173.54 -11124.81 -11132.18 -11132.02 -11115.18 -11100.30 -11146.34 -11135.89 -11971.20 -12957.63 -12724.56 -11484.36 -10255.53 -6026.38 -5097.19 -4902.09 -4765.73 -4648.93 -4600.25 -4525.14 -4208.30 -4097.61 -2589.85 -1565.41 -1224.04 -1118.68 -1362.49 -1822.12 -2624.44 -3707.80 -5022.39 -7713.78 -9195.52 -10950.43 -12691.05 -13845.80 -14012.73 -13942.31 -12965.54 -10413.60 -6970.65 -5829.70 -5458.30 -5413.28 -5402.70 -5418.86 -5405.66 -5361.02 -5337.47 -5307.77 -5283.29 -5263.26 -5239.38 -5217.70 -5202.52 -5181.22 -5164.60 -5148.99 -5145.37 -5143.23 -5141.41 -5140.51 -5139.46 -5139.55
-10912.74 -10912.66 -10910.02 -10917.27 -10963.87 -11026.90 -11074.25 -11087.91 -11041.70 -11032.50 -11044.38 -11042.00 -11031.68 -11044.17 -11049.56 -11045.97 -11047.42 -11053.18 -11038.93 -11051.10 -11056.27 -11079.52 -11090.61 -11138.05 -11142.00 -11134.22 -11141.91 -11129.12 -11116.06 -11093.69 -11088.85 -11096.45 -11108.33 -11115.66 -11122.46 -11125.49 -11140.84 -11160.21 -11160.66 -11160.82 -11158.80 -11165.88 -11166.47 -11176.09 -11180.23 -11182.89 -11186.20 -11189.78 -11203.46 -11261.64 -11299.89 -11300.41 -11305.00 -11297.52 -11294.86 -11289.07 -11234.08 -11215.61 -11209.06 -11207.15 -11204.55 -11203.84 -11207.42 -11227.61 -11238.57 -11237.22 -11238.12 -11231.71 -11234.96 -11260.81 -11315.24 -11320.97 -11319.30 -11314.90 -11305.84 -11297.40 -11176.52 -11123.89 -11060.11 -11055.42 -11040.73 -11035.53 -11027.83 -11321.13 -11438.18 -12773.16 -12843.49 -11895.51 -9626.14 -7219.95 -5559.88 -4232.56 -4347.47 -4423.68 -4321.08 -4052.80 -4051.95 -3794.75 -3607.94 -2583.55 -1797.49 -1326.64 -1155.24 -1361.91 -1812.49 -2394.12 -3059.11 -3620.67 -7025.33 -8729.61 -11257.37 -13157.04 -14044.79 -14025.23 -13898.78 -13476.73 -11484.04 -8962.47 -5903.86 -5407.19 -5341.82 -5336.50 -5331.68 -5322.52 -5314.37 -5323.81 -5304.42 -5282.30 -5263.41 -5238.24 -5223.56 -5203.97 -5178.18 -5160.41 -5149.25 -5145.21 -5142.67 -5141.30 -5139.57 -5138.77 -5138.86
-10924.30 -10925.09 -10931.12 -10944.41 -10976.78 -11024.63 -11083.04 -11096.27 -11052.03 -11034.21 -11033.55 -11033.69 -11032.34 -11033.94 -11037.12 -11042.82 -11042.26 -11041.89 -11039.28 -11040.43 -11044.64 -11062.00 -11135.46 -11155.50 -11159.02 -11163.55 -11170.04 -11167.95 -11138.87 -11104.91 -11092.29 -11098.40 -11113.75 -11119.62 -11122.71 -11126.04 -11127.38 -11131.00 -11134.17 -11137.94 -11140.76 -11147.02 -11162.66 -11176.91 -11184.48 -11186.12 -11188.23 -11190.25 -11208.11 -11265.61 -11287.75 -11292.31 -11291.48 -11291.18 -11290.56 -11277.12 -11236.54 -11213.47 -11207.34 -11206.68 -11202.97 -11201.44 -11210.99 -11224.57 -11229.36 -11231.30 -11230.82 -11229.59 -11228.67 -11250.98 -11300.84 -11320.72 -11319.03 -11314.81 -11307.58 -11291.31 -11229.58 -11068.07 -11034.42 -11022.05 -11009.83 -11010.25 -11011.11 -11544.34 -12256.43 -13026.10 -12632.12 -9998.44 -7733.63 -4994.02 -3595.66 -3263.48 -3663.36 -4051.70 -3974.34 -3821.05 -3728.90 -3483.26 -3190.23 -2637.66 -1830.03 -1351.88 -1171.31 -1315.62 -1982.89 -2493.78 -3679.18 -4579.68 -7403.32 -9398.50 -11127.10 -12883.68 -14011.78 -14032.12 -13955.19 -13598.70 -11968.63 -8887.27 -6100.21 -5430.59 -5320.78 -5302.89 -5298.43 -5290.63 -5293.72 -5309.12 -5302.57 -5275.52 -5265.37 -5237.53 -5224.12 -5203.60 -5178.73 -5163.11 -5151.04 -5145.49 -5142.84 -5140.79 -5139.31 -5138.18 -5138.26
-10926.64 -10926.55 -10934.14 -10945.67 -10971.85 -11004.24 -11066.61 -11089.88 -11050.51 -11039.41 -11043.03 -11044.79 -11050.73 -11047.25 -11051.69 -11052.00 -11054.76 -11052.52 -11048.78 -11047.68 -11050.50 -11100.18 -11143.40 -11160.09 -11165.48 -11171.82 -11179.11 -11181.36 -11139.01 -11103.07 -11096.11 -11105.36 -11116.34 -11125.10 -11129.35 -11129.67 -11127.95 -11132.89 -11137.08 -11140.41 -11143.72 -11148.34 -11169.27 -11180.13 -11185.02 -11186.65 -11188.39 -11189.11 -11219.89 -11246.74 -11285.85 -11291.69 -11292.21 -11292.65 -11291.13 -11280.29 -11237.81 -11219.35 -11212.64 -11211.53 -11207.93 -11211.88 -11217.89 -11232.51 -11240.86 -11239.27 -11238.29 -11233.74 -11233.98 -11259.63 -11312.71 -11324.71 -11321.13 -11318.40 -11310.67 -11287.65 -11234.18 -11096.32 -11030.97 -11008.05 -10998.48 -11003.57 -11122.68 -11497.14 -12052.95 -13168.64 -12001.50 -6643.47 -4538.79 -2908.95 -2453.87 -2500.07 -3354.75 -3562.50 -3662.05 -3437.61 -3297.72 -3216.57 -3026.50 -2586.25 -1787.69 -1295.09 -1078.36 -1267.25 -1860.58 -2707.53 -4200.80 -6534.11 -8149.42 -9279.24 -10671.59 -11162.60 -13817.53 -13935.46 -14008.82 -13899.39 -12194.72 -9757.32 -6581.35 -5440.97 -5333.68 -5299.87 -5295.61 -5287.61 -5300.21 -5306.06 -5299.12 -5276.39 -5258.24 -5238.60 -5220.12 -5197.65 -5187.57 -5164.15 -5153.27 -5145.56 -5142.33 -5140.31 -5138.99 -5137.53 -5137.62
-10928.04 -10928.99 -10937.25 -10949.76 -10962.23 -10994.55 -11047.17 -11068.72 -11045.70 -11044.39 -11052.71 -11061.25 -11058.68 -11061.25 -11061.01 -11064.01 -11063.43 -11060.56 -11059.59 -11054.84 -11059.57 -11106.80 -11149.19 -11164.47 -11169.73 -11173.93 -11180.65 -11183.33 -11131.70 -11101.37 -11099.36 -11106.88 -11117.00 -11125.43 -11132.08 -11130.86 -11129.78 -11134.86 -11138.57 -11141.34 -11145.00 -11152.24 -11169.38 -11182.31 -11185.68 -11186.97 -11188.27 -11189.21 -11206.29 -11235.05 -11287.40 -11291.19 -11293.81 -11293.88 -11292.69 -11284.19 -11237.54 -11224.21 -11219.98 -11220.60 -11219.77 -11221.07 -11222.68 -11237.79 -11248.42 -11247.59 -11244.09 -11242.59 -11241.22 -11262.39 -11322.18 -11327.01 -11325.94 -11317.94 -11313.84 -11293.44 -11235.31 -11085.39 -11030.04 -10995.83 -10993.60 -11004.67 -11042.17 -11903.44 -12460.29 -12004.80 -9555.07 -6454.90 -3667.11 -2327.27 -1949.07 -2179.08 -2744.85 -3565.83 -3449.23 -3151.78 -2917.94 -2839.50 -2742.04 -2439.55 -1766.20 -1244.35 -1059.90 -1431.60 -1750.80 -2442.71 -3509.95 -6308.18 -8183.04 -9281.25 -9729.03 -10535.36 -13216.73 -13928.15 -13994.90 -13781.63 -13077.32 -9895.75 -6848.48 -5552.19 -5329.21 -5299.25 -5293.99 -5290.67 -5299.23 -5309.02 -5303.56 -5272.24 -5257.74 -5235.22 -5219.27 -5202.75 -5188.95 -5160.11 -5152.38 -5144.50 -5142.42 -5140.51 -5138.70 -5137.34 -5137.42
-10929.56 -10929.49 -10938.22 -10951.12 -10963.05 -10985.80 -11013.24 -11040.59 -11039.08 -11042.75 -11068.51 -11072.01 -11074.03 -11071.02 -11073.59 -11074.48 -11071.97 -11069.95 -11065.36 -11063.33 -11066.50 -11098.11 -11159.49 -11171.24 -11175.37 -11179.34 -11184.38 -11187.43 -11138.24 -11106.01 -11097.28 -11106.73 -11114.50 -11123.74 -11128.58 -11133.91 -11131.25 -11138.64 -11141.37 -11146.06 -11150.86 -11158.34 -11168.70 -11178.92 -11183.14 -11185.62 -11187.34 -11188.42 -11207.69 -11255.59 -11285.17 -11287.67 -11291.85 -11289.38 -11294.79 -11290.05 -11247.63 -11240.43 -11237.23 -11231.24 -11236.65 -11230.40 -11239.00 -11248.38 -11257.07 -11257.04 -11258.35 -11255.53 -11255.45 -11270.68 -11311.36 -11323.81 -11326.98 -11318.54 -11304.32 -11286.31 -11179.43 -11080.37 -11034.21 -11005.32 -10998.29 -11003.38 -11090.89 -11417.01 -11702.73 -11463.63 -9911.15 -6336.11 -2994.31 -2045.42 -1642.53 -2103.03 -2961.50 -3484.04 -3236.89 -2684.39 -2593.93 -2638.98 -2498.62 -2162.70 -1785.88 -1419.93 -1185.05 -1386.61 -1757.16 -2383.90 -3412.64 -4064.58 -8200.24 -9124.39 -9373.83 -10137.07 -12989.92 -13883.44 -13974.18 -13904.23 -13633.77 -10915.72 -8181.26 -5644.23 -5361.89 -5298.07 -5289.64 -5289.05 -5298.50 -5306.94 -5293.07 -5270.08 -5255.10 -5231.44 -5215.61 -5199.91 -5180.99 -5165.52 -5153.88 -5146.37 -5142.49 -5139.68 -5137.90 -5136.91 -5136.89
-10944.60 -10944.55 -10958.72 -10979.96 -10980.82 -11005.05 -11024.93 -11026.02 -11023.50 -11063.25 -11089.83 -11090.59 -11096.61 -11093.96 -11086.10 -11082.76 -11072.97 -11067.65 -11065.35 -11061.71 -11061.63 -11103.30 -11168.55 -11197.13 -11197.73 -11207.06 -11212.76 -11194.19 -11135.13 -11095.03 -11089.47 -11095.74 -11102.21 -11113.17 -11125.30 -11144.96 -11201.04 -11205.24 -11210.04 -11187.64 -11204.11 -11202.18 -11188.03 -11166.74 -11173.45 -11169.24 -11175.48 -11174.83 -11188.04 -11227.86 -11237.75 -11249.58 -11252.39 -11251.03 -11242.13 -11270.86 -11277.61 -11264.22 -11274.60 -11294.84 -11286.34 -11271.89 -11280.71 -11280.57 -11295.88 -11282.11 -11282.32 -11276.61 -11273.50 -11275.70 -11301.84 -11308.91 -11310.73 -11297.78 -11291.31 -11250.04 -11203.32 -11105.67 -11048.07 -11021.80 -11014.17 -11023.69 -11051.65 -11318.03 -11533.20 -9707.39 -7303.22 -4597.01 -2187.44 -1640.86 -1534.74 -2028.61 -2786.56 -3112.08 -2826.74 -2413.61 -2392.90 -2314.76 -2237.07 -2014.68 -1903.65 -1362.89 -1329.22 -1532.34 -1914.51 -2369.09 -2779.00 -4001.67 -7411.76 -8577.68 -9229.59 -10372.36 -12009.95 -13953.79 -13967.67 -13911.53 -13425.33 -12066.19 -7739.14 -5975.32 -5342.19 -5296.66 -5279.34 -5281.94 -5299.32 -5298.80 -5282.96 -5263.63 -5250.09 -5227.83 -5213.46 -5198.34 -5182.43 -5172.82 -5157.13 -5147.62 -5142.88 -5139.47 -5137.68 -5136.34 -5136.42
-10991.87 -10991.80 -10996.12 -10995.68 -11027.41 -11033.53 -11051.00 -11052.36 -11035.80 -11078.35 -11111.40 -11125.72 -11131.76 -11131.67 -11107.18 -11086.07 -11065.95 -11061.88 -11058.31 -11053.83 -11055.06 -11112.21 -11190.76 -11220.37 -11222.31 -11223.19 -11226.46 -11225.20 -11145.43 -11092.16 -11074.39 -11080.24 -11094.37 -11098.54 -11114.00 -11200.56 -11263.30 -11284.69 -11282.25 -11288.23 -11297.85 -11293.90 -11208.34 -11161.64 -11153.71 -11148.60 -11149.99 -11151.39 -11157.96 -11168.77 -11161.37 -11164.38 -11189.09 -11186.64 -11187.88 -11210.38 -11260.72 -11334.85 -11341.98 -11336.26 -11333.72 -11334.87 -11326.92 -11308.60 -11311.72 -11301.08 -11298.64 -11295.16 -11292.26 -11287.31 -11286.95 -11277.31 -11267.11 -11258.68 -11251.71 -11223.04 -11179.31 -11114.63 -11079.95 -11056.90 -11053.43 -11032.13 -11103.42 -11318.67 -11441.06 -9327.51 -5867.59 -3693.06 -1949.28 -1332.39 -1456.52 -1864.56 -2430.84 -2167.11 -2235.73 -2170.21 -2163.15 -2025.89 -1961.95 -1996.06 -1826.30 -1456.46 -1390.70 -1703.27 -2047.90 -2725.38 -3322.98 -5848.29 -7801.36 -9244.19 -10085.97 -10609.81 -12662.15 -13965.56 -13959.08 -13920.66 -13541.64 -11576.16 -9311.01 -6026.15 -5418.60 -5302.76 -5260.56 -5262.32 -5291.35 -5292.61 -5281.91 -5260.41 -5242.09 -5228.25 -5208.76 -5195.63 -5185.59 -5171.93 -5157.66 -5148.56 -5142.33 -5139.87 -5137.48 -5135.91 -5135.99
-10993.33 -10994.64 -11003.69 -11020.09 -11034.64 -11048.01 -11067.39 -11056.32 -11024.68 -11068.71 -11099.12 -11111.97 -11118.30 -11135.03 -11115.79 -11083.21 -11068.79 -11063.66 -11059.10 -11054.02 -11065.52 -11108.25 -11191.79 -11228.91 -11230.30 -11231.14 -11232.08 -11228.04 -11159.57 -11075.79 -11070.10 -11075.10 -11081.53 -11087.43 -11108.79 -11194.72 -11290.51 -11300.93 -11310.70 -11316.11 -11318.47 -11311.89 -11244.07 -11143.53 -11136.21 -11136.86 -11141.35 -11144.23 -11145.72 -11146.10 -11148.06 -11155.67 -11157.44 -11162.35 -11170.72 -11204.96 -11292.53 -11344.16 -11355.55 -11356.07 -11349.74 -11345.22 -11341.10 -11330.55 -11323.72 -11318.65 -11315.94 -11306.77 -11301.12 -11294.23 -11285.75 -11274.86 -11264.49 -11255.40 -11240.61 -11220.09 -11162.73 -11130.53 -11087.43 -11086.88 -11078.64 -11064.09 -11049.71 -10764.50 -10726.29 -8875.68 -6158.73 -3427.95 -1881.76 -1218.09 -1147.76 -1458.99 -1659.56 -1992.12 -1856.96 -1872.97 -1983.60 -1897.01 -1816.15 -1824.10 -1780.42 -1254.12 -1327.86 -1707.05 -2160.40 -2715.56 -3708.17 -6592.69 -8441.30 -9423.42 -10746.97 -12315.64 -14055.84 -13956.06 -13956.84 -13916.77 -13800.03 -12942.45 -9180.04 -6349.73 -5482.44 -5285.98 -5254.33 -5258.87 -5277.57 -5289.89 -5278.48 -5255.40 -5241.69 -5221.69 -5205.77 -5193.14 -5184.81 -5171.28 -5161.55 -5150.85 -5142.77 -5140.07 -5137.61 -5135.72 -5135.80
-10987.97 -10987.89 -11002.11 -11016.69 -11033.61 -11046.38 -11062.69 -11052.31 -10993.60 -11016.32 -11045.03 -11063.17 -11081.52 -11105.83 -11110.86 -11084.09 -11071.57 -11067.14 -11061.05 -11057.20 -11057.17 -11099.46 -11226.02 -11229.70 -11230.15 -11229.20 -11228.90 -11225.82 -11143.43 -11083.65 -11057.36 -11060.89 -11068.01 -11075.98 -11092.01 -11176.83 -11272.63 -11291.10 -11301.78 -11307.07 -11312.01 -11295.77 -11222.35 -11136.27 -11130.39 -11133.33 -11136.98 -11140.11 -11143.23 -11145.74 -11147.46 -11152.72 -11157.56 -11162.87 -11169.42 -11192.96 -11293.21 -11353.49 -11358.09 -11357.48 -11355.18 -11345.62 -11342.81 -11332.44 -11327.07 -11325.29 -11317.24 -11315.11 -11308.56 -11299.93 -11288.75 -11279.52 -11271.64 -11257.82 -11249.89 -11222.93 -11197.80 -11139.53 -11114.88 -11119.37 -11123.71 -11159.66 -11090.00 -10950.28 -9194.73 -7884.33 -5664.54 -2598.34 -1358.61 -995.47 -998.87 -1179.88 -1211.26 -1345.89 -1611.61 -1719.10 -1736.17 -1665.63 -1771.24 -1784.68 -1658.75 -1340.37 -1357.72 -1689.69 -2166.77 -2647.26 -4087.84 -6581.05 -7910.36 -9459.92 -11078.91 -13221.28 -14059.60 -13950.24 -13911.86 -13920.00 -13832.01 -12850.15 -8976.05 -6476.00 -5713.52 -5283.16 -5245.49 -5248.51 -5272.85 -5279.31 -5267.14 -5253.30 -5233.34 -5219.93 -5205.02 -5194.47 -5182.50 -5169.49 -5160.64 -5149.50 -5143.28 -5139.73 -5137.90 -5135.68 -5135.76
-10982.43 -10982.35 -10997.99 -11014.34 -11029.95 -11043.14 -11054.36 -11021.84 -10978.55 -10982.75 -10989.25 -11003.99 -11023.00 -11083.61 -11079.58 -11071.57 -11070.31 -11067.00 -11062.97 -11058.64 -11066.88 -11114.43 -11195.72 -11228.70 -11229.54 -11224.89 -11225.59 -11203.46 -11144.80 -11072.32 -11046.34 -11051.17 -11055.81 -11059.88 -11088.74 -11176.38 -11257.16 -11282.80 -11289.33 -11295.01 -11295.76 -11290.75 -11184.94 -11133.91 -11121.98 -11127.71 -11131.06 -11136.60 -11139.75 -11143.08 -11147.35 -11153.66 -11157.47 -11162.48 -11167.35 -11209.94 -11300.70 -11342.07 -11356.19 -11355.30 -11350.92 -11346.08 -11341.31 -11333.63 -11329.39 -11325.84 -11319.62 -11316.38 -11310.12 -11301.09 -11291.21 -11282.72 -11270.32 -11261.25 -11248.96 -11239.00 -11213.60 -11156.58 -11158.93 -11184.24 -11174.24 -11166.61 -11105.16 -11221.09 -8982.55 -7279.14 -5447.42 -2212.67 -1211.15 -951.83 -840.83 -905.03 -1005.74 -1160.70 -1406.67 -1517.90 -1610.84 -1640.64 -1687.41 -1651.99 -1434.80 -1220.53 -1367.38 -1643.68 -2233.40 -3257.68 -5430.67 -8350.50 -9054.74 -10186.42 -11182.66 -12692.23 -13937.83 -13877.90 -13867.63 -13831.43 -13650.94 -12758.67 -10314.21 -7155.93 -5776.69 -5300.43 -5240.59 -5240.07 -5258.63 -5270.11 -5256.71 -5251.77 -5227.35 -5218.30 -5204.60 -5192.02 -5180.17 -5171.95 -5156.57 -5152.47 -5144.14 -5140.00 -5137.94 -5135.70 -5135.77
-10975.42 -10975.34 -10991.36 -11006.01 -11020.66 -11035.53 -11047.43 -11027.61 -10970.94 -10958.89 -10967.35 -10970.98 -10988.89 -11014.42 -11039.41 -11040.06 -11059.13 -11072.39 -11074.88 -11066.25 -11069.29 -11132.26 -11198.21 -11222.31 -11221.82 -11211.54 -11216.59 -11198.56 -11134.21 -11050.96 -11041.21 -11043.83 -11047.79 -11053.82 -11083.12 -11168.14 -11253.01 -11269.00 -11275.96 -11284.51 -11294.22 -11280.62 -11183.99 -11129.10 -11116.03 -11122.88 -11127.13 -11134.05 -11138.99 -11142.61 -11153.38 -11154.38 -11163.32 -11165.09 -11171.25 -11217.85 -11304.75 -11347.35 -11351.06 -11349.92 -11345.18 -11343.62 -11337.76 -11332.91 -11327.44 -11322.94 -11318.61 -11313.58 -11307.67 -11297.23 -11288.83 -11276.38 -11264.50 -11252.75 -11245.31 -11233.97 -11221.07 -11220.57 -11228.98 -11220.13 -11228.17 -11205.39 -10921.18 -9442.36 -8044.17 -6124.18 -3769.65 -1834.33 -1021.02 -741.73 -724.64 -838.47 -1007.24 -1172.48 -1349.78 -1503.75 -1525.60 -1575.21 -1615.26 -1460.13 -1240.63 -1016.16 -1275.33 -1791.94 -2447.00 -4076.93 -4984.21 -8403.40 -9424.83 -9798.32 -10957.52 -12634.95 -13314.74 -13803.83 -13798.89 -13710.51 -13604.02 -13335.47 -12051.77 -7854.20 -5821.69 -5359.24 -5246.54 -5242.20 -5252.37 -5263.16 -5258.68 -5242.50 -5232.92 -5217.65 -5206.88 -5191.30 -5178.42 -5173.14 -5161.43 -5153.55 -5144.88 -5140.54 -5138.36 -5136.01 -5136.08
-10952.39 -10949.55 -10959.39 -10976.72 -10992.55 -11014.22 -11022.01 -11002.76 -10957.42 -10954.34 -10964.56 -10970.96 -10979.98 -10991.86 -11022.66 -11052.88 -11088.37 -11119.51 -11125.40 -11127.21 -11116.33 -11156.66 -11175.88 -11190.11 -11175.70 -11173.52 -11176.58 -11175.59 -11114.77 -11067.86 -11062.78 -11047.87 -11064.26 -11078.10 -11093.42 -11177.53 -11229.24 -11259.62 -11265.69 -11274.29 -11283.08 -11262.44 -11191.74 -11127.68 -11124.94 -11130.26 -11134.85 -11138.24 -11153.61 -11173.24 -11213.48 -11250.02 -11250.92 -11266.47 -11236.75 -11252.54 -11334.32 -11341.49 -11345.76 -11345.46 -11341.09 -11336.90 -11333.60 -11329.11 -11320.91 -11316.58 -11314.85 -11309.18 -11303.06 -11293.83 -11282.96 -11267.40 -11257.09 -11244.81 -11235.96 -11233.85 -11236.37 -11241.31 -11252.64 -11240.69 -11224.23 -11124.55 -10352.57 -8948.80 -6650.00 -5217.57 -2933.14 -1446.89 -846.49 -437.51 -517.60 -838.21 -1051.50 -1264.07 -1330.41 -1452.59 -1491.67 -1539.07 -1561.86 -1456.05 -1032.50 -959.67 -1390.81 -2083.05 -2706.97 -4034.43 -5636.82 -7606.73 -8672.47 -9297.21 -9719.29 -10926.69 -11848.50 -13174.00 -13641.90 -13637.04 -13531.81 -12997.24 -11681.01 -8641.29 -6112.10 -5338.31 -5241.54 -5229.13 -5245.10 -5253.89 -5250.76 -5243.84 -5226.74 -5216.04 -5205.82 -5193.96 -5182.34 -5172.28 -5164.82 -5155.71 -5146.48 -5140.49 -5138.88 -5136.55 -5136.62
-10905.23 -10905.15 -10926.30 -10939.45 -10946.47 -10961.03 -10971.94 -10972.96 -10965.28 -10963.51 -10971.27 -10977.44 -10983.33 -10991.22 -11030.67 -11092.23 -11148.99 -11211.18 -11231.47 -11225.12 -11201.70 -11185.28 -11135.68 -11122.96 -11129.92 -11129.31 -11123.50 -11123.59 -11104.55 -11097.50 -11103.25 -11096.62 -11096.34 -11113.97 -11120.03 -11175.34 -11240.24 -11251.26 -11256.29 -11265.62 -11271.51 -11269.34 -11188.37 -11150.89 -11141.07 -11144.60 -11151.00 -11159.73 -11178.43 -11240.84 -11311.63 -11310.06 -11325.99 -11330.43 -11325.74 -11338.12 -11336.25 -11340.14 -11340.27 -11336.04 -11333.56 -11330.37 -11326.08 -11320.46 -11314.96 -11309.96 -11305.95 -11299.68 -11292.91 -11282.20 -11274.71 -11261.70 -11238.84 -11235.17 -11227.64 -11228.48 -11235.78 -11254.97 -11250.58 -11226.49 -10104.72 -9700.20 -8295.91 -5617.88 -4793.24 -3329.20 -2203.70 -919.87 -700.35 -275.01 -379.39 -757.49 -1070.03 -1182.00 -1297.81 -1359.79 -1422.68 -1510.52 -1509.45 -1389.50 -1111.22 -1232.92 -1529.00 -2087.99 -3189.72 -3672.31 -5181.63 -6102.38 -6792.61 -7922.14 -9569.03 -10037.29 -10870.63 -12743.70 -13428.84 -13609.20 -13439.35 -13014.39 -11986.20 -9172.33 -6360.24 -5417.57 -5233.70 -5219.79 -5242.33 -5249.73 -5247.56 -5240.71 -5228.03 -5215.12 -5202.84 -5195.51 -5184.63 -5174.86 -5165.76 -5155.45 -5147.60 -5143.29 -5140.32 -5137.85 -5137.46
-10897.75 -10899.12 -10909.49 -10918.94 -10931.13 -10944.79 -10952.85 -10954.38 -10951.00 -10953.59 -10960.76 -10969.81 -10968.08 -10978.36 -11027.11 -11067.50 -11115.37 -11160.25 -11209.95 -11238.68 -11239.97 -11197.97 -11125.26 -11114.41 -11110.97 -11108.43 -11105.77 -11105.39 -11106.55 -11108.96 -11109.22 -11111.61 -11114.75 -11120.72 -11133.08 -11184.93 -11224.70 -11246.86 -11254.94 -11260.17 -11266.44 -11260.56 -11211.00 -11142.40 -11140.97 -11146.68 -11153.42 -11164.66 -11184.69 -11251.79 -11323.51 -11331.95 -11334.01 -11342.71 -11346.46 -11344.21 -11333.51 -11331.19 -11329.53 -11328.18 -11323.14 -11320.08 -11313.23 -11307.74 -11303.39 -11297.34 -11293.18 -11288.59 -11283.64 -11275.32 -11265.90 -11251.93 -11236.68 -11224.00 -11217.33 -11222.56 -11234.36 -11248.49 -11250.65 -10138.67 -9531.33 -8149.22 -6067.37 -4118.21 -3570.26 -2547.06 -1383.36 -903.63 -372.87 -212.44 -422.41 -722.19 -877.70 -1030.10 -1115.62 -1224.82 -1355.39 -1459.52 -1494.19 -1266.22 -1147.26 -1352.32 -1651.32 -2107.92 -2738.77 -3523.87 -4408.18 -5123.84 -6135.35 -7705.65 -8650.76 -9753.16 -10569.55 -11677.08 -13092.27 -13270.35 -13314.05 -13062.83 -12637.14 -9191.23 -6495.10 -5437.72 -5232.44 -5214.35 -5235.32 -5244.32 -5247.63 -5235.65 -5228.59 -5215.82 -5207.22 -5195.40 -5184.26 -5177.23 -5166.53 -5157.27 -5150.66 -5144.30 -5140.66 -5138.38 -5138.45
-10895.79 -10896.82 -10903.83 -10913.98 -10923.35 -10934.04 -10949.92 -10948.40 -10936.19 -10940.53 -10947.11 -10949.15 -10952.82 -10960.89 -10989.79 -11055.93 -11081.54 -11113.62 -11162.44 -11204.42 -11226.72 -11199.32 -11124.98 -11108.42 -11106.35 -11105.91 -11104.99 -11105.04 -11107.53 -11109.56 -11111.09 -11114.20 -11116.91 -11122.45 -11129.80 -11186.99 -11231.75 -11246.95 -11254.83 -11261.11 -11265.70 -11246.42 -11205.78 -11139.14 -11139.26 -11143.97 -11148.22 -11154.70 -11191.17 -11255.42 -11310.90 -11331.01 -11331.84 -11338.83 -11339.26 -11339.33 -11329.82 -11324.69 -11323.04 -11317.57 -11313.30 -11310.43 -11304.73 -11299.17 -11290.24 -11288.50 -11282.03 -11275.09 -11270.29 -11262.75 -11258.90 -11241.67 -11227.25 -11210.76 -11210.80 -11215.49 -11226.35 -11203.30 -10962.48 -9985.59 -8404.62 -5477.44 -4650.32 -3199.97 -2607.45 -2022.96 -1509.95 -784.72 -420.59 -227.41 -333.59 -629.12 -751.49 -867.30 -1014.30 -1009.75 -1120.53 -1342.29 -1382.29 -1232.01 -1071.48 -1112.69 -1393.16 -2026.94 -2661.46 -3581.12 -4150.41 -5323.32 -6842.76 -7948.49 -9228.58 -9589.74 -10386.79 -11379.91 -12680.67 -13123.95 -13135.18 -13002.45 -12454.31 -10755.66 -6664.22 -5478.77 -5224.73 -5213.28 -5228.85 -5238.80 -5241.37 -5236.76 -5225.95 -5218.76 -5206.77 -5195.68 -5188.42 -5180.00 -5169.60 -5160.39 -5150.73 -5145.21 -5141.92 -5139.22 -5139.29
-10893.64 -10893.57 -10899.90 -10907.73 -10915.46 -10923.10 -10934.29 -10932.36 -10919.66 -10926.60 -10931.35 -10935.83 -10938.68 -10950.06 -10972.97 -11030.83 -11054.90 -11073.92 -11099.37 -11158.50 -11206.16 -11175.43 -11124.23 -11105.27 -11103.91 -11104.26 -11104.76 -11105.54 -11108.19 -11112.00 -11114.95 -11116.71 -11120.41 -11123.36 -11136.28 -11160.74 -11235.50 -11247.51 -11258.24 -11262.38 -11265.98 -11256.74 -11212.50 -11137.82 -11135.74 -11139.99 -11143.56 -11151.55 -11180.06 -11255.25 -11302.44 -11324.70 -11326.29 -11329.90 -11331.12 -11328.94 -11321.67 -11313.96 -11311.63 -11307.72 -11304.49 -11299.83 -11294.00 -11288.39 -11281.10 -11274.14 -11269.03 -11262.97 -11259.84 -11252.10 -11243.12 -11229.08 -11211.08 -11199.75 -11197.46 -11202.25 -11168.39 -11139.66 -10150.81 -8393.38 -7013.35 -5435.22 -3928.11 -2535.48 -2116.96 -1858.44 -1380.17 -627.82 -374.12 -308.79 -504.96 -613.23 -636.14 -671.28 -792.89 -740.71 -928.87 -1266.74 -1332.25 -874.41 -654.63 -827.73 -1552.93 -1926.07 -2583.36 -3482.43 -4334.80 -5636.92 -7483.58 -8030.21 -8931.62 -9509.71 -10082.61 -11544.13 -12759.46 -12991.39 -12982.08 -12851.28 -12147.66 -10270.74 -7766.18 -5545.85 -5281.69 -5214.32 -5223.68 -5237.06 -5237.21 -5233.52 -5225.12 -5218.57 -5207.12 -5198.96 -5190.94 -5183.11 -5169.89 -5165.29 -5153.98 -5150.02 -5143.30 -5141.23 -5140.55
-10892.66 -10892.60 -10899.49 -10902.88 -10909.86 -10916.69 -10926.16 -10920.68 -10911.14 -10905.25 -10912.65 -10911.79 -10916.57 -10921.87 -10981.44 -11004.21 -11029.25 -11038.33 -11055.19 -11100.41 -11158.82 -11157.79 -11112.50 -11099.64 -11099.86 -11101.39 -11101.38 -11103.00 -11105.45 -11112.42 -11115.35 -11118.67 -11122.44 -11127.31 -11135.14 -11195.39 -11233.95 -11248.96 -11256.83 -11262.11 -11266.52 -11251.71 -11205.75 -11149.74 -11136.43 -11138.98 -11141.92 -11148.26 -11162.63 -11243.67 -11309.21 -11318.59 -11320.62 -11323.61 -11323.79 -11323.35 -11317.35 -11307.11 -11303.42 -11299.35 -11295.18 -11291.31 -11284.81 -11280.17 -11271.46 -11263.99 -11257.01 -11250.91 -11241.79 -11239.71 -11227.70 -11217.45 -11201.09 -11189.23 -11186.21 -11191.56 -11193.03 -10990.97 -9967.72 -7529.72 -5357.92 -3842.44 -2911.52 -2135.81 -1726.93 -1302.27 -1178.51 -680.13 -476.14 -471.11 -554.42 -547.61 -523.07 -498.38 -461.40 -580.46 -613.12 -1000.94 -1041.68 -776.85 -658.41 -964.31 -1401.76 -2345.85 -2910.51 -3242.97 -4543.28 -5922.42 -7320.63 -8043.98 -8826.15 -9530.00 -10313.17 -11013.77 -12064.19 -12444.45 -12552.31 -12541.91 -11999.96 -10536.23 -7265.09 -5539.12 -5272.71 -5205.89 -5217.22 -5238.47 -5239.50 -5231.93 -5225.45 -5217.47 -5208.13 -5199.28 -5189.83 -5183.31 -5173.81 -5167.39 -5156.23 -5149.36 -5145.95 -5142.17 -5142.24
-10903.21 -10908.01 -10910.32 -10914.17 -10916.30 -10922.38 -10928.83 -10916.30 -10879.77 -10863.68 -10875.89 -10876.89 -10874.07 -10870.39 -10885.25 -10904.93 -10903.32 -10919.82 -10930.59 -10965.52 -11032.81 -11079.58 -11071.87 -11083.73 -11086.96 -11091.67 -11090.37 -11094.16 -11092.49 -11099.08 -11092.75 -11096.44 -11108.25 -11113.77 -11119.88 -11179.79 -11214.48 -11230.54 -11235.47 -11234.51 -11234.20 -11233.59 -11206.85 -11156.98 -11142.13 -11143.26 -11147.10 -11151.32 -11182.31 -11252.52 -11297.07 -11312.03 -11314.10 -11313.78 -11315.67 -11315.05 -11310.91 -11306.64 -11299.93 -11296.60 -11290.28 -11285.64 -11278.24 -11270.50 -11256.94 -11249.13 -11244.74 -11237.19 -11223.80 -11223.89 -11211.09 -11195.92 -11180.68 -11176.56 -11177.42 -11182.68 -11141.04 -10710.46 -9504.98 -6815.32 -4432.61 -3281.46 -2503.55 -1863.99 -1397.10 -1108.57 -876.47 -634.00 -548.73 -585.54 -548.01 -482.46 -354.22 -296.43 -289.04 -334.86 -328.93 -356.02 -598.09 -513.60 -698.18 -1062.39 -1573.25 -2177.16 -2818.39 -3591.76 -4626.61 -5989.88 -7446.61 -8287.19 -8856.33 -9662.05 -10288.42 -10566.26 -11248.62 -11789.08 -11976.07 -11983.45 -11861.36 -10662.71 -7590.49 -5546.08 -5265.66 -5190.84 -5216.75 -5233.04 -5236.12 -5228.32 -5222.77 -5213.99 -5207.43 -5200.24 -5189.60 -5182.93 -5174.18 -5168.47 -5156.49 -5151.20 -5147.30 -5144.14 -5143.44
-10924.25 -10923.50 -10924.09 -10925.14 -10931.53 -10936.60 -10937.91 -10926.00 -10843.19 -10834.00 -10838.08 -10844.99 -10846.91 -10845.14 -10830.37 -10796.95 -10815.89 -10823.25 -10839.04 -10841.98 -10869.34 -10977.07 -11025.54 -11052.41 -11069.32 -11073.52 -11077.66 -11080.99 -11077.14 -11070.41 -11076.46 -11080.48 -11084.45 -11091.72 -11106.92 -11142.66 -11174.59 -11189.64 -11203.34 -11214.24 -11210.83 -11207.86 -11179.97 -11160.59 -11150.14 -11152.53 -11152.44 -11154.51 -11163.67 -11251.46 -11285.80 -11304.29 -11306.06 -11305.96 -11309.00 -11308.18 -11307.37 -11302.83 -11296.96 -11293.73 -11285.17 -11271.94 -11265.41 -11257.48 -11252.39 -11244.13 -11239.98 -11227.83 -11218.05 -11208.90 -11186.95 -11178.95 -11174.21 -11176.28 -11179.58 -11136.92 -11034.59 -10122.74 -8545.08 -6290.22 -4202.97 -2876.72 -2074.64 -1554.24 -1134.37 -872.75 -738.38 -680.74 -614.40 -511.99 -465.32 -309.52 -193.05 -171.34 -154.68 -189.94 -86.06 -72.58 -291.25 -302.31 -556.70 -1198.76 -1591.02 -2336.24 -3215.30 -3883.05 -4471.54 -6426.58 -7782.41 -8420.00 -9028.93 -9378.78 -9731.22 -9999.95 -10851.44 -11546.83 -11655.65 -11561.86 -11455.15 -8960.94 -7407.17 -5513.63 -5221.33 -5182.54 -5213.40 -5225.76 -5226.66 -5223.07 -5219.42 -5211.20 -5198.00 -5192.61 -5184.19 -5180.21 -5173.80 -5165.14 -5159.80 -5152.55 -5148.16 -5144.51 -5144.57
-10924.12 -10923.98 -10925.02 -10926.88 -10929.65 -10932.22 -10932.42 -10899.94 -10835.29 -10819.75 -10820.48 -10822.23 -10825.27 -10827.36 -10812.46 -10780.27 -10775.04 -10781.82 -10790.49 -10807.01 -10824.12 -10911.84 -10989.34 -11044.86 -11064.36 -11071.79 -11074.69 -11076.86 -11071.55 -11067.59 -11070.76 -11076.05 -11083.35 -11089.32 -11095.13 -11147.50 -11171.00 -11188.57 -11195.23 -11202.72 -11207.24 -11203.60 -11179.76 -11160.60 -11156.97 -11156.80 -11156.14 -11155.57 -11184.87 -11255.95 -11290.82 -11298.23 -11297.98 -11298.60 -11298.45 -11298.79 -11298.64 -11295.06 -11291.26 -11284.84 -11274.15 -11270.10 -11254.61 -11253.04 -11245.52 -11236.41 -11223.03 -11216.53 -11207.67 -11200.45 -11188.06 -11179.22 -11175.35 -11175.91 -11177.63 -10990.99 -10340.87 -8424.74 -7006.24 -4906.74 -3468.18 -2336.37 -1831.79 -1419.28 -1071.13 -822.51 -731.00 -666.11 -603.30 -453.61 -134.32 -121.62 -90.94 -0.95 18.97 -3.79 15.28 51.35 51.61 23.64 -452.52 -1201.97 -1839.98 -2353.31 -3066.72 -3847.01 -4293.20 -5690.06 -7855.53 -8061.22 -8369.14 -8643.95 -9457.36 -10101.35 -10710.72 -11009.64 -11224.52 -11425.87 -10941.41 -9314.35 -6910.94 -5492.60 -5203.09 -5177.09 -5197.73 -5217.52 -5218.80 -5207.24 -5197.36 -5191.72 -5181.64 -5178.34 -5180.79 -5177.91 -5171.59 -5165.75 -5158.52 -5154.15 -5149.36 -5144.96 -5145.03
-10921.60 -10921.53 -10922.94 -10924.08 -10926.46 -10926.92 -10924.50 -10894.62 -10820.44 -10812.98 -10811.37 -10814.11 -10816.76 -10818.84 -10801.76 -10771.21 -10770.12 -10773.05 -10784.59 -10793.51 -10812.78 -10870.40 -10932.79 -11024.36 -11054.03 -11067.56 -11074.26 -11076.11 -11071.15 -11068.19 -11070.89 -11076.89 -11081.38 -11086.43 -11095.04 -11110.15 -11130.82 -11170.90 -11178.32 -11190.66 -11199.73 -11205.53 -11183.17 -11163.11 -11161.05 -11159.37 -11158.42 -11157.81 -11160.76 -11258.23 -11285.13 -11290.09 -11291.41 -11290.60 -11288.63 -11283.16 -11288.08 -11286.10 -11285.23 -11276.94 -11268.15 -11260.85 -11252.31 -11239.92 -11232.85 -11232.15 -11213.94 -11210.41 -11199.32 -11193.06 -11182.60 -11178.42 -11172.32 -11176.88 -11081.23 -10574.96 -9684.28 -7730.39 -5822.08 -4430.68 -3225.22 -2584.71 -1685.46 -1429.90 -1014.39 -846.59 -761.87 -631.02 -358.20 -139.78 78.61 64.57 73.02 85.12 71.98 81.65 102.65 115.68 153.99 109.50 -20.81 -643.40 -1834.51 -1799.84 -1742.73 -2949.36 -3101.26 -4906.22 -6370.02 -6984.78 -7806.22 -8304.60 -8998.68 -9715.39 -10331.02 -10718.53 -11061.96 -11295.20 -10709.35 -9178.57 -6776.55 -5625.62 -5192.72 -5181.73 -5196.98 -5212.02 -5207.92 -5196.36 -5186.66 -5179.81 -5170.31 -5170.88 -5176.22 -5175.44 -5170.38 -5163.42 -5158.92 -5154.02 -5150.45 -5145.36 -5145.43
-10919.89 -10919.82 -10920.36 -10920.43 -10921.83 -10923.08 -10922.13 -10899.53 -10833.97 -10806.19 -10805.81 -10807.93 -10809.89 -10810.98 -10801.96 -10770.41 -10762.59 -10770.26 -10776.11 -10787.48 -10804.49 -10842.98 -10935.05 -10962.01 -11035.75 -11061.99 -11069.36 -11074.00 -11072.82 -11067.78 -11068.54 -11062.15 -11064.86 -11060.49 -11025.21 -11044.91 -11029.27 -10989.46 -11041.10 -11064.62 -11149.51 -11152.87 -11146.51 -11141.41 -11159.55 -11152.22 -11156.93 -11156.28 -11164.64 -11247.91 -11277.80 -11288.86 -11281.06 -11284.30 -11279.99 -11275.58 -11271.78 -11275.82 -11279.30 -11272.29 -11263.30 -11250.86 -11250.29 -11241.54 -11231.65 -11219.61 -11209.05 -11201.33 -11193.63 -11182.58 -11174.75 -11169.35 -11158.45 -11051.45 -11001.38 -9762.08 -7987.54 -6386.11 -5212.43 -4330.54 -3116.19 -2285.59 -1885.20 -1402.21 -1157.78 -885.03 -753.11 -478.17 21.12 151.11 187.37 199.40 185.04 193.25 178.31 138.11 128.17 83.20 71.50 -38.38 103.28 26.84 -441.88 -1016.41 -851.38 -769.81 -765.84 -2160.25 -4062.72 -5960.85 -7124.66 -7806.63 -8624.98 -9287.73 -9982.53 -10574.79 -11003.26 -11070.47 -10379.99 -8906.45 -6844.42 -5410.15 -5239.61 -5191.70 -5207.56 -5214.20 -5211.38 -5196.86 -5189.32 -5180.13 -5171.36 -5170.66 -5173.86 -5174.27 -5167.36 -5163.11 -5159.05 -5153.37 -5149.12 -5145.87 -5145.29
-10919.44 -10919.37 -10920.50 -10920.47 -10920.92 -10922.37 -10919.38 -10907.45 -10823.14 -10808.04 -10806.12 -10810.63 -10812.86 -10811.98 -10798.89 -10767.38 -10762.20 -10772.55 -10779.25 -10789.05 -10800.55 -10837.44 -10879.42 -10945.34 -11006.31 -11036.26 -11040.12 -11062.38 -11035.57 -10909.09 -10929.04 -11000.65 -10919.52 -10921.12 -10861.19 -10605.15 -10206.20 -10455.80 -10474.85 -10497.71 -10791.57 -10908.15 -10964.15 -11027.03 -11037.21 -11067.65 -11093.70 -11112.97 -11156.79 -11202.70 -11256.82 -11250.79 -11262.18 -11245.01 -11268.53 -11246.97 -11259.85 -11264.72 -11263.12 -11250.58 -11251.99 -11251.60 -11244.22 -11241.19 -11224.11 -11208.49 -11202.93 -11172.05 -11172.68 -11174.42 -11000.45 -11048.59 -11082.17 -10775.67 -9858.04 -8087.35 -6093.44 -4517.74 -4116.49 -3708.03 -3075.32 -2268.18 -1885.44 -1449.71 -1030.88 -899.63 -536.60 -154.56 101.62 220.82 244.39 249.61 250.95 236.52 238.57 227.01 121.40 -166.70 -361.24 -322.46 -396.13 -201.98 -103.86 -47.68 -123.98 -280.40 -411.69 -562.73 -1682.06 -4719.06 -6212.08 -7509.11 -7974.33 -8836.74 -9512.72 -10367.44 -10746.67 -10884.25 -9799.04 -8532.01 -6247.54 -5422.47 -5231.42 -5201.91 -5220.41 -5219.98 -5214.42 -5202.49 -5187.75 -5183.33 -5175.90 -5173.73 -5172.46 -5170.50 -5165.63 -5161.05 -5155.20 -5150.52 -5147.78 -5144.52 -5144.59
-10922.90 -10923.48 -10923.23 -10923.62 -10922.35 -10924.25 -10923.08 -10900.43 -10847.03 -10836.36 -10850.79 -10847.03 -10850.18 -10860.69 -10834.34 -10780.61 -10779.90 -10794.55 -10797.41 -10805.21 -10817.29 -10827.05 -10816.38 -10779.85 -10824.86 -10889.32 -10967.49 -10977.25 -10877.32 -10678.99 -10629.83 -10722.76 -10227.23 -10025.25 -9737.91 -9260.28 -8348.87 -8140.55 -8500.08 -8771.47 -9122.01 -8915.53 -9967.12 -10709.59 -10542.47 -10899.64 -10841.51 -10869.94 -10836.31 -11062.96 -11131.05 -11130.89 -11222.69 -11167.57 -11138.96 -11173.86 -11203.34 -11194.15 -11201.21 -11196.29 -11192.74 -11190.51 -11176.33 -11135.25 -11135.00 -11128.04 -11102.64 -11125.83 -11120.20 -11047.55 -10490.78 -10605.51 -10479.27 -9340.28 -9098.60 -5869.63 -4420.36 -3544.47 -2827.90 -2856.43 -2574.78 -2186.59 -1639.91 -1357.51 -616.89 -479.45 -266.84 116.42 215.00 247.72 263.40 258.92 262.89 267.40 272.60 260.43 94.66 -352.10 -1312.88 -1420.34 -1490.00 -1590.15 -1326.51 -343.87 -665.23 -520.55 -312.50 -356.26 -515.61 -1414.22 -3650.21 -6605.58 -7104.29 -7847.64 -8805.81 -9635.38 -10300.82 -10255.97 -9562.85 -7771.51 -6768.10 -5281.52 -5215.29 -5209.54 -5225.85 -5227.10 -5220.84 -5207.42 -5192.96 -5182.68 -5176.47 -5173.09 -5168.78 -5166.16 -5162.34 -5158.33 -5152.23 -5148.68 -5146.88 -5143.30 -5143.36
-10928.61 -10928.54 -10927.93 -10927.83 -10929.32 -10931.68 -10929.42 -10917.29 -10889.59 -10884.09 -10880.75 -10883.17 -10887.29 -10885.38 -10859.34 -10803.75 -10801.24 -10811.37 -10822.16 -10832.09 -10830.62 -10806.63 -10765.75 -10491.10 -10158.82 -10068.40 -10487.20 -10641.50 -10381.66 -10320.02 -10106.31 -9701.05 -9427.54 -8975.97 -8293.97 -7387.67 -6770.10 -6744.28 -6922.31 -6821.20 -7210.82 -7855.59 -8041.76 -9259.13 -9591.60 -10040.42 -10657.84 -10575.56 -10663.86 -10854.66 -11035.93 -11020.41 -11001.01 -11005.94 -11013.47 -11027.88 -11108.95 -11152.91 -11145.22 -11134.05 -11133.60 -11127.55 -11123.63 -11038.50 -11001.47 -11031.80 -11015.10 -11041.85 -10943.79 -10737.47 -10119.06 -9431.65 -9155.48 -8022.98 -6119.01 -4578.45 -3119.27 -1901.27 -1576.50 -2031.90 -1595.79 -1364.61 -871.03 -251.24 -174.94 31.49 236.44 237.77 246.76 272.83 279.60 289.80 291.29 291.28 284.91 262.97 -94.77 -650.03 -2387.78 -3539.97 -3272.11 -2913.26 -2834.27 -1833.63 -1929.77 -1567.44 -1724.16 -618.83 -566.31 -517.46 -2490.63 -4752.30 -6577.99 -6832.48 -7907.94 -8823.10 -9734.85 -10025.97 -9112.83 -8146.84 -6162.61 -5430.55 -5211.02 -5219.91 -5232.13 -5241.65 -5225.11 -5208.72 -5198.19 -5185.85 -5176.15 -5171.15 -5164.34 -5164.04 -5159.56 -5155.34 -5150.81 -5148.11 -5145.93 -5141.68 -5141.75
-10930.63 -10930.70 -10930.97 -10931.66 -10932.46 -10933.23 -10933.78 -10916.77 -10897.25 -10890.84 -10890.64 -10893.01 -10896.71 -10895.62 -10851.38 -10811.47 -10809.80 -10818.03 -10827.61 -10833.23 -10828.76 -10741.28 -10366.25 -9774.16 -9020.64 -9167.06 -9183.27 -9883.10 -9728.90 -9661.77 -9382.71 -8602.43 -7955.16 -7633.78 -7240.59 -6545.41 -6085.21 -5989.38 -6114.98 -6150.04 -6362.50 -6422.75 -7030.17 -7899.51 -8783.08 -9215.57 -9888.42 -10327.01 -10466.19 -10518.99 -10769.98 -10872.33 -10960.38 -10941.07 -10976.84 -10994.33 -11083.99 -11128.97 -11130.69 -11124.70 -11122.70 -11116.92 -11106.24 -11004.47 -10973.24 -10957.00 -10951.74 -10928.84 -10874.05 -10396.96 -9148.24 -8502.37 -7873.64 -7045.33 -4904.86 -3567.01 -1894.82 -1341.83 -1024.48 -1211.41 -663.85 -206.41 -203.05 136.61 248.47 265.60 266.14 269.46 275.78 288.17 303.83 303.31 305.97 305.68 304.58 276.04 70.88 -815.29 -2166.39 -3360.83 -3990.93 -4110.23 -3994.05 -3788.87 -3542.64 -3212.21 -2433.32 -1742.17 -944.03 -1035.70 -2345.82 -4175.06 -5442.08 -6335.65 -7450.17 -9094.47 -9419.91 -10075.79 -9033.62 -7818.41 -6114.79 -5321.41 -5236.36 -5227.47 -5244.07 -5246.40 -5231.53 -5214.11 -5201.26 -5188.98 -5177.67 -5167.54 -5162.39 -5160.00 -5156.17 -5152.62 -5149.33 -5146.14 -5142.01 -5139.44 -5139.35
-10932.92 -10932.69 -10932.76 -10933.58 -10934.48 -10936.04 -10934.58 -10924.81 -10906.07 -10892.87 -10894.18 -10896.70 -10900.41 -10903.22 -10858.66 -10815.98 -10815.62 -10822.76 -10831.76 -10835.67 -10818.97 -10676.83 -9956.12 -8873.33 -8134.98 -8019.47 -8481.42 -8793.26 -8338.68 -8578.62 -8694.71 -7966.12 -6998.01 -6638.65 -6548.29 -6116.92 -5408.22 -5444.42 -5272.55 -5813.19 -5702.60 -6224.85 -6683.46 -7413.18 -7825.82 -8152.21 -9222.06 -9727.88 -9794.46 -10061.32 -10363.40 -10653.82 -10635.54 -10810.91 -10910.20 -11002.71 -11039.83 -11113.47 -11112.58 -11108.07 -11105.09 -11103.81 -11087.22 -10980.38 -10928.89 -10914.86 -10732.07 -10717.11 -10614.10 -10000.52 -8881.94 -7568.15 -6384.33 -4587.56 -3588.47 -1978.10 -1050.33 -846.41 -634.16 -173.44 177.01 219.80 215.29 265.65 269.95 283.48 297.40 291.68 296.23 311.94 317.89 322.21 332.58 339.71 325.20 285.12 259.68 -60.31 -287.14 -2153.76 -3311.53 -4474.22 -4383.25 -4388.64 -4477.34 -4420.73 -3693.46 -2996.33 -2283.95 -1807.63 -1502.91 -1671.55 -2440.11 -3977.58 -5645.68 -6971.44 -9998.26 -10247.03 -9209.23 -8510.80 -5938.97 -5500.03 -5229.58 -5226.32 -5252.91 -5252.52 -5239.89 -5221.19 -5204.62 -5189.60 -5175.62 -5167.77 -5164.69 -5156.59 -5153.55 -5150.23 -5147.86 -5143.12 -5141.49 -5138.11 -5138.18
-10934.97 -10934.91 -10934.82 -10935.53 -10936.79 -10938.90 -10939.26 -10929.35 -10899.86 -10896.36 -10897.07 -10901.17 -10906.66 -10907.51 -10880.57 -10832.66 -10819.77 -10830.58 -10837.43 -10832.38 -10786.64 -10579.82 -9709.73 -8854.73 -7664.76 -7561.91 -7569.72 -7729.76 -7510.61 -7601.20 -7521.14 -7114.68 -6442.74 -5591.48 -4809.54 -3678.46 -3904.61 -3639.91 -3930.34 -4331.36 -4949.76 -5963.90 -6762.40 -7204.48 -7305.88 -7443.56 -8006.17 -8437.88 -8938.05 -8772.25 -9047.96 -9436.79 -9825.80 -10164.93 -10593.74 -10697.26 -10992.74 -11017.52 -10889.89 -11018.28 -11021.22 -11063.92 -10963.25 -10813.34 -10703.45 -10447.70 -10455.11 -9770.42 -9423.00 -8696.18 -7537.08 -6785.73 -6012.72 -3944.94 -3070.61 -2019.16 -899.06 -25.45 165.63 222.16 254.56 260.67 273.89 283.51 299.36 307.80 317.12 310.71 315.34 323.49 349.80 358.53 381.33 379.23 370.48 309.31 285.02 113.52 -104.86 -1331.78 -2838.98 -4154.68 -4363.32 -4568.60 -4655.71 -4683.31 -4681.97 -4525.02 -3932.63 -2817.60 -1875.48 -1188.31 -1566.72 -2485.89 -4134.05 -5654.19 -8653.60 -9490.67 -9083.83 -7856.58 -6505.79 -5736.55 -5263.34 -5230.47 -5254.94 -5260.13 -5247.57 -5230.54 -5209.52 -5195.29 -5175.82 -5169.38 -5160.42 -5157.14 -5153.50 -5147.08 -5144.62 -5141.35 -5138.81 -5137.19 -5136.75
-10937.71 -10937.64 -10940.79 -10938.24 -10938.74 -10941.98 -10941.87 -10923.08 -10908.21 -10896.35 -10897.87 -10902.63 -10906.99 -10910.43 -10889.52 -10846.70 -10843.07 -10867.70 -10854.52 -10851.78 -10826.41 -10496.66 -9452.20 -8489.22 -7634.89 -7534.93 -7562.57 -7450.14 -7085.53 -6831.97 -6875.26 -6706.87 -5300.87 -3754.96 -3030.27 -2307.05 -1622.52 -1320.66 -1619.40 -2042.39 -1744.52 -4348.36 -5746.31 -7206.46 -6329.16 -7221.14 -7252.45 -7181.37 -7456.42 -7511.40 -7876.72 -8147.53 -8616.12 -9009.09 -9488.33 -10238.37 -10391.43 -10600.20 -10605.66 -10722.74 -10599.81 -10003.71 -10383.14 -10230.48 -9901.62 -9512.04 -9666.49 -8602.66 -8635.37 -7615.30 -6143.38 -5020.32 -3420.52 -2792.09 -2123.27 -1217.68 -144.90 171.33 255.23 258.83 261.81 268.73 284.96 301.99 308.91 317.49 331.26 344.48 347.72 367.63 384.63 412.50 421.04 407.44 379.85 335.70 308.08 280.77 177.61 -456.44 -2492.70 -3139.94 -4267.66 -4432.81 -4419.05 -4585.08 -4799.55 -4857.26 -4705.32 -4021.48 -3170.81 -2555.90 -1658.89 -1608.93 -2285.92 -2569.96 -5935.62 -8570.81 -9241.35 -7915.88 -6125.20 -5667.36 -5363.04 -5239.06 -5242.33 -5258.22 -5254.59 -5240.38 -5213.90 -5198.19 -5180.62 -5169.97 -5161.18 -5157.17 -5152.01 -5146.93 -5143.28 -5139.77 -5137.49 -5134.69 -5134.76
-10947.86 -10947.78 -10949.94 -10946.78 -10950.14 -10951.49 -10950.53 -10920.93 -10884.96 -10876.85 -10884.61 -10886.03 -10898.68 -10903.24 -10898.13 -10896.65 -10899.85 -10914.56 -10912.15 -10937.99 -10881.25 -10596.65 -9458.25 -8689.73 -7834.03 -7850.12 -7959.98 -7779.81 -6849.18 -6302.53 -5997.96 -5477.05 -4907.40 -1991.81 -1068.88 -204.12 -245.49 80.09 -7.68 -314.58 -234.41 -498.89 -2744.02 -3215.37 -3386.84 -4777.97 -4579.69 -5199.59 -5125.32 -6040.57 -6453.31 -6078.58 -5943.79 -7593.81 -7021.11 -7242.63 -7953.01 -8567.26 -8465.10 -8644.52 -8126.71 -8736.70 -8168.09 -8450.11 -7802.27 -6888.16 -6260.72 -6531.21 -5888.10 -5603.03 -3831.55 -2678.48 -1891.39 -1632.90 -620.25 105.04 251.82 257.11 263.02 270.41 274.88 281.42 292.91 308.74 326.42 337.94 366.32 362.69 371.35 403.22 411.87 434.97 446.41 423.88 405.78 359.93 338.10 347.25 214.94 61.78 -1164.15 -2480.25 -3784.84 -4121.75 -4263.96 -4426.28 -4661.69 -4759.78 -4775.93 -4716.82 -4264.94 -3516.57 -2793.69 -2110.17 -1907.10 -2131.55 -3630.97 -5555.42 -7708.48 -6928.51 -6328.93 -5795.49 -5434.11 -5276.83 -5246.56 -5255.14 -5252.98 -5242.34 -5222.25 -5196.27 -5178.35 -5171.38 -5166.41 -5157.37 -5150.97 -5145.36 -5141.57 -5137.49 -5135.70 -5133.16 -5133.23
-10952.85 -10952.93 -10953.31 -10953.89 -10955.37 -10956.99 -10959.24 -10922.31 -10885.33 -10866.93 -10872.01 -10874.94 -10879.01 -10888.33 -10917.06 -10972.24 -10995.11 -11001.48 -11010.19 -11003.63 -10935.55 -10777.61 -9986.79 -9052.88 -8988.31 -8653.66 -8924.97 -8856.56 -6810.30 -5903.27 -5171.47 -4354.53 -3308.90 -1367.40 -212.80 221.40 244.76 252.25 260.60 250.67 254.98 245.41 -506.42 -666.08 -569.00 -1839.67 -2513.14 -3095.20 -3367.80 -4300.68 -4573.08 -4759.66 -5142.92 -5084.14 -5281.29 -5769.08 -5877.18 -5884.84 -6109.61 -5860.19 -5852.63 -6108.76 -5712.27 -6102.43 -5561.70 -5142.04 -5318.30 -4580.50 -4590.03 -3834.86 -2401.88 -1086.33 -527.13 -129.48 186.78 297.18 284.92 276.12 273.06 280.94 286.47 294.39 309.03 325.93 336.35 357.15 373.74 388.34 402.27 420.20 440.23 454.80 484.92 465.91 436.82 402.08 380.56 362.51 305.75 87.50 -26.08 -1568.44 -3199.16 -3726.15 -3966.64 -4299.42 -4475.20 -4594.08 -4643.87 -4682.16 -5020.30 -5075.83 -3851.82 -3396.82 -2549.57 -1700.75 -1911.70 -3234.09 -3923.24 -5490.41 -6202.92 -5936.45 -5593.24 -5332.24 -5266.99 -5252.89 -5251.70 -5227.77 -5202.23 -5179.12 -5168.80 -5150.33 -5170.03 -5162.30 -5152.45 -5145.18 -5141.11 -5136.75 -5134.00 -5131.65 -5131.71
-10950.29 -10950.79 -10951.44 -10952.91 -10954.63 -10957.02 -10955.52 -10934.03 -10883.65 -10865.82 -10869.18 -10872.85 -10879.56 -10889.19 -10932.85 -10977.19 -11003.62 -11011.86 -11018.87 -11020.64 -10989.43 -10849.41 -10433.23 -10103.80 -10007.55 -10238.30 -10155.66 -9619.18 -7483.19 -5797.76 -5261.62 -3915.72 -2237.78 -1132.40 -118.89 185.52 243.28 289.46 300.22 263.43 257.44 255.72 250.98 249.16 247.69 46.59 -257.36 -366.55 -699.30 -1695.37 -2658.46 -2622.93 -3984.10 -5089.27 -5092.52 -5105.33 -5246.43 -5239.99 -5093.37 -5139.28 -5058.37 -5022.07 -5036.01 -5033.14 -4827.04 -4197.85 -4186.18 -3735.84 -3002.49 -2234.20 -1361.41 -94.83 83.42 269.68 341.66 384.00 326.87 287.75 282.09 286.24 287.79 304.75 316.07 335.86 351.33 370.83 388.09 405.80 430.73 434.95 457.97 502.31 506.56 504.55 476.49 442.52 403.57 383.62 393.71 243.66 -67.97 -666.91 -1690.90 -2344.30 -3679.74 -4155.19 -4432.37 -4527.56 -4719.33 -4789.27 -5062.91 -5187.43 -5097.79 -4730.62 -3623.43 -2981.32 -2617.67 -1900.61 -2617.45 -3976.22 -5410.89 -5397.84 -5692.49 -5453.11 -5320.10 -5268.47 -5236.31 -5209.41 -5185.22 -5167.23 -5148.28 -5141.97 -5163.24 -5161.74 -5155.03 -5147.21 -5140.39 -5136.39 -5133.73 -5131.30 -5130.74
-10944.72 -10945.51 -10946.73 -10948.61 -10949.88 -10952.60 -10952.20 -10925.14 -10864.02 -10862.14 -10866.19 -10871.63 -10877.98 -10891.05 -10924.67 -10989.63 -11003.64 -11015.34 -11018.25 -11021.55 -11009.68 -10949.38 -10811.63 -10715.61 -10722.44 -10744.98 -10571.99 -10259.51 -8921.52 -6973.54 -5081.28 -3161.79 -1237.38 -561.77 137.62 224.65 244.31 272.08 335.65 316.57 288.83 271.09 267.58 268.45 274.39 267.28 259.02 248.79 -15.23 -409.31 -376.31 -297.50 -1006.43 -2814.86 -2882.47 -3124.24 -4636.39 -5074.05 -4619.76 -4846.20 -4805.33 -4847.58 -4847.06 -4106.37 -3591.21 -2881.44 -2645.12 -2439.21 -1914.97 -1321.92 -572.63 177.70 274.71 326.17 367.94 415.61 337.19 289.12 287.77 288.42 295.71 313.34 325.13 345.21 362.88 377.74 407.11 432.62 450.49 471.31 512.15 527.37 536.64 544.17 514.07 462.82 440.45 435.93 496.42 555.12 138.02 47.56 -80.42 -1541.08 -2661.56 -3757.82 -4277.37 -4415.62 -4595.04 -4777.20 -4790.73 -4960.55 -5144.01 -5220.22 -4952.06 -4363.71 -3936.87 -3390.10 -2682.73 -2619.79 -3342.51 -4236.56 -5706.24 -5603.19 -5410.14 -5302.96 -5234.68 -5214.00 -5185.58 -5171.27 -5155.26 -5149.37 -5165.48 -5170.52 -5158.09 -5150.57 -5144.19 -5137.43 -5132.19 -5130.59 -5130.32
-10936.49 -10936.43 -10935.60 -10939.28 -10945.22 -10945.27 -10945.07 -10929.92 -10859.97 -10856.11 -10862.72 -10869.31 -10877.65 -10887.41 -10926.62 -10984.74 -11002.23 -11010.44 -11015.02 -11020.65 -11015.57 -10971.04 -10851.66 -10853.10 -10846.79 -10841.01 -10833.63 -10561.63 -9459.55 -8184.34 -5807.95 -2802.08 -880.61 -222.07 193.36 225.06 245.97 264.16 319.42 366.86 355.33 310.19 315.89 306.53 301.31 289.19 284.79 293.97 268.82 257.94 252.03 183.42 -79.80 -627.52 -1297.92 -1781.26 -2702.11 -3646.14 -3447.38 -3710.44 -3915.19 -3671.58 -3354.55 -2940.11 -2373.09 -1862.40 -2106.35 -1951.27 -862.01 -267.92 103.81 297.91 396.57 408.90 389.51 350.44 313.48 292.58 289.79 296.25 305.08 315.42 328.39 349.19 367.40 387.93 419.13 436.88 469.57 491.99 520.67 534.04 559.67 575.16 545.05 515.44 501.31 491.52 509.14 609.03 424.40 250.84 142.08 -244.87 -1038.12 -2917.14 -4293.47 -4408.60 -4534.55 -4657.07 -4532.00 -4794.57 -5192.64 -5466.22 -5608.57 -5457.37 -5354.49 -4945.26 -3904.49 -2856.43 -2670.14 -3875.53 -5144.60 -5613.79 -5510.62 -5308.75 -5257.32 -5229.73 -5220.75 -5192.75 -5176.97 -5168.78 -5176.13 -5178.62 -5164.13 -5152.52 -5145.04 -5139.81 -5132.71 -5129.39 -5129.46
-10920.47 -10922.62 -10922.20 -10921.28 -10916.84 -10934.76 -10922.58 -10905.53 -10861.57 -10849.92 -10847.85 -10855.22 -10867.46 -10881.93 -10906.90 -10971.99 -10992.18 -11003.51 -11010.50 -11012.92 -11004.01 -10965.69 -10823.68 -10779.95 -10783.21 -10808.95 -10803.99 -10669.73 -9677.46 -8331.02 -6534.75 -3712.00 -961.64 175.55 200.35 223.42 244.50 263.07 302.45 368.81 392.01 350.18 346.38 371.13 386.82 373.10 395.78 368.24 309.69 280.10 261.24 253.12 242.81 88.68 -49.68 -600.19 -579.66 -1370.08 -1445.29 -1402.95 -2437.00 -2120.43 -1700.61 -1623.38 -1007.68 -1430.22 -1484.46 -1158.93 -499.56 10.23 287.83 373.22 384.98 384.36 330.09 325.13 303.99 292.23 290.80 301.64 314.88 322.30 341.45 364.89 381.93 403.51 427.27 455.13 486.66 509.33 532.76 562.04 590.04 595.41 593.93 559.78 558.04 573.73 560.41 496.42 373.32 350.72 287.49 -125.78 -501.06 -3493.91 -4025.44 -4204.29 -4288.71 -4616.06 -4515.76 -4804.43 -5184.53 -5503.07 -5570.66 -5631.86 -5651.16 -5432.70 -4738.76 -3639.34 -2314.69 -3089.48 -4806.81 -5682.73 -5573.46 -5382.62 -5291.46 -5258.25 -5245.19 -5237.81 -5200.51 -5191.06 -5189.99 -5184.16 -5171.06 -5158.54 -5148.79 -5140.20 -5134.16 -5128.31 -5127.11
-10863.61 -10863.59 -10862.44 -10878.86 -10888.89 -10889.36 -10893.86 -10863.35 -10819.53 -10793.54 -10816.04 -10823.30 -10822.94 -10843.27 -10872.04 -10964.36 -10980.63 -10986.83 -10996.24 -10996.78 -10984.74 -10807.17 -10580.61 -10479.92 -10518.80 -10617.72 -10561.97 -10278.62 -9170.79 -8129.40 -6805.49 -3787.45 -902.19 200.47 218.29 235.17 248.60 261.66 296.47 353.35 388.72 395.62 435.54 489.36 442.51 422.90 482.29 399.47 325.66 301.26 271.47 257.36 247.62 237.00 208.47 91.92 38.47 45.85 -219.59 -529.71 -501.95 -479.92 -599.84 -582.46 -370.02 -481.87 -600.89 -275.09 196.39 289.76 310.41 360.52 354.25 343.36 312.91 307.18 297.03 292.48 294.02 305.62 313.41 327.69 349.67 370.56 394.62 412.53 442.38 466.91 503.48 528.88 551.26 605.29 621.45 634.83 612.10 610.14 601.77 582.23 549.70 445.71 401.86 547.58 364.22 -29.16 -905.87 -2596.64 -2916.59 -3733.56 -3798.48 -4438.91 -4534.94 -4649.85 -5164.81 -5402.33 -5530.56 -5658.09 -5751.68 -5622.14 -5109.62 -3413.29 -2308.20 -2519.35 -3748.41 -4970.15 -5626.66 -5472.49 -5347.34 -5291.73 -5279.35 -5250.03 -5249.70 -5218.41 -5205.67 -5183.93 -5174.31 -5159.77 -5150.47 -5142.57 -5133.78 -5125.97 -5126.04
-10827.19 -10827.14 -10828.52 -10832.34 -10832.96 -10839.31 -10836.77 -10816.14 -10759.59 -10763.26 -10768.01 -10779.96 -10786.19 -10805.34 -10851.12 -10927.26 -10965.47 -10973.64 -10975.16 -10979.66 -10951.38 -10666.65 -10347.60 -10289.91 -10284.76 -10305.98 -10239.50 -10162.70 -9312.36 -8094.69 -6862.93 -2357.21 201.84 217.62 231.52 238.28 255.27 292.91 323.17 388.38 462.14 464.20 495.70 593.28 557.93 581.94 536.91 426.04 352.49 314.56 286.26 272.31 260.49 250.34 233.05 221.39 207.72 198.88 129.67 84.09 86.71 -19.98 71.89 -15.52 20.06 223.68 226.60 142.91 302.82 327.38 326.05 342.12 332.08 309.27 291.19 292.25 292.16 292.42 296.42 306.67 314.84 335.34 352.59 373.20 401.83 413.98 464.88 488.04 508.52 538.94 577.29 610.27 622.15 659.32 671.05 663.09 665.92 640.41 618.53 569.87 537.06 619.10 534.20 157.60 -959.07 -1475.74 -1594.92 -2613.68 -3680.86 -4451.28 -4670.09 -4720.21 -5011.42 -5153.58 -5450.30 -5618.48 -5759.57 -5734.36 -5162.70 -3642.32 -2395.98 -1984.99 -2436.65 -4697.52 -5471.80 -5559.70 -5364.17 -5310.92 -5293.05 -5278.81 -5254.70 -5237.03 -5209.74 -5195.47 -5181.39 -5164.48 -5153.93 -5144.53 -5134.42 -5125.33 -5125.40
-10808.20 -10808.15 -10806.28 -10811.57 -10820.80 -10825.26 -10825.70 -10807.83 -10750.15 -10746.02 -10757.24 -10764.05 -10774.77 -10791.97 -10837.29 -10922.18 -10952.02 -10959.60 -10969.29 -10970.51 -10951.23 -10640.93 -10380.48 -10267.55 -10262.18 -10252.37 -10220.19 -9860.68 -9347.71 -7038.96 -4179.24 -500.43 204.36 230.12 239.26 252.14 261.02 306.43 366.41 391.49 454.97 516.90 579.35 659.24 693.31 582.49 527.64 416.41 364.57 321.22 312.73 300.03 275.30 270.39 256.70 249.68 239.73 232.98 215.32 231.87 226.97 234.29 244.06 246.12 255.33 254.84 279.66 311.65 318.53 319.54 319.11 312.19 304.19 294.71 289.19 287.29 288.72 291.33 295.26 307.42 316.60 338.92 363.76 386.97 409.00 430.68 468.53 484.64 524.35 551.87 590.25 616.34 637.71 676.13 695.38 717.92 711.40 676.09 646.51 619.20 574.30 687.22 650.17 349.29 -127.04 -362.95 -745.46 -1136.42 -2500.32 -4152.38 -4779.65 -4833.99 -4881.75 -5126.64 -5274.48 -5560.05 -5716.50 -5721.80 -5168.37 -4099.67 -2682.43 -1759.07 -3391.74 -5214.41 -5562.81 -5577.18 -5382.20 -5321.45 -5299.38 -5287.11 -5265.13 -5244.16 -5223.31 -5202.06 -5186.43 -5170.35 -5158.24 -5144.40 -5134.41 -5124.81 -5124.88
-10787.65 -10789.73 -10791.86 -10794.35 -10798.34 -10804.91 -10811.33 -10793.41 -10739.69 -10735.23 -10744.22 -10751.88 -10764.55 -10780.65 -10844.77 -10908.88 -10949.39 -10957.46 -10965.29 -10971.32 -10949.37 -10656.50 -10400.03 -10254.85 -10248.05 -10181.48 -10053.61 -9148.45 -8077.80 -5525.80 -1263.18 -300.47 180.47 224.78 242.84 260.94 282.91 327.02 363.59 391.55 423.19 514.02 624.05 721.49 729.84 635.84 498.62 464.25 385.02 354.58 329.84 310.63 290.31 276.45 271.35 261.70 253.76 245.87 243.69 239.38 241.88 250.38 256.45 259.75 289.65 301.84 318.92 322.47 314.47 308.12 303.11 297.35 293.90 283.50 284.15 284.62 286.22 290.70 298.27 314.16 322.02 342.91 365.07 388.65 415.77 446.56 473.47 494.16 524.87 552.96 595.53 622.30 644.52 687.59 717.09 748.70 742.68 747.16 705.78 606.97 525.21 538.17 614.05 507.49 245.41 -62.94 -443.00 -1368.40 -2277.76 -4368.58 -4868.80 -4815.71 -4881.16 -5065.25 -5244.80 -5507.29 -5650.18 -5695.66 -5453.68 -4250.11 -2482.36 -2534.28 -2544.77 -5170.89 -5498.79 -5523.60 -5403.43 -5321.83 -5304.41 -5293.24 -5279.83 -5262.09 -5234.56 -5209.12 -5194.41 -5174.52 -5160.91 -5145.55 -5136.37 -5125.62 -5123.95
-10763.14 -10763.08 -10763.64 -10770.27 -10778.93 -10782.74 -10780.10 -10771.82 -10728.44 -10720.56 -10731.41 -10741.88 -10754.89 -10776.96 -10857.62 -10898.59 -10938.82 -10951.34 -10961.48 -10972.08 -10952.84 -10720.95 -10358.02 -10245.72 -10125.05 -10065.97 -9824.76 -8834.52 -7127.04 -2772.52 -871.83 3.64 222.87 240.97 245.06 268.10 288.69 359.02 375.42 405.61 454.34 477.43 548.34 643.07 749.67 670.18 588.95 480.16 398.85 379.71 339.08 325.61 311.52 298.31 287.36 273.06 265.11 256.49 253.12 261.21 275.52 273.24 277.75 308.37 320.14 325.03 320.00 296.54 295.43 294.62 289.84 278.61 278.93 278.90 279.38 279.71 283.67 291.20 297.43 313.42 324.60 343.91 367.15 391.90 424.02 458.35 479.20 497.13 542.99 566.69 600.58 639.01 669.12 704.00 736.79 764.83 771.03 772.59 712.32 632.95 523.02 465.77 396.49 431.70 245.26 47.47 -232.03 -758.14 -2205.12 -4526.31 -4870.06 -4810.15 -4879.56 -5093.12 -5230.41 -5435.38 -5570.30 -5657.98 -5304.36 -4859.94 -2369.87 -1896.66 -3061.88 -4507.50 -5247.66 -5487.79 -5390.33 -5323.42 -5304.85 -5295.93 -5282.01 -5268.01 -5242.29 -5217.38 -5198.83 -5174.80 -5163.24 -5150.42 -5135.66 -5122.53 -5122.59
-10733.39 -10733.34 -10727.07 -10739.04 -10743.34 -10756.88 -10752.79 -10753.03 -10726.84 -10730.02 -10734.86 -10741.60 -10749.67 -10765.09 -10820.20 -10905.81 -10928.16 -10937.56 -10946.03 -10958.69 -10927.50 -10642.69 -9967.73 -10007.22 -9712.24 -9103.26 -8772.55 -7917.90 -5337.78 -1476.98 -274.55 167.26 235.28 250.06 262.70 278.24 315.67 372.46 405.01 451.96 466.85 500.70 548.00 612.43 719.94 713.77 598.83 519.79 433.37 391.74 361.62 345.19 332.18 311.19 297.98 286.88 275.97 268.58 284.01 292.26 297.18 323.99 359.90 347.29 345.12 328.97 309.37 295.10 291.90 286.44 284.04 276.62 275.59 276.07 276.97 278.38 281.88 291.34 299.11 310.19 329.80 355.37 373.59 391.87 432.44 460.85 485.43 516.28 539.64 582.73 613.24 655.07 678.07 713.65 754.70 782.12 773.18 751.02 719.85 720.24 661.61 530.52 411.29 675.27 406.65 240.72 -181.70 -909.36 -2027.41 -3745.39 -4672.41 -4685.34 -4890.59 -5050.67 -5259.87 -5402.90 -5617.10 -5639.51 -5449.19 -3946.19 -2425.33 -1453.65 -1784.43 -3199.81 -5304.18 -5477.29 -5374.32 -5324.72 -5304.30 -5293.38 -5286.59 -5270.87 -5248.31 -5226.31 -5198.04 -5180.85 -5161.72 -5147.88 -5135.31 -5119.41 -5119.48
-10691.16 -10691.12 -10693.55 -10698.82 -10705.41 -10714.53 -10730.52 -10738.13 -10739.71 -10753.42 -10761.24 -10770.43 -10799.21 -10811.98 -10838.64 -10876.64 -10881.82 -10884.07 -10905.74 -10897.57 -10819.65 -10216.22 -9402.40 -8932.86 -8056.91 -8049.69 -6624.20 -5831.36 -2720.45 -21.68 186.19 229.19 252.30 263.76 276.33 299.25 365.59 441.07 530.39 539.73 568.55 518.74 554.22 608.15 671.96 782.69 674.28 568.70 486.78 407.02 374.64 353.43 334.24 319.44 308.86 299.96 294.83 304.53 308.06 317.14 335.19 392.15 410.88 379.59 345.33 322.61 305.16 294.34 291.32 287.61 280.56 277.68 274.49 273.98 275.69 277.89 285.91 291.66 301.41 311.37 337.16 358.33 376.70 405.01 435.61 455.81 508.02 521.64 543.86 601.92 616.07 646.90 683.01 720.09 762.65 782.24 812.67 820.03 806.80 703.90 601.30 511.68 434.64 791.39 577.43 111.87 -269.92 -1097.39 -2627.51 -3887.48 -4309.99 -4557.57 -4846.91 -5039.35 -5333.17 -5493.77 -5631.69 -5604.18 -5363.77 -3950.32 -2420.65 -1263.05 -1469.06 -2815.95 -4673.74 -5530.87 -5455.97 -5315.18 -5300.67 -5294.06 -5285.11 -5270.37 -5252.69 -5226.31 -5202.97 -5177.34 -5161.65 -5145.19 -5132.79 -5116.16 -5116.23
-10651.70 -10654.89 -10652.94 -10667.33 -10671.01 -10675.64 -10683.66 -10723.95 -10743.28 -10770.24 -10779.67 -10805.09 -10828.94 -10842.11 -10849.66 -10844.74 -10851.66 -10860.23 -10873.96 -10801.75 -10637.87 -9964.66 -8371.77 -7516.40 -6879.82 -5700.81 -4946.38 -3026.59 -1277.40 114.36 214.25 253.17 268.61 275.37 286.65 323.26 375.17 474.51 642.68 642.93 608.33 625.17 622.54 648.97 715.09 753.53 668.09 628.58 517.62 427.52 388.85 363.23 339.66 328.96 318.40 318.69 320.22 317.92 333.51 371.56 419.50 433.08 401.96 356.47 332.78 316.19 305.88 296.23 291.12 288.85 282.26 278.82 276.58 274.26 273.83 276.52 280.16 289.82 303.80 315.39 343.13 351.43 367.39 409.27 435.22 454.68 506.71 529.44 558.67 593.25 624.83 641.58 686.74 714.59 757.70 791.67 813.89 806.47 769.46 704.16 596.12 583.18 538.00 798.65 785.08 303.24 -101.80 -1098.65 -2794.18 -3810.04 -4265.35 -4405.06 -4675.80 -4975.02 -5208.20 -5573.40 -5628.28 -5620.32 -5303.82 -3931.44 -2257.64 -1091.57 -1580.94 -1765.77 -4105.97 -5454.64 -5557.61 -5379.92 -5295.40 -5292.50 -5282.25 -5264.86 -5245.22 -5232.61 -5200.40 -5180.19 -5159.27 -5141.98 -5130.21 -5112.68 -5112.74
-10612.15 -10612.10 -10611.19 -10617.83 -10612.12 -10644.93 -10650.79 -10676.46 -10707.69 -10738.03 -10762.16 -10789.43 -10808.39 -10834.32 -10835.72 -10809.77 -10820.12 -10810.96 -10644.32 -10610.73 -10189.17 -8930.53 -7610.07 -6343.32 -5397.26 -4501.57 -3826.59 -2095.84 -165.19 223.96 255.51 271.12 280.19 297.40 311.71 321.32 420.88 489.50 585.06 649.90 650.70 649.91 693.61 692.47 732.69 698.53 609.43 585.72 484.93 480.63 442.86 395.36 370.59 358.80 338.98 343.05 339.67 347.80 373.35 413.22 460.50 449.01 398.75 352.21 338.03 314.96 309.12 298.98 294.40 289.24 286.09 279.89 277.45 276.15 273.19 274.09 281.76 290.94 306.10 326.92 336.28 356.58 385.09 402.15 433.67 466.01 499.11 535.36 560.16 590.30 624.50 655.82 695.36 722.18 746.26 776.33 784.95 762.34 709.86 636.52 602.83 701.98 666.96 849.03 612.92 251.93 105.92 -345.85 -1840.78 -3429.47 -4144.14 -4512.48 -4664.05 -4940.43 -5195.58 -5508.85 -5617.87 -5559.59 -5178.23 -3975.59 -1780.28 -1086.35 -923.46 -1515.16 -2060.08 -5082.53 -5591.34 -5452.13 -5310.47 -5283.62 -5278.38 -5263.48 -5244.79 -5231.08 -5199.36 -5178.54 -5156.93 -5144.42 -5127.17 -5108.98 -5109.06
-10569.87 -10569.82 -10562.55 -10574.18 -10581.09 -10588.13 -10591.93 -10646.74 -10677.28 -10714.48 -10738.93 -10759.62 -10794.75 -10809.83 -10794.25 -10754.33 -10626.74 -10502.01 -10195.35 -9678.78 -9098.34 -8128.01 -6327.08 -5568.63 -5120.67 -3893.59 -2293.72 -611.89 245.20 260.35 279.54 290.66 304.10 315.34 355.86 426.88 460.18 563.40 614.46 672.69 704.18 709.00 709.39 713.81 703.72 686.60 645.13 576.30 551.19 535.52 489.53 444.55 390.76 385.72 377.28 406.24 368.23 370.06 405.64 450.64 455.30 437.55 392.22 353.22 346.06 323.96 313.88 302.08 294.91 288.21 284.70 283.15 278.66 277.30 273.62 273.62 281.69 288.00 307.63 323.88 337.90 354.12 380.31 406.27 437.57 469.25 494.52 537.69 571.54 602.13 619.59 665.82 698.19 731.98 754.30 770.54 777.74 772.78 720.63 686.52 694.75 764.21 728.11 804.84 740.21 270.89 212.53 -179.08 -1845.88 -3695.76 -4299.82 -4559.68 -4809.36 -4970.53 -5215.40 -5466.77 -5594.17 -5522.11 -4961.46 -3947.17 -1681.20 -941.23 -869.13 -1425.82 -2084.25 -4151.02 -5532.73 -5445.87 -5311.44 -5277.86 -5275.81 -5261.27 -5243.17 -5223.77 -5199.72 -5173.33 -5156.74 -5135.83 -5121.95 -5104.80 -5104.87
-10525.10 -10527.60 -10523.57 -10520.97 -10530.67 -10534.49 -10562.60 -10595.59 -10653.88 -10676.33 -10703.44 -10734.82 -10741.29 -10724.68 -10699.23 -10426.63 -10113.59 -9452.38 -8991.78 -8813.54 -8703.25 -7353.48 -5604.90 -5144.92 -3993.43 -2526.05 -969.86 169.60 255.61 271.31 285.66 300.48 316.01 333.41 363.81 411.98 431.86 520.95 644.48 713.96 741.06 711.36 699.25 664.48 665.64 671.21 656.01 623.51 611.25 580.36 520.94 489.03 446.58 438.61 456.64 450.83 418.41 430.16 452.30 464.40 447.73 423.84 384.41 357.91 350.31 340.22 325.66 304.61 296.48 292.53 286.69 283.63 279.49 276.52 274.76 272.96 276.91 289.66 309.13 320.92 344.67 366.04 378.97 409.24 445.24 479.44 506.46 557.05 583.96 606.08 640.73 665.94 691.18 729.50 751.99 771.85 781.89 784.08 796.82 810.31 786.72 828.07 815.51 867.14 805.73 259.49 26.99 -981.88 -1944.95 -3382.25 -4200.64 -4568.64 -4827.65 -4970.41 -5149.77 -5420.20 -5551.97 -5497.38 -4983.53 -3345.03 -1635.08 -971.21 -926.90 -1605.98 -3083.59 -4724.84 -5551.38 -5436.07 -5300.72 -5270.98 -5266.60 -5255.49 -5239.32 -5218.61 -5196.12 -5178.75 -5148.81 -5131.28 -5114.26 -5100.88 -5100.96
-10483.08 -10483.03 -10480.02 -10488.97 -10495.77 -10498.67 -10515.62 -10550.18 -10567.39 -10615.34 -10621.45 -10639.94 -10611.07 -10406.35 -9970.53 -9498.63 -8821.72 -8494.75 -8045.91 -7806.63 -7544.23 -6948.08 -5478.89 -4623.41 -3323.36 -2301.08 -434.36 207.22 258.12 268.29 290.91 303.54 315.98 346.79 368.67 413.99 499.46 538.95 615.11 683.36 728.48 685.89 653.14 636.54 620.49 623.80 620.90 595.60 581.87 578.96 529.92 504.12 497.79 478.76 494.22 468.54 460.86 479.54 504.67 490.75 466.84 434.44 416.20 384.79 362.89 353.25 329.20 310.45 304.49 295.98 290.75 288.36 283.12 276.84 272.96 272.73 278.12 291.79 308.61 314.21 356.43 366.21 384.06 419.47 445.14 483.62 516.91 548.44 583.25 613.52 638.62 674.68 698.43 731.72 753.52 770.35 778.59 796.94 820.50 822.42 798.31 808.85 765.04 855.44 662.09 253.84 -241.97 -1302.19 -2460.68 -3540.35 -4096.81 -4585.39 -4782.90 -4928.05 -5170.77 -5330.41 -5480.74 -5321.55 -4907.79 -2962.96 -1907.73 -921.23 -1136.33 -1848.19 -3727.50 -5256.81 -5581.63 -5387.46 -5277.69 -5253.73 -5257.35 -5252.62 -5236.48 -5213.14 -5192.98 -5172.43 -5150.81 -5129.63 -5117.34 -5099.02 -5096.99
-10473.98 -10473.90 -10458.54 -10456.80 -10466.28 -10482.53 -10503.94 -10519.68 -10519.98 -10549.51 -10528.70 -10332.76 -10035.83 -9887.08 -9341.91 -8613.95 -8131.40 -7673.30 -7465.42 -7445.88 -7366.81 -6759.97 -5171.28 -4137.66 -3318.89 -2380.44 -688.55 121.30 253.96 273.37 292.99 304.05 335.88 354.62 382.72 405.31 476.40 522.56 562.60 667.68 723.48 683.66 626.70 600.33 586.75 583.64 575.11 558.38 538.78 531.81 531.79 522.41 526.10 511.43 530.33 522.06 515.14 520.57 524.53 514.40 495.78 457.80 425.28 399.23 386.13 362.48 346.64 324.96 314.36 302.21 295.78 290.04 281.94 276.00 273.27 272.34 278.48 290.69 307.26 320.94 349.46 367.15 391.82 423.01 444.04 485.63 506.25 544.23 582.40 623.16 637.28 672.66 697.32 722.64 754.95 762.60 762.58 757.50 754.81 761.74 748.11 764.22 701.18 875.27 666.72 228.21 83.76 -1086.71 -2219.92 -3730.62 -4350.29 -4549.25 -4857.56 -5009.59 -5296.29 -5436.44 -5488.26 -5078.83 -4350.72 -2668.24 -1031.64 -861.55 -891.59 -2057.64 -4164.45 -5687.31 -5537.57 -5332.30 -5247.03 -5239.79 -5247.66 -5240.58 -5229.04 -5210.21 -5189.35 -5170.91 -5144.33 -5130.24 -5109.91 -5093.87 -5093.95
-10442.63 -10442.57 -10426.05 -10421.82 -10413.90 -10424.32 -10462.98 -10465.80 -10465.98 -10402.25 -10328.59 -10030.79 -9294.34 -8494.40 -7647.39 -7525.32 -7254.05 -7274.61 -7326.13 -7350.99 -7312.32 -6720.41 -5289.09 -3698.43 -3252.47 -2616.50 -1675.39 -132.63 248.66 269.58 290.59 303.24 335.32 394.15 412.14 454.57 520.73 515.99 568.86 675.91 701.59 646.26 606.95 561.30 539.42 552.55 548.41 525.11 518.45 516.66 515.43 513.77 512.03 509.97 528.80 536.75 537.51 553.00 570.57 543.78 538.26 476.45 446.79 411.80 393.79 375.18 356.45 333.09 318.58 310.03 296.99 293.97 282.15 274.30 272.36 272.15 275.19 286.43 301.44 321.34 355.68 373.51 399.85 418.95 465.73 493.79 518.09 556.04 586.96 624.59 646.23 668.25 698.13 716.16 744.00 762.14 766.81 743.22 723.46 712.17 697.17 700.07 704.43 710.22 335.04 233.01 105.61 -841.90 -2713.64 -3769.89 -4093.14 -4634.91 -4993.36 -5071.47 -5334.38 -5444.78 -5415.46 -4798.94 -3648.90 -2060.71 -883.31 -785.29 -995.79 -2277.40 -4649.21 -5660.15 -5536.54 -5297.93 -5220.84 -5231.41 -5233.40 -5229.15 -5213.19 -5198.32 -5181.60 -5159.88 -5140.45 -5126.18 -5107.64 -5091.05 -5091.13
-10400.06 -10398.91 -10380.03 -10362.69 -10353.84 -10357.15 -10307.88 -10313.50 -10237.94 -10160.94 -9942.75 -9439.59 -8090.62 -7465.41 -6871.92 -6530.00 -6672.44 -6975.87 -7181.23 -7297.67 -7269.51 -6551.47 -5533.42 -3683.28 -3120.70 -2430.21 -1486.71 41.69 250.45 266.53 285.08 301.07 343.89 447.98 511.90 516.26 598.36 604.29 648.68 673.88 617.14 612.61 581.44 544.50 523.75 516.92 509.61 512.45 509.63 504.80 503.89 503.80 502.52 512.06 519.74 535.79 557.83 597.83 632.20 583.84 611.88 580.80 494.42 464.15 428.31 395.13 358.31 340.87 328.97 319.46 303.50 294.89 284.35 276.45 270.97 270.99 273.93 285.67 297.53 316.43 344.26 370.31 405.57 434.74 458.06 488.61 514.75 555.61 590.65 618.51 638.16 672.23 699.87 717.45 744.35 758.27 765.01 739.55 714.02 715.45 685.00 627.01 782.51 539.46 343.22 198.10 64.50 -435.39 -1741.98 -2747.69 -4113.28 -4699.28 -4989.40 -5190.71 -5329.14 -5370.42 -5098.06 -4361.86 -2367.18 -980.92 -581.59 -616.95 -923.35 -1637.75 -3789.19 -5449.36 -5452.38 -5251.64 -5214.75 -5216.75 -5222.51 -5219.29 -5209.02 -5192.49 -5172.47 -5153.20 -5140.52 -5119.65 -5103.86 -5090.39 -5090.47
-10325.86 -10325.83 -10286.64 -10231.35 -10197.20 -10166.03 -10008.76 -9962.71 -9860.94 -9211.95 -8532.19 -7971.05 -7086.71 -5989.79 -5777.97 -5706.82 -5973.23 -6353.66 -6915.81 -7064.42 -7049.16 -6003.87 -4817.60 -3674.32 -3187.61 -2551.17 -2046.70 -586.20 216.07 255.74 285.17 306.65 355.96 434.05 524.97 548.66 645.13 691.53 740.40 722.82 610.28 534.66 513.69 514.86 490.60 484.40 486.30 484.08 490.96 495.37 492.76 496.44 500.13 506.38 524.70 535.36 561.78 602.05 668.32 687.12 683.25 632.68 549.15 486.61 460.24 412.80 377.54 360.72 344.99 321.36 307.84 295.62 284.63 278.49 271.85 271.34 274.93 285.50 295.30 319.05 336.41 369.49 403.21 433.75 454.32 491.67 524.18 549.78 591.01 614.38 638.58 674.10 695.88 724.68 743.71 754.53 757.57 748.50 717.42 632.46 621.20 613.30 660.36 476.22 263.50 184.62 85.31 -457.79 -1469.20 -2288.91 -3746.10 -4725.93 -5098.99 -5308.14 -5341.72 -5220.63 -4647.35 -3845.70 -1694.89 -567.55 -450.28 -552.81 -1113.05 -1971.11 -3266.10 -5345.98 -5401.50 -5280.58 -5211.41 -5213.43 -5216.65 -5216.33 -5203.15 -5185.76 -5164.98 -5152.78 -5126.86 -5116.94 -5097.32 -5087.09 -5087.18
-10090.47 -10090.71 -9941.02 -9607.40 -9523.42 -9514.17 -9227.57 -8662.13 -8369.27 -7803.98 -6868.10 -5923.84 -5780.15 -5458.62 -5155.68 -5330.75 -5453.43 -5705.20 -6125.64 -6325.95 -6785.21 -5906.56 -5116.90 -3958.90 -3434.13 -2517.64 -1895.95 -707.63 51.50 251.22 282.92 316.20 381.11 484.51 527.73 522.26 555.55 621.41 681.25 635.65 577.44 497.19 471.26 466.51 471.10 474.55 466.32 468.00 479.13 468.58 478.44 487.06 497.13 504.51 521.36 533.24 555.62 598.49 669.75 719.47 695.79 640.71 554.21 498.87 475.22 423.59 409.45 376.36 351.94 325.33 310.60 297.49 285.11 276.44 271.01 270.09 272.48 280.18 300.22 323.99 343.52 368.27 393.32 419.72 453.29 490.66 535.14 550.43 585.15 618.02 642.97 678.25 698.56 727.50 741.41 744.21 745.53 733.77 688.67 628.82 584.27 586.59 545.13 319.30 241.64 166.06 39.02 -389.02 -573.78 -2037.02 -3491.22 -4504.15 -4952.90 -5249.63 -5312.05 -5199.46 -3889.94 -2722.44 -931.33 -488.48 -366.98 -636.31 -982.09 -1617.35 -3471.68 -5372.08 -5402.57 -5285.36 -5218.07 -5205.93 -5215.88 -5209.89 -5200.44 -5183.96 -5162.12 -5145.32 -5126.45 -5110.31 -5097.26 -5086.31 -5086.40
-9115.76 -9116.80 -8589.89 -8497.75 -8291.75 -7747.22 -7482.38 -6839.54 -6191.87 -5707.16 -5694.45 -5379.55 -5136.60 -5018.42 -4983.46 -5033.62 -5141.34 -5353.59 -5628.43 -5748.48 -5959.77 -5779.70 -5032.10 -4382.38 -3190.34 -2272.76 -1657.86 -973.47 -21.12 248.37 276.86 321.31 362.72 421.81 470.04 446.43 495.44 529.04 570.47 538.72 504.83 456.83 439.22 438.03 437.75 429.26 446.32 454.12 460.04 461.38 470.51 472.89 489.43 501.76 507.84 535.07 554.78 574.43 652.19 689.68 652.59 601.61 562.07 516.94 475.89 440.31 410.44 407.40 367.96 341.57 322.03 296.77 288.86 277.05 270.52 270.68 274.31 282.44 296.87 315.22 340.74 368.02 388.86 408.64 458.70 490.29 520.38 554.13 588.53 617.55 643.38 677.32 701.07 725.39 740.05 743.15 747.87 757.50 733.96 727.02 800.78 704.31 403.53 276.37 229.59 150.09 47.08 -276.83 -691.16 -1916.55 -3193.93 -3379.54 -4216.88 -4825.10 -5066.76 -4844.48 -3623.41 -1887.69 -631.47 -357.14 -365.15 -680.26 -1266.47 -2465.75 -3708.15 -5084.54 -5360.30 -5273.71 -5203.27 -5198.36 -5196.15 -5199.21 -5191.55 -5176.84 -5158.61 -5142.97 -5123.28 -5111.18 -5090.06 -5081.31 -5081.39
-6996.07 -6998.99 -6938.71 -6476.55 -6561.01 -5700.78 -5639.93 -5295.14 -5231.37 -4976.78 -4842.97 -4874.76 -4886.41 -4927.70 -4956.02 -4983.40 -5051.22 -5126.58 -5266.69 -5310.69 -5357.28 -5258.59 -4797.61 -4483.54 -3693.62 -2467.39 -1896.67 -703.92 -67.06 245.30 259.23 298.13 310.23 380.71 396.74 419.85 484.94 474.73 485.36 473.87 437.76 421.15 398.43 406.35 406.35 416.19 423.01 432.56 440.68 452.25 464.96 469.02 474.76 494.93 503.58 521.84 533.19 571.48 601.61 647.58 657.76 617.79 566.95 521.50 503.13 475.94 435.08 421.27 376.92 355.20 331.08 300.09 285.90 274.33 269.50 269.97 274.50 283.61 291.52 313.67 333.86 367.43 395.72 416.82 449.11 487.35 512.01 554.64 566.68 615.88 638.75 666.40 701.38 720.31 729.89 732.82 745.27 763.13 768.02 766.91 900.06 662.40 314.01 253.96 202.91 99.58 6.81 -229.53 -829.68 -1531.33 -2002.03 -2690.01 -3264.24 -3808.59 -4621.52 -3799.80 -3024.99 -1523.39 -533.43 -271.43 -429.03 -795.12 -1441.10 -2913.27 -4493.32 -5322.89 -5363.33 -5215.57 -5165.83 -5171.91 -5174.80 -5164.87 -5181.99 -5171.83 -5153.97 -5137.65 -5120.27 -5103.15 -5087.53 -5077.05 -5077.14
-5251.98 -5255.07 -5263.76 -5408.65 -5157.79 -5071.27 -4922.71 -4787.20 -4703.57 -4677.39 -4734.20 -4767.38 -4859.94 -4901.26 -4940.35 -4973.02 -5007.90 -5069.89 -5105.39 -5169.43 -5167.08 -4937.38 -4559.33 -4502.75 -3808.25 -2622.78 -2450.39 -698.60 68.20 238.71 244.91 271.85 304.17 316.68 357.25 415.22 437.21 444.12 419.14 412.70 399.19 399.83 372.54 379.14 380.45 399.48 403.18 411.35 427.41 438.64 456.61 463.46 467.12 477.41 499.87 506.68 520.89 550.82 604.55 649.03 693.52 656.54 615.82 556.00 530.89 510.07 486.00 429.92 385.70 367.74 317.54 299.23 286.10 271.83 268.69 269.30 271.06 279.91 287.39 315.25 334.42 360.66 383.61 406.95 456.87 473.96 502.81 541.28 569.58 594.99 637.68 651.68 686.46 691.90 692.51 699.97 723.50 727.50 774.78 795.95 795.51 489.74 294.90 257.36 153.55 69.48 -74.07 -208.32 -428.37 -769.53 -1159.11 -1812.93 -2275.07 -2541.14 -2626.48 -2762.39 -2009.22 -718.56 -269.76 -266.46 -413.38 -1090.30 -2169.52 -3987.33 -4700.30 -5369.19 -5336.25 -5170.56 -5130.53 -5135.13 -5130.37 -5135.64 -5168.54 -5166.75 -5147.84 -5131.32 -5114.40 -5103.85 -5085.85 -5072.44 -5072.53
-4706.89 -4708.16 -4734.88 -4730.99 -4650.97 -4618.99 -4638.27 -4647.59 -4622.40 -4641.99 -4710.16 -4766.57 -4845.16 -4892.51 -4948.84 -4987.87 -5024.71 -5061.91 -5094.37 -5143.70 -5141.74 -4904.36 -4517.63 -4426.08 -4375.83 -3174.17 -2073.16 -163.97 189.88 225.54 245.55 253.26 277.02 289.70 337.97 374.78 367.52 364.41 347.86 356.31 362.14 339.07 349.22 351.12 348.40 360.72 370.77 397.06 401.82 420.52 441.07 446.18 451.63 467.78 482.90 509.33 524.18 543.77 589.16 644.63 706.92 703.44 634.14 624.55 596.84 568.89 523.27 491.60 420.46 366.99 322.57 299.81 282.14 269.33 267.29 269.18 273.89 283.33 291.24 316.97 334.78 346.88 384.69 406.88 433.36 463.39 500.18 532.03 560.01 604.41 617.33 662.12 674.48 662.13 643.77 655.35 682.42 713.44 803.95 818.71 612.56 300.46 244.16 183.13 45.18 -11.63 -69.82 -162.37 -390.46 -519.26 -1134.49 -1507.60 -1750.48 -2003.55 -2158.09 -1736.39 -860.20 -408.61 -255.56 -408.54 -689.04 -1298.86 -2885.66 -4642.10 -5360.95 -5389.04 -5236.55 -5147.07 -5123.18 -5122.98 -5115.87 -5120.21 -5148.38 -5158.72 -5140.24 -5128.37 -5110.55 -5096.39 -5083.77 -5068.27 -5068.35
-4641.08 -4641.25 -4627.54 -4605.05 -4594.84 -4604.30 -4617.63 -4624.43 -4623.27 -4667.98 -4726.27 -4777.23 -4851.31 -4913.98 -4948.94 -4984.91 -5024.36 -5058.54 -5099.37 -5129.35 -5106.80 -4900.16 -4527.72 -4427.93 -4392.70 -3614.70 -1280.03 -199.99 157.72 205.05 238.37 251.79 258.51 272.77 278.35 281.06 302.09 316.36 316.42 319.40 316.43 314.81 332.72 327.19 334.00 341.31 352.85 376.87 394.34 400.53 417.95 424.07 443.89 465.95 482.54 499.49 527.25 554.20 598.89 646.49 685.10 706.01 644.88 611.11 606.78 599.56 575.37 514.75 443.86 377.22 324.48 299.08 277.89 270.18 265.99 269.42 273.68 283.94 293.68 312.97 328.50 353.85 387.56 418.07 441.95 470.11 498.72 517.75 555.05 589.31 613.84 646.75 657.91 640.25 615.71 615.07 628.86 669.35 837.02 671.35 331.23 307.23 229.26 80.80 -52.62 -87.67 -150.70 -271.60 -375.79 -607.25 -1065.68 -1317.81 -1639.02 -1672.92 -1601.90 -1232.69 -746.08 -336.06 -260.60 -466.70 -1206.05 -1588.02 -3206.86 -4715.16 -5403.26 -5359.01 -5166.90 -5126.89 -5118.03 -5119.58 -5114.28 -5113.84 -5147.91 -5154.75 -5137.53 -5122.55 -5107.10 -5092.94 -5083.33 -5070.75 -5070.86
-4672.28 -4672.29 -4646.69 -4629.07 -4617.74 -4626.35 -4647.79 -4670.50 -4651.68 -4696.47 -4746.49 -4803.11 -4865.86 -4909.38 -4962.02 -4987.30 -5014.35 -5074.66 -5102.42 -5131.58 -5133.18 -4880.40 -4577.59 -4416.65 -4419.82 -3495.38 -2808.29 -653.42 108.47 171.42 228.00 235.49 245.59 252.87 258.76 270.56 275.83 285.85 291.58 294.75 298.06 304.22 308.26 310.57 310.92 316.32 343.76 348.81 361.44 387.33 402.81 421.29 436.69 462.66 477.38 494.67 528.81 585.05 602.58 647.70 680.53 659.93 586.50 548.22 536.75 541.90 496.45 474.94 443.68 360.39 318.31 300.47 276.38 266.96 264.09 267.02 273.33 281.00 296.36 314.09 339.30 364.74 389.27 411.34 450.05 466.76 496.31 517.07 554.49 588.46 605.53 626.45 629.34 619.51 575.51 572.82 568.91 698.00 842.11 451.55 290.49 254.73 155.69 9.90 -101.81 -149.87 -252.77 -315.39 -485.87 -654.29 -1038.64 -1426.10 -1572.46 -1645.26 -1531.95 -1094.62 -612.62 -275.87 -308.88 -486.60 -1236.26 -2043.73 -3606.34 -4783.80 -5378.15 -5282.34 -5185.37 -5122.58 -5120.20 -5116.87 -5112.32 -5108.21 -5141.18 -5146.87 -5127.66 -5116.54 -5101.64 -5088.40 -5079.90 -5068.04 -5068.14
-4711.47 -4710.24 -4673.07 -4648.46 -4636.84 -4648.91 -4665.05 -4692.04 -4679.49 -4711.70 -4757.59 -4794.91 -4852.12 -4907.51 -4959.70 -5012.88 -5046.71 -5089.88 -5125.65 -5162.85 -5126.11 -4913.04 -4553.97 -4361.46 -4466.90 -4012.56 -3161.88 -1884.44 -690.82 -152.11 170.23 160.44 170.43 212.03 250.73 250.70 258.80 265.33 267.37 269.27 272.30 277.09 281.05 288.76 288.44 297.59 311.08 327.06 347.64 369.98 383.28 411.55 438.57 463.68 472.46 474.32 524.80 569.80 583.74 591.00 664.07 649.49 598.11 529.65 477.95 467.38 441.86 406.94 382.75 331.11 309.96 291.43 268.85 264.19 264.09 267.58 272.52 281.26 296.62 310.28 342.59 363.43 380.22 402.54 432.34 467.20 496.98 515.12 555.08 591.21 606.01 602.80 585.83 558.44 547.48 536.58 624.76 831.40 691.57 330.83 266.32 177.08 142.48 6.72 -109.31 -194.67 -263.93 -385.97 -480.94 -695.66 -1036.88 -1468.74 -1605.70 -1642.83 -1621.98 -1345.75 -486.63 -387.38 -361.56 -596.50 -1116.39 -1916.14 -3239.26 -4702.41 -5294.36 -5245.64 -5182.97 -5126.08 -5120.67 -5116.90 -5104.51 -5099.43 -5125.17 -5138.85 -5129.52 -5112.96 -5096.73 -5083.36 -5076.35 -5065.47 -5065.60
-4668.38 -4668.42 -4667.56 -4643.56 -4634.64 -4651.07 -4667.86 -4677.29 -4672.91 -4691.85 -4737.77 -4800.88 -4854.13 -4874.74 -4943.68 -5079.80 -5128.30 -5157.82 -5204.00 -5238.74 -5250.02 -5095.10 -4294.98 -3930.58 -4579.95 -4794.26 -3797.61 -3212.73 -1490.66 -388.88 -53.77 2.67 47.17 134.83 209.47 223.62 238.41 254.48 255.08 253.72 257.16 264.81 264.95 265.12 280.69 285.99 293.87 308.41 325.89 354.60 387.95 404.36 459.42 462.21 481.14 466.62 501.96 580.08 575.04 520.07 541.22 572.41 513.54 482.04 452.82 441.99 407.19 366.84 344.40 323.21 295.61 280.23 266.92 263.10 263.02 267.85 273.02 283.95 295.79 327.21 348.90 371.32 388.74 407.95 433.88 462.50 495.53 521.21 547.35 590.35 598.07 594.66 561.73 528.51 491.47 583.30 625.49 639.77 444.86 294.25 212.71 168.84 46.79 -45.61 -197.37 -267.17 -354.94 -434.69 -500.14 -771.08 -1039.42 -1575.46 -1624.22 -1706.30 -1699.72 -1396.24 -895.45 -576.64 -529.30 -825.28 -1278.59 -1817.70 -3287.12 -4648.95 -5276.41 -5276.36 -5180.54 -5138.80 -5121.68 -5112.82 -5097.49 -5098.01 -5116.87 -5131.63 -5124.45 -5108.77 -5093.76 -5082.06 -5073.57 -5061.82 -5061.93
-4716.31 -4716.33 -4694.99 -4687.26 -4671.05 -4676.94 -4699.25 -4695.58 -4690.28 -4708.00 -4748.21 -4800.39 -4831.74 -4867.56 -4960.82 -5099.26 -5159.03 -5194.11 -5239.93 -5259.67 -5272.41 -5225.31 -4278.75 -3761.41 -4248.02 -4918.46 -4726.20 -4069.06 -2436.95 -514.34 -246.71 -124.30 -28.90 98.65 166.06 192.81 191.53 232.02 238.36 236.52 236.77 242.09 253.25 253.50 262.47 267.59 280.99 292.23 300.29 334.72 360.86 392.21 426.67 418.36 446.45 455.30 455.66 551.53 560.57 509.41 465.51 509.71 449.54 411.78 402.62 391.14 369.13 350.67 325.38 302.37 285.41 278.11 267.36 262.80 263.31 268.69 276.09 289.55 300.16 316.43 347.60 361.02 394.51 405.17 446.00 460.66 489.54 523.57 553.12 578.99 592.11 580.42 538.23 502.62 464.28 589.24 657.27 421.18 298.61 278.26 226.31 99.69 -39.45 -166.57 -247.20 -338.21 -422.19 -447.47 -555.65 -861.59 -1211.12 -1572.19 -1698.38 -1733.31 -1755.83 -1608.76 -1266.82 -951.99 -982.70 -1079.76 -1605.15 -2275.34 -3427.57 -4812.84 -5266.19 -5241.94 -5173.04 -5134.10 -5121.50 -5109.66 -5093.05 -5096.98 -5113.99 -5127.95 -5118.20 -5101.51 -5088.93 -5078.60 -5069.50 -5059.30 -5059.40
-4777.01 -4777.00 -4752.05 -4750.53 -4738.72 -4733.45 -4752.32 -4756.93 -4743.03 -4760.84 -4795.15 -4823.14 -4849.77 -4905.28 -4945.12 -5107.39 -5172.51 -5198.23 -5236.70 -5256.74 -5271.91 -5191.22 -4769.26 -4333.59 -4404.96 -4961.39 -5078.14 -3773.70 -2516.19 -528.26 -397.65 -373.88 -166.13 -28.52 48.76 95.02 158.51 196.89 211.45 217.33 204.70 198.35 216.82 234.79 251.14 254.32 266.29 267.81 273.38 296.98 321.31 341.43 375.67 384.98 402.63 395.96 401.56 492.55 470.34 426.18 404.61 426.06 422.84 387.25 361.76 357.00 358.77 324.07 308.40 294.19 284.69 273.27 263.92 262.65 263.74 268.30 274.41 290.38 300.79 326.10 350.89 371.46 395.85 407.41 438.49 469.55 504.04 523.67 551.28 577.26 578.29 577.03 547.84 495.30 446.10 525.11 390.80 296.92 287.66 231.55 187.07 67.38 -69.34 -190.53 -272.85 -356.25 -430.26 -478.76 -545.87 -930.17 -1332.14 -1560.04 -1731.11 -1763.49 -1804.72 -1789.11 -1703.47 -1353.91 -1301.53 -1478.79 -1849.50 -3017.62 -4104.58 -5240.29 -5322.56 -5223.07 -5165.04 -5132.97 -5114.72 -5104.06 -5086.89 -5089.87 -5112.50 -5125.59 -5112.76 -5096.60 -5087.15 -5077.59 -5066.48 -5057.52 -5057.61
-4835.55 -4835.52 -4817.20 -4795.43 -4814.27 -4805.38 -4812.53 -4807.76 -4794.29 -4795.67 -4836.75 -4856.05 -4877.96 -4904.33 -4985.85 -5117.22 -5172.98 -5200.29 -5228.59 -5246.20 -5268.26 -5161.33 -5018.63 -4764.82 -4571.65 -4970.16 -5152.03 -4518.37 -2715.74 -732.09 -399.56 -425.58 -355.97 -170.82 -55.24 36.17 133.67 117.95 165.41 154.18 143.89 175.90 199.02 217.48 238.35 247.13 251.68 250.15 254.97 256.46 280.69 297.18 321.59 326.55 347.41 350.64 361.32 373.30 383.53 359.32 354.30 359.89 338.97 338.50 316.63 316.50 315.36 312.43 292.19 286.21 274.53 265.62 263.45 262.59 263.83 268.22 275.37 289.44 301.16 325.39 357.77 372.14 395.66 413.45 445.34 474.46 514.97 533.88 554.71 566.51 563.16 538.14 539.34 516.24 574.69 542.05 301.46 289.07 262.61 190.17 138.29 27.06 -91.37 -217.96 -308.64 -364.34 -433.75 -498.56 -547.82 -910.56 -1329.76 -1674.02 -1740.50 -1789.84 -1837.52 -1902.78 -1907.40 -1799.89 -1482.71 -1476.84 -1853.76 -3318.74 -4790.75 -5230.84 -5281.36 -5207.68 -5171.39 -5131.65 -5120.17 -5105.01 -5099.69 -5095.65 -5118.30 -5124.71 -5110.49 -5097.43 -5083.24 -5073.04 -5062.57 -5055.84 -5055.93
-4890.66 -4891.14 -4879.14 -4862.94 -4857.46 -4869.48 -4859.52 -4856.91 -4859.21 -4832.54 -4869.55 -4879.40 -4910.15 -4936.94 -5027.28 -5135.61 -5179.88 -5202.97 -5227.85 -5243.94 -5256.50 -5194.55 -5124.80 -4982.18 -4910.43 -5125.29 -5164.60 -4966.50 -3363.26 -1156.23 -555.41 -610.05 -502.37 -433.75 -322.61 -116.64 29.37 21.14 34.07 74.45 91.03 121.62 155.27 194.97 218.67 232.06 240.25 235.86 239.92 246.24 252.86 272.36 281.81 303.69 314.04 289.89 306.28 326.25 320.90 328.21 325.57 321.16 307.72 310.31 299.88 285.36 282.79 279.12 282.70 278.88 269.12 263.42 261.37 261.37 265.19 271.31 282.66 290.75 310.63 330.95 353.48 372.70 399.44 433.50 452.15 466.82 517.50 541.12 560.58 552.95 532.28 487.15 485.93 517.35 471.65 322.35 291.71 259.91 191.31 119.90 89.50 1.13 -71.44 -203.60 -308.39 -373.71 -445.42 -510.08 -599.34 -938.62 -1429.45 -1667.15 -1762.16 -1827.74 -1888.66 -1963.22 -2014.15 -2005.66 -1736.58 -1719.97 -2254.32 -4072.91 -5220.63 -5321.18 -5269.44 -5198.10 -5166.93 -5142.53 -5132.99 -5119.60 -5106.95 -5098.82 -5110.81 -5117.03 -5108.06 -5094.13 -5078.48 -5070.43 -5060.88 -5053.37 -5053.46
-4940.18 -4940.12 -4929.01 -4920.35 -4918.30 -4913.03 -4926.11 -4905.92 -4908.75 -4962.25 -4982.62 -4982.80 -4963.50 -4975.83 -5060.83 -5107.79 -5125.89 -5168.19 -5179.40 -5197.65 -5219.32 -5195.81 -5174.13 -5189.80 -5197.64 -5202.41 -5258.22 -5192.37 -4209.11 -2895.94 -2256.78 -1498.34 -1693.45 -1482.78 -1064.55 -423.65 -189.95 -26.68 -20.20 -8.36 15.22 40.70 76.92 132.50 163.33 205.80 221.86 220.74 221.70 231.00 239.38 245.84 248.47 266.58 261.18 261.35 262.06 261.26 274.29 286.75 289.20 282.19 285.93 282.31 275.03 271.99 271.37 263.57 261.63 263.73 262.18 260.10 259.28 259.46 265.09 272.56 280.95 298.05 308.32 331.53 353.75 377.97 408.67 442.41 458.80 478.06 524.78 547.87 561.98 549.40 520.23 472.39 417.02 553.60 468.29 279.22 254.38 208.77 114.39 37.24 -8.21 -84.95 -151.93 -245.49 -332.96 -382.35 -462.29 -535.91 -748.15 -1044.41 -1525.04 -1707.21 -1773.62 -1847.45 -1907.92 -1975.27 -2040.15 -2071.80 -1887.96 -1875.61 -2855.24 -4368.00 -5202.30 -5313.52 -5251.88 -5189.09 -5153.27 -5149.10 -5138.61 -5123.05 -5118.32 -5107.76 -5105.88 -5107.40 -5101.29 -5090.75 -5078.28 -5067.87 -5061.11 -5051.06 -5051.15
-4981.14 -4982.25 -4972.98 -4960.81 -4950.72 -4948.51 -4962.69 -4988.02 -5056.81 -5087.27 -5099.19 -5113.62 -5123.34 -5135.55 -5125.12 -5076.28 -5087.42 -5094.05 -5113.59 -5147.32 -5135.95 -5177.22 -5240.68 -5264.64 -5314.09 -5344.60 -5324.19 -5357.96 -5230.14 -4461.76 -3701.47 -3658.37 -2838.69 -2868.90 -2800.37 -1747.45 -603.72 -412.51 -462.37 -383.29 -538.33 -426.39 36.79 101.82 121.24 145.74 171.42 131.53 162.79 225.48 230.31 238.14 240.25 248.50 252.32 254.94 251.17 245.67 248.85 259.06 267.80 266.05 262.87 258.09 257.98 258.09 255.78 255.45 255.00 255.23 257.12 254.93 256.84 257.54 262.06 269.42 280.28 300.88 310.01 329.72 350.49 382.83 398.11 441.21 464.97 491.26 527.14 556.47 564.57 548.73 491.95 450.42 407.84 428.44 369.83 259.25 177.48 121.91 45.12 -18.31 -69.31 -126.00 -186.58 -256.22 -318.56 -389.09 -481.62 -548.62 -689.32 -1115.46 -1630.38 -1735.94 -1802.07 -1838.12 -1902.45 -1981.65 -2049.88 -2099.57 -1905.98 -2019.25 -2916.64 -4719.53 -5273.70 -5317.63 -5217.17 -5186.01 -5166.98 -5144.26 -5135.95 -5126.06 -5116.45 -5107.63 -5102.47 -5106.80 -5103.48 -5085.76 -5080.19 -5064.21 -5057.45 -5048.85 -5048.93
-5022.63 -5022.58 -5009.82 -5010.99 -5016.76 -5016.84 -5002.25 -5026.35 -5126.87 -5150.20 -5159.82 -5168.34 -5178.11 -5175.44 -5158.28 -5066.76 -5055.38 -5059.26 -5073.30 -5087.85 -5103.01 -5177.51 -5285.76 -5310.21 -5339.80 -5358.97 -5383.30 -5394.83 -5340.51 -5305.65 -5196.22 -5081.07 -4761.12 -4199.34 -3373.63 -2793.83 -1565.06 -1245.55 -945.59 -952.19 -1424.45 -1145.38 -424.16 -54.68 -42.20 -52.21 -19.12 42.64 88.60 171.18 195.07 215.49 224.10 234.25 240.69 242.57 239.44 237.87 240.25 247.36 250.65 247.92 245.30 241.55 237.53 235.25 237.77 249.13 243.88 247.33 249.50 251.89 253.67 256.89 261.65 269.85 279.53 304.72 313.88 336.66 354.45 377.05 403.88 439.24 468.93 501.72 535.79 547.21 567.03 552.27 513.83 466.89 437.69 343.60 284.99 256.19 154.25 71.81 23.00 -63.16 -129.88 -162.30 -214.50 -315.31 -389.51 -426.55 -486.71 -518.22 -879.05 -1211.23 -1596.16 -1792.07 -1818.31 -1842.41 -1898.63 -1970.97 -2036.81 -2095.02 -1791.37 -1907.39 -3166.56 -4358.26 -5317.66 -5292.59 -5231.25 -5181.94 -5158.08 -5145.11 -5132.90 -5129.56 -5122.22 -5116.19 -5115.31 -5103.12 -5096.16 -5085.57 -5073.15 -5062.32 -5055.88 -5047.17 -5047.26
-5061.07 -5061.02 -5053.00 -5049.68 -5045.44 -5042.83 -5050.34 -5083.11 -5150.52 -5195.45 -5203.78 -5196.31 -5203.05 -5209.00 -5172.23 -5083.38 -5060.66 -5065.95 -5081.54 -5084.95 -5108.74 -5178.34 -5272.26 -5316.85 -5349.96 -5360.73 -5386.83 -5400.93 -5354.58 -5300.83 -5299.37 -5283.66 -5256.00 -4896.03 -4083.89 -2829.81 -1913.53 -1847.47 -1852.95 -1873.31 -1841.10 -1675.95 -629.11 -296.20 -186.26 -221.83 -194.63 -153.26 -48.19 92.91 120.82 135.37 194.43 215.53 219.81 235.26 234.44 234.13 234.41 240.90 236.71 236.26 233.72 233.80 227.58 227.44 227.30 224.58 228.24 232.64 243.70 246.39 248.73 253.31 260.95 267.58 283.04 298.76 312.90 336.92 361.27 382.33 419.07 446.57 484.54 513.32 535.69 567.58 576.39 569.42 538.62 524.47 487.02 280.77 268.28 166.32 95.86 41.38 -6.13 -102.26 -183.87 -243.96 -285.54 -338.19 -422.29 -456.95 -495.15 -631.11 -977.41 -1311.87 -1612.06 -1768.00 -1815.31 -1831.15 -1887.13 -1949.81 -2014.05 -2002.93 -1650.31 -1823.24 -3075.53 -4516.17 -5316.09 -5253.46 -5216.14 -5173.91 -5160.36 -5148.97 -5136.46 -5124.97 -5122.00 -5117.68 -5120.83 -5109.95 -5091.16 -5083.41 -5070.33 -5058.13 -5051.59 -5045.32 -5044.71
-5095.57 -5095.51 -5087.27 -5089.42 -5089.26 -5084.67 -5086.06 -5122.48 -5208.62 -5219.20 -5227.61 -5232.14 -5232.81 -5230.42 -5172.21 -5099.75 -5078.88 -5082.14 -5090.51 -5098.25 -5122.06 -5163.39 -5276.30 -5321.19 -5342.89 -5358.58 -5388.73 -5395.79 -5361.94 -5305.61 -5304.74 -5313.67 -5323.35 -5153.30 -5057.26 -3267.82 -2215.98 -1807.15 -1779.33 -1775.77 -1730.47 -1616.98 -733.15 -298.80 -294.22 -282.64 -244.94 -194.22 -137.13 -38.06 4.68 83.38 160.39 153.14 185.61 199.58 224.46 217.56 215.59 211.24 202.72 195.50 217.27 179.32 182.68 182.08 198.68 195.85 212.36 215.45 231.45 237.52 242.92 246.97 258.56 265.08 283.57 295.02 312.60 342.04 357.00 392.59 417.92 438.46 484.18 514.85 548.48 576.34 581.51 583.13 566.92 587.87 441.14 258.50 221.10 112.02 4.68 -22.90 -81.41 -161.42 -254.92 -298.09 -305.15 -378.88 -416.62 -475.96 -520.71 -689.60 -1006.46 -1436.63 -1639.12 -1780.51 -1807.18 -1833.89 -1868.35 -1930.78 -1976.11 -1904.97 -1508.41 -2118.98 -3889.77 -5377.63 -5396.00 -5272.57 -5189.12 -5171.64 -5163.23 -5157.90 -5149.47 -5127.13 -5121.99 -5116.57 -5115.26 -5108.60 -5094.53 -5081.53 -5068.69 -5058.80 -5050.61 -5043.31 -5043.39
-5124.75 -5125.63 -5121.80 -5115.49 -5114.03 -5110.42 -5116.11 -5147.75 -5238.29 -5255.57 -5259.41 -5259.50 -5264.09 -5248.03 -5198.14 -5108.46 -5097.85 -5098.55 -5105.99 -5107.67 -5126.95 -5196.52 -5285.08 -5319.34 -5338.96 -5356.79 -5382.18 -5397.59 -5356.30 -5314.15 -5318.54 -5337.08 -5352.23 -5339.85 -5249.19 -3870.23 -2582.83 -2001.73 -1938.47 -1857.40 -1775.20 -1642.83 -934.19 -387.00 -328.91 -296.03 -254.25 -225.39 -179.81 -169.67 -95.20 -45.62 68.37 48.30 -12.72 61.44 130.64 110.10 163.44 157.59 181.63 146.93 147.05 127.34 137.63 144.34 148.90 173.44 203.06 206.81 217.62 230.00 235.00 240.96 255.48 262.94 275.75 292.28 306.14 325.79 349.31 390.83 412.77 440.70 485.04 511.85 564.14 577.25 567.42 543.51 557.02 601.15 385.47 244.34 196.79 31.48 -51.68 -110.59 -145.90 -209.13 -286.24 -333.94 -392.16 -385.72 -434.89 -486.85 -525.18 -724.02 -993.47 -1491.12 -1730.67 -1790.33 -1817.33 -1837.04 -1877.78 -1928.56 -1928.82 -1892.06 -1863.13 -2863.07 -4517.73 -5493.63 -5357.39 -5207.17 -5169.48 -5174.41 -5173.53 -5166.87 -5155.08 -5142.41 -5129.08 -5123.56 -5115.56 -5104.59 -5090.85 -5078.32 -5066.26 -5058.56 -5049.43 -5041.52 -5041.60
-5134.96 -5134.86 -5129.22 -5125.71 -5121.44 -5114.34 -5125.71 -5160.16 -5249.86 -5273.04 -5283.10 -5280.17 -5280.96 -5271.94 -5224.47 -5126.71 -5112.69 -5113.88 -5113.42 -5119.48 -5136.98 -5194.57 -5262.39 -5286.90 -5294.25 -5328.94 -5327.34 -5358.35 -5356.53 -5363.30 -5373.94 -5376.14 -5422.37 -5432.07 -5334.38 -4673.35 -3667.49 -3077.94 -2429.11 -2324.42 -2249.74 -2084.18 -1452.45 -742.07 -481.38 -389.80 -295.66 -236.60 -196.45 -159.41 -127.72 -111.40 -57.35 -19.32 -35.34 -31.18 -28.15 -26.53 21.94 53.17 104.54 89.38 92.03 80.29 110.58 131.54 153.97 176.42 189.92 199.29 213.40 221.90 225.23 235.56 247.27 254.97 268.65 286.27 301.92 320.60 345.27 366.04 412.38 428.30 479.72 512.67 549.89 559.77 557.23 522.18 476.66 560.13 352.09 229.16 175.83 40.23 -79.16 -130.72 -192.41 -237.31 -336.19 -360.06 -425.20 -426.24 -471.75 -527.83 -638.97 -844.54 -1154.83 -1507.39 -1745.91 -1772.51 -1818.03 -1846.46 -1891.58 -1934.73 -1918.43 -1643.67 -2393.97 -4099.24 -5289.21 -5417.03 -5229.52 -5166.03 -5149.82 -5176.32 -5177.73 -5176.40 -5170.23 -5158.44 -5137.79 -5127.73 -5117.29 -5108.98 -5088.82 -5079.79 -5065.09 -5058.23 -5048.97 -5039.84 -5039.92
-5110.87 -5110.81 -5115.57 -5116.40 -5113.14 -5110.32 -5117.49 -5162.45 -5255.16 -5296.66 -5301.16 -5295.36 -5295.27 -5286.15 -5219.17 -5147.65 -5127.76 -5128.63 -5126.45 -5135.87 -5137.67 -5146.56 -5177.10 -5182.02 -5204.12 -5208.98 -5222.51 -5270.91 -5364.53 -5419.91 -5464.84 -5464.56 -5468.51 -5456.85 -5424.62 -5289.45 -4900.17 -4596.46 -3357.53 -2823.22 -2352.71 -1779.25 -1254.79 -675.02 -565.38 -443.94 -314.33 -237.84 -177.84 -139.44 -115.86 -82.26 -65.86 -51.87 -45.46 -39.86 -44.47 -36.95 -32.09 -26.62 4.17 14.09 41.45 72.87 87.20 130.95 150.25 158.57 175.81 184.20 197.54 206.98 219.43 236.80 240.49 250.23 263.86 286.58 309.09 330.13 341.76 372.41 414.16 431.02 485.79 500.12 538.36 538.48 525.76 508.17 503.82 393.34 298.66 234.81 162.38 43.70 -65.46 -140.84 -210.26 -279.26 -333.92 -402.69 -461.89 -492.91 -526.14 -647.33 -730.01 -1006.77 -1292.37 -1491.46 -1630.58 -1737.40 -1816.32 -1851.23 -1907.46 -1942.73 -1911.60 -2134.64 -3554.43 -5472.34 -5451.71 -5269.69 -5157.85 -5130.03 -5152.17 -5180.90 -5197.25 -5188.65 -5177.87 -5167.03 -5149.73 -5127.86 -5116.12 -5109.36 -5090.14 -5075.70 -5065.58 -5056.02 -5048.69 -5038.56 -5038.64
-5129.14 -5129.08 -5125.32 -5129.26 -5124.30 -5128.71 -5130.78 -5201.16 -5260.20 -5320.52 -5323.43 -5318.43 -5319.48 -5318.10 -5266.64 -5176.69 -5143.72 -5146.82 -5147.92 -5153.55 -5154.65 -5160.00 -5164.71 -5176.17 -5190.48 -5203.60 -5218.96 -5252.57 -5336.18 -5471.12 -5493.10 -5469.16 -5463.83 -5453.13 -5439.92 -5429.93 -5339.94 -4937.18 -4265.98 -3072.49 -2096.78 -1613.61 -942.51 -802.45 -537.85 -423.18 -323.50 -245.10 -199.45 -139.04 -96.05 -67.44 -55.01 -45.53 -39.68 -33.53 -34.61 -28.57 -29.61 -20.84 -10.08 8.62 26.11 46.32 81.15 101.95 129.09 141.03 158.55 167.24 183.83 195.47 211.96 226.78 233.79 252.20 261.13 283.73 310.01 330.20 340.46 367.72 413.77 429.37 484.73 500.00 514.13 500.13 484.79 523.01 673.90 301.71 289.65 200.39 123.34 47.95 -65.43 -141.55 -220.89 -297.02 -361.73 -521.56 -555.16 -687.53 -733.43 -789.04 -1070.11 -1178.44 -1311.90 -1413.35 -1570.04 -1665.12 -1787.95 -1863.83 -1916.50 -2023.12 -2384.47 -3667.88 -5469.94 -5689.84 -5236.70 -5122.89 -5083.78 -5106.58 -5141.64 -5183.04 -5198.24 -5204.52 -5192.20 -5168.15 -5154.07 -5129.65 -5117.69 -5105.62 -5086.54 -5076.20 -5064.34 -5053.91 -5047.54 -5038.21 -5038.28
-5151.97 -5151.92 -5148.80 -5151.47 -5146.34 -5152.18 -5154.20 -5240.24 -5294.08 -5341.47 -5349.90 -5351.27 -5343.48 -5341.18 -5277.69 -5205.61 -5177.57 -5179.40 -5182.36 -5177.12 -5192.79 -5197.78 -5187.96 -5193.91 -5205.72 -5220.96 -5229.61 -5269.07 -5346.12 -5477.61 -5485.35 -5471.69 -5459.33 -5449.03 -5442.57 -5437.58 -5399.81 -5309.77 -4647.33 -3378.34 -2245.91 -1506.28 -1061.29 -828.94 -520.42 -397.74 -314.44 -249.84 -191.62 -128.37 -97.10 -75.36 -56.00 -41.88 -34.85 -26.78 -21.57 -19.23 -13.36 -9.75 -3.61 3.10 20.29 39.67 68.38 94.94 118.41 131.65 147.72 155.86 173.33 182.25 205.77 218.48 232.55 246.33 258.16 270.45 300.61 330.57 342.61 377.26 405.20 434.52 462.48 486.53 484.02 476.66 467.15 451.63 443.10 294.02 274.69 165.39 59.56 -3.97 -69.60 -143.32 -212.98 -293.87 -499.92 -608.30 -683.33 -830.19 -965.56 -1088.21 -1195.37 -1293.35 -1331.26 -1372.29 -1414.00 -1561.55 -1743.17 -1848.26 -2032.72 -2077.01 -2474.23 -5263.73 -6068.99 -5386.24 -5137.41 -5089.71 -5080.00 -5109.53 -5161.22 -5201.18 -5221.75 -5216.45 -5199.56 -5180.10 -5155.29 -5135.33 -5115.38 -5102.40 -5088.53 -5074.92 -5062.32 -5053.01 -5046.80 -5037.78 -5037.85
-5173.21 -5173.15 -5167.68 -5170.38 -5172.47 -5173.63 -5176.36 -5224.95 -5346.48 -5373.30 -5375.96 -5377.78 -5380.35 -5373.01 -5335.87 -5235.32 -5209.03 -5202.73 -5202.85 -5214.80 -5214.10 -5213.02 -5208.00 -5222.59 -5227.90 -5250.37 -5259.38 -5275.53 -5376.58 -5489.02 -5482.11 -5472.06 -5461.19 -5454.74 -5446.54 -5441.78 -5397.12 -5198.49 -4638.20 -3672.06 -2172.80 -1410.11 -981.36 -778.30 -556.68 -376.59 -297.04 -229.70 -198.86 -147.22 -103.01 -74.21 -48.78 -36.41 -26.33 -13.72 -12.03 -5.79 -2.27 -3.24 1.20 10.92 25.92 44.51 62.03 87.32 102.15 121.67 137.66 150.19 162.03 177.08 189.21 207.47 225.65 234.69 254.22 270.85 299.22 313.68 340.49 382.64 403.26 429.10 458.53 477.12 463.27 432.22 525.86 620.89 381.07 276.01 232.16 119.64 -7.14 -87.92 -124.08 -183.22 -286.80 -435.75 -772.26 -808.25 -977.12 -1105.13 -1211.72 -1273.00 -1286.24 -1296.40 -1326.65 -1359.61 -1419.84 -1491.95 -1643.78 -1882.45 -2059.67 -2337.63 -3452.85 -4268.09 -5686.01 -5291.33 -5104.18 -5073.16 -5084.59 -5114.51 -5156.79 -5200.77 -5222.95 -5215.33 -5197.81 -5182.78 -5155.40 -5132.66 -5117.81 -5101.65 -5086.08 -5072.61 -5063.45 -5053.21 -5046.99 -5038.40 -5038.47
