-10679.39 -10679.30 -10700.05 -10710.66 -10714.73 -10728.77 -10739.80 -10741.14 -10735.33 -10736.61 -10748.68 -10759.11 -10770.80 -10784.09 -10832.58 -10902.28 -10969.38 -11039.66 -11067.84 -11068.45 -11057.14 -11047.31 -11007.06 -10999.48 -11010.73 -11012.35 -11007.30 -11006.16 -10984.60 -10972.37 -10975.51 -10963.82 -10956.91 -10971.20 -10972.64 -11024.81 -11088.19 -11097.25 -11102.86 -11111.99 -11120.20 -11119.89 -11041.23 -11006.44 -10999.59 -11005.89 -11017.21 -11028.09 -11049.94 -11113.76 -11185.86 -11184.24 -11200.06 -11202.99 -11197.04 -11206.42 -11202.24 -11201.18 -11198.46 -11187.66 -11182.11 -11173.02 -11160.20 -11147.35 -11135.20 -11124.49 -11116.36 -11105.82 -11097.29 -11085.84 -11078.43 -11066.30 -11045.30 -11042.17 -11035.67 -11036.98 -11044.11 -11062.47 -11057.98 -11034.87 -9914.61 -9513.05 -8114.63 -5445.55 -4629.62 -3176.49 -2063.08 -796.91 -589.00 -186.26 -298.76 -689.52 -1020.04 -1137.97 -1263.13 -1333.45 -1402.30 -1493.47 -1496.44 -1381.95 -1111.27 -1238.87 -1542.79 -2108.88 -3216.12 -3699.67 -5211.99 -6132.89 -6821.90 -7949.17 -9592.51 -10059.22 -10891.49 -12766.64 -13460.21 -13648.65 -13492.49 -13097.13 -12088.36 -9297.29 -6511.60 -5600.41 -5443.95 -5453.89 -5497.50 -5517.96 -5524.38 -5523.14 -5509.76 -5494.82 -5470.95 -5450.56 -5417.74 -5386.47 -5359.04 -5322.20 -5297.26 -5276.05 -5260.35 -5245.98 -5244.03
-10664.53 -10665.20 -10674.75 -10683.66 -10695.45 -10709.38 -10718.50 -10722.16 -10720.97 -10727.52 -10738.91 -10753.28 -10757.86 -10774.13 -10832.14 -10878.24 -10936.03 -10989.69 -11047.89 -11086.89 -11096.13 -11060.66 -10996.94 -10990.22 -10991.61 -10991.07 -10989.88 -10989.18 -10987.83 -10986.34 -10983.65 -10980.01 -10980.43 -10981.71 -10990.30 -11039.68 -11077.11 -11098.48 -11105.94 -11111.67 -11119.04 -11113.89 -11066.76 -11001.16 -11002.85 -11010.89 -11020.63 -11034.96 -11057.01 -11125.95 -11198.75 -11208.19 -11210.03 -11217.71 -11220.26 -11214.55 -11202.26 -11194.96 -11190.00 -11182.63 -11171.86 -11164.76 -11149.70 -11138.12 -11127.07 -11113.17 -11104.74 -11097.25 -11089.14 -11079.49 -11070.51 -11056.90 -11042.31 -11031.09 -11025.14 -11030.46 -11042.09 -11055.96 -11058.09 -9946.97 -9340.27 -7962.85 -5884.30 -3943.21 -3404.03 -2390.30 -1240.99 -772.16 -255.44 -110.39 -336.94 -647.80 -816.02 -978.06 -1068.78 -1189.85 -1325.67 -1431.94 -1473.20 -1250.33 -1138.69 -1350.34 -1658.82 -2119.88 -2757.26 -3547.84 -4434.82 -5152.35 -6164.02 -7732.32 -8675.96 -9776.57 -10593.10 -11702.02 -13125.68 -13316.48 -13372.98 -13150.16 -12743.05 -9326.17 -6654.28 -5624.46 -5446.27 -5446.65 -5488.20 -5507.07 -5517.30 -5510.12 -5500.57 -5479.22 -5460.18 -5433.36 -5403.71 -5381.28 -5348.51 -5316.67 -5295.09 -5272.65 -5255.79 -5242.80 -5242.87
-10655.93 -10656.42 -10663.48 -10674.06 -10684.09 -10696.42 -10715.45 -10715.68 -10707.56 -10715.62 -10728.29 -10736.55 -10745.63 -10759.62 -10797.07 -10870.22 -10903.16 -10944.36 -11001.18 -11054.07 -11083.55 -11062.44 -10995.71 -10984.68 -10986.70 -10988.31 -10988.91 -10988.23 -10988.20 -10988.11 -10986.64 -10985.07 -10984.49 -10986.28 -10990.12 -11044.50 -11087.61 -11101.98 -11108.76 -11116.06 -11121.54 -11104.81 -11065.25 -11001.06 -11003.66 -11011.14 -11018.55 -11026.61 -11066.21 -11131.75 -11188.93 -11208.95 -11209.83 -11216.46 -11216.79 -11213.31 -11201.98 -11190.27 -11186.01 -11174.67 -11166.21 -11157.95 -11144.84 -11130.10 -11118.98 -11108.33 -11097.90 -11086.75 -11079.77 -11070.67 -11066.13 -11049.10 -11035.83 -11019.91 -11020.32 -11024.91 -11035.68 -11013.67 -10773.17 -9796.07 -8218.00 -5295.47 -4469.35 -3025.45 -2440.53 -1865.19 -1362.29 -648.32 -297.32 -127.73 -244.29 -556.05 -691.16 -815.10 -966.49 -965.95 -1081.31 -1307.48 -1354.08 -1210.92 -1057.25 -1105.32 -1391.19 -2033.72 -2674.83 -3598.97 -4171.80 -5347.91 -6868.21 -7974.48 -9253.68 -9614.58 -10412.15 -11408.33 -12718.14 -13172.46 -13201.14 -13086.30 -12563.64 -10891.37 -6834.30 -5670.26 -5443.76 -5444.25 -5479.28 -5498.31 -5505.14 -5501.31 -5483.48 -5464.05 -5444.69 -5414.07 -5393.12 -5368.95 -5339.97 -5316.43 -5288.35 -5267.52 -5255.32 -5242.69 -5242.76
-10647.59 -10647.52 -10655.16 -10664.00 -10672.97 -10683.02 -10698.33 -10698.95 -10691.64 -10701.78 -10714.36 -10726.12 -10733.98 -10754.05 -10782.98 -10848.28 -10881.57 -10906.55 -10942.68 -11008.47 -11064.69 -11040.62 -10993.44 -10980.74 -10982.98 -10985.79 -10987.18 -10987.42 -10988.05 -10989.60 -10989.38 -10988.11 -10988.15 -10988.56 -10998.48 -11022.04 -11095.07 -11106.16 -11117.22 -11120.87 -11123.88 -11117.42 -11074.01 -11002.96 -11003.71 -11011.49 -11016.78 -11028.69 -11059.22 -11135.74 -11184.31 -11208.49 -11209.06 -11212.86 -11211.68 -11207.77 -11196.70 -11185.65 -11180.22 -11170.56 -11160.01 -11150.91 -11138.93 -11126.02 -11111.12 -11101.18 -11090.75 -11079.95 -11074.41 -11065.03 -11056.49 -11042.71 -11025.64 -11013.92 -11012.20 -11016.32 -10983.12 -10953.88 -9966.44 -8210.58 -6830.77 -5255.09 -3750.15 -2362.80 -1948.61 -1699.15 -1236.87 -502.15 -272.70 -223.36 -452.27 -561.16 -590.28 -615.54 -752.68 -697.51 -886.51 -1227.21 -1296.92 -845.38 -631.06 -810.97 -1548.43 -1925.21 -2589.19 -3496.55 -4352.23 -5657.89 -7506.92 -8054.81 -8956.76 -9536.00 -10111.30 -11577.03 -12799.82 -13042.27 -13049.21 -12938.48 -12264.54 -10413.97 -7931.69 -5743.94 -5494.26 -5450.41 -5468.94 -5490.35 -5495.10 -5488.55 -5470.70 -5458.40 -5430.12 -5409.60 -5391.37 -5367.13 -5330.53 -5314.68 -5285.72 -5275.64 -5253.75 -5246.58 -5244.55
-10640.45 -10640.38 -10648.83 -10653.96 -10664.13 -10673.72 -10689.39 -10687.34 -10683.83 -10682.75 -10698.67 -10702.28 -10714.60 -10725.52 -10795.42 -10824.43 -10857.68 -10876.27 -10898.45 -10951.49 -11016.49 -11021.07 -10981.75 -10972.92 -10977.12 -10980.37 -10981.22 -10982.44 -10982.93 -10988.46 -10989.74 -10989.52 -10990.27 -10992.92 -10998.81 -11057.44 -11095.19 -11110.25 -11117.85 -11124.11 -11129.51 -11116.31 -11072.46 -11019.33 -11008.73 -11014.08 -11021.12 -11030.27 -11046.75 -11128.22 -11197.80 -11208.41 -11209.62 -11211.60 -11209.97 -11206.47 -11197.92 -11183.64 -11174.98 -11165.40 -11154.29 -11145.12 -11134.59 -11123.30 -11106.72 -11095.93 -11084.34 -11074.48 -11064.07 -11059.63 -11048.88 -11036.73 -11020.71 -11008.53 -11007.27 -11011.70 -11014.63 -10814.70 -9789.48 -7351.34 -5180.77 -3667.74 -2738.19 -1964.75 -1563.61 -1158.17 -1048.45 -615.02 -467.47 -461.26 -500.09 -454.95 -439.44 -405.87 -406.60 -543.96 -573.36 -958.47 -999.78 -740.20 -630.77 -942.85 -1386.32 -2340.24 -2911.62 -3250.25 -4556.97 -5939.98 -7340.59 -8067.29 -8851.34 -9556.97 -10343.02 -11051.04 -12108.47 -12501.65 -12631.48 -12640.48 -12121.07 -10680.31 -7438.94 -5739.13 -5486.48 -5441.96 -5458.76 -5488.95 -5492.72 -5480.98 -5468.29 -5448.75 -5425.55 -5400.66 -5376.86 -5358.19 -5328.74 -5315.54 -5287.87 -5269.84 -5260.08 -5248.22 -5248.29
-10644.40 -10648.49 -10653.28 -10659.91 -10666.13 -10674.33 -10688.90 -10681.15 -10649.66 -10641.84 -10661.31 -10668.59 -10672.71 -10676.77 -10699.59 -10724.83 -10731.51 -10756.78 -10773.73 -10815.90 -10889.47 -10943.15 -10938.55 -10953.94 -10961.43 -10968.22 -10966.92 -10970.45 -10967.62 -10973.39 -10964.41 -10966.00 -10976.17 -10980.09 -10984.55 -11043.19 -11077.82 -11093.90 -11099.54 -11099.88 -11101.97 -11102.32 -11077.82 -11031.48 -11020.90 -11024.96 -11033.28 -11040.16 -11074.21 -11148.89 -11192.92 -11209.09 -11211.39 -11211.03 -11209.08 -11206.25 -11195.98 -11187.65 -11175.36 -11167.60 -11155.64 -11144.59 -11131.18 -11117.84 -11098.72 -11087.73 -11079.95 -11071.15 -11055.20 -11051.37 -11037.37 -11022.98 -11007.99 -11004.79 -11004.19 -11009.04 -10968.44 -10538.78 -9334.33 -6644.37 -4262.98 -3110.21 -2332.95 -1697.56 -1248.75 -1003.20 -842.24 -644.59 -446.79 -451.17 -244.48 -240.51 -116.28 -82.73 -171.06 -291.24 -282.17 -304.24 -554.72 -470.49 -662.88 -1031.68 -1553.93 -2166.28 -2813.91 -3594.69 -4638.27 -6004.60 -7465.08 -8309.77 -8881.34 -9691.47 -10321.67 -10605.11 -11297.80 -11855.30 -12055.88 -12092.84 -11987.49 -10809.90 -7764.57 -5747.76 -5482.33 -5423.65 -5460.69 -5480.58 -5484.49 -5470.99 -5459.18 -5438.38 -5420.55 -5402.20 -5371.03 -5352.53 -5329.17 -5314.86 -5286.45 -5273.90 -5263.27 -5255.14 -5253.04
-10657.74 -10657.59 -10661.32 -10665.29 -10674.65 -10684.84 -10691.33 -10685.35 -10613.36 -10609.34 -10621.49 -10635.92 -10645.66 -10653.62 -10643.91 -10618.67 -10642.51 -10660.75 -10680.52 -10690.99 -10723.03 -10837.45 -10889.68 -10919.12 -10940.30 -10945.79 -10950.70 -10953.93 -10949.41 -10941.28 -10946.41 -10949.13 -10951.48 -10957.66 -10972.09 -11008.38 -11040.39 -11056.92 -11071.45 -11083.14 -11082.07 -11080.83 -11057.01 -11040.21 -11035.24 -11040.85 -11045.95 -11051.94 -11065.75 -11156.34 -11196.30 -11211.27 -11213.07 -11212.35 -11209.78 -11205.80 -11199.87 -11185.98 -11178.40 -11170.64 -11156.53 -11136.40 -11126.01 -11113.53 -11104.56 -11089.42 -11081.48 -11067.96 -11056.32 -11048.13 -11030.90 -11016.54 -11011.12 -11011.17 -11015.53 -10971.94 -10869.21 -9957.74 -8379.47 -6124.37 -4035.70 -2711.14 -1909.80 -1408.25 -1033.96 -853.11 -742.24 -551.54 -135.12 -59.32 -1.08 119.95 125.17 105.91 30.06 -78.30 11.69 2.96 -243.18 -256.49 -500.76 -1163.48 -1562.58 -2320.91 -3208.55 -3882.65 -4476.98 -6439.48 -7799.99 -8441.53 -9055.84 -9410.00 -9765.42 -10044.50 -10906.44 -11616.03 -11740.68 -11671.46 -11587.77 -9126.60 -7587.40 -5720.46 -5443.81 -5418.38 -5458.59 -5473.36 -5473.23 -5464.38 -5451.78 -5432.78 -5406.90 -5392.17 -5361.87 -5346.30 -5330.24 -5308.37 -5295.62 -5278.74 -5267.01 -5259.33 -5259.39
-10648.07 -10647.42 -10651.10 -10656.73 -10664.75 -10671.86 -10681.31 -10656.51 -10599.08 -10589.70 -10597.71 -10606.26 -10619.26 -10629.99 -10623.78 -10598.62 -10599.00 -10614.42 -10630.13 -10653.07 -10674.09 -10768.32 -10849.47 -10908.77 -10931.11 -10939.64 -10943.15 -10945.07 -10939.06 -10935.65 -10938.40 -10943.35 -10949.74 -10955.61 -10961.49 -11014.77 -11039.20 -11058.48 -11066.85 -11076.87 -11084.32 -11086.93 -11064.30 -11050.00 -11051.26 -11057.33 -11064.44 -11062.55 -11101.74 -11172.71 -11208.86 -11217.73 -11218.87 -11215.94 -11211.55 -11205.29 -11201.07 -11190.96 -11182.55 -11167.11 -11151.15 -11141.34 -11119.15 -11115.15 -11103.28 -11091.68 -11076.87 -11068.35 -11057.23 -11047.45 -11035.88 -11021.90 -11018.17 -11021.35 -11019.78 -10833.35 -10182.51 -8265.38 -6844.67 -4743.76 -3311.36 -2192.51 -1705.43 -1333.77 -1076.07 -746.14 -443.73 -155.84 68.21 119.38 144.27 149.28 149.67 161.60 154.95 110.70 114.67 91.46 70.83 63.93 -383.86 -1144.71 -1796.78 -2328.91 -3057.46 -3845.79 -4298.97 -5700.83 -7872.56 -8083.76 -8397.69 -8675.24 -9498.78 -10152.54 -10769.62 -11081.79 -11318.24 -11542.53 -11085.01 -9478.92 -7099.36 -5700.99 -5429.49 -5416.71 -5443.66 -5466.09 -5465.21 -5448.94 -5430.70 -5411.98 -5394.08 -5375.17 -5368.28 -5348.39 -5329.93 -5314.47 -5295.94 -5286.75 -5275.41 -5266.43 -5266.49
-10633.47 -10633.39 -10641.12 -10644.87 -10653.75 -10655.69 -10661.85 -10639.30 -10576.25 -10575.18 -10582.93 -10595.67 -10606.67 -10615.99 -10607.38 -10583.99 -10591.67 -10598.77 -10620.34 -10633.81 -10656.61 -10721.01 -10785.80 -10882.42 -10914.42 -10928.63 -10937.64 -10940.63 -10935.61 -10933.41 -10936.89 -10942.64 -10947.27 -10953.21 -10962.92 -10979.69 -11001.01 -11044.19 -11054.00 -11070.10 -11080.50 -11092.99 -11075.94 -11060.40 -11066.84 -11070.14 -11076.57 -11081.52 -11091.22 -11189.39 -11220.21 -11224.82 -11225.73 -11219.91 -11215.05 -11204.59 -11200.79 -11188.43 -11182.45 -11169.12 -11151.45 -11141.45 -11127.43 -11112.24 -11100.38 -11095.67 -11076.89 -11070.11 -11058.63 -11052.49 -11039.66 -11033.23 -11029.29 -11029.74 -10932.22 -10424.11 -9530.72 -7574.12 -5664.87 -4274.46 -3092.79 -2492.49 -1658.58 -1493.89 -1066.97 -496.55 31.58 113.70 136.64 155.72 179.95 189.54 193.29 190.44 181.85 170.66 164.21 139.54 124.73 89.39 -32.76 -613.98 -1767.86 -1732.98 -1724.39 -2945.18 -3104.86 -4918.87 -6388.81 -7009.19 -7835.61 -8343.57 -9045.41 -9772.63 -10398.57 -10798.86 -11163.61 -11421.37 -10855.83 -9347.08 -6968.89 -5833.87 -5421.46 -5422.37 -5445.35 -5463.13 -5456.74 -5440.07 -5419.93 -5406.25 -5382.29 -5373.37 -5363.06 -5353.91 -5336.42 -5317.30 -5306.29 -5297.57 -5287.35 -5274.73 -5274.79
-10616.53 -10616.45 -10622.27 -10618.74 -10628.69 -10635.95 -10647.34 -10632.12 -10576.17 -10558.60 -10568.54 -10579.19 -10590.30 -10602.33 -10597.59 -10575.23 -10575.69 -10591.57 -10599.83 -10620.95 -10643.44 -10686.44 -10783.03 -10810.72 -10889.18 -10918.42 -10926.67 -10933.24 -10933.99 -10930.29 -10931.94 -10926.52 -10930.46 -10927.78 -10894.45 -10917.01 -10903.60 -10867.95 -10922.22 -10947.72 -11039.92 -11048.32 -11047.06 -11051.80 -11070.44 -11077.36 -11092.25 -11091.68 -11109.14 -11198.19 -11227.87 -11231.17 -11233.02 -11225.83 -11215.78 -11204.44 -11197.97 -11187.90 -11181.98 -11167.21 -11155.67 -11137.26 -11131.49 -11118.75 -11104.60 -11093.29 -11081.75 -11069.81 -11063.32 -11051.85 -11044.42 -11033.66 -11020.65 -10910.76 -10857.55 -9615.43 -7840.38 -6234.87 -5067.27 -4202.34 -3035.93 -2237.91 -1700.03 -1210.24 -914.09 -363.43 121.23 145.65 185.31 190.56 194.65 220.54 228.70 232.79 224.44 199.34 186.69 144.92 123.43 -58.37 27.38 5.15 -419.94 -959.60 -827.04 -764.97 -771.25 -2172.27 -4083.79 -5988.49 -7161.76 -7852.47 -8677.32 -9349.20 -10056.70 -10665.88 -11109.84 -11199.14 -10534.10 -9080.79 -7039.38 -5629.31 -5467.09 -5438.59 -5460.03 -5468.83 -5464.68 -5442.89 -5429.66 -5410.44 -5387.07 -5380.57 -5368.89 -5363.70 -5343.60 -5327.32 -5316.14 -5302.06 -5292.77 -5285.77 -5283.49
-10597.31 -10597.23 -10598.40 -10599.92 -10608.91 -10619.66 -10626.61 -10622.80 -10549.59 -10547.45 -10556.21 -10570.19 -10585.03 -10592.26 -10586.41 -10563.78 -10568.67 -10583.41 -10599.07 -10612.36 -10628.83 -10672.30 -10719.08 -10789.05 -10853.64 -10886.46 -10891.92 -10917.91 -10892.85 -10767.17 -10790.33 -10863.89 -10785.21 -10789.08 -10731.84 -10479.88 -10085.23 -10336.46 -10361.86 -10387.97 -10690.49 -10811.60 -10874.76 -10947.28 -10969.32 -11003.03 -11038.51 -11069.45 -11115.12 -11171.37 -11223.73 -11222.42 -11226.21 -11202.07 -11215.87 -11188.51 -11191.64 -11185.90 -11177.28 -11158.18 -11151.26 -11145.46 -11133.92 -11128.01 -11110.06 -11090.92 -11083.26 -11053.15 -11053.33 -11052.35 -10875.78 -10921.50 -10951.99 -10641.69 -9721.04 -7950.21 -5957.39 -4393.50 -4007.90 -3625.69 -3085.36 -2240.67 -1400.08 -705.64 -333.76 -96.29 161.79 189.85 204.76 240.14 243.36 270.19 282.60 254.86 256.60 230.90 178.11 125.93 86.01 -197.37 -443.91 -272.52 -76.98 -16.56 -107.45 -273.23 -421.40 -578.34 -1704.52 -4750.89 -6255.10 -7560.39 -8031.85 -8910.41 -9599.28 -10466.60 -10863.81 -11015.79 -9963.75 -8714.69 -6455.55 -5645.89 -5466.93 -5451.17 -5477.08 -5477.29 -5470.24 -5453.72 -5428.47 -5418.78 -5400.02 -5387.63 -5374.05 -5364.34 -5348.19 -5338.45 -5324.87 -5309.40 -5298.14 -5292.30 -5292.36
-10578.10 -10576.87 -10579.72 -10584.22 -10595.96 -10600.10 -10612.66 -10600.83 -10562.04 -10561.70 -10584.06 -10592.84 -10606.46 -10627.65 -10611.36 -10567.43 -10573.47 -10596.98 -10605.84 -10622.81 -10639.14 -10655.30 -10647.28 -10613.90 -10665.24 -10734.11 -10815.52 -10827.16 -10731.38 -10535.41 -10488.01 -10584.84 -10091.43 -9894.33 -9610.98 -9136.80 -8230.47 -8026.56 -8393.68 -8670.24 -9031.84 -8831.41 -9889.22 -10637.70 -10485.63 -10847.60 -10805.85 -10841.23 -10815.59 -11044.39 -11115.34 -11115.46 -11193.61 -11136.44 -11100.45 -11126.14 -11146.51 -11126.51 -11125.55 -11111.05 -11101.54 -11092.14 -11075.04 -11030.61 -11027.51 -11019.31 -10993.99 -11015.88 -11009.87 -10934.85 -10375.60 -10487.13 -10355.05 -9213.70 -8969.34 -5748.22 -4319.45 -3448.04 -2790.30 -2802.26 -2527.66 -1738.40 -484.25 -144.29 130.90 153.61 192.00 230.66 248.71 275.80 291.55 303.76 329.58 342.07 296.34 255.54 197.58 159.30 -9.96 -839.22 -1720.10 -1782.81 -1369.94 -317.34 -660.68 -525.79 -326.31 -376.07 -547.30 -1454.19 -3697.75 -6661.14 -7173.81 -7931.10 -8896.49 -9739.85 -10426.69 -10402.61 -9729.22 -7964.34 -6973.59 -5513.98 -5458.95 -5462.94 -5484.87 -5488.33 -5481.24 -5464.39 -5441.94 -5422.12 -5406.83 -5394.94 -5379.14 -5369.54 -5355.07 -5342.65 -5329.36 -5322.68 -5309.53 -5301.57 -5301.63
-10557.12 -10557.03 -10556.73 -10568.18 -10572.36 -10578.78 -10594.70 -10593.46 -10581.28 -10587.81 -10598.38 -10614.78 -10632.47 -10640.57 -10623.08 -10580.22 -10585.59 -10601.41 -10620.92 -10637.29 -10641.60 -10623.85 -10589.83 -10319.42 -9989.95 -9904.76 -10330.09 -10487.43 -10228.60 -10173.09 -9962.52 -9561.32 -9291.13 -8844.52 -8167.10 -7267.74 -6655.41 -6637.64 -6823.91 -6730.87 -7127.54 -7783.07 -7978.38 -9206.65 -9548.73 -10004.77 -10633.12 -10565.50 -10655.19 -10850.41 -11033.05 -11017.18 -10997.26 -10992.95 -10989.40 -10995.40 -11062.93 -11092.24 -11077.14 -11057.93 -11049.48 -11037.08 -11030.12 -10941.52 -10903.99 -10930.21 -10914.31 -10937.42 -10842.13 -10633.36 -10008.47 -9317.94 -9036.40 -7904.63 -6021.51 -4478.62 -3037.68 -1866.66 -1411.63 -1995.58 -1166.41 -653.20 -143.56 134.29 149.78 208.24 300.50 310.93 411.83 467.33 453.06 439.99 471.52 442.22 410.62 381.64 244.27 125.14 -1010.84 -3667.36 -3775.81 -3252.62 -2968.79 -1874.82 -1970.36 -1607.23 -1787.06 -655.77 -608.92 -564.66 -2545.21 -4815.91 -6655.82 -6922.92 -8010.83 -8942.26 -9872.82 -10178.05 -9294.05 -8339.80 -6378.98 -5661.02 -5458.76 -5479.23 -5495.03 -5508.38 -5489.55 -5468.28 -5452.18 -5433.42 -5413.47 -5401.09 -5385.42 -5376.30 -5364.06 -5353.20 -5338.59 -5329.84 -5325.84 -5311.53 -5311.59
-10528.90 -10526.69 -10526.41 -10530.96 -10544.52 -10562.48 -10571.97 -10580.18 -10566.10 -10571.25 -10591.98 -10601.14 -10622.05 -10634.76 -10606.40 -10574.79 -10582.60 -10598.55 -10613.77 -10626.10 -10628.34 -10548.24 -10180.38 -9593.05 -8844.45 -8997.69 -9015.78 -9723.39 -9572.23 -9510.25 -9233.61 -8459.26 -7817.35 -7502.22 -7116.81 -6428.99 -5979.62 -5890.04 -6030.37 -6081.58 -6299.81 -6374.95 -6986.80 -7865.38 -8750.32 -9202.50 -9885.38 -10327.23 -10475.57 -10537.23 -10788.86 -10887.41 -10964.87 -10938.43 -10963.58 -10969.94 -11046.46 -11079.56 -11068.69 -11054.96 -11045.44 -11034.09 -11019.36 -10914.94 -10881.57 -10865.61 -10860.12 -10837.16 -10777.99 -10298.79 -9048.09 -8398.22 -7769.85 -6952.26 -4837.90 -3452.63 -1778.93 -1164.81 -406.58 -753.56 -81.32 73.02 73.65 154.60 201.34 270.27 372.76 571.41 772.27 799.85 790.81 764.35 838.42 637.06 799.57 677.12 305.10 -273.70 -1185.61 -2739.35 -4285.35 -4637.36 -4280.36 -3952.34 -3649.31 -3308.84 -2522.97 -1819.73 -1005.61 -1098.33 -2409.91 -4247.86 -5525.38 -6433.98 -7564.53 -9223.22 -9566.19 -10240.92 -9220.44 -8020.91 -6336.54 -5561.93 -5485.07 -5489.30 -5510.85 -5515.20 -5499.22 -5477.52 -5459.77 -5440.70 -5420.60 -5402.48 -5389.26 -5381.32 -5370.18 -5356.94 -5349.55 -5336.77 -5328.25 -5320.47 -5322.14
-10492.28 -10495.57 -10500.07 -10505.77 -10520.14 -10534.12 -10544.86 -10556.29 -10558.59 -10558.74 -10575.10 -10594.05 -10613.94 -10628.02 -10592.40 -10564.65 -10570.23 -10592.91 -10610.86 -10621.21 -10611.63 -10476.39 -9763.27 -8686.68 -7954.39 -7842.37 -8309.86 -8627.83 -8176.61 -8421.62 -8542.37 -7820.59 -6861.32 -6511.31 -6429.30 -6009.42 -5311.64 -5360.43 -5203.64 -5772.96 -5573.67 -6205.99 -6675.43 -7407.00 -7830.04 -8161.50 -9234.43 -9743.28 -9821.36 -10092.48 -10393.48 -10677.57 -10653.10 -10817.82 -10904.58 -10980.82 -11011.47 -11069.53 -11058.11 -11044.00 -11033.47 -11026.79 -11007.16 -10898.04 -10845.34 -10830.25 -10649.46 -10632.03 -10525.65 -9912.53 -8788.95 -7480.62 -6308.86 -4563.28 -3553.23 -1761.27 -717.30 -388.88 14.10 81.36 168.87 179.79 179.37 189.90 214.65 263.86 313.38 564.18 809.62 827.15 964.88 975.76 959.80 897.53 916.85 619.77 458.76 217.59 131.03 -732.17 -2247.77 -5266.09 -4921.64 -4666.80 -4655.61 -4564.04 -3825.43 -3124.13 -2395.70 -1912.30 -1583.68 -1756.70 -2532.38 -4083.22 -5768.99 -7110.16 -10153.37 -10417.64 -9403.06 -8712.80 -6168.64 -5740.44 -5485.41 -5489.49 -5522.20 -5523.25 -5509.33 -5486.80 -5465.04 -5444.09 -5421.99 -5408.04 -5400.15 -5382.88 -5374.47 -5365.93 -5358.76 -5344.98 -5340.46 -5330.20 -5330.28
-10459.82 -10459.78 -10471.62 -10480.01 -10491.39 -10502.10 -10515.94 -10530.67 -10522.96 -10541.51 -10556.57 -10585.39 -10601.19 -10617.71 -10603.94 -10568.77 -10569.46 -10588.20 -10605.57 -10607.46 -10570.15 -10369.68 -9506.85 -8656.70 -7475.40 -7378.00 -7391.19 -7557.14 -7343.75 -7438.79 -7364.01 -6968.01 -6306.09 -5462.73 -4689.36 -3583.30 -3811.32 -3452.54 -3843.43 -4256.57 -4724.91 -5944.09 -6793.11 -7240.37 -7347.62 -7492.49 -8053.82 -8480.65 -8978.08 -8821.07 -9095.16 -9475.29 -9854.88 -10181.12 -10595.10 -10687.83 -10967.19 -10978.56 -10840.40 -10958.26 -10954.83 -10991.21 -10889.02 -10736.80 -10627.11 -10370.17 -10377.06 -9692.83 -9343.94 -8617.67 -7469.52 -6718.05 -5951.23 -3958.81 -2983.70 -1461.40 -174.75 128.78 162.69 182.25 196.80 204.39 221.85 234.72 263.98 304.18 351.31 438.02 486.41 590.67 688.88 831.25 892.49 998.86 993.49 677.22 588.44 209.82 142.89 -204.73 -1336.24 -4110.13 -5044.82 -5028.17 -4926.57 -4855.85 -4850.55 -4705.76 -4105.27 -2966.41 -2001.86 -1293.37 -1672.62 -2600.12 -4268.24 -5799.98 -8811.48 -9675.43 -9284.31 -8069.20 -6733.52 -5977.75 -5519.90 -5495.80 -5524.81 -5531.19 -5516.99 -5496.66 -5470.35 -5451.75 -5423.23 -5413.25 -5397.17 -5390.88 -5382.08 -5367.03 -5362.30 -5352.28 -5345.01 -5338.45 -5337.73
-10427.86 -10427.82 -10427.25 -10451.20 -10466.00 -10488.82 -10499.80 -10512.41 -10507.78 -10522.31 -10540.44 -10570.69 -10590.74 -10605.79 -10603.09 -10572.15 -10578.50 -10611.50 -10614.28 -10618.97 -10599.93 -10280.60 -9243.94 -8286.66 -7439.66 -7344.55 -7378.39 -7272.52 -6911.81 -6663.12 -6713.60 -6556.67 -5168.95 -3559.31 -2739.70 -2208.45 -1427.70 -1121.05 -1370.20 -1563.18 -1491.06 -4140.84 -5626.28 -7218.84 -6304.69 -7273.66 -7335.38 -7282.24 -7541.44 -7587.92 -7947.01 -8204.81 -8654.49 -9032.67 -9496.48 -10230.93 -10369.73 -10561.96 -10557.04 -10665.50 -10536.69 -9936.11 -10313.00 -10158.06 -9828.52 -9439.68 -9592.27 -8530.44 -8562.72 -7551.01 -6092.24 -4990.66 -3382.39 -2650.55 -1643.51 -410.73 148.07 180.08 199.51 212.12 225.86 237.39 252.01 269.03 284.01 324.22 363.55 386.13 440.49 497.72 530.39 624.26 698.08 848.68 865.56 675.89 484.52 366.91 249.27 133.97 -716.66 -1603.95 -4693.89 -4976.86 -4779.98 -4801.33 -4970.53 -5044.98 -4903.36 -4217.59 -3350.75 -2717.93 -1794.34 -1739.18 -2428.15 -2723.85 -6105.84 -8759.67 -9446.27 -8133.43 -6362.73 -5913.16 -5618.38 -5503.71 -5509.93 -5527.51 -5522.43 -5505.87 -5473.88 -5453.53 -5430.14 -5414.45 -5400.99 -5393.16 -5383.22 -5374.45 -5366.44 -5355.81 -5351.85 -5343.96 -5344.03
-10404.82 -10404.77 -10404.88 -10425.70 -10439.55 -10453.95 -10482.70 -10485.18 -10467.69 -10480.65 -10512.34 -10535.58 -10571.28 -10592.45 -10599.73 -10617.33 -10626.75 -10656.71 -10660.98 -10696.50 -10648.94 -10372.20 -9242.59 -8479.95 -7634.14 -7656.37 -7769.93 -7595.30 -6669.20 -6126.91 -5839.39 -5338.98 -4783.91 -1867.81 -894.16 -149.68 -165.38 68.18 90.89 -152.42 -131.25 -529.16 -2211.08 -2697.33 -3217.05 -4709.19 -4568.32 -5294.78 -5255.34 -6177.26 -6562.36 -6180.50 -6041.45 -7620.66 -7043.01 -7247.05 -7936.94 -8534.73 -8417.89 -8588.81 -8064.10 -8670.02 -8100.08 -8380.48 -7732.02 -6819.34 -6195.48 -6468.28 -5839.15 -5569.27 -3770.89 -2487.24 -1653.83 -1377.43 -193.53 163.42 173.98 206.31 231.70 243.95 258.06 259.00 271.96 288.58 312.35 332.03 381.48 395.79 421.99 472.23 489.20 511.59 576.60 693.18 680.46 596.42 543.74 622.49 358.85 187.69 11.85 -214.49 -3290.07 -4817.10 -4833.28 -4773.95 -4863.32 -4947.57 -4978.48 -4939.47 -4486.88 -3721.72 -2979.51 -2274.50 -2060.91 -2295.51 -3809.98 -5746.75 -7915.02 -7151.19 -6563.80 -6042.07 -5690.17 -5539.13 -5511.25 -5520.91 -5516.05 -5502.92 -5479.95 -5448.93 -5425.65 -5416.16 -5407.20 -5394.45 -5384.95 -5376.10 -5369.62 -5362.20 -5357.53 -5349.74 -5349.81
-10379.57 -10383.28 -10383.65 -10397.26 -10416.94 -10443.59 -10469.77 -10457.80 -10450.96 -10460.77 -10490.24 -10516.56 -10534.68 -10564.83 -10609.43 -10680.19 -10717.27 -10733.44 -10754.69 -10754.67 -10700.24 -10547.32 -9765.92 -8840.55 -8779.57 -8454.53 -8730.56 -8664.94 -6624.27 -5723.97 -5014.82 -4247.14 -3192.19 -1179.73 -118.39 206.46 247.88 224.97 223.62 202.97 210.59 181.12 -298.16 -397.43 -541.99 -1729.94 -2284.05 -2978.56 -3391.86 -4458.10 -4721.35 -4850.60 -5267.23 -5228.12 -5341.74 -5792.18 -5870.97 -5857.26 -6071.61 -5808.02 -5790.53 -6043.56 -5645.77 -6034.72 -5494.96 -5075.57 -5264.45 -4550.55 -4571.42 -3834.55 -2263.75 -781.17 -34.68 156.43 178.76 201.25 207.36 232.63 248.22 278.44 288.76 296.47 305.46 320.29 328.04 355.76 379.00 402.88 423.54 457.98 462.14 486.51 498.05 523.10 575.67 643.74 727.31 679.03 414.12 207.59 193.65 119.86 -1897.65 -3440.41 -4203.74 -4844.53 -4818.48 -4807.40 -4837.37 -4895.06 -5260.24 -5332.55 -4079.54 -3620.09 -2749.11 -1881.78 -2101.18 -3432.22 -4132.19 -5713.06 -6438.09 -6181.39 -5845.17 -5590.46 -5526.86 -5512.32 -5510.82 -5483.23 -5453.99 -5426.47 -5414.61 -5392.92 -5409.30 -5399.67 -5387.31 -5377.85 -5372.07 -5365.85 -5361.18 -5354.44 -5354.51
-10350.45 -10353.89 -10356.09 -10373.23 -10390.42 -10431.25 -10448.03 -10452.05 -10432.61 -10441.60 -10484.45 -10502.55 -10533.14 -10560.93 -10622.27 -10679.18 -10720.71 -10741.38 -10757.73 -10768.02 -10748.52 -10616.38 -10208.46 -9886.04 -9795.97 -10032.26 -9956.06 -9422.98 -7294.15 -5629.61 -5124.81 -3782.05 -1993.90 -730.44 184.07 209.80 260.63 292.29 279.01 246.78 237.04 203.57 191.66 181.23 175.05 146.21 97.35 -259.10 -423.09 -1323.42 -2444.36 -2529.40 -4046.03 -5232.12 -5191.13 -5170.58 -5291.12 -5240.24 -5084.08 -5093.70 -5006.25 -4961.48 -4974.61 -4973.14 -4769.10 -4153.67 -4169.60 -3740.87 -2970.08 -2165.91 -1136.73 147.50 168.18 186.15 239.37 298.64 282.41 268.97 280.78 298.87 299.33 317.09 321.39 340.37 349.94 373.71 390.19 405.18 421.05 441.44 445.75 454.92 493.48 498.78 511.67 559.53 695.48 766.58 555.56 301.45 200.98 169.97 -400.56 -1596.00 -3296.86 -4636.48 -4810.23 -4774.48 -4914.96 -4996.87 -5303.32 -5452.12 -5374.38 -5001.99 -3874.61 -3219.34 -2856.23 -2116.64 -2836.98 -4202.43 -5643.19 -5636.70 -5937.80 -5704.36 -5573.32 -5520.40 -5485.79 -5457.14 -5429.71 -5410.08 -5387.27 -5379.47 -5399.36 -5396.53 -5389.38 -5380.54 -5372.74 -5367.60 -5363.57 -5359.24 -5358.67
-10323.12 -10326.32 -10331.81 -10346.23 -10368.27 -10400.16 -10428.80 -10441.07 -10411.79 -10429.59 -10469.67 -10496.68 -10525.24 -10561.73 -10610.83 -10693.63 -10717.64 -10748.82 -10755.61 -10767.62 -10767.42 -10714.70 -10586.26 -10496.22 -10509.13 -10536.61 -10368.21 -10058.35 -8727.75 -6830.79 -4968.42 -3010.32 -756.03 38.48 198.20 210.49 269.60 302.11 321.42 309.89 284.12 244.69 231.75 203.21 199.51 179.20 163.11 147.91 -8.73 -53.23 104.68 128.94 -761.33 -2667.11 -2695.22 -2994.42 -4683.65 -5136.41 -4648.33 -4840.49 -4786.58 -4803.19 -4802.18 -4076.73 -3577.04 -2891.25 -2736.23 -2509.28 -1754.68 -1143.96 -362.14 165.99 187.25 207.36 247.76 334.11 350.85 305.83 308.01 312.50 326.26 353.17 353.36 362.00 370.42 382.26 402.26 416.29 425.66 429.38 431.06 433.70 441.31 447.84 493.71 527.89 599.44 723.61 612.94 553.30 279.68 212.10 170.11 -821.31 -1999.06 -3748.90 -4837.28 -4854.00 -4867.69 -4990.40 -5019.75 -5226.18 -5424.99 -5514.97 -5248.98 -4651.77 -4221.41 -3664.08 -2936.87 -2856.06 -3577.19 -4470.51 -5945.70 -5844.87 -5654.01 -5544.05 -5477.96 -5455.58 -5424.70 -5407.96 -5388.52 -5382.64 -5398.30 -5402.55 -5390.40 -5383.15 -5376.97 -5370.23 -5364.79 -5362.45 -5362.31
-10298.62 -10298.57 -10302.24 -10321.51 -10354.65 -10383.21 -10409.99 -10432.20 -10402.04 -10426.99 -10458.23 -10496.49 -10528.77 -10554.78 -10616.90 -10689.94 -10717.99 -10741.45 -10752.28 -10770.29 -10774.18 -10736.24 -10625.65 -10633.75 -10633.06 -10632.01 -10626.35 -10361.40 -9275.50 -8059.53 -5716.56 -2628.89 -193.76 140.56 202.82 215.95 266.68 309.08 339.43 341.85 324.54 281.70 280.86 256.78 233.32 206.14 195.43 188.02 167.02 164.17 171.19 160.25 136.15 -372.75 -976.57 -1578.52 -2437.31 -3395.31 -3335.53 -3765.70 -3943.38 -3685.44 -3358.13 -2908.99 -2310.49 -1920.40 -2284.79 -1455.40 -84.09 132.60 158.70 183.01 251.83 273.11 301.39 349.54 370.52 331.00 331.11 340.12 348.71 356.48 359.96 371.63 380.76 390.94 408.45 416.42 424.72 429.46 433.09 432.51 435.58 438.11 471.69 495.22 531.37 621.11 698.35 641.57 419.70 262.68 192.76 119.73 48.81 -1453.70 -4670.89 -4880.43 -4856.99 -4920.20 -4765.77 -5043.90 -5465.60 -5761.25 -5926.41 -5782.82 -5693.05 -5278.51 -4206.22 -3120.94 -2911.65 -4106.91 -5376.85 -5850.16 -5746.89 -5541.49 -5488.14 -5458.87 -5444.65 -5419.02 -5401.71 -5394.16 -5403.41 -5406.34 -5393.89 -5383.56 -5377.49 -5372.97 -5367.80 -5364.48 -5364.55
-10272.25 -10276.06 -10282.62 -10295.45 -10313.03 -10363.15 -10380.05 -10405.49 -10398.45 -10423.13 -10445.87 -10486.73 -10528.34 -10557.34 -10598.32 -10677.79 -10714.22 -10735.89 -10754.57 -10764.66 -10767.47 -10733.54 -10600.48 -10563.18 -10571.40 -10599.16 -10596.72 -10468.46 -9511.32 -8262.51 -6269.46 -2872.99 10.16 181.85 202.37 224.63 269.33 314.86 339.90 364.28 357.75 328.30 310.09 311.99 294.83 262.65 247.94 221.02 205.87 189.33 184.25 181.62 168.67 156.18 147.24 -354.02 -100.19 -752.54 -1032.89 -1077.05 -2320.81 -2000.52 -1643.44 -1450.14 -785.15 -1364.05 -967.20 -282.42 23.15 144.08 163.86 238.71 281.03 329.60 345.38 342.13 346.83 334.74 334.95 347.67 357.87 360.29 374.07 380.74 388.77 401.40 413.02 423.72 435.10 437.32 440.48 439.28 437.27 439.17 446.73 487.25 502.65 539.09 630.57 726.44 661.60 383.43 237.37 157.98 123.48 -896.59 -3393.61 -4633.73 -4703.37 -4943.64 -4761.06 -5052.78 -5447.72 -5790.52 -5886.68 -5960.75 -6000.05 -5783.98 -5073.33 -3935.50 -2557.25 -3314.79 -5030.43 -5909.32 -5799.02 -5605.98 -5511.54 -5478.07 -5463.90 -5454.11 -5420.72 -5410.61 -5411.29 -5406.74 -5396.35 -5386.58 -5379.68 -5373.88 -5369.66 -5365.35 -5364.57
-10211.95 -10211.94 -10221.77 -10257.77 -10286.02 -10327.93 -10349.51 -10369.41 -10357.77 -10380.35 -10426.66 -10463.60 -10482.81 -10529.39 -10570.82 -10681.15 -10705.18 -10723.92 -10744.31 -10754.32 -10750.74 -10580.04 -10362.32 -10266.33 -10309.40 -10408.46 -10357.28 -10084.66 -9046.12 -8091.88 -6532.14 -2743.25 -341.16 195.64 220.98 257.99 301.15 328.42 354.93 372.91 373.46 368.78 382.47 385.81 335.90 317.52 292.86 240.74 222.47 218.32 197.36 196.37 185.84 179.44 173.92 160.61 152.89 154.98 50.90 -98.49 -193.88 -145.00 -304.54 -282.46 -39.89 -247.14 -292.04 129.58 141.29 167.46 176.02 234.67 299.69 330.44 318.74 323.29 329.52 336.08 341.14 352.00 358.49 367.15 380.90 389.40 405.68 414.78 425.44 436.24 447.84 448.22 450.39 447.56 445.30 450.59 456.13 473.58 497.64 522.32 547.07 689.31 675.05 497.09 272.41 203.57 166.87 -8.21 -1351.03 -3435.19 -3632.05 -4800.49 -4832.48 -4899.98 -5426.19 -5687.52 -5848.21 -5990.90 -6101.96 -5980.32 -5456.16 -3701.45 -2553.64 -2739.75 -3966.97 -5187.34 -5844.07 -5684.23 -5560.23 -5501.16 -5487.48 -5461.83 -5457.16 -5431.20 -5420.25 -5404.13 -5396.03 -5386.57 -5380.11 -5375.26 -5370.22 -5365.30 -5365.37
-10180.49 -10180.43 -10194.18 -10219.20 -10240.28 -10283.90 -10311.82 -10341.09 -10330.85 -10351.48 -10392.06 -10436.96 -10456.78 -10499.95 -10561.07 -10649.51 -10701.04 -10719.73 -10733.70 -10745.17 -10725.93 -10447.75 -10135.79 -10081.42 -10078.75 -10100.72 -10041.44 -9979.84 -9192.63 -8096.80 -6809.88 -1086.22 177.54 201.11 238.16 262.38 312.10 357.00 375.43 396.43 410.55 418.83 426.96 462.14 409.62 418.59 368.46 298.26 260.35 250.56 221.83 218.32 209.29 197.46 189.66 183.76 178.54 180.00 169.34 172.96 172.26 161.78 172.50 164.52 165.21 172.46 175.31 157.94 181.07 209.83 231.50 243.53 282.62 294.11 310.32 316.16 329.42 334.94 342.11 352.63 358.94 373.54 384.57 395.65 412.25 418.98 442.42 452.97 461.69 467.97 463.10 454.53 451.42 458.73 462.01 468.75 482.41 504.63 541.01 607.20 766.16 740.29 506.36 267.05 183.70 144.79 -380.34 -1878.33 -3476.37 -4798.43 -5063.82 -4993.14 -5267.89 -5432.38 -5760.43 -5947.78 -6109.27 -6093.59 -5511.45 -3939.40 -2644.59 -2197.90 -2647.89 -4905.51 -5680.10 -5766.16 -5566.06 -5511.10 -5490.05 -5476.39 -5456.80 -5442.24 -5419.43 -5408.88 -5399.12 -5387.89 -5381.85 -5376.55 -5371.16 -5366.16 -5366.23
-10176.34 -10176.27 -10190.14 -10211.45 -10245.73 -10275.02 -10324.68 -10334.59 -10326.33 -10349.20 -10397.81 -10421.63 -10462.38 -10500.17 -10558.64 -10658.80 -10699.98 -10722.40 -10739.02 -10749.95 -10733.42 -10428.82 -10172.95 -10065.35 -10060.70 -10052.37 -10027.84 -9719.17 -9250.64 -6777.07 -3230.48 115.29 180.72 220.17 257.38 309.16 340.49 374.07 397.06 415.42 439.86 463.38 487.17 504.31 502.36 423.37 399.00 320.89 288.66 261.99 250.74 239.25 233.08 232.46 218.00 214.62 204.71 195.38 189.98 201.54 201.35 201.16 196.49 194.95 197.48 193.22 211.88 202.28 204.97 256.83 261.73 249.51 264.91 286.21 308.04 312.16 320.94 328.93 338.10 349.82 358.24 375.64 393.24 408.69 422.10 438.51 453.47 462.43 477.93 487.33 480.65 471.19 471.70 465.38 465.38 469.73 473.36 505.11 549.02 609.68 787.04 767.81 646.59 378.70 227.42 198.64 168.59 107.91 -1601.77 -4254.15 -5241.60 -5114.76 -5134.13 -5405.99 -5578.43 -5891.47 -6065.76 -6082.36 -5517.38 -4412.03 -2942.67 -1972.16 -3597.98 -5419.20 -5764.66 -5774.93 -5575.14 -5510.69 -5488.50 -5478.62 -5460.63 -5442.44 -5426.59 -5411.66 -5400.79 -5390.65 -5383.73 -5376.79 -5372.02 -5366.92 -5366.99
-10181.82 -10182.91 -10197.36 -10218.41 -10248.38 -10284.18 -10330.44 -10357.28 -10331.51 -10354.02 -10396.32 -10429.35 -10466.74 -10496.75 -10579.95 -10655.56 -10705.89 -10726.60 -10744.80 -10759.09 -10742.85 -10454.84 -10202.95 -10062.19 -10053.86 -9996.58 -9887.74 -9082.93 -8046.43 -5248.73 -283.63 130.88 185.19 209.33 264.84 308.51 351.47 391.75 411.89 436.67 451.20 499.96 548.62 603.35 582.07 458.69 395.51 378.27 326.81 297.54 277.99 265.59 251.51 242.80 238.10 236.52 233.28 221.85 221.78 215.58 229.82 224.15 233.50 225.29 236.93 242.85 256.97 237.51 236.46 261.51 260.47 255.48 268.11 284.25 294.20 312.22 319.38 327.88 338.51 353.64 361.64 378.70 394.49 411.72 426.56 446.45 459.58 473.12 486.03 496.49 501.01 498.97 494.19 474.38 469.07 474.06 477.95 487.30 538.07 561.03 755.97 848.69 780.10 456.78 296.30 230.47 195.26 -92.24 -1107.34 -4517.21 -5378.41 -5109.60 -5136.68 -5344.53 -5550.05 -5840.49 -6000.63 -6055.05 -5812.84 -4569.24 -2734.62 -2744.02 -2748.96 -5371.04 -5695.37 -5715.23 -5588.69 -5503.57 -5484.91 -5475.98 -5464.79 -5452.20 -5431.86 -5412.95 -5403.99 -5392.31 -5385.26 -5377.37 -5373.23 -5368.04 -5367.33
-10195.04 -10194.96 -10216.93 -10224.09 -10273.86 -10302.12 -10359.62 -10365.68 -10354.95 -10377.93 -10417.26 -10443.00 -10483.13 -10520.47 -10615.54 -10662.03 -10716.73 -10733.88 -10753.23 -10769.42 -10755.53 -10528.64 -10170.88 -10056.92 -9944.59 -9896.17 -9686.14 -8787.47 -7089.72 -2255.47 -211.59 182.76 218.44 233.73 260.10 333.08 364.52 417.44 432.68 458.01 495.11 516.24 552.58 596.83 611.29 487.18 450.57 386.51 348.55 330.91 302.02 287.06 270.70 262.99 256.58 251.74 251.74 245.76 244.89 259.24 281.89 281.52 275.42 284.85 278.16 286.20 285.60 276.85 263.67 262.63 261.04 268.11 278.21 287.02 298.78 306.31 314.91 326.47 333.76 351.43 363.35 379.48 396.10 414.21 432.25 452.72 467.87 478.39 503.08 512.12 516.07 511.34 505.74 502.90 486.78 480.96 479.32 493.51 539.14 555.91 689.93 830.21 898.59 604.96 344.29 228.49 192.94 137.83 -1277.91 -4863.34 -5449.23 -5112.69 -5137.55 -5372.77 -5535.56 -5766.46 -5917.32 -6019.46 -5660.47 -5201.71 -2620.04 -2108.42 -3260.03 -4702.20 -5438.60 -5671.52 -5570.97 -5498.00 -5479.25 -5471.25 -5461.73 -5451.39 -5432.90 -5417.21 -5405.79 -5392.48 -5386.55 -5380.84 -5373.95 -5367.31 -5367.38
-10214.23 -10214.14 -10235.97 -10251.35 -10285.01 -10327.13 -10361.24 -10380.61 -10379.72 -10433.71 -10451.47 -10474.25 -10495.30 -10523.20 -10594.09 -10689.74 -10714.46 -10736.00 -10750.82 -10769.91 -10743.69 -10463.22 -9791.54 -9830.66 -9544.32 -8969.43 -8689.78 -7876.54 -4709.44 -793.57 170.00 196.97 221.23 252.64 289.00 333.22 398.19 423.76 458.65 489.33 506.11 528.95 563.58 600.77 626.93 540.58 457.47 414.51 377.30 350.07 328.57 311.49 294.11 276.27 270.31 268.43 266.27 261.85 282.86 291.02 303.48 314.36 316.56 326.08 309.76 296.74 291.79 287.72 282.57 282.02 277.27 282.86 283.48 291.46 296.12 300.96 310.18 325.22 334.71 347.00 364.75 384.68 399.94 414.99 438.88 457.60 475.56 492.66 508.22 529.48 541.43 537.10 528.19 516.69 498.59 488.74 483.80 499.88 544.29 551.16 607.11 729.54 893.44 727.54 414.07 272.09 191.55 109.66 -583.03 -3621.39 -5201.49 -5019.41 -5154.39 -5325.87 -5575.03 -5734.90 -5971.43 -6002.94 -5810.78 -4257.67 -2681.16 -1664.50 -1980.74 -3389.00 -5488.97 -5658.65 -5546.55 -5494.61 -5474.00 -5465.53 -5461.56 -5449.03 -5434.89 -5420.81 -5404.34 -5394.73 -5386.22 -5380.04 -5373.90 -5365.88 -5365.95
-10229.84 -10229.76 -10253.86 -10270.79 -10309.77 -10335.10 -10379.42 -10418.22 -10450.74 -10481.03 -10505.21 -10529.04 -10574.07 -10591.12 -10630.12 -10673.93 -10689.18 -10701.94 -10721.04 -10722.10 -10648.22 -10047.47 -9235.07 -8768.22 -7916.02 -7929.61 -6564.23 -5374.21 -1558.59 170.47 192.93 208.99 234.99 278.94 316.65 348.85 402.79 458.45 511.84 529.72 562.52 559.04 581.88 621.21 636.05 595.67 490.90 433.12 401.42 361.85 350.85 330.21 316.03 294.49 293.48 290.24 290.80 305.28 311.07 329.95 334.54 346.21 347.45 352.87 341.54 320.91 310.07 297.02 292.50 292.03 285.81 287.39 286.85 291.59 295.69 303.05 315.23 322.29 333.63 346.27 366.80 383.90 401.17 422.37 446.10 458.69 493.55 500.88 516.25 554.65 558.00 563.94 547.52 539.96 503.70 495.31 489.92 486.50 508.97 535.51 572.49 597.46 884.72 863.55 354.22 196.91 144.57 46.65 -1689.91 -4190.23 -4920.18 -4881.06 -5119.66 -5328.55 -5659.49 -5836.38 -5988.60 -5968.21 -5723.03 -4261.17 -2676.08 -1465.23 -1659.57 -3001.12 -4854.68 -5702.96 -5625.81 -5478.08 -5462.76 -5456.00 -5454.42 -5445.62 -5435.21 -5419.45 -5406.42 -5392.93 -5385.37 -5378.58 -5373.00 -5364.74 -5364.81
-10255.47 -10255.41 -10270.30 -10304.63 -10323.43 -10349.71 -10401.30 -10447.03 -10484.67 -10541.19 -10574.69 -10608.20 -10630.60 -10650.97 -10666.38 -10663.30 -10673.98 -10685.57 -10699.89 -10636.95 -10476.52 -9807.24 -8217.07 -7367.70 -6745.80 -5626.18 -4916.52 -2194.12 -605.93 166.08 195.01 224.23 269.67 302.79 330.37 388.95 421.78 471.36 557.96 575.28 593.50 604.00 613.97 639.15 655.60 606.17 503.06 457.46 421.67 390.09 358.86 338.40 327.14 318.51 314.36 315.62 322.52 323.07 337.25 355.39 353.88 378.36 386.99 366.68 349.02 333.18 324.99 311.74 301.34 301.05 291.36 290.10 290.55 292.47 295.48 301.53 306.01 316.36 331.55 341.46 367.20 375.60 391.06 424.72 445.47 458.17 495.81 512.01 535.78 558.21 570.44 576.36 570.99 560.51 543.08 516.31 494.93 487.18 502.92 522.33 543.08 594.66 769.24 712.80 418.13 190.13 139.71 3.00 -1830.26 -3883.25 -4678.04 -4733.11 -4951.54 -5272.24 -5530.52 -5925.31 -5987.36 -5986.44 -5661.19 -4239.75 -2504.94 -1287.99 -1765.96 -1944.66 -4279.16 -5623.10 -5720.74 -5538.01 -5454.04 -5452.15 -5444.07 -5436.59 -5427.78 -5421.53 -5404.06 -5394.32 -5385.29 -5377.72 -5372.64 -5363.89 -5363.97
-10287.09 -10287.00 -10308.31 -10332.66 -10354.72 -10400.22 -10416.12 -10466.37 -10522.68 -10569.61 -10591.93 -10618.55 -10643.07 -10665.93 -10675.60 -10655.47 -10658.09 -10650.81 -10492.18 -10458.79 -10039.17 -8782.55 -7464.76 -6216.10 -5299.05 -4452.54 -3813.39 -1572.89 2.11 178.71 211.69 255.83 289.31 327.82 360.29 390.68 444.00 478.94 527.85 589.32 633.59 628.75 644.24 653.83 660.34 583.59 532.57 496.52 430.97 416.12 384.43 362.83 344.50 335.67 331.18 346.47 346.80 353.97 361.77 381.72 423.08 423.28 396.62 375.67 357.38 340.21 331.88 320.06 314.06 305.87 300.51 292.69 292.38 293.57 295.36 298.04 306.71 317.07 329.01 345.68 354.94 379.88 402.31 414.71 441.12 460.55 486.38 515.95 535.32 558.36 579.12 589.19 581.10 566.34 555.44 517.06 500.98 490.56 494.56 505.71 513.57 526.81 697.36 777.42 440.05 194.92 152.37 92.82 -1290.84 -3688.22 -4633.38 -4794.65 -4941.59 -5246.68 -5528.97 -5860.23 -5979.24 -5924.13 -5530.05 -4282.00 -2004.85 -1284.36 -1102.31 -1687.81 -2227.62 -5244.78 -5747.66 -5606.21 -5464.22 -5438.53 -5437.51 -5433.11 -5426.17 -5420.30 -5404.23 -5394.52 -5385.75 -5380.28 -5372.97 -5363.47 -5363.55
-10319.91 -10319.81 -10342.68 -10357.98 -10385.35 -10426.83 -10452.24 -10497.67 -10539.55 -10580.44 -10606.27 -10633.07 -10659.33 -10673.53 -10658.03 -10612.14 -10485.63 -10359.14 -10053.79 -9539.68 -8959.29 -7988.38 -6193.43 -5459.85 -5030.66 -3881.31 -1859.99 -147.71 182.89 201.12 250.09 276.73 309.97 345.52 383.63 423.63 457.07 522.42 559.11 589.65 683.91 681.82 669.02 667.73 647.62 594.15 553.82 510.95 456.54 425.82 400.47 381.93 356.95 347.42 357.05 377.24 365.87 371.41 394.77 412.83 435.00 436.57 399.88 374.93 367.75 348.27 337.88 324.79 315.43 306.63 301.69 298.79 293.95 293.63 295.25 297.71 306.19 312.65 327.20 339.96 353.05 368.69 388.46 411.58 433.09 458.53 479.17 513.12 539.16 563.27 579.50 594.31 587.62 565.19 547.93 528.26 501.36 482.35 475.96 476.29 471.74 452.61 602.23 712.39 339.46 201.50 162.46 -42.86 -1942.02 -4371.90 -4718.23 -4844.84 -5093.77 -5282.78 -5554.69 -5819.69 -5955.32 -5883.97 -5302.12 -4249.31 -1896.60 -1124.45 -1037.66 -1588.84 -2244.85 -4307.59 -5683.88 -5594.33 -5461.01 -5431.25 -5435.23 -5429.48 -5424.78 -5417.57 -5405.90 -5394.10 -5386.72 -5378.18 -5372.09 -5363.29 -5363.37
-10353.04 -10352.93 -10368.93 -10396.93 -10426.26 -10457.64 -10481.27 -10525.30 -10562.42 -10594.80 -10619.89 -10640.25 -10643.09 -10622.58 -10583.36 -10307.44 -9992.34 -9327.35 -8867.03 -8684.05 -8572.51 -7230.04 -5494.67 -5054.91 -3973.56 -2218.05 -342.71 155.91 189.05 220.65 258.75 293.43 320.64 366.69 399.23 443.61 467.01 522.22 597.14 639.61 708.91 703.50 680.33 645.41 633.19 604.10 573.80 522.21 483.23 450.35 412.47 403.42 388.84 371.29 389.00 401.80 402.47 417.54 427.88 446.38 455.88 442.88 403.31 379.49 374.83 364.74 351.85 329.85 318.79 314.48 304.87 300.98 296.01 294.77 295.14 297.92 301.73 312.06 326.55 336.59 356.65 373.49 382.33 407.95 433.69 461.88 483.41 524.32 541.22 564.78 586.58 592.13 588.97 562.03 543.25 526.42 507.32 475.59 464.60 457.16 438.44 411.69 487.39 515.94 345.10 187.91 138.50 -612.77 -1892.47 -3928.13 -4647.91 -4870.81 -5117.63 -5282.00 -5490.00 -5774.53 -5912.46 -5856.62 -5320.28 -3617.80 -1841.78 -1143.82 -1090.18 -1762.62 -3234.44 -4871.97 -5697.03 -5581.30 -5448.40 -5423.76 -5424.94 -5425.51 -5423.96 -5416.56 -5406.76 -5398.23 -5386.43 -5379.02 -5370.99 -5364.30 -5364.38
-10392.48 -10392.37 -10422.48 -10436.93 -10454.42 -10488.17 -10517.95 -10548.55 -10578.24 -10607.20 -10605.55 -10593.41 -10551.69 -10333.43 -9889.87 -9406.04 -8721.16 -8386.03 -7934.80 -7693.99 -7430.70 -6833.78 -5381.75 -4558.61 -3228.37 -1867.29 -75.97 172.98 201.34 222.81 264.20 310.63 336.12 373.41 410.38 441.20 479.12 519.31 588.91 637.26 682.93 670.97 643.79 613.26 585.46 583.88 566.84 530.91 510.44 484.50 444.47 426.50 415.03 402.18 420.38 419.43 425.47 457.47 473.39 468.15 465.76 445.72 429.88 404.07 388.10 380.26 356.02 338.47 333.63 319.68 310.11 307.29 301.12 295.24 295.58 297.75 303.02 313.69 325.32 329.38 361.21 371.30 381.56 409.35 427.34 459.49 486.82 513.91 538.55 564.54 578.66 588.03 585.46 569.99 540.74 525.15 491.22 473.95 449.37 424.03 409.34 390.46 406.50 406.12 294.79 174.90 72.53 -402.38 -1931.00 -3954.65 -4570.35 -4908.99 -5075.83 -5231.95 -5507.65 -5679.19 -5833.99 -5665.89 -5237.01 -3216.79 -2120.66 -1082.89 -1287.64 -1995.20 -3870.63 -5397.57 -5721.57 -5530.30 -5424.20 -5408.11 -5421.69 -5424.75 -5424.48 -5416.65 -5408.19 -5400.65 -5391.22 -5382.62 -5376.47 -5367.25 -5366.49
-10467.08 -10466.95 -10482.90 -10501.93 -10516.92 -10545.65 -10573.89 -10589.67 -10580.13 -10581.94 -10546.73 -10357.96 -10006.77 -9845.01 -9281.88 -8540.90 -8049.33 -7579.89 -7372.00 -7345.79 -7261.32 -6655.66 -5082.44 -4081.42 -3222.61 -2025.09 -357.96 168.36 206.64 227.34 266.57 307.78 349.73 371.68 415.48 436.67 480.60 541.36 565.20 627.33 676.03 664.43 593.59 567.26 549.85 526.88 504.05 488.23 480.35 469.14 464.93 451.70 448.77 439.51 457.89 465.92 463.63 486.82 501.05 498.88 483.37 457.84 434.35 412.82 401.48 384.85 370.01 350.28 340.05 323.48 314.37 308.53 300.92 296.18 296.11 297.71 304.69 313.32 324.12 332.78 348.57 364.65 380.11 404.94 421.64 456.09 474.52 504.61 536.39 565.74 576.45 583.83 582.20 576.19 532.11 519.89 493.88 478.42 455.74 422.78 379.33 352.09 337.55 304.31 251.84 162.64 138.20 -12.67 -1013.54 -4438.88 -4966.26 -4965.88 -5151.33 -5316.85 -5623.84 -5777.33 -5835.91 -5408.09 -4650.89 -2902.48 -1197.13 -1009.16 -1033.29 -2195.27 -4299.69 -5822.25 -5674.45 -5472.54 -5395.21 -5394.88 -5413.30 -5420.93 -5421.37 -5417.96 -5410.77 -5403.67 -5393.11 -5387.27 -5379.55 -5370.76 -5370.85
-10519.56 -10519.44 -10539.72 -10549.73 -10583.59 -10606.27 -10614.40 -10613.63 -10579.61 -10513.04 -10404.00 -10084.94 -9319.27 -8499.51 -7624.46 -7481.06 -7198.16 -7205.04 -7246.55 -7266.91 -7220.53 -6624.45 -5206.56 -3652.42 -3275.97 -2207.67 -916.99 39.59 202.06 226.84 265.12 297.70 324.63 374.35 427.46 455.66 511.11 553.62 585.97 625.43 636.11 608.01 570.17 536.77 499.80 495.02 480.60 455.37 451.57 451.63 462.50 465.30 469.07 460.28 476.51 496.97 495.12 511.64 533.14 518.79 508.47 465.35 444.77 421.78 406.42 388.43 374.44 355.52 342.25 330.99 314.31 310.92 301.38 296.68 296.22 298.16 303.08 310.64 319.66 330.76 351.09 363.82 383.18 397.56 435.43 456.40 477.20 505.57 534.08 562.25 575.09 579.24 579.62 569.00 541.62 521.39 500.14 473.15 459.34 411.06 388.80 347.10 322.69 278.17 210.12 175.49 130.15 43.93 -1654.55 -4229.51 -4632.16 -5016.43 -5298.03 -5371.28 -5653.30 -5775.85 -5748.38 -5107.95 -3914.50 -2263.58 -1036.06 -920.63 -1127.41 -2406.60 -4778.24 -5790.84 -5671.22 -5436.32 -5369.40 -5390.85 -5406.31 -5412.85 -5418.57 -5417.27 -5412.84 -5406.49 -5399.94 -5393.50 -5385.76 -5376.62 -5376.71
-10560.38 -10561.44 -10576.21 -10583.66 -10599.12 -10605.68 -10566.05 -10545.48 -10436.80 -10330.62 -10063.86 -9534.07 -8158.78 -7491.76 -6874.43 -6513.96 -6636.99 -6921.53 -7116.05 -7222.42 -7188.26 -6464.24 -5448.06 -3631.24 -3151.18 -2099.26 -865.60 161.24 182.02 223.58 247.94 280.49 330.41 387.15 441.69 468.15 535.31 579.23 618.46 609.87 553.99 549.28 533.35 505.73 467.31 452.74 446.21 443.62 439.11 431.58 433.46 441.49 444.58 461.59 470.03 501.85 529.58 554.87 573.89 540.02 539.00 501.98 461.59 443.51 420.04 393.75 372.97 354.17 346.22 335.40 319.64 311.59 303.24 298.18 296.41 297.41 300.97 308.72 316.44 326.84 342.62 361.06 385.65 406.59 426.42 449.27 466.92 501.88 526.64 545.62 562.54 572.73 571.40 563.22 541.01 525.37 506.34 461.44 444.55 407.68 388.38 365.78 332.32 271.22 225.41 171.03 126.67 56.28 -285.54 -2046.30 -4419.39 -5084.43 -5309.39 -5485.88 -5637.29 -5688.83 -5406.10 -4638.49 -2572.01 -1134.87 -711.50 -741.38 -1044.48 -1758.43 -3911.20 -5576.71 -5586.10 -5391.88 -5366.06 -5378.63 -5405.18 -5415.84 -5423.01 -5421.94 -5416.72 -5411.26 -5404.73 -5399.27 -5394.18 -5386.08 -5386.17
-10567.26 -10567.17 -10565.76 -10534.70 -10517.45 -10487.09 -10333.36 -10258.79 -10113.92 -9446.82 -8740.58 -8114.43 -7197.40 -6060.20 -5818.53 -5712.43 -5959.35 -6323.21 -6864.84 -7004.16 -6983.49 -5928.60 -4738.60 -3612.62 -3172.81 -2514.96 -1725.60 -289.23 173.71 200.63 236.55 283.14 333.56 381.40 439.50 484.32 554.68 602.20 627.02 589.05 517.87 472.39 459.25 466.77 441.48 425.94 423.80 417.16 418.48 419.26 414.82 422.25 427.89 440.05 471.49 493.28 528.87 564.83 600.48 608.99 592.74 537.84 493.95 452.66 427.69 401.92 384.38 364.01 351.48 333.52 323.32 312.57 303.60 299.66 296.91 298.76 303.98 309.57 314.95 326.96 337.70 357.75 379.57 398.34 414.52 443.64 466.20 492.19 522.08 539.24 554.46 564.77 563.44 554.46 536.55 516.83 498.32 460.85 439.04 381.35 364.66 334.38 300.00 259.68 212.06 174.55 141.77 61.09 -441.99 -1816.58 -4078.57 -5150.14 -5423.28 -5608.31 -5652.30 -5524.00 -4925.88 -4092.92 -1859.62 -693.39 -567.38 -662.69 -1226.12 -2084.78 -3382.96 -5472.03 -5532.62 -5425.13 -5368.12 -5383.13 -5408.29 -5421.22 -5426.60 -5425.73 -5420.99 -5416.88 -5409.70 -5408.06 -5399.89 -5394.28 -5394.38
-10406.79 -10408.80 -10298.79 -10003.73 -9938.78 -9919.85 -9623.77 -9036.50 -8709.01 -8076.03 -7108.84 -6108.77 -5931.61 -5556.87 -5223.93 -5358.66 -5460.96 -5694.79 -6094.15 -6282.91 -6725.99 -5840.72 -5047.27 -3902.61 -3396.29 -2571.58 -1549.92 -162.36 156.53 189.12 234.44 289.49 340.55 396.17 436.42 459.53 502.00 545.35 559.53 532.32 495.87 440.58 416.68 414.19 424.87 412.54 400.05 399.27 402.86 387.98 399.78 411.32 424.59 433.00 458.19 467.16 506.98 552.73 610.84 642.60 612.52 556.17 508.02 461.05 439.48 408.66 398.01 372.69 353.79 334.89 324.09 312.79 304.19 299.29 297.00 299.20 302.92 308.10 320.03 333.46 342.73 356.40 373.22 389.43 412.03 438.17 462.67 478.23 513.06 532.92 544.00 555.07 556.12 547.44 526.37 510.86 479.69 447.26 418.01 380.08 355.90 309.68 277.08 234.47 199.47 170.20 93.00 31.62 -352.01 -2194.85 -3889.20 -5036.02 -5372.43 -5609.81 -5646.29 -5529.36 -4139.60 -2924.52 -1057.82 -598.23 -466.11 -738.49 -1085.17 -1724.62 -3585.11 -5494.91 -5535.92 -5430.70 -5378.96 -5387.57 -5413.80 -5429.27 -5434.28 -5428.97 -5431.05 -5425.96 -5419.59 -5415.59 -5408.58 -5406.70 -5406.80
-9498.57 -9499.54 -9017.56 -8955.78 -8765.91 -8228.68 -7936.60 -7267.21 -6594.77 -6051.47 -5960.99 -5585.91 -5313.63 -5142.70 -5075.35 -5096.62 -5169.82 -5354.46 -5608.23 -5718.42 -5914.19 -5728.03 -4970.76 -4323.31 -3164.43 -2338.14 -1402.46 -268.43 150.22 184.61 222.55 279.77 322.91 363.44 410.37 412.03 454.59 470.62 485.63 460.51 445.93 413.38 390.97 380.39 382.06 370.47 384.25 384.43 382.16 382.81 391.69 396.03 416.00 427.60 439.08 464.99 489.53 522.14 593.41 625.83 595.62 547.73 510.50 479.56 451.45 420.39 401.60 399.16 365.08 340.26 326.38 311.25 305.05 299.87 298.06 300.72 305.15 310.24 319.05 329.87 345.05 359.64 375.09 387.28 415.94 436.95 456.77 474.77 502.36 525.11 533.16 548.17 550.40 543.74 527.03 511.50 456.88 427.09 394.25 357.28 330.53 278.23 248.49 221.99 188.14 163.00 23.66 -350.03 -1055.74 -2615.58 -4138.57 -4549.94 -5171.92 -5549.18 -5625.16 -5353.64 -3961.05 -2064.44 -741.30 -449.38 -451.21 -770.47 -1362.66 -2570.61 -3819.32 -5204.37 -5495.29 -5426.94 -5377.04 -5393.06 -5406.12 -5427.99 -5437.79 -5444.91 -5439.43 -5437.66 -5434.43 -5429.88 -5426.12 -5416.61 -5416.72
-7434.13 -7436.98 -7413.33 -6995.77 -7088.25 -6244.31 -6160.42 -5770.29 -5668.26 -5351.34 -5164.75 -5124.39 -5092.67 -5068.60 -5063.03 -5065.26 -5095.90 -5144.75 -5259.62 -5293.08 -5325.86 -5213.16 -4746.79 -4428.88 -3660.91 -2506.26 -1833.83 -83.95 90.31 178.78 201.34 261.27 290.41 346.35 366.88 382.43 421.42 407.62 422.64 409.80 388.59 381.77 368.88 363.00 355.28 360.32 363.11 365.27 366.55 375.24 386.97 393.93 402.12 419.85 431.15 452.73 465.61 506.35 535.25 587.50 601.13 555.18 522.02 488.04 473.82 440.99 420.70 410.83 360.75 342.81 327.62 310.40 303.58 298.82 298.69 302.69 307.42 313.74 320.09 330.52 343.75 364.40 382.58 397.68 416.33 436.80 451.10 473.07 483.34 511.97 518.60 529.11 534.53 534.61 520.37 466.26 440.91 395.94 355.64 350.80 293.06 255.62 222.61 195.62 171.91 76.72 -84.71 -805.73 -1592.83 -2752.77 -3660.17 -4447.33 -5198.22 -5595.22 -5658.96 -4898.69 -3580.38 -1750.85 -646.00 -349.75 -504.06 -875.95 -1529.66 -3011.70 -4600.65 -5445.22 -5503.53 -5372.06 -5347.96 -5372.25 -5396.32 -5404.75 -5444.92 -5452.78 -5452.41 -5449.92 -5446.29 -5441.76 -5432.70 -5428.57 -5428.68
-5728.49 -5731.50 -5784.42 -5960.06 -5725.77 -5632.67 -5467.39 -5297.16 -5149.51 -5082.68 -5075.25 -5062.51 -5068.55 -5071.74 -5070.96 -5071.05 -5078.38 -5106.04 -5123.62 -5164.65 -5144.55 -4904.96 -4516.24 -4454.97 -3777.13 -2629.45 -2480.91 -413.50 108.73 174.94 188.72 231.67 278.25 293.42 319.49 358.07 353.53 374.73 373.87 368.96 358.44 362.52 350.52 346.12 344.64 348.36 347.89 351.77 357.65 364.50 379.88 390.46 396.98 406.45 426.56 436.16 457.37 483.45 533.42 580.16 615.00 577.88 559.54 513.60 490.78 469.46 444.28 415.88 364.76 344.36 317.02 306.67 303.00 297.84 298.78 303.95 306.17 312.75 319.56 333.64 348.11 362.67 378.97 393.29 422.08 431.24 445.71 464.52 483.03 493.09 509.73 509.88 515.52 509.23 494.75 465.09 428.69 412.25 358.66 321.47 274.46 241.54 190.97 175.70 152.98 54.23 -384.31 -985.13 -1376.22 -2130.97 -3019.79 -4702.52 -5515.40 -5746.57 -5560.73 -5025.56 -3051.31 -1102.63 -379.99 -337.56 -479.10 -1163.13 -2251.82 -4085.21 -4806.22 -5494.28 -5476.91 -5333.62 -5317.53 -5340.26 -5361.36 -5395.59 -5446.92 -5461.87 -5463.80 -5463.47 -5459.73 -5452.95 -5449.06 -5441.57 -5441.69
-5204.17 -5205.39 -5274.16 -5295.16 -5240.53 -5205.40 -5202.41 -5179.64 -5095.17 -5067.63 -5065.24 -5072.75 -5086.94 -5092.76 -5096.72 -5094.49 -5098.19 -5110.81 -5123.98 -5144.27 -5136.52 -4881.31 -4482.60 -4387.25 -4340.01 -3162.17 -2000.11 26.71 149.95 166.94 191.63 211.33 253.70 269.21 295.31 323.87 321.67 324.67 324.26 332.33 336.13 324.21 336.26 330.98 325.88 326.31 330.69 343.47 346.30 355.15 373.95 381.34 385.16 396.46 407.82 436.08 453.95 480.13 523.94 584.96 636.50 620.98 560.85 553.88 528.86 503.78 458.14 422.84 363.42 336.67 316.08 305.64 299.54 296.26 298.41 304.64 310.31 317.36 323.19 338.70 354.43 360.75 388.49 399.39 413.51 429.98 446.52 459.37 471.61 488.01 494.00 505.42 508.07 494.74 472.90 430.79 420.76 421.83 383.24 296.83 248.22 210.93 176.49 147.48 120.04 -175.94 -432.33 -923.09 -1456.16 -1728.80 -3566.42 -4874.68 -5550.33 -5789.56 -5619.56 -4380.29 -1945.17 -829.27 -376.98 -466.69 -745.65 -1365.33 -2964.20 -4736.44 -5469.60 -5512.12 -5384.17 -5312.59 -5324.01 -5342.02 -5366.23 -5391.64 -5440.15 -5473.06 -5474.18 -5476.52 -5470.74 -5468.75 -5461.78 -5455.86 -5455.99
-5142.53 -5142.69 -5165.50 -5178.36 -5179.41 -5183.06 -5181.82 -5150.22 -5105.45 -5084.33 -5084.66 -5089.36 -5103.17 -5110.85 -5108.10 -5104.95 -5107.95 -5121.51 -5136.29 -5144.20 -5101.97 -4884.06 -4502.07 -4393.20 -4364.35 -3594.67 -1107.34 15.70 140.93 160.15 183.21 210.91 239.19 255.36 250.49 272.15 293.32 301.25 301.92 306.12 303.88 302.21 316.98 313.18 316.21 315.88 319.92 333.14 343.10 346.48 359.43 363.28 375.96 390.57 400.22 417.62 454.11 488.58 534.18 577.65 589.47 594.35 544.14 538.72 514.83 481.98 463.32 415.85 363.35 332.69 314.15 303.02 297.38 296.11 297.60 307.49 311.63 320.42 328.78 346.01 354.86 372.36 396.77 411.60 425.36 437.89 448.85 454.45 467.74 476.26 483.88 492.47 492.19 479.63 448.63 419.42 398.53 402.61 362.56 277.14 218.72 186.93 140.11 122.08 103.67 -436.49 -932.28 -1387.93 -1437.02 -1976.15 -3591.62 -4492.97 -5669.21 -5744.96 -5283.40 -3988.73 -2192.69 -718.34 -396.18 -512.96 -1253.53 -1647.87 -3285.30 -4808.99 -5514.39 -5483.30 -5324.14 -5300.21 -5321.60 -5355.59 -5368.31 -5398.44 -5454.51 -5480.64 -5486.62 -5487.91 -5485.76 -5485.62 -5483.17 -5477.44 -5477.65
-5161.72 -5161.55 -5171.24 -5183.36 -5186.52 -5192.49 -5193.90 -5169.55 -5124.27 -5103.37 -5107.68 -5109.20 -5117.34 -5120.24 -5120.77 -5119.36 -5120.49 -5136.10 -5145.86 -5158.11 -5140.24 -4872.19 -4561.99 -4389.04 -4391.81 -3478.98 -2787.38 -505.51 138.30 152.55 173.09 184.10 205.07 221.05 230.81 256.83 266.50 275.35 281.48 286.36 289.07 294.12 297.58 303.35 305.64 304.31 316.31 319.34 326.33 339.87 349.22 359.18 368.48 384.50 395.50 412.21 445.31 493.38 516.47 542.79 555.73 542.50 490.99 481.11 453.86 421.04 397.68 374.96 354.22 321.82 307.75 298.98 295.73 295.04 297.44 306.69 313.70 321.87 335.92 350.00 364.08 384.19 398.87 410.25 431.09 439.25 448.35 453.89 462.73 466.33 472.99 482.32 480.88 466.85 429.87 402.67 352.94 338.47 293.00 232.43 193.44 158.37 125.81 102.83 -490.14 -1171.94 -1647.87 -1595.26 -1682.24 -2122.01 -3511.26 -4954.16 -5514.88 -5710.07 -5210.22 -3561.16 -1864.62 -535.96 -402.13 -521.86 -1273.84 -2095.74 -3680.62 -4873.90 -5494.46 -5412.54 -5334.63 -5306.60 -5335.56 -5361.67 -5373.36 -5405.63 -5462.37 -5488.82 -5502.09 -5501.73 -5500.64 -5496.96 -5496.64 -5493.93 -5494.04
-5175.66 -5174.60 -5166.56 -5174.51 -5167.50 -5186.28 -5184.42 -5181.83 -5138.77 -5111.45 -5099.73 -5097.57 -5100.49 -5111.34 -5123.05 -5141.48 -5144.40 -5162.99 -5178.94 -5195.46 -5135.73 -4911.55 -4541.62 -4340.65 -4443.55 -3998.08 -3149.28 -1828.63 -347.77 -24.69 165.78 170.45 184.87 201.67 223.16 230.14 243.87 256.71 260.67 263.79 267.95 274.21 278.12 286.44 285.45 291.32 298.52 308.12 319.43 329.53 337.10 352.38 366.01 382.11 390.66 398.88 429.20 460.65 478.97 484.53 534.68 515.27 472.03 433.72 405.60 382.64 363.91 344.22 324.55 309.00 297.65 295.65 292.77 293.85 298.46 307.83 312.94 322.94 337.77 347.81 373.05 387.59 398.40 411.71 425.43 439.76 448.00 452.31 458.41 462.28 464.41 461.02 459.23 442.40 419.83 376.22 352.61 311.76 239.75 206.09 180.05 126.07 115.67 -31.70 -724.32 -1485.31 -1636.86 -1605.76 -1708.42 -2271.89 -3504.60 -5123.07 -5619.14 -5675.08 -5487.30 -4414.28 -1312.64 -857.34 -474.06 -629.97 -1150.16 -1967.20 -3309.28 -4789.87 -5406.48 -5384.68 -5345.65 -5324.38 -5350.65 -5366.61 -5382.76 -5411.68 -5453.86 -5501.56 -5509.08 -5512.07 -5509.96 -5514.04 -5511.91 -5509.57 -5509.61
-5098.79 -5098.72 -5122.41 -5134.04 -5129.97 -5135.82 -5129.44 -5117.87 -5069.94 -5054.65 -5064.24 -5079.34 -5083.54 -5075.12 -5113.31 -5205.86 -5234.43 -5233.91 -5256.01 -5272.18 -5268.93 -5099.18 -4290.36 -3916.44 -4560.35 -4777.13 -3777.64 -3177.75 -1399.33 -265.98 95.77 143.34 166.71 176.54 197.05 210.10 222.41 241.45 242.38 243.69 251.92 265.75 266.95 268.07 278.88 280.95 287.94 297.41 307.96 318.05 329.91 340.32 368.80 368.61 373.73 380.97 406.57 456.55 460.95 426.16 436.23 451.03 411.43 384.01 376.38 371.36 342.60 321.71 309.28 297.49 289.58 285.93 286.83 289.03 295.62 306.59 312.68 325.77 337.08 364.30 381.56 395.25 406.42 416.87 428.46 439.56 447.59 450.52 453.38 454.85 451.75 450.26 437.54 422.65 400.28 369.03 331.86 274.58 225.55 201.74 146.98 124.37 -60.64 -553.57 -1415.38 -1565.98 -1559.87 -1584.24 -1713.90 -2563.18 -3464.96 -5480.79 -5636.05 -5828.78 -5685.29 -4495.70 -2603.03 -1440.52 -797.16 -897.93 -1325.99 -1865.04 -3357.10 -4737.55 -5390.02 -5408.28 -5344.85 -5330.85 -5349.17 -5367.05 -5391.15 -5412.81 -5463.78 -5505.56 -5517.13 -5520.06 -5524.09 -5523.59 -5522.58 -5521.77 -5521.84
-5107.57 -5107.50 -5115.23 -5124.24 -5125.51 -5128.18 -5129.05 -5102.55 -5065.34 -5058.28 -5058.76 -5057.90 -5057.90 -5065.59 -5122.03 -5228.04 -5264.51 -5274.59 -5290.05 -5298.51 -5295.91 -5236.52 -4275.18 -3751.56 -4230.64 -4898.37 -4710.24 -4057.65 -2429.18 -444.86 -124.89 74.70 159.47 172.05 186.28 196.23 195.25 214.61 220.10 222.20 226.88 236.79 255.92 255.84 262.97 266.20 279.05 289.85 294.49 303.58 316.37 334.10 348.33 345.10 351.93 363.36 380.66 410.34 416.95 397.40 390.03 397.08 366.74 341.47 335.33 326.93 311.33 306.68 293.67 282.72 277.92 279.44 283.03 286.01 290.97 303.27 314.30 330.32 339.30 353.77 380.52 390.17 412.51 419.34 437.72 442.86 448.45 451.71 452.74 450.54 440.41 426.89 400.55 384.94 369.79 361.38 321.18 247.47 221.68 187.38 143.71 96.96 -421.57 -1288.21 -1565.30 -1522.58 -1542.95 -1567.52 -1841.29 -2842.59 -4053.09 -5389.05 -5799.58 -5865.18 -5803.58 -5100.99 -3803.75 -2321.48 -1932.27 -1174.28 -1694.14 -2329.52 -3494.82 -4904.65 -5374.67 -5384.05 -5344.88 -5340.03 -5349.66 -5372.72 -5394.87 -5429.99 -5469.64 -5510.43 -5521.15 -5530.71 -5533.44 -5533.90 -5534.16 -5532.09 -5532.17
-5126.12 -5126.05 -5131.55 -5139.89 -5140.10 -5141.33 -5137.62 -5120.60 -5089.02 -5071.87 -5068.98 -5068.34 -5064.74 -5080.60 -5105.54 -5231.36 -5271.65 -5279.38 -5290.33 -5297.76 -5298.93 -5205.22 -4770.54 -4327.45 -4391.53 -4940.31 -5056.78 -3755.67 -2499.92 -532.59 -434.37 -234.11 103.46 157.36 164.17 173.19 184.71 195.48 206.40 212.61 213.31 212.29 222.38 235.69 248.10 251.85 271.79 277.91 285.08 290.08 301.32 302.98 311.96 325.59 326.27 336.84 347.94 353.68 351.09 354.53 340.93 330.44 324.49 313.07 309.81 302.41 304.48 289.65 280.21 273.07 272.86 271.94 273.18 280.82 288.98 296.41 307.90 322.30 336.14 361.88 382.76 397.36 412.24 419.91 436.97 448.60 454.50 453.82 452.43 441.92 430.68 409.14 386.93 357.74 338.49 322.58 270.52 218.78 198.47 166.74 136.67 71.36 -638.51 -1304.88 -1530.12 -1513.86 -1534.78 -1606.34 -1793.53 -3030.14 -4412.14 -5249.22 -5850.92 -5917.44 -5951.08 -5751.23 -5202.25 -3446.88 -2593.20 -2040.18 -1962.43 -3077.74 -4174.19 -5334.50 -5440.46 -5372.23 -5344.90 -5345.88 -5363.13 -5381.47 -5400.29 -5422.42 -5472.35 -5515.99 -5528.24 -5535.19 -5537.79 -5539.71 -5539.26 -5539.29 -5539.38
-5142.62 -5142.55 -5148.74 -5149.05 -5158.49 -5158.09 -5156.71 -5134.89 -5100.53 -5081.70 -5082.60 -5078.40 -5074.34 -5078.01 -5130.26 -5238.08 -5271.78 -5278.99 -5286.36 -5292.52 -5295.17 -5176.74 -5024.77 -4762.70 -4560.91 -4952.48 -5129.12 -4493.08 -2692.16 -724.50 -414.28 -326.20 -83.05 26.56 101.23 151.43 171.09 174.94 190.85 191.56 194.71 206.75 212.98 217.66 231.95 242.16 257.00 263.16 269.14 274.43 286.07 290.28 300.77 308.02 303.73 299.89 317.12 304.19 317.48 307.34 303.97 300.99 302.94 298.58 281.84 278.94 282.03 278.25 264.17 261.63 262.66 263.01 266.58 277.75 281.29 291.41 304.20 316.29 328.36 359.14 387.53 397.45 411.97 422.45 443.42 452.99 460.28 461.48 457.54 436.62 420.44 390.34 353.81 339.63 315.23 251.61 223.43 197.56 178.98 153.63 65.66 -146.78 -784.59 -1366.23 -1465.94 -1493.62 -1526.41 -1636.89 -1786.26 -2960.24 -4366.09 -5604.78 -5856.53 -5958.47 -6010.97 -5999.54 -5853.67 -5207.60 -3576.62 -2692.58 -2116.00 -3422.57 -4866.35 -5321.64 -5405.46 -5360.05 -5347.63 -5351.27 -5365.92 -5382.51 -5404.19 -5439.63 -5490.86 -5514.45 -5527.79 -5535.78 -5539.57 -5541.24 -5542.06 -5542.49 -5542.58
-5158.03 -5158.78 -5163.06 -5166.49 -5169.35 -5172.97 -5169.25 -5152.40 -5119.94 -5091.59 -5094.79 -5088.23 -5088.85 -5092.74 -5164.12 -5249.39 -5273.59 -5275.02 -5283.86 -5288.32 -5287.53 -5212.31 -5134.38 -4982.10 -4902.09 -5112.52 -5145.47 -4942.31 -3338.20 -1133.74 -557.96 -631.00 -372.54 -256.57 -144.60 37.91 152.08 157.07 158.16 172.33 177.32 183.91 195.88 206.28 211.10 219.03 249.08 248.18 251.59 261.89 273.53 281.27 285.85 292.66 293.33 278.93 280.27 285.81 290.94 283.39 285.45 280.36 273.44 271.61 265.70 256.65 259.40 252.49 254.02 253.13 251.12 253.17 258.52 265.86 275.95 287.81 302.90 314.78 333.39 354.21 377.14 394.03 413.19 437.31 450.50 455.50 465.15 467.41 462.71 434.66 410.14 366.45 322.25 308.97 277.10 236.43 199.47 167.26 135.60 12.71 -105.57 -473.14 -827.38 -1253.65 -1415.07 -1476.00 -1548.09 -1668.27 -1958.17 -3092.30 -4733.72 -5552.08 -5897.48 -6000.74 -6069.25 -6120.56 -6023.84 -5736.04 -4321.43 -2956.84 -2580.03 -4173.71 -5302.60 -5415.55 -5391.20 -5355.99 -5350.13 -5362.11 -5383.45 -5407.78 -5419.02 -5438.72 -5483.79 -5508.13 -5522.80 -5531.41 -5536.82 -5539.34 -5540.80 -5540.74 -5540.84
-5171.19 -5171.11 -5173.89 -5179.76 -5181.99 -5182.46 -5184.48 -5162.59 -5151.59 -5179.14 -5178.86 -5166.46 -5127.15 -5124.38 -5182.99 -5215.40 -5209.61 -5240.12 -5233.64 -5243.49 -5250.85 -5216.79 -5185.33 -5193.80 -5191.36 -5190.61 -5241.86 -5171.72 -4183.00 -2868.99 -2239.80 -1498.34 -1704.18 -1453.43 -948.32 -269.46 -12.58 140.90 144.36 147.62 153.30 163.49 171.88 189.11 198.97 203.91 221.69 230.30 233.22 243.27 252.48 252.53 252.42 259.35 258.59 260.21 257.28 249.50 255.50 263.24 266.77 258.89 254.44 245.19 244.78 245.67 248.23 236.31 234.10 237.63 243.21 245.00 251.24 252.48 270.12 284.19 296.14 315.62 328.54 352.29 373.12 393.87 420.30 443.81 454.97 463.88 469.89 468.15 457.86 424.66 398.89 359.61 303.92 271.95 251.82 208.03 184.40 154.91 106.91 -149.40 -603.91 -1035.52 -1212.85 -1354.35 -1438.76 -1479.95 -1579.90 -1745.68 -2438.00 -3444.83 -5059.48 -5681.25 -5927.69 -6024.36 -6092.12 -6148.57 -6146.18 -5939.67 -4505.29 -3492.89 -3229.23 -4492.99 -5289.30 -5416.65 -5375.63 -5349.36 -5358.64 -5369.79 -5391.51 -5415.43 -5431.88 -5444.56 -5485.49 -5502.47 -5518.89 -5527.51 -5532.45 -5535.30 -5536.22 -5535.31 -5535.40
-5179.98 -5180.89 -5183.41 -5188.84 -5188.37 -5189.03 -5193.77 -5209.98 -5270.04 -5281.99 -5275.84 -5280.31 -5270.09 -5265.61 -5240.91 -5175.51 -5169.22 -5165.81 -5168.73 -5187.57 -5169.43 -5199.75 -5250.72 -5269.74 -5311.94 -5336.66 -5311.66 -5339.89 -5208.10 -4436.61 -3677.96 -3640.97 -2836.34 -2871.70 -2804.44 -1692.28 -440.00 -211.59 -296.29 -120.83 -128.47 -73.49 156.70 169.86 184.06 192.66 200.42 205.44 214.11 236.60 237.86 240.80 231.67 237.62 238.09 242.30 240.56 240.59 238.60 234.73 242.94 241.31 239.01 231.64 231.10 233.34 229.89 227.27 226.76 225.84 230.89 233.57 242.47 246.06 260.64 279.13 291.46 312.88 325.30 347.03 365.51 395.92 409.46 441.80 462.10 471.78 473.29 459.93 437.28 400.46 353.42 327.10 287.68 263.60 230.03 187.09 146.73 127.29 -56.73 -455.32 -872.03 -1213.08 -1339.83 -1370.18 -1418.36 -1489.84 -1653.00 -1835.64 -2351.65 -3802.66 -5429.64 -5760.60 -5952.92 -6013.49 -6085.96 -6163.25 -6167.14 -6033.75 -4627.64 -3586.01 -3391.31 -4837.32 -5361.90 -5422.41 -5357.75 -5352.37 -5355.25 -5370.67 -5389.72 -5410.23 -5432.93 -5451.88 -5472.51 -5499.23 -5517.46 -5522.93 -5524.21 -5525.55 -5526.59 -5526.98 -5527.07
-5194.77 -5194.70 -5195.61 -5201.41 -5206.43 -5207.13 -5205.09 -5220.04 -5308.72 -5324.72 -5320.92 -5312.17 -5311.89 -5293.23 -5260.88 -5156.02 -5129.17 -5126.06 -5125.60 -5128.55 -5136.82 -5200.23 -5299.13 -5317.83 -5339.55 -5353.54 -5373.47 -5380.01 -5321.34 -5283.55 -5171.32 -5054.97 -4737.81 -4180.22 -3361.76 -2788.47 -1486.90 -1119.22 -852.53 -817.09 -1179.72 -613.69 4.10 101.68 149.30 159.26 169.19 182.35 188.71 201.49 205.14 216.91 208.45 208.68 214.13 219.98 221.58 223.62 222.53 220.93 219.24 218.09 217.33 212.88 212.03 210.53 210.45 221.13 214.55 217.77 221.43 226.98 231.31 242.90 255.66 271.69 283.80 308.02 319.25 345.66 365.49 387.29 412.10 438.72 466.06 477.84 472.70 465.44 417.13 387.48 345.48 313.24 279.68 238.25 201.19 180.14 130.58 -94.29 -315.35 -921.51 -1288.04 -1319.25 -1330.38 -1412.39 -1484.25 -1527.04 -1642.33 -1738.84 -2959.93 -4123.67 -5333.41 -5929.52 -5980.69 -6016.77 -6080.92 -6148.67 -6154.99 -5904.83 -4212.90 -3266.21 -3497.17 -4469.61 -5407.78 -5407.49 -5367.15 -5351.89 -5366.51 -5375.17 -5398.37 -5420.55 -5442.49 -5460.70 -5477.97 -5496.46 -5507.06 -5512.13 -5514.87 -5517.01 -5518.83 -5516.81 -5516.90
-5209.62 -5209.56 -5211.71 -5214.89 -5215.44 -5215.80 -5219.68 -5250.96 -5312.17 -5342.86 -5340.50 -5327.33 -5322.95 -5313.55 -5268.98 -5167.35 -5131.28 -5127.48 -5127.61 -5126.94 -5139.73 -5201.48 -5286.52 -5324.57 -5349.06 -5357.25 -5377.13 -5388.08 -5338.63 -5281.47 -5277.27 -5258.04 -5229.04 -4868.40 -4059.13 -2809.99 -1892.96 -1832.67 -1846.00 -1875.36 -1863.21 -1698.78 -373.75 -16.55 61.57 120.44 132.50 143.69 160.03 181.29 181.24 181.48 191.33 191.57 189.87 200.76 201.10 203.41 200.70 206.17 203.62 204.87 204.30 205.52 202.87 202.08 201.49 199.58 201.15 204.20 213.13 216.49 220.24 231.77 247.26 257.53 276.16 294.73 309.69 338.77 367.55 388.32 419.42 440.61 468.81 478.00 469.58 431.55 407.48 357.55 329.44 283.57 245.90 190.10 171.60 134.79 57.72 -368.73 -760.99 -1325.06 -1364.94 -1363.33 -1376.02 -1424.23 -1516.94 -1569.02 -1650.16 -2107.25 -3290.98 -4532.72 -5446.69 -5888.44 -5982.68 -6004.67 -6068.36 -6106.22 -5992.37 -5613.83 -3765.90 -3084.88 -3289.92 -4627.44 -5404.55 -5374.42 -5361.82 -5351.96 -5368.35 -5385.87 -5400.24 -5420.78 -5435.12 -5467.76 -5488.86 -5492.62 -5498.83 -5504.49 -5504.03 -5505.17 -5505.05 -5503.79 -5504.36
-5222.35 -5222.28 -5224.45 -5229.83 -5231.72 -5231.10 -5233.36 -5267.22 -5345.72 -5353.55 -5350.27 -5344.94 -5338.20 -5324.76 -5255.58 -5172.30 -5141.38 -5136.43 -5134.94 -5135.59 -5149.23 -5186.51 -5290.81 -5328.61 -5344.60 -5357.14 -5382.02 -5385.64 -5348.00 -5289.04 -5284.63 -5290.51 -5297.97 -5124.70 -5028.41 -3239.18 -2186.86 -1774.22 -1746.69 -1751.79 -1718.62 -1611.54 -718.22 -210.37 -203.05 -212.04 -10.92 113.78 117.90 146.61 158.87 168.25 174.13 171.41 175.51 178.04 185.66 183.22 186.79 187.66 186.43 186.13 196.40 182.14 181.53 183.29 189.46 188.26 190.48 189.10 198.17 202.52 209.29 217.63 238.00 250.52 270.96 284.88 305.21 339.69 362.90 392.69 417.30 429.93 461.89 471.25 467.17 442.18 398.55 370.96 324.37 289.63 233.79 169.38 141.85 115.06 -126.54 -652.74 -1197.12 -1368.15 -1389.31 -1398.82 -1396.14 -1468.08 -1514.36 -1603.08 -1727.11 -2268.93 -3334.07 -4853.93 -5503.92 -5918.13 -5973.55 -6009.45 -6048.92 -6091.35 -6030.38 -5226.37 -3486.39 -2993.31 -4114.77 -5469.57 -5490.64 -5393.08 -5343.95 -5354.80 -5379.23 -5398.48 -5408.58 -5425.48 -5438.17 -5461.08 -5485.98 -5490.78 -5494.85 -5493.63 -5491.19 -5494.79 -5495.73 -5492.34 -5492.42
-5233.38 -5234.25 -5238.29 -5238.81 -5240.82 -5240.54 -5243.67 -5276.56 -5359.23 -5368.18 -5366.17 -5359.77 -5354.92 -5334.19 -5274.34 -5173.72 -5156.80 -5149.94 -5146.23 -5142.68 -5153.42 -5216.30 -5298.49 -5327.25 -5341.54 -5355.93 -5376.82 -5388.83 -5344.42 -5299.56 -5300.97 -5317.43 -5330.34 -5314.88 -5222.00 -3840.30 -2549.26 -1964.59 -1896.53 -1815.31 -1735.05 -1599.66 -917.84 -372.04 -302.56 -288.81 -153.24 -88.00 -4.65 8.32 129.53 142.74 155.97 153.83 151.83 160.22 164.71 163.57 173.08 173.64 178.83 169.95 167.94 171.64 172.48 175.12 176.55 179.91 183.10 180.83 186.44 195.75 201.51 210.31 232.66 242.67 261.29 280.65 297.00 318.73 348.74 387.38 408.24 428.24 450.47 455.46 456.16 438.30 399.16 360.60 309.77 313.80 226.88 153.28 134.16 -33.47 -519.46 -1463.39 -1363.35 -1367.67 -1387.11 -1422.56 -1487.32 -1479.25 -1550.46 -1644.75 -1756.11 -2566.70 -3452.80 -5095.10 -5788.62 -5941.66 -5991.40 -6014.18 -6057.55 -6079.83 -5802.65 -5468.32 -3394.44 -3233.24 -4667.67 -5586.35 -5460.62 -5338.97 -5333.28 -5370.77 -5390.66 -5415.91 -5427.09 -5440.39 -5453.55 -5465.24 -5475.14 -5487.38 -5487.82 -5485.80 -5485.30 -5483.25 -5482.37 -5479.55 -5479.63
-5230.12 -5230.02 -5232.20 -5235.62 -5232.51 -5221.36 -5236.81 -5271.84 -5356.53 -5373.47 -5376.07 -5368.30 -5362.37 -5348.90 -5293.50 -5185.24 -5164.36 -5158.03 -5152.93 -5150.96 -5160.88 -5212.90 -5275.29 -5295.28 -5297.26 -5327.37 -5323.89 -5350.57 -5345.80 -5350.05 -5358.77 -5358.29 -5403.00 -5410.19 -5309.47 -4645.77 -3636.49 -3042.82 -2388.78 -2281.20 -2202.58 -2032.16 -1401.01 -691.43 -440.24 -347.47 -254.33 -191.36 -176.53 -60.49 75.41 96.06 121.33 141.81 144.90 148.11 150.47 150.55 152.78 155.35 157.05 155.96 157.17 157.55 159.88 164.89 166.89 173.70 172.28 171.95 181.87 187.18 192.25 203.27 219.97 231.52 251.71 271.28 290.25 308.85 339.71 360.15 397.07 415.24 428.65 440.64 441.87 412.85 378.56 349.36 310.71 242.02 213.38 133.65 88.62 -119.29 -943.52 -1454.76 -1360.85 -1363.32 -1423.19 -1459.39 -1535.66 -1553.25 -1646.11 -1786.48 -2278.12 -3209.30 -4345.17 -5427.64 -5873.23 -5939.69 -5993.98 -6027.74 -6067.20 -6024.70 -5763.61 -4561.54 -3578.63 -4474.26 -5436.46 -5513.27 -5345.93 -5306.01 -5322.18 -5379.51 -5402.67 -5434.35 -5448.56 -5457.74 -5467.79 -5469.18 -5481.47 -5484.53 -5479.78 -5477.73 -5473.90 -5472.54 -5473.23 -5466.89 -5466.98
-5195.63 -5195.56 -5206.51 -5208.23 -5208.02 -5207.66 -5211.72 -5258.13 -5350.31 -5382.01 -5382.93 -5373.73 -5368.84 -5352.97 -5276.20 -5200.97 -5176.56 -5167.39 -5161.39 -5161.85 -5159.62 -5163.13 -5189.61 -5188.67 -5207.86 -5208.00 -5219.20 -5264.31 -5355.04 -5408.75 -5450.55 -5449.24 -5450.84 -5436.35 -5401.78 -5264.59 -4872.07 -4567.02 -3322.18 -2784.19 -2309.39 -1731.19 -1204.94 -622.95 -512.52 -390.27 -266.42 -197.62 -142.00 -114.98 -63.18 8.26 46.21 61.07 95.50 100.31 114.94 125.60 122.99 136.02 145.08 143.13 146.01 149.71 153.31 154.77 157.84 155.99 161.98 166.23 170.50 176.23 184.51 200.72 207.22 224.48 241.25 265.79 289.27 311.90 332.59 354.98 389.02 401.14 412.49 420.47 389.27 379.53 349.46 330.43 310.48 245.19 203.22 129.28 -122.46 -416.90 -1043.67 -1412.60 -1357.83 -1383.52 -1440.56 -1536.15 -1628.38 -1734.51 -1858.35 -2364.48 -2671.04 -3970.80 -5174.44 -5736.02 -5893.12 -5958.38 -6014.42 -6041.18 -6083.35 -6027.04 -5682.07 -4571.95 -4653.15 -5828.11 -5573.11 -5368.57 -5279.99 -5286.54 -5332.27 -5392.52 -5434.70 -5450.36 -5466.70 -5474.47 -5477.65 -5474.10 -5478.32 -5481.61 -5476.01 -5469.27 -5468.46 -5463.83 -5460.78 -5455.11 -5455.19
-5204.85 -5204.78 -5206.44 -5211.51 -5210.20 -5213.14 -5215.69 -5287.39 -5342.88 -5396.66 -5396.13 -5388.94 -5384.29 -5377.25 -5320.51 -5224.16 -5186.95 -5183.34 -5177.87 -5178.19 -5177.29 -5174.01 -5175.24 -5182.27 -5193.04 -5203.36 -5215.98 -5246.34 -5328.48 -5460.57 -5480.60 -5454.31 -5447.59 -5435.50 -5420.19 -5408.00 -5315.05 -4909.94 -4235.60 -3038.24 -2059.95 -1572.97 -896.66 -754.67 -486.60 -370.20 -271.11 -196.46 -152.52 -97.92 -68.46 -28.89 -19.91 -8.15 19.73 41.04 59.53 48.39 79.78 93.98 120.71 132.81 139.02 138.17 141.68 144.66 149.01 149.98 154.15 159.42 165.03 170.12 180.42 188.68 195.44 222.86 234.51 261.77 286.88 308.90 325.34 350.62 379.04 381.73 383.10 376.85 367.79 331.21 311.20 292.37 269.09 205.33 191.88 -48.68 -397.63 -947.81 -1379.32 -1358.62 -1357.90 -1419.65 -1546.17 -1886.49 -1952.79 -2597.01 -2834.92 -3114.38 -4475.23 -4930.85 -5540.31 -5830.81 -5948.74 -5979.68 -6032.87 -6074.32 -6099.76 -6084.62 -5713.13 -6372.53 -6695.05 -6051.32 -5348.06 -5245.13 -5224.25 -5274.61 -5330.55 -5401.50 -5443.54 -5478.18 -5487.84 -5483.40 -5484.19 -5480.87 -5479.24 -5475.09 -5468.18 -5464.48 -5459.66 -5453.27 -5451.80 -5445.11 -5445.19
-5220.15 -5220.08 -5221.10 -5224.45 -5222.83 -5227.16 -5228.95 -5313.00 -5365.83 -5410.84 -5414.56 -5411.74 -5401.08 -5393.83 -5324.59 -5246.83 -5213.81 -5210.75 -5209.28 -5199.26 -5209.40 -5210.05 -5196.59 -5199.69 -5208.14 -5219.90 -5226.43 -5263.12 -5338.47 -5467.67 -5473.45 -5457.94 -5444.45 -5432.39 -5423.55 -5417.27 -5377.09 -5285.30 -4620.24 -3349.83 -2212.48 -1470.67 -1023.28 -787.62 -476.61 -351.94 -268.42 -202.34 -142.57 -81.14 -56.24 -35.64 -22.77 -10.33 -3.52 13.76 13.47 13.81 20.55 30.07 65.64 82.92 126.61 122.01 131.61 139.38 144.61 145.13 148.40 151.85 159.69 161.40 176.68 184.45 192.30 215.55 231.56 246.30 277.30 309.26 325.99 349.90 364.83 374.17 365.58 343.59 326.73 317.74 279.82 260.82 236.88 194.33 183.10 -267.23 -910.66 -1217.19 -1309.11 -1339.72 -1391.33 -1553.37 -2030.18 -2336.70 -2564.84 -3284.86 -3970.22 -4613.78 -5161.53 -5660.52 -5867.41 -5949.46 -5965.45 -5998.62 -6056.20 -6097.64 -6203.55 -6183.48 -6049.14 -7187.17 -7125.58 -5611.53 -5261.94 -5216.68 -5231.26 -5296.14 -5369.62 -5432.46 -5485.17 -5500.90 -5505.32 -5504.17 -5494.17 -5486.06 -5478.26 -5471.74 -5466.26 -5459.05 -5450.50 -5445.18 -5442.35 -5436.05 -5436.13
-5235.23 -5235.17 -5233.86 -5237.46 -5239.83 -5240.93 -5244.33 -5291.28 -5410.52 -5435.10 -5433.08 -5430.68 -5430.39 -5418.41 -5377.65 -5272.14 -5242.71 -5231.21 -5226.15 -5233.54 -5228.01 -5223.92 -5215.75 -5226.39 -5229.71 -5248.55 -5255.34 -5269.64 -5368.62 -5479.35 -5470.78 -5459.37 -5446.71 -5438.85 -5428.51 -5422.54 -5376.29 -5175.59 -4612.94 -3645.32 -2143.09 -1379.18 -947.86 -742.52 -519.14 -338.16 -257.97 -189.68 -156.59 -104.52 -61.20 -33.42 -8.36 2.97 10.43 21.40 25.34 31.91 33.35 22.82 29.63 49.69 105.45 104.85 103.24 132.15 134.62 140.71 142.40 146.46 151.00 157.77 164.41 178.11 190.58 203.49 228.01 248.85 279.67 295.19 326.18 345.14 354.43 351.77 348.82 321.54 304.00 285.74 255.42 226.62 197.25 180.15 122.98 -374.66 -1101.17 -1343.94 -1369.14 -1483.98 -1798.66 -2289.01 -3502.19 -3426.19 -4010.67 -4661.34 -5281.60 -5627.18 -5733.63 -5892.70 -5914.48 -5964.11 -5986.13 -5976.38 -5991.70 -6066.79 -6114.44 -6210.22 -6525.71 -6103.16 -6303.00 -5544.30 -5240.40 -5216.79 -5256.44 -5312.99 -5381.55 -5448.15 -5498.99 -5509.32 -5510.67 -5508.59 -5498.97 -5487.59 -5480.14 -5471.19 -5461.12 -5452.47 -5446.17 -5439.42 -5436.37 -5429.17 -5429.24
-5251.98 -5251.92 -5253.94 -5254.74 -5259.86 -5261.63 -5263.45 -5321.14 -5409.87 -5441.64 -5443.22 -5439.92 -5438.16 -5433.64 -5389.60 -5289.09 -5266.79 -5258.31 -5256.99 -5249.92 -5259.16 -5259.06 -5259.34 -5265.31 -5255.40 -5272.82 -5290.56 -5321.50 -5410.85 -5475.33 -5469.13 -5463.69 -5452.65 -5448.35 -5440.27 -5425.24 -5231.74 -4931.65 -4218.51 -3254.95 -2107.97 -1271.44 -921.32 -766.05 -530.43 -438.39 -299.03 -193.13 -144.62 -101.14 -68.55 -45.65 -10.29 13.71 23.31 33.35 39.13 40.73 39.77 35.29 30.54 35.04 65.12 68.00 73.43 100.38 106.94 125.87 138.91 140.34 143.44 150.68 158.09 173.11 191.12 202.73 230.38 256.55 268.77 292.18 311.40 336.45 337.94 340.64 318.26 305.91 281.67 257.36 238.86 207.99 173.07 152.24 -217.68 -927.44 -1441.47 -1412.60 -1584.66 -1974.88 -2500.18 -3314.74 -4369.33 -5063.83 -5276.40 -5550.88 -5688.39 -5793.70 -5861.10 -5915.94 -5940.33 -5887.90 -5849.21 -5652.83 -5552.00 -5442.83 -5417.25 -5800.71 -6907.01 -6329.78 -5750.54 -5374.14 -5240.19 -5238.79 -5295.96 -5340.32 -5392.98 -5467.41 -5507.69 -5515.45 -5514.17 -5509.73 -5500.58 -5490.10 -5479.76 -5468.62 -5455.69 -5447.08 -5440.00 -5434.11 -5428.65 -5423.08 -5423.16
-5287.51 -5287.50 -5286.93 -5302.43 -5306.47 -5311.11 -5319.54 -5341.36 -5405.79 -5420.88 -5416.04 -5416.52 -5416.15 -5429.70 -5374.49 -5315.49 -5285.85 -5285.54 -5278.14 -5279.40 -5285.14 -5295.29 -5345.18 -5376.79 -5365.77 -5428.03 -5383.13 -5393.41 -5474.77 -5482.28 -5474.85 -5467.94 -5461.16 -5457.22 -5449.55 -5402.71 -5242.80 -4322.78 -3456.00 -2567.77 -1960.39 -1395.70 -1012.85 -806.55 -660.04 -461.46 -291.10 -239.39 -179.26 -121.68 -85.31 -58.10 -20.01 7.84 15.73 26.75 32.30 40.05 40.88 41.18 37.65 39.12 40.97 49.72 57.46 77.87 97.86 108.95 126.61 134.11 137.82 144.81 157.82 173.46 185.32 205.69 220.29 247.98 264.28 296.14 316.41 325.82 329.73 324.02 308.01 297.82 260.48 231.70 199.62 167.99 138.86 128.65 -171.85 -625.25 -1339.24 -1685.19 -2187.42 -3072.06 -3865.68 -5161.03 -5340.14 -5545.63 -5770.09 -5812.01 -5850.92 -5856.67 -5869.35 -5839.44 -5716.04 -5080.10 -4968.52 -4640.16 -4430.84 -3672.09 -4276.35 -4666.49 -6119.80 -5813.81 -5465.70 -5223.95 -5215.17 -5258.25 -5295.14 -5354.65 -5403.80 -5482.14 -5503.34 -5510.56 -5513.11 -5509.89 -5501.30 -5492.11 -5477.40 -5467.06 -5455.11 -5442.79 -5437.15 -5429.96 -5424.32 -5419.00 -5419.07
-5345.02 -5328.92 -5279.19 -5337.80 -5344.75 -5353.01 -5353.40 -5365.13 -5369.58 -5365.83 -5375.27 -5366.87 -5369.06 -5355.93 -5337.38 -5316.78 -5308.18 -5313.10 -5308.02 -5308.43 -5316.23 -5384.60 -5449.79 -5468.70 -5466.79 -5468.56 -5479.46 -5477.38 -5486.99 -5487.98 -5475.70 -5472.25 -5465.92 -5461.69 -5454.93 -5381.32 -5012.55 -4493.62 -3498.64 -2733.11 -2127.93 -1531.09 -1106.80 -912.96 -711.15 -454.63 -330.74 -252.74 -181.11 -140.10 -94.85 -57.38 -31.56 -6.16 4.93 11.31 20.20 34.90 38.15 40.49 39.33 34.16 34.54 40.87 48.07 58.43 69.91 82.51 106.91 132.53 135.33 142.56 156.54 170.29 184.56 206.17 221.71 238.83 263.95 279.89 301.93 311.81 319.19 312.06 294.40 263.22 235.66 217.97 181.12 158.60 130.71 -76.39 -527.09 -1073.91 -1832.62 -2364.05 -3363.52 -4012.90 -5121.66 -5319.04 -5615.98 -5707.05 -5819.24 -5807.43 -5710.96 -5659.91 -5013.04 -4630.04 -4514.75 -3743.12 -3194.97 -2376.02 -1115.14 -2313.63 -3730.77 -5103.41 -5553.99 -5373.38 -5248.43 -5184.96 -5217.22 -5285.79 -5325.21 -5376.63 -5411.36 -5462.48 -5493.65 -5507.97 -5514.00 -5510.56 -5501.23 -5491.67 -5476.43 -5467.31 -5452.43 -5445.16 -5432.66 -5425.06 -5419.88 -5415.70 -5415.38
-5297.15 -5296.97 -5114.69 -5179.01 -5359.83 -5377.53 -5382.31 -5377.56 -5363.81 -5362.93 -5367.68 -5365.42 -5364.39 -5364.24 -5355.34 -5332.10 -5323.41 -5328.45 -5328.65 -5330.68 -5345.18 -5390.56 -5484.19 -5492.43 -5493.68 -5487.41 -5479.76 -5486.56 -5489.06 -5488.72 -5482.20 -5478.57 -5475.90 -5469.97 -5456.61 -5377.25 -5223.94 -4529.04 -3579.71 -2756.26 -2338.05 -1669.10 -1335.22 -924.64 -701.71 -461.88 -352.28 -294.66 -205.43 -159.29 -120.77 -67.40 -45.03 -20.71 -13.72 6.46 15.39 29.46 31.15 32.30 33.36 30.69 29.96 29.72 33.14 33.38 41.21 62.47 82.06 96.21 118.25 134.06 153.44 167.88 177.32 200.96 218.27 230.43 253.06 268.51 294.62 304.36 309.37 305.53 292.61 255.87 237.22 205.07 163.86 148.46 19.95 -256.92 -1350.93 -1543.95 -2540.76 -3216.79 -4537.46 -4966.71 -5342.95 -5517.94 -5629.59 -5702.87 -5761.58 -5584.70 -5293.98 -4360.03 -3242.80 -2588.27 -1702.57 -665.58 -945.77 -408.65 -840.88 -1295.88 -3377.49 -4645.66 -5100.91 -5131.62 -5092.98 -5149.26 -5240.75 -5291.51 -5355.28 -5407.06 -5435.23 -5472.88 -5493.54 -5506.41 -5512.14 -5508.82 -5501.57 -5489.84 -5475.24 -5468.07 -5452.80 -5441.61 -5429.38 -5423.03 -5417.47 -5412.82 -5412.89
-5231.82 -5231.89 -4857.25 -5138.88 -5375.84 -5392.95 -5394.40 -5391.44 -5378.97 -5380.82 -5378.37 -5378.96 -5379.05 -5377.26 -5369.47 -5353.14 -5348.32 -5347.62 -5348.95 -5358.20 -5364.83 -5438.40 -5493.39 -5502.54 -5499.32 -5496.63 -5486.86 -5486.84 -5489.84 -5490.73 -5488.99 -5483.40 -5481.02 -5481.78 -5470.61 -5373.59 -5100.65 -4596.51 -3794.33 -3210.87 -2459.09 -1814.23 -1460.44 -1030.83 -722.35 -520.83 -440.61 -353.42 -289.78 -231.77 -161.44 -100.44 -66.78 -36.59 -19.61 2.08 13.66 18.35 24.96 28.13 29.17 29.40 25.60 19.44 15.84 17.81 34.02 46.66 49.45 72.53 95.45 115.19 149.04 160.61 180.63 200.38 216.13 236.89 253.98 267.11 282.90 299.27 304.25 300.28 289.93 260.04 241.78 235.63 162.04 140.64 19.02 -1012.09 -1719.65 -1929.17 -2526.39 -4062.57 -4926.96 -5272.59 -5288.41 -5323.97 -5461.92 -5323.01 -5044.07 -4370.62 -3170.99 -840.85 -312.80 57.83 63.75 61.18 47.57 49.20 -417.33 -1148.33 -3194.79 -4558.60 -4851.98 -5021.21 -5101.64 -5194.88 -5245.91 -5317.08 -5363.05 -5417.86 -5456.62 -5484.20 -5505.05 -5516.30 -5518.80 -5513.02 -5503.11 -5488.56 -5475.61 -5463.95 -5450.34 -5440.60 -5430.63 -5420.94 -5417.10 -5411.05 -5411.11
-5382.66 -5382.63 -5186.86 -5373.71 -5392.46 -5409.79 -5407.16 -5408.80 -5392.56 -5392.85 -5393.38 -5395.70 -5399.47 -5398.32 -5389.07 -5370.49 -5371.19 -5372.64 -5371.93 -5379.14 -5398.94 -5454.67 -5489.18 -5499.25 -5496.90 -5500.51 -5496.58 -5489.62 -5491.71 -5493.57 -5494.82 -5491.44 -5488.54 -5486.46 -5471.88 -5453.57 -5082.36 -4719.67 -4092.97 -3211.80 -2801.21 -2222.92 -1824.90 -1110.47 -810.59 -692.98 -567.68 -477.60 -396.13 -303.98 -194.03 -137.04 -86.40 -45.59 -30.27 -8.67 1.21 10.52 18.59 19.45 21.98 21.52 18.58 16.86 14.49 17.69 25.00 27.13 36.92 42.91 64.07 97.29 127.27 153.81 182.70 197.98 206.68 239.35 257.30 263.57 271.69 285.24 298.11 289.31 273.91 254.05 231.58 296.08 190.29 -155.29 -580.02 -1192.76 -1728.37 -1904.94 -2675.87 -3627.11 -4502.52 -4450.10 -4503.12 -4029.46 -4448.61 -3779.43 -2744.42 -1919.74 -1088.71 -127.24 65.90 136.97 142.96 135.44 103.84 15.48 -576.78 -1745.98 -3280.64 -4435.48 -4917.23 -5050.12 -5153.92 -5227.39 -5299.31 -5334.36 -5376.92 -5445.45 -5471.01 -5481.27 -5504.15 -5518.20 -5522.57 -5515.98 -5504.16 -5488.26 -5476.81 -5467.47 -5451.39 -5439.88 -5430.63 -5420.43 -5414.23 -5410.39 -5410.46
-5415.27 -5416.75 -5411.11 -5411.14 -5417.61 -5421.20 -5423.19 -5415.25 -5412.66 -5407.99 -5409.45 -5413.26 -5413.40 -5411.38 -5401.25 -5397.06 -5388.49 -5385.96 -5396.62 -5399.10 -5412.28 -5473.91 -5511.83 -5503.59 -5501.37 -5500.47 -5498.65 -5495.54 -5495.39 -5498.32 -5497.44 -5496.09 -5493.15 -5490.10 -5486.98 -5455.65 -5261.86 -4794.18 -4588.01 -3882.58 -3206.03 -2514.12 -1754.99 -1272.67 -989.90 -870.23 -690.60 -564.83 -453.32 -372.96 -314.58 -184.47 -142.55 -91.16 -47.72 -16.71 -4.43 5.03 9.78 14.73 15.30 16.34 14.90 13.33 13.29 16.60 18.24 16.11 21.83 31.77 51.45 79.18 122.61 147.83 172.71 198.15 214.04 231.16 242.08 257.19 268.21 272.45 278.38 280.58 260.53 233.64 220.05 208.86 144.89 -239.79 -907.00 -1235.05 -1677.54 -1826.34 -2347.17 -3048.56 -3360.85 -3394.82 -3068.96 -2906.73 -1662.17 -1148.65 -1080.24 -746.56 62.07 159.08 160.98 157.64 140.94 135.76 -103.84 -433.86 -1276.36 -2861.43 -3769.43 -4464.77 -4973.13 -5134.48 -5247.93 -5292.80 -5330.54 -5360.51 -5390.93 -5435.53 -5485.00 -5490.74 -5507.65 -5522.00 -5524.41 -5516.21 -5504.79 -5494.18 -5480.47 -5463.68 -5452.35 -5441.59 -5430.83 -5419.63 -5415.43 -5410.54 -5410.61
-5439.19 -5439.16 -5452.20 -5443.07 -5451.60 -5447.44 -5454.62 -5452.93 -5457.04 -5457.67 -5472.47 -5482.40 -5475.69 -5477.09 -5466.10 -5433.88 -5448.66 -5447.59 -5438.87 -5433.41 -5450.96 -5477.19 -5512.77 -5496.47 -5500.11 -5497.10 -5494.30 -5494.86 -5497.47 -5500.65 -5501.98 -5499.53 -5496.42 -5492.24 -5480.54 -5402.62 -5251.16 -4902.18 -4389.67 -4103.31 -3428.83 -2679.42 -2130.80 -1531.59 -1417.02 -996.68 -883.47 -809.98 -611.92 -546.09 -370.72 -258.48 -170.24 -122.92 -65.14 -36.73 -12.14 -0.12 5.28 8.79 9.38 11.01 11.13 9.12 9.69 11.91 18.80 24.96 27.15 34.15 48.55 77.78 111.91 150.35 170.34 189.53 206.53 215.00 230.46 236.58 248.52 263.81 262.81 254.10 242.97 224.96 198.61 177.85 142.09 -207.91 -1125.26 -1769.74 -1681.13 -1670.27 -1865.09 -2059.83 -2271.69 -2308.11 -1767.94 -793.88 98.11 -43.06 168.89 173.54 168.60 166.28 161.37 154.10 89.74 11.44 -598.27 -1301.74 -2150.80 -3527.28 -3949.61 -4639.37 -5093.56 -5231.70 -5289.93 -5332.68 -5385.07 -5400.74 -5430.61 -5464.03 -5490.62 -5514.53 -5516.17 -5522.08 -5523.78 -5517.78 -5505.43 -5492.38 -5480.98 -5466.07 -5454.05 -5441.60 -5431.75 -5422.19 -5417.30 -5411.59 -5411.66
-5471.29 -5472.87 -5475.48 -5476.89 -5478.05 -5479.48 -5475.66 -5492.05 -5505.69 -5512.48 -5528.50 -5525.48 -5531.68 -5522.41 -5521.93 -5504.78 -5490.70 -5491.28 -5506.97 -5512.60 -5506.80 -5491.51 -5483.32 -5465.94 -5467.82 -5474.86 -5478.72 -5487.02 -5498.04 -5503.45 -5505.52 -5503.07 -5498.44 -5495.41 -5475.44 -5397.17 -5169.15 -4751.14 -4650.15 -4159.09 -3494.34 -2910.05 -2267.75 -1785.81 -1385.02 -1244.21 -1075.07 -940.25 -755.14 -546.37 -397.68 -337.01 -213.72 -141.14 -90.03 -48.02 -29.14 -12.40 -4.50 1.94 5.36 6.50 6.94 6.81 8.72 12.80 21.95 25.59 34.29 39.05 50.69 67.88 107.45 143.98 162.33 178.57 187.13 205.82 220.26 234.19 239.49 248.80 248.68 237.76 227.84 199.31 180.24 146.52 132.50 -142.38 -1101.41 -1806.85 -1770.19 -1725.79 -1810.75 -1958.84 -2027.37 -1823.57 -1059.77 18.15 135.98 191.18 202.25 193.59 170.82 163.46 95.44 25.52 -243.74 -898.53 -1769.62 -2662.97 -3651.75 -4163.08 -4465.35 -4800.39 -5156.45 -5267.73 -5319.63 -5369.87 -5389.20 -5421.71 -5460.53 -5478.72 -5503.33 -5522.75 -5529.79 -5527.80 -5526.32 -5516.39 -5507.55 -5495.16 -5481.96 -5472.26 -5455.12 -5444.37 -5434.61 -5424.98 -5419.61 -5413.34 -5413.40
-5486.00 -5487.32 -5487.89 -5489.93 -5490.74 -5494.71 -5497.66 -5512.01 -5527.68 -5540.28 -5541.62 -5546.40 -5545.72 -5549.23 -5539.07 -5524.00 -5519.33 -5521.75 -5522.43 -5523.20 -5521.14 -5492.60 -5461.24 -5455.74 -5455.72 -5456.17 -5459.74 -5484.99 -5500.23 -5506.10 -5507.27 -5503.74 -5502.78 -5500.02 -5485.20 -5368.94 -5224.24 -4938.24 -4678.89 -4222.37 -3561.56 -3252.62 -2636.36 -2176.75 -1635.75 -1305.26 -1265.35 -1076.07 -889.42 -670.09 -505.62 -381.47 -256.89 -213.88 -123.11 -56.48 -39.39 -19.91 -5.87 -2.12 -0.05 2.00 2.26 4.48 8.04 12.57 20.75 27.74 36.48 42.55 51.53 63.86 95.74 119.74 151.00 178.16 180.58 196.70 213.30 223.18 225.49 229.41 235.88 225.94 203.96 189.26 172.93 158.98 128.70 2.16 -834.36 -1599.40 -1868.08 -1826.41 -1839.07 -1894.25 -1804.99 -1273.51 -622.72 88.35 172.67 214.18 215.75 180.43 -4.84 -11.27 -323.37 -440.36 -987.22 -1647.33 -2784.29 -3387.27 -3852.20 -4286.85 -4530.53 -4855.49 -5083.31 -5285.19 -5333.79 -5362.70 -5400.41 -5435.92 -5462.52 -5501.85 -5511.91 -5528.31 -5535.31 -5535.70 -5527.28 -5517.92 -5508.45 -5497.04 -5482.21 -5471.75 -5457.08 -5444.54 -5436.52 -5425.75 -5422.13 -5415.81 -5415.88
-5498.61 -5498.56 -5501.41 -5499.26 -5500.05 -5501.55 -5508.40 -5521.82 -5542.29 -5551.95 -5554.30 -5558.04 -5563.90 -5562.55 -5559.06 -5537.03 -5532.29 -5532.83 -5540.59 -5539.06 -5537.58 -5508.72 -5485.13 -5467.35 -5462.06 -5464.04 -5468.23 -5488.62 -5500.22 -5508.99 -5509.19 -5508.38 -5505.23 -5505.27 -5495.06 -5466.88 -5397.33 -5157.52 -4808.25 -4340.78 -4199.30 -3578.34 -3411.49 -2803.96 -1984.75 -1715.60 -1545.73 -1264.14 -922.31 -769.24 -554.80 -460.27 -359.16 -244.37 -142.35 -70.56 -48.79 -24.00 -9.37 -4.99 -2.61 0.21 1.66 3.60 7.46 10.95 18.20 24.65 35.59 43.62 52.95 63.88 86.39 108.17 142.92 166.45 178.94 189.05 201.99 209.03 215.19 223.54 222.87 215.12 191.16 179.67 163.01 149.63 129.87 3.07 -528.46 -1666.09 -1896.44 -1978.46 -1934.79 -1842.82 -1522.03 -927.84 -432.54 5.68 167.55 192.30 156.19 98.11 -467.95 -344.13 -723.59 -1509.28 -2048.66 -2683.70 -3242.45 -3688.59 -4093.54 -4379.22 -4626.15 -4929.99 -5151.94 -5290.21 -5352.02 -5371.66 -5416.58 -5456.09 -5482.60 -5499.53 -5519.78 -5532.47 -5537.44 -5535.87 -5528.39 -5518.54 -5505.70 -5496.49 -5486.85 -5473.78 -5461.26 -5446.57 -5439.44 -5428.75 -5427.22 -5419.05 -5419.12
-5511.21 -5511.15 -5511.56 -5512.88 -5515.99 -5518.52 -5522.52 -5533.91 -5548.35 -5559.75 -5565.57 -5570.49 -5568.82 -5570.48 -5570.31 -5550.22 -5546.11 -5553.58 -5555.59 -5563.26 -5562.95 -5537.38 -5506.61 -5487.80 -5498.08 -5483.66 -5492.11 -5505.26 -5511.56 -5510.97 -5511.18 -5510.24 -5510.23 -5510.10 -5506.48 -5477.89 -5446.41 -5275.85 -5030.45 -4729.06 -4305.87 -4047.22 -3718.84 -3091.89 -2545.21 -1914.92 -1512.52 -1267.94 -949.36 -831.89 -689.79 -561.22 -409.18 -299.28 -199.92 -123.32 -56.54 -35.37 -14.45 -9.38 -3.11 -2.10 -0.34 1.28 5.36 9.00 15.60 25.05 34.44 45.61 53.73 68.01 90.71 115.33 132.88 151.99 171.39 183.26 187.95 198.70 201.81 204.55 200.38 182.47 178.74 161.92 157.51 139.94 117.28 62.49 -818.29 -1332.79 -1923.83 -2009.70 -1984.86 -1660.77 -1173.17 -416.34 -337.92 11.70 81.03 -20.30 -45.11 -166.85 -669.00 -990.13 -1472.70 -1788.47 -2331.84 -2893.41 -3408.99 -3699.92 -4101.65 -4444.25 -4651.44 -4948.53 -5203.48 -5294.68 -5356.65 -5379.45 -5420.80 -5465.69 -5492.69 -5508.05 -5526.30 -5536.39 -5536.45 -5533.22 -5524.01 -5518.31 -5508.61 -5495.88 -5487.06 -5477.21 -5457.62 -5449.95 -5440.74 -5433.62 -5428.50 -5424.17 -5422.90
-5526.86 -5526.81 -5541.13 -5546.93 -5535.56 -5532.58 -5545.42 -5545.85 -5557.73 -5572.29 -5575.31 -5576.61 -5581.09 -5584.65 -5583.63 -5573.88 -5580.59 -5579.87 -5581.41 -5574.24 -5568.96 -5557.32 -5530.44 -5530.03 -5526.60 -5505.27 -5517.94 -5517.41 -5516.50 -5515.99 -5515.11 -5514.17 -5512.45 -5511.77 -5508.66 -5491.29 -5470.76 -5302.53 -5224.62 -4893.67 -4462.31 -4179.90 -3706.90 -3126.05 -2726.31 -2153.25 -1847.92 -1430.98 -1050.46 -854.99 -746.09 -556.43 -480.65 -308.36 -226.99 -134.82 -67.20 -45.83 -32.98 -12.04 -6.33 -3.36 -2.39 -0.61 3.89 10.15 15.48 23.95 37.45 44.72 50.87 55.94 80.98 112.51 129.36 146.74 159.80 175.29 182.54 188.40 188.03 184.80 180.03 168.53 153.84 149.62 141.15 130.48 99.16 62.82 -546.39 -909.51 -1451.42 -1853.17 -1782.99 -1321.96 -787.29 -343.55 -155.59 -115.06 -134.74 -151.43 -265.11 -683.51 -1136.45 -1493.06 -1843.18 -2330.44 -2624.25 -3057.66 -3611.46 -3863.43 -4297.17 -4611.16 -4827.88 -5072.88 -5215.55 -5318.96 -5356.01 -5395.77 -5433.28 -5468.44 -5496.86 -5519.48 -5530.85 -5537.00 -5535.20 -5530.87 -5524.74 -5520.09 -5508.13 -5497.47 -5484.38 -5476.73 -5462.58 -5451.09 -5441.93 -5436.58 -5433.61 -5426.97 -5427.04
-5571.76 -5579.64 -5579.83 -5583.69 -5581.76 -5586.74 -5589.03 -5577.90 -5580.46 -5576.59 -5581.01 -5583.55 -5586.54 -5589.78 -5596.32 -5595.86 -5596.67 -5589.81 -5585.12 -5576.85 -5573.81 -5564.69 -5548.68 -5542.99 -5538.29 -5524.72 -5526.68 -5521.44 -5520.49 -5519.27 -5517.35 -5516.93 -5513.24 -5512.25 -5508.90 -5498.65 -5436.54 -5360.94 -5117.76 -4867.26 -4644.41 -4295.55 -3572.31 -3140.65 -2533.08 -2334.95 -1920.08 -1463.73 -1164.43 -945.35 -786.55 -742.44 -585.04 -391.46 -291.05 -181.09 -115.73 -83.33 -44.48 -24.10 -8.61 -5.67 -4.19 -0.98 3.12 7.60 13.62 25.08 33.09 45.79 48.29 49.85 88.08 124.73 140.72 147.65 161.50 169.65 173.62 174.96 174.96 173.35 167.17 158.40 145.16 133.53 135.99 120.20 95.11 44.42 -257.51 -523.46 -892.91 -1376.68 -1311.40 -908.63 -492.98 -221.50 -124.64 -178.38 -392.16 -352.52 -557.53 -1172.46 -1722.89 -2040.21 -2392.74 -2700.99 -3258.25 -3353.50 -3820.60 -4214.84 -4517.52 -4757.86 -4937.77 -5169.73 -5289.52 -5342.31 -5358.95 -5404.37 -5454.06 -5478.80 -5504.08 -5518.70 -5528.42 -5533.98 -5532.60 -5528.89 -5523.38 -5516.89 -5506.05 -5499.84 -5488.56 -5474.04 -5463.85 -5454.26 -5445.55 -5439.70 -5435.88 -5431.36 -5431.43
