-10993.94 -10993.86 -10955.80 -10854.13 -10617.00 -10090.36 -9515.70 -9336.84 -9200.99 -9180.02 -9192.18 -9191.54 -9180.73 -9195.94 -9202.46 -9199.30 -9200.83 -9207.93 -9193.84 -9209.10 -9214.99 -9236.99 -9249.39 -9292.61 -9294.57 -9282.35 -9287.24 -9269.27 -9247.97 -9218.32 -9211.32 -9216.38 -9223.77 -9231.86 -9238.94 -9237.70 -9261.77 -9288.34 -9292.80 -9296.10 -9298.89 -9308.87 -9309.10 -9318.37 -9321.06 -9320.36 -9317.37 -9312.68 -9320.45 -9371.73 -9401.32 -9397.50 -9401.16 -9391.32 -9390.31 -9389.20 -9340.81 -9328.03 -9330.21 -9336.77 -9343.65 -9349.16 -9362.86 -9391.78 -9410.37 -9414.76 -9418.71 -9412.07 -9417.84 -9445.33 -9500.02 -9507.80 -9503.73 -9499.08 -9489.31 -9483.83 -9363.68 -9306.80 -9250.86 -9260.26 -9252.13 -9239.22 -9185.49 -8808.55 -8615.01 -6791.19 -6195.61 -6035.89 -6232.09 -6453.56 -6620.67 -6713.48 -5515.40 -4495.20 -2503.21 -500.24 -400.03 82.54 381.42 1570.10 3661.43 4336.47 5612.51 4244.66 3959.95 2405.83 225.57 120.24 -599.98 -1843.34 -4358.60 -5150.85 -5177.46 -4967.83 -4963.53 -4998.38 -5023.30 -5043.40 -5083.36 -5079.44 -5106.33 -5103.56 -5102.52 -5101.36 -5112.07 -5143.94 -5165.10 -5170.63 -5173.44 -5178.44 -5179.18 -5178.56 -5143.69 -5130.66 -5132.65 -5134.68 -5136.53 -5137.71 -5138.62 -5139.36 -5139.45
-10998.92 -10998.90 -10993.20 -10946.78 -10706.23 -10318.56 -9772.53 -9426.81 -9237.35 -9189.28 -9178.95 -9179.12 -9179.66 -9181.90 -9185.68 -9191.88 -9192.50 -9193.31 -9192.81 -9193.85 -9199.00 -9215.86 -9285.45 -9302.64 -9303.95 -9305.25 -9305.59 -9293.04 -9261.34 -9221.21 -9204.60 -9208.37 -9213.56 -9218.38 -9232.05 -9233.05 -9237.54 -9244.16 -9251.66 -9260.57 -9267.48 -9279.26 -9295.77 -9311.59 -9315.14 -9315.71 -9312.57 -9309.67 -9320.43 -9370.12 -9387.06 -9386.83 -9380.43 -9380.38 -9380.27 -9368.86 -9333.63 -9315.08 -9318.40 -9322.08 -9332.80 -9344.70 -9358.77 -9380.62 -9392.92 -9398.12 -9401.08 -9404.48 -9405.80 -9427.96 -9479.68 -9501.59 -9498.30 -9493.30 -9482.77 -9471.07 -9427.30 -9250.35 -9221.23 -9221.74 -9218.31 -9195.89 -9105.38 -8460.88 -7523.83 -6234.85 -5795.68 -6102.74 -6310.72 -6597.03 -6719.92 -6578.53 -5814.57 -4793.92 -2214.77 -923.29 -140.10 162.65 367.05 540.66 1806.20 3686.55 5610.35 5329.23 3033.05 1241.90 268.95 -29.06 -963.15 -2659.54 -5060.08 -5315.59 -5104.80 -5002.46 -4958.39 -4998.01 -5033.12 -5045.88 -5064.78 -5074.11 -5076.01 -5076.14 -5074.03 -5074.14 -5093.66 -5132.36 -5165.61 -5174.99 -5176.46 -5180.53 -5183.32 -5177.26 -5141.70 -5130.96 -5132.63 -5134.95 -5136.33 -5137.42 -5138.22 -5138.49 -5138.57
-10994.68 -10994.60 -10999.25 -10988.11 -10860.45 -10607.79 -10039.30 -9606.46 -9310.36 -9217.71 -9186.10 -9186.14 -9190.80 -9190.13 -9195.95 -9197.98 -9201.36 -9200.16 -9198.05 -9197.24 -9200.17 -9248.35 -9289.75 -9302.81 -9303.98 -9303.35 -9304.57 -9300.45 -9251.31 -9202.45 -9191.79 -9197.22 -9203.16 -9211.76 -9215.26 -9217.02 -9223.71 -9232.18 -9238.48 -9250.19 -9256.10 -9267.03 -9290.38 -9304.34 -9309.39 -9308.88 -9305.85 -9306.55 -9325.71 -9349.39 -9380.54 -9380.44 -9377.06 -9374.54 -9371.77 -9362.13 -9323.79 -9308.18 -9311.41 -9316.43 -9326.88 -9330.71 -9341.12 -9370.72 -9383.40 -9392.22 -9394.97 -9397.80 -9399.75 -9427.20 -9480.78 -9495.88 -9492.35 -9488.11 -9478.32 -9456.91 -9406.42 -9271.21 -9215.52 -9212.17 -9207.48 -9190.62 -8985.27 -8528.67 -7835.55 -5850.36 -5594.47 -6099.51 -6368.60 -6611.03 -6749.17 -6641.25 -4771.49 -3590.73 -1746.12 -564.69 -157.95 203.90 349.92 629.49 2214.13 3242.32 5344.35 4479.37 2662.63 1210.92 236.58 -75.78 -820.36 -2902.53 -5264.42 -5454.87 -5094.26 -4980.27 -4951.64 -4996.78 -5039.98 -5053.31 -5072.04 -5078.13 -5079.72 -5078.19 -5076.09 -5075.26 -5099.95 -5128.18 -5177.86 -5182.10 -5182.55 -5184.35 -5184.96 -5169.59 -5150.51 -5133.53 -5132.74 -5134.49 -5136.05 -5137.06 -5137.48 -5137.59 -5137.67
-10990.25 -10991.07 -10998.74 -10994.97 -10945.33 -10761.47 -10299.53 -9810.99 -9568.33 -9291.63 -9214.19 -9197.45 -9195.42 -9198.77 -9201.93 -9206.47 -9207.42 -9205.83 -9205.17 -9201.68 -9204.79 -9250.38 -9290.89 -9302.86 -9302.20 -9301.65 -9301.17 -9295.67 -9234.55 -9197.41 -9186.86 -9191.05 -9194.50 -9199.02 -9208.28 -9210.92 -9206.45 -9220.06 -9228.61 -9236.21 -9247.16 -9258.71 -9281.17 -9296.41 -9301.08 -9303.48 -9302.34 -9299.97 -9309.10 -9334.80 -9379.50 -9379.85 -9373.86 -9371.84 -9368.03 -9359.91 -9315.62 -9306.40 -9306.93 -9312.70 -9318.81 -9325.10 -9341.25 -9362.56 -9378.49 -9386.05 -9391.57 -9393.74 -9397.48 -9419.73 -9485.06 -9490.42 -9487.81 -9483.60 -9478.16 -9458.85 -9398.76 -9253.81 -9210.14 -9205.82 -9204.71 -9180.14 -9123.86 -8030.72 -7216.84 -5683.31 -5589.59 -6044.68 -6368.99 -6561.33 -6747.21 -6492.13 -5581.30 -2279.80 -1682.11 -543.46 -71.16 245.33 467.75 1331.17 3727.33 4364.96 6090.53 4577.31 2912.96 1124.25 238.20 -81.86 -869.51 -3306.47 -4723.86 -5340.69 -5193.41 -5027.14 -4968.06 -5014.03 -5046.13 -5063.61 -5076.64 -5084.51 -5085.62 -5084.85 -5083.36 -5083.26 -5096.57 -5152.26 -5177.68 -5186.07 -5186.99 -5187.07 -5187.52 -5179.93 -5151.42 -5132.47 -5133.28 -5134.60 -5135.25 -5136.05 -5136.81 -5137.05 -5137.13
-10986.99 -10986.91 -10997.37 -11003.98 -10989.00 -10922.18 -10760.21 -9999.84 -9593.03 -9412.10 -9222.79 -9209.70 -9208.42 -9205.25 -9209.67 -9213.09 -9212.94 -9211.93 -9208.82 -9206.77 -9209.24 -9239.80 -9298.35 -9305.34 -9303.98 -9301.18 -9298.97 -9296.32 -9235.59 -9196.36 -9181.32 -9181.20 -9184.72 -9189.05 -9193.67 -9199.45 -9202.24 -9211.36 -9219.91 -9229.46 -9240.36 -9255.98 -9269.68 -9282.75 -9291.56 -9295.82 -9297.03 -9295.29 -9309.61 -9352.29 -9374.58 -9372.08 -9369.36 -9361.13 -9363.45 -9357.07 -9315.24 -9307.87 -9307.92 -9310.60 -9318.52 -9323.24 -9342.25 -9358.83 -9375.26 -9382.38 -9386.88 -9390.83 -9393.70 -9414.45 -9461.50 -9477.21 -9481.57 -9474.53 -9470.24 -9454.69 -9345.17 -9241.61 -9209.93 -9203.52 -9205.23 -9180.26 -9083.90 -8686.72 -7829.00 -5872.02 -5580.16 -5882.16 -6357.40 -6564.75 -6675.97 -6206.06 -4687.34 -2691.67 -1801.00 -734.35 -95.96 203.16 498.06 2514.02 4849.67 6299.77 6029.78 4526.17 2269.80 708.16 184.00 32.58 -1002.01 -2555.64 -4500.68 -5192.11 -5174.34 -5101.61 -5000.65 -5035.15 -5059.38 -5079.28 -5084.46 -5088.63 -5088.83 -5088.40 -5087.09 -5086.09 -5096.09 -5165.25 -5185.32 -5191.78 -5190.78 -5191.87 -5189.92 -5185.66 -5146.14 -5133.94 -5134.04 -5134.81 -5135.28 -5135.57 -5135.69 -5135.97 -5136.21
-10998.26 -10998.22 -11014.31 -11032.79 -11024.72 -10986.83 -10894.39 -10631.12 -9995.43 -9563.09 -9309.75 -9242.89 -9235.02 -9227.97 -9219.61 -9217.48 -9209.97 -9206.15 -9206.32 -9203.41 -9202.45 -9242.95 -9306.19 -9329.85 -9326.78 -9328.76 -9323.79 -9299.12 -9231.30 -9180.76 -9167.75 -9167.14 -9167.34 -9174.44 -9184.30 -9204.43 -9261.00 -9269.58 -9277.91 -9263.94 -9286.36 -9291.43 -9282.43 -9265.02 -9277.37 -9275.17 -9282.25 -9280.11 -9289.75 -9323.82 -9328.23 -9332.63 -9328.85 -9319.57 -9307.32 -9331.69 -9337.49 -9325.36 -9336.79 -9358.61 -9356.78 -9351.37 -9367.82 -9371.45 -9389.25 -9390.27 -9397.01 -9399.69 -9400.76 -9407.01 -9442.05 -9451.92 -9451.23 -9437.61 -9447.09 -9415.38 -9367.77 -9263.96 -9222.26 -9213.84 -9217.33 -9186.23 -9138.77 -8772.36 -7194.51 -6074.12 -5493.59 -5628.75 -6238.55 -6516.03 -6748.33 -5888.03 -4485.23 -2894.18 -1697.15 -423.13 -90.42 262.14 645.12 2648.20 3866.24 5437.17 5472.82 4888.67 3263.93 1036.89 345.41 53.71 -661.02 -1588.60 -3749.62 -5192.93 -5227.45 -5102.32 -5055.88 -5088.26 -5118.64 -5116.20 -5103.08 -5092.40 -5086.23 -5086.31 -5085.61 -5085.81 -5111.85 -5167.46 -5198.34 -5212.09 -5215.79 -5213.84 -5211.28 -5193.68 -5153.50 -5138.71 -5134.49 -5134.78 -5134.95 -5135.05 -5134.90 -5134.35 -5134.42
-11042.66 -11042.59 -11048.81 -11049.05 -11079.18 -11065.37 -11013.69 -10769.16 -10348.23 -9642.35 -9459.49 -9366.86 -9301.55 -9283.63 -9249.42 -9222.47 -9199.22 -9198.11 -9195.70 -9193.20 -9195.12 -9251.39 -9327.98 -9354.32 -9350.72 -9346.64 -9340.19 -9332.48 -9241.59 -9183.52 -9155.06 -9151.94 -9158.00 -9157.87 -9171.59 -9256.38 -9320.66 -9344.84 -9347.00 -9359.61 -9375.29 -9376.89 -9299.00 -9256.92 -9254.69 -9253.79 -9256.05 -9256.91 -9259.67 -9266.35 -9251.32 -9246.29 -9263.79 -9253.97 -9248.23 -9266.78 -9314.16 -9385.54 -9393.55 -9391.08 -9399.10 -9410.86 -9405.52 -9392.56 -9397.98 -9400.92 -9405.21 -9408.31 -9408.53 -9408.52 -9413.02 -9406.60 -9398.56 -9393.41 -9385.43 -9379.77 -9333.68 -9273.40 -9257.75 -9249.99 -9253.10 -9223.13 -9059.05 -8631.95 -6992.19 -5717.44 -5214.99 -5546.01 -6186.21 -6749.03 -6739.13 -6127.50 -5196.24 -2344.10 -1056.95 -140.57 62.64 279.45 605.37 1784.89 2665.51 4716.57 5239.20 3587.79 2965.84 1122.88 285.92 -293.16 -1015.98 -2852.89 -4890.74 -5185.25 -5225.18 -5159.58 -5139.75 -5140.12 -5154.20 -5152.98 -5140.12 -5084.51 -5076.85 -5074.81 -5074.50 -5075.75 -5091.69 -5174.10 -5227.40 -5227.20 -5231.73 -5232.09 -5233.53 -5217.39 -5171.31 -5140.66 -5134.68 -5134.32 -5134.49 -5134.47 -5134.28 -5133.78 -5133.86
-11042.01 -11043.29 -11053.20 -11071.04 -11086.47 -11094.39 -11062.55 -10898.75 -10392.77 -9948.35 -9688.15 -9605.51 -9591.25 -9391.66 -9309.19 -9225.40 -9202.45 -9197.30 -9194.35 -9191.83 -9204.97 -9247.69 -9330.12 -9364.01 -9360.46 -9356.49 -9348.95 -9338.54 -9260.05 -9163.79 -9151.13 -9147.75 -9146.51 -9148.02 -9166.65 -9250.59 -9346.98 -9359.23 -9373.80 -9385.35 -9393.53 -9394.80 -9331.73 -9238.90 -9237.05 -9241.67 -9248.68 -9250.64 -9250.57 -9244.70 -9241.57 -9238.44 -9232.57 -9229.21 -9229.32 -9257.05 -9340.94 -9391.30 -9402.77 -9405.10 -9412.44 -9416.54 -9416.77 -9404.68 -9399.38 -9408.11 -9408.98 -9410.33 -9410.72 -9409.48 -9403.08 -9397.95 -9390.88 -9384.62 -9374.63 -9366.36 -9320.45 -9294.27 -9264.86 -9261.87 -9256.41 -9226.34 -9169.25 -8545.97 -7009.03 -5681.93 -5303.24 -5767.14 -6022.62 -6192.65 -5902.69 -5041.63 -3478.55 -2520.27 -1374.55 -45.01 56.98 314.54 1407.08 3855.65 2672.45 5403.40 5001.91 2884.93 1651.34 639.00 80.68 -440.40 -1522.01 -3265.81 -4923.60 -5277.94 -5215.64 -5176.12 -5154.64 -5146.40 -5154.18 -5154.11 -5126.59 -5089.56 -5077.22 -5073.84 -5072.60 -5074.72 -5085.13 -5193.97 -5227.39 -5241.75 -5242.38 -5241.39 -5239.79 -5221.98 -5175.37 -5143.85 -5135.10 -5134.21 -5133.81 -5133.53 -5133.69 -5133.15 -5133.23
-11035.22 -11035.14 -11050.10 -11065.61 -11082.55 -11094.75 -11091.82 -11046.82 -10734.30 -10466.39 -10243.13 -10133.33 -9978.28 -9715.59 -9423.41 -9279.94 -9218.96 -9202.64 -9195.84 -9193.99 -9196.01 -9239.70 -9365.89 -9367.69 -9365.53 -9357.85 -9351.74 -9343.58 -9249.41 -9182.76 -9146.28 -9141.14 -9139.54 -9141.42 -9153.50 -9237.71 -9331.41 -9352.52 -9366.42 -9375.39 -9385.97 -9378.45 -9311.62 -9232.14 -9233.37 -9240.06 -9244.94 -9249.12 -9249.82 -9245.45 -9242.18 -9238.05 -9234.36 -9229.75 -9228.11 -9245.20 -9338.66 -9397.11 -9403.09 -9406.90 -9410.77 -9415.05 -9416.18 -9400.14 -9398.85 -9403.93 -9408.96 -9409.96 -9410.73 -9408.49 -9401.56 -9396.35 -9392.44 -9383.22 -9378.23 -9364.07 -9342.59 -9296.09 -9275.84 -9263.28 -9256.63 -9233.44 -9148.80 -8727.08 -6844.84 -5678.71 -5471.50 -5378.12 -4626.28 -4183.94 -4059.12 -3557.58 -2276.82 -1461.50 -644.76 -30.52 157.95 379.42 918.95 2718.43 3689.03 5136.79 5644.28 3902.39 1599.11 614.96 78.01 -287.84 -1022.72 -3482.90 -5065.25 -5257.34 -5224.79 -5173.90 -5162.26 -5145.16 -5145.49 -5145.06 -5119.42 -5090.39 -5080.99 -5074.90 -5074.21 -5078.62 -5100.81 -5212.08 -5238.73 -5242.14 -5240.98 -5239.90 -5238.58 -5228.52 -5179.08 -5140.24 -5134.81 -5133.80 -5133.46 -5132.86 -5132.43 -5131.71 -5131.79
-11028.91 -11028.83 -11044.76 -11061.96 -11078.23 -11090.95 -11099.80 -11044.94 -10911.12 -10769.31 -10750.02 -10686.34 -10526.36 -9921.01 -9759.45 -9386.25 -9241.16 -9234.27 -9202.27 -9195.77 -9206.56 -9256.01 -9338.76 -9370.36 -9368.51 -9360.37 -9356.46 -9324.69 -9258.16 -9176.11 -9140.69 -9137.06 -9132.58 -9131.92 -9154.24 -9238.92 -9319.53 -9346.16 -9355.04 -9364.38 -9375.02 -9374.62 -9277.32 -9231.03 -9226.94 -9236.20 -9241.94 -9247.79 -9248.83 -9246.70 -9242.88 -9239.38 -9236.22 -9231.05 -9229.31 -9262.17 -9346.44 -9387.28 -9403.19 -9405.55 -9409.27 -9411.97 -9412.09 -9398.98 -9395.77 -9402.51 -9408.20 -9410.18 -9410.52 -9408.10 -9402.14 -9397.55 -9391.40 -9385.92 -9379.39 -9374.36 -9351.05 -9303.20 -9281.92 -9270.92 -9255.20 -9238.90 -9157.14 -8678.92 -7060.97 -6067.16 -5614.53 -3986.92 -3474.23 -3097.92 -2146.26 -2091.18 -1859.86 -1023.20 -281.92 32.40 246.77 439.43 1954.69 4060.76 5594.31 6447.08 5620.35 4137.98 1578.13 380.12 22.47 -308.42 -1774.30 -4339.73 -5093.10 -5233.23 -5210.82 -5175.77 -5159.78 -5147.74 -5144.61 -5143.37 -5130.60 -5095.04 -5081.64 -5076.14 -5074.94 -5077.66 -5108.05 -5190.81 -5236.54 -5239.98 -5240.15 -5239.43 -5236.99 -5214.39 -5169.09 -5144.17 -5133.68 -5133.32 -5132.66 -5132.00 -5131.61 -5130.54 -5130.62
-11021.86 -11021.78 -11037.91 -11053.21 -11068.47 -11084.56 -11095.71 -11073.37 -11008.89 -10953.92 -10951.09 -10963.51 -10833.08 -10576.29 -10036.80 -9729.92 -9397.50 -9287.38 -9246.01 -9210.02 -9211.16 -9275.89 -9343.22 -9368.37 -9366.32 -9352.84 -9351.15 -9328.77 -9254.56 -9161.51 -9143.29 -9138.09 -9131.49 -9130.86 -9154.60 -9235.52 -9318.89 -9335.14 -9344.97 -9357.67 -9373.19 -9365.37 -9277.92 -9229.69 -9221.67 -9233.74 -9240.38 -9248.40 -9251.68 -9249.21 -9254.80 -9246.95 -9245.03 -9236.82 -9235.98 -9272.41 -9353.46 -9396.22 -9400.90 -9402.90 -9407.37 -9410.81 -9405.65 -9401.86 -9396.89 -9403.21 -9408.15 -9411.01 -9410.80 -9408.19 -9401.08 -9395.04 -9390.61 -9384.70 -9380.39 -9373.35 -9355.65 -9327.99 -9300.73 -9274.75 -9279.49 -9272.47 -9169.84 -8695.26 -7687.95 -5885.37 -5116.54 -2943.97 -2056.66 -2240.12 -1752.00 -1310.10 -922.11 -550.96 -140.95 130.01 359.40 1429.29 5008.90 3892.67 5281.41 6886.70 5659.23 4582.94 1557.23 247.95 97.71 -444.74 -1744.12 -4131.99 -5218.44 -5218.08 -5203.86 -5177.61 -5161.95 -5146.08 -5144.14 -5145.14 -5139.67 -5102.70 -5082.44 -5077.96 -5075.82 -5081.10 -5097.67 -5212.82 -5232.91 -5238.87 -5240.21 -5239.45 -5232.37 -5214.62 -5155.91 -5141.11 -5133.63 -5132.44 -5131.83 -5131.10 -5130.71 -5129.79 -5129.86
-10999.68 -10996.97 -11006.97 -11024.50 -11041.32 -11064.38 -11073.15 -11055.48 -11009.97 -11004.00 -11013.48 -11000.77 -10962.77 -10901.73 -10486.21 -10199.99 -9885.34 -9449.26 -9338.36 -9281.53 -9261.19 -9303.56 -9323.82 -9339.21 -9324.51 -9319.83 -9318.12 -9309.71 -9237.49 -9185.45 -9170.97 -9142.91 -9153.63 -9159.62 -9169.68 -9248.25 -9299.01 -9328.65 -9336.53 -9349.41 -9363.69 -9350.70 -9286.98 -9229.62 -9232.23 -9241.97 -9250.27 -9254.29 -9268.29 -9283.88 -9316.53 -9347.84 -9335.60 -9344.55 -9303.12 -9312.30 -9388.58 -9394.40 -9399.53 -9401.29 -9404.64 -9407.23 -9411.03 -9402.22 -9405.89 -9410.97 -9411.80 -9412.71 -9411.73 -9408.88 -9397.32 -9390.19 -9388.00 -9382.79 -9378.13 -9369.93 -9360.52 -9340.37 -9319.63 -9316.78 -9313.91 -9336.31 -9277.11 -8522.18 -7131.99 -5697.80 -4239.24 -2321.55 -1699.46 -1372.20 -1300.93 -1130.68 -884.86 -296.04 47.09 232.38 388.12 562.70 2608.59 3033.62 5948.64 6628.22 5041.22 3489.89 1288.26 260.14 16.38 -510.34 -1398.42 -3360.32 -4303.55 -5160.87 -5174.44 -5173.84 -5158.11 -5146.07 -5139.09 -5136.42 -5127.71 -5103.97 -5086.56 -5081.01 -5080.63 -5084.41 -5111.44 -5178.53 -5233.80 -5237.31 -5238.88 -5237.66 -5235.65 -5216.38 -5165.31 -5137.57 -5133.63 -5131.52 -5130.77 -5130.22 -5129.55 -5128.59 -5128.66
-10954.46 -10954.38 -10975.44 -10989.55 -10998.64 -11014.63 -11026.91 -11030.02 -11024.19 -11026.74 -11035.14 -11041.98 -11034.26 -11003.49 -10939.26 -10678.98 -10138.30 -9771.86 -9557.94 -9435.43 -9356.88 -9337.40 -9286.87 -9275.64 -9282.00 -9277.96 -9268.37 -9261.08 -9234.89 -9216.33 -9216.51 -9199.96 -9188.76 -9199.51 -9198.14 -9249.67 -9312.06 -9322.36 -9329.18 -9342.13 -9353.29 -9357.38 -9284.28 -9252.10 -9249.62 -9256.77 -9267.73 -9277.57 -9295.52 -9353.73 -9418.90 -9410.19 -9415.71 -9409.86 -9401.38 -9406.18 -9397.15 -9397.03 -9397.79 -9398.42 -9399.84 -9404.30 -9409.92 -9407.68 -9411.73 -9415.60 -9417.66 -9416.73 -9414.75 -9410.07 -9397.48 -9385.68 -9381.32 -9379.72 -9372.81 -9362.16 -9352.14 -9340.45 -9341.19 -9345.29 -9450.83 -9530.00 -9400.45 -7823.29 -5988.55 -4394.47 -3235.10 -1070.67 -1098.41 -1095.43 -1121.02 -930.95 -603.64 -321.28 47.21 247.00 402.12 2136.79 4173.69 4793.50 5640.91 4706.65 3645.67 2681.39 376.64 230.29 -101.99 -345.18 -809.98 -1937.97 -3978.12 -4721.79 -5121.50 -5170.36 -5151.57 -5144.25 -5135.85 -5127.77 -5121.63 -5102.34 -5091.50 -5088.14 -5085.40 -5089.41 -5130.60 -5196.43 -5233.15 -5236.74 -5235.20 -5233.04 -5230.02 -5217.07 -5169.36 -5137.98 -5132.30 -5130.10 -5129.55 -5128.87 -5128.18 -5127.37 -5127.42
-10950.19 -10951.98 -10962.88 -10973.38 -10987.32 -11003.69 -11013.00 -11017.94 -11016.81 -11021.76 -11031.37 -11041.00 -11042.13 -11038.48 -11009.00 -11007.80 -10731.58 -10311.99 -9823.03 -9502.63 -9424.64 -9367.02 -9281.60 -9268.71 -9264.65 -9260.54 -9252.54 -9247.61 -9239.75 -9231.92 -9225.81 -9214.84 -9211.63 -9208.08 -9213.81 -9261.26 -9298.31 -9319.43 -9329.33 -9337.13 -9348.26 -9348.99 -9304.46 -9244.57 -9248.63 -9259.45 -9270.29 -9283.41 -9303.04 -9368.05 -9433.28 -9437.34 -9430.73 -9431.28 -9430.36 -9419.45 -9405.22 -9398.16 -9395.73 -9396.61 -9398.74 -9401.53 -9406.98 -9409.34 -9412.82 -9418.31 -9419.72 -9419.36 -9416.44 -9412.49 -9400.21 -9384.34 -9380.88 -9374.59 -9368.06 -9355.83 -9347.87 -9344.53 -9386.69 -9487.49 -9527.69 -9511.73 -9042.48 -6236.64 -4976.93 -3729.51 -1750.76 -898.44 -481.12 -796.18 -857.32 -809.09 -542.57 -197.12 -12.36 300.54 732.23 2095.14 3088.98 4613.75 5511.57 4236.18 3322.49 2893.70 360.70 210.66 -4.70 -311.99 -920.45 -1892.34 -2648.05 -4345.56 -5089.57 -5163.67 -5149.70 -5139.40 -5130.68 -5120.79 -5116.09 -5096.30 -5091.05 -5088.17 -5086.55 -5088.12 -5128.26 -5192.79 -5231.31 -5235.07 -5234.01 -5231.64 -5228.90 -5214.69 -5160.12 -5139.14 -5131.33 -5129.16 -5128.36 -5127.83 -5127.12 -5126.07 -5126.14
-10952.91 -10954.57 -10962.31 -10973.96 -10985.51 -10996.75 -11014.20 -11015.51 -11008.97 -11014.13 -11024.54 -11030.20 -11035.34 -11040.82 -11060.10 -11070.72 -10955.77 -10667.60 -10195.76 -9752.72 -9494.04 -9393.25 -9288.39 -9264.25 -9260.61 -9258.23 -9252.06 -9246.19 -9239.53 -9234.97 -9228.23 -9219.37 -9214.30 -9210.46 -9211.91 -9263.70 -9305.65 -9319.88 -9329.43 -9338.12 -9346.47 -9334.50 -9298.53 -9240.04 -9247.30 -9257.21 -9265.05 -9273.30 -9310.63 -9373.47 -9424.61 -9436.20 -9433.11 -9433.72 -9432.31 -9423.79 -9410.05 -9397.17 -9395.04 -9394.87 -9396.23 -9399.43 -9404.28 -9409.71 -9411.29 -9417.69 -9419.42 -9419.39 -9418.47 -9412.80 -9401.96 -9385.43 -9380.22 -9372.14 -9360.56 -9348.91 -9343.17 -9367.44 -9458.87 -9560.69 -9601.52 -7897.78 -6733.70 -4461.20 -3489.06 -2669.83 -1499.00 -390.43 -250.03 -695.73 -666.90 -606.90 -444.81 -207.60 153.52 333.24 1284.34 2970.70 4383.54 5484.22 5930.44 4195.46 2853.42 1689.10 346.00 190.98 36.70 -338.32 -932.36 -1620.05 -3296.34 -4173.70 -4897.85 -5146.27 -5149.93 -5138.19 -5123.88 -5116.55 -5112.49 -5095.89 -5088.66 -5086.94 -5085.94 -5089.07 -5124.55 -5203.19 -5230.28 -5233.40 -5232.79 -5230.27 -5226.27 -5204.80 -5164.51 -5136.46 -5130.11 -5128.53 -5127.31 -5126.33 -5125.75 -5124.75 -5124.82
-10957.00 -10956.94 -10963.69 -10973.37 -10985.33 -10994.98 -11008.19 -11010.39 -11001.38 -11006.67 -11015.80 -11023.26 -11027.32 -11038.05 -11061.81 -11102.99 -11078.68 -10928.69 -10601.79 -10089.59 -9587.21 -9393.50 -9317.02 -9264.37 -9257.24 -9255.14 -9250.41 -9245.87 -9239.55 -9235.85 -9229.01 -9221.95 -9215.94 -9212.51 -9217.73 -9238.99 -9309.40 -9320.31 -9331.73 -9338.17 -9346.38 -9343.03 -9303.56 -9237.49 -9239.89 -9251.42 -9258.72 -9270.62 -9300.81 -9375.17 -9419.74 -9434.34 -9433.70 -9433.00 -9428.48 -9422.43 -9407.79 -9397.60 -9394.29 -9393.02 -9394.70 -9397.13 -9401.52 -9405.82 -9411.50 -9414.70 -9419.51 -9419.48 -9418.86 -9413.26 -9398.76 -9386.44 -9376.85 -9366.11 -9347.96 -9338.13 -9346.09 -9361.50 -9502.09 -9149.19 -8931.28 -7669.67 -5393.31 -3118.36 -2731.30 -2283.11 -1419.10 -550.37 -456.02 -580.01 -545.93 -422.20 -269.49 -110.63 138.35 316.53 1392.78 3813.41 4629.79 7501.21 7721.21 5719.04 2681.74 1691.02 402.02 182.38 6.09 -293.49 -996.16 -1516.69 -2852.62 -4312.04 -4970.74 -5161.26 -5149.02 -5135.83 -5123.84 -5114.53 -5102.57 -5092.73 -5087.37 -5084.77 -5084.54 -5088.77 -5117.73 -5190.09 -5228.90 -5230.01 -5229.78 -5228.93 -5223.11 -5212.30 -5172.93 -5136.43 -5128.71 -5127.13 -5125.79 -5125.19 -5124.14 -5123.42 -5123.48
-10963.72 -10963.65 -10973.10 -10977.54 -10986.22 -10994.92 -11008.38 -11006.67 -10999.40 -10997.49 -11007.03 -11007.94 -11013.62 -11019.83 -11077.21 -11101.71 -11086.53 -11005.94 -10868.56 -10392.25 -9880.34 -9555.66 -9324.61 -9268.72 -9254.60 -9249.47 -9246.32 -9241.87 -9234.47 -9233.35 -9229.84 -9222.03 -9216.87 -9214.81 -9217.19 -9271.84 -9307.87 -9321.33 -9329.62 -9337.03 -9344.52 -9336.17 -9295.42 -9246.65 -9239.35 -9248.09 -9256.47 -9267.71 -9284.17 -9364.60 -9428.62 -9434.67 -9433.11 -9431.25 -9428.65 -9422.31 -9412.28 -9399.31 -9394.70 -9393.73 -9395.21 -9396.59 -9400.18 -9403.68 -9410.74 -9415.50 -9419.83 -9421.06 -9420.92 -9413.95 -9397.64 -9383.72 -9373.88 -9359.54 -9342.55 -9327.62 -9330.49 -9363.18 -9498.95 -8542.66 -7130.70 -5080.71 -3810.94 -2590.81 -2079.07 -1479.31 -1319.16 -809.77 -607.60 -615.99 -495.93 -289.92 -129.03 63.64 179.92 354.16 1373.63 3259.97 4685.78 7380.36 8352.09 5816.58 3620.10 981.20 473.97 232.99 -21.05 -300.54 -726.10 -1512.30 -2727.75 -3955.93 -4966.88 -5126.11 -5150.51 -5122.31 -5115.08 -5108.99 -5097.83 -5090.12 -5084.71 -5083.27 -5082.30 -5086.36 -5101.49 -5187.62 -5224.78 -5218.64 -5221.06 -5214.20 -5212.95 -5203.27 -5158.30 -5133.84 -5126.93 -5126.70 -5124.75 -5123.74 -5123.16 -5122.04 -5122.11
-10983.14 -10989.56 -10992.65 -10998.15 -11001.99 -11012.08 -11023.05 -11013.79 -10979.33 -10967.43 -10979.68 -10982.45 -10981.48 -10978.80 -10993.08 -11010.44 -11003.13 -10989.62 -10920.40 -10646.22 -10184.08 -9596.89 -9397.75 -9302.58 -9242.19 -9234.98 -9229.26 -9227.90 -9218.25 -9218.41 -9203.04 -9198.04 -9202.83 -9201.92 -9200.87 -9256.18 -9288.51 -9303.13 -9308.44 -9309.32 -9312.47 -9317.36 -9293.33 -9251.77 -9244.85 -9252.58 -9261.66 -9270.79 -9305.05 -9377.50 -9419.77 -9433.10 -9432.28 -9429.92 -9426.80 -9424.30 -9413.03 -9407.32 -9402.14 -9399.21 -9401.58 -9402.33 -9406.28 -9408.57 -9417.47 -9422.14 -9424.48 -9424.76 -9419.22 -9411.36 -9387.82 -9371.20 -9360.51 -9349.82 -9336.27 -9324.69 -9281.39 -9206.49 -8950.19 -7917.21 -5640.72 -4263.41 -3207.67 -2298.01 -1615.28 -1287.08 -1067.52 -782.92 -538.63 -505.62 -331.03 -209.78 -6.49 116.76 207.01 308.27 2172.97 3140.30 4206.59 6974.71 7416.40 4821.90 2277.00 788.27 463.30 222.97 13.49 -268.30 -684.80 -1510.99 -2138.52 -3157.53 -4235.91 -4721.15 -4916.57 -5105.48 -5107.84 -5097.17 -5091.30 -5083.70 -5080.35 -5081.23 -5080.72 -5080.23 -5105.81 -5131.43 -5153.81 -5164.03 -5174.66 -5182.19 -5172.33 -5172.21 -5147.99 -5128.38 -5125.42 -5124.44 -5122.96 -5122.18 -5121.47 -5120.64 -5120.69
-11013.82 -11012.95 -11013.51 -11017.15 -11028.57 -11036.24 -11041.80 -11031.67 -10952.83 -10945.69 -10951.24 -10957.35 -10959.85 -10957.64 -10942.54 -10908.31 -10922.24 -10910.63 -10887.78 -10755.98 -10458.94 -9851.60 -9502.85 -9330.57 -9234.54 -9217.13 -9212.84 -9210.64 -9197.26 -9185.59 -9185.45 -9181.52 -9176.67 -9177.68 -9188.76 -9220.15 -9249.66 -9263.72 -9277.16 -9289.48 -9288.45 -9290.67 -9267.66 -9252.31 -9252.45 -9259.05 -9267.05 -9275.34 -9287.76 -9378.67 -9414.85 -9430.44 -9430.24 -9428.89 -9426.76 -9424.01 -9419.59 -9414.07 -9412.80 -9412.33 -9411.75 -9412.08 -9413.32 -9414.95 -9420.32 -9424.99 -9426.44 -9425.27 -9422.16 -9412.74 -9369.62 -9355.74 -9352.36 -9356.22 -9362.81 -9354.28 -9252.78 -8807.82 -8428.14 -7361.89 -5287.84 -3745.67 -2641.64 -1965.83 -1417.70 -1097.82 -885.94 -766.45 -517.49 -289.62 -225.62 -49.86 60.48 123.64 240.29 329.76 2699.84 3906.93 4751.46 6647.29 6674.69 3304.33 2020.42 897.00 462.56 196.51 101.35 -231.93 -529.47 -1158.77 -1955.65 -2609.88 -3315.18 -4134.81 -4764.32 -5093.94 -5098.18 -5089.07 -5081.22 -5076.05 -5075.23 -5077.87 -5078.45 -5078.34 -5088.66 -5100.15 -5112.32 -5112.07 -5125.61 -5106.89 -5109.90 -5105.18 -5118.01 -5124.11 -5123.13 -5122.17 -5121.76 -5121.09 -5120.43 -5119.18 -5119.24
-11023.59 -11024.56 -11026.53 -11030.37 -11035.21 -11041.09 -11042.71 -11014.99 -10952.80 -10939.11 -10940.97 -10943.84 -10946.16 -10946.07 -10928.50 -10894.59 -10887.47 -10883.59 -10876.71 -10816.40 -10684.44 -10182.10 -9775.07 -9379.45 -9233.78 -9209.89 -9204.22 -9200.63 -9188.39 -9179.33 -9176.55 -9175.53 -9174.86 -9176.41 -9178.49 -9226.42 -9248.43 -9264.53 -9270.97 -9279.37 -9285.86 -9287.83 -9268.19 -9254.45 -9258.65 -9264.24 -9272.70 -9274.86 -9312.69 -9386.32 -9422.44 -9430.12 -9429.83 -9428.55 -9426.29 -9423.40 -9421.63 -9416.79 -9414.12 -9411.83 -9409.97 -9410.92 -9412.56 -9413.88 -9419.04 -9423.42 -9424.37 -9422.54 -9420.42 -9407.07 -9368.09 -9355.22 -9358.01 -9377.66 -9394.29 -9355.74 -9091.44 -8215.15 -7354.89 -5860.13 -4383.27 -3023.87 -2353.38 -1826.03 -1392.91 -1000.40 -814.13 -625.74 -441.94 -244.61 -2.51 47.62 113.93 189.97 243.31 325.75 2570.91 5030.93 4089.66 7065.98 6984.81 4368.60 4566.84 2992.37 345.88 202.36 87.11 -132.69 -616.14 -1335.10 -2160.02 -2272.87 -3516.00 -4481.20 -4852.29 -5005.51 -5072.86 -5076.41 -5070.15 -5067.99 -5072.90 -5075.33 -5075.58 -5075.35 -5077.25 -5088.46 -5092.17 -5090.16 -5091.82 -5093.00 -5088.59 -5097.39 -5108.50 -5121.55 -5121.64 -5121.04 -5120.59 -5119.81 -5118.90 -5117.72 -5117.79
-11030.61 -11030.55 -11030.69 -11034.49 -11038.18 -11044.30 -11045.00 -11017.11 -10944.24 -10938.51 -10937.82 -10940.27 -10941.67 -10941.54 -10921.17 -10887.54 -10882.82 -10881.15 -10879.37 -10862.70 -10786.05 -10521.93 -10226.63 -9550.88 -9311.59 -9224.81 -9201.00 -9197.79 -9183.85 -9178.04 -9175.06 -9174.08 -9173.72 -9174.77 -9181.29 -9199.43 -9220.69 -9254.66 -9261.85 -9274.12 -9282.64 -9292.04 -9273.51 -9259.21 -9263.16 -9269.20 -9275.08 -9281.30 -9288.16 -9392.44 -9421.87 -9427.80 -9429.74 -9427.89 -9424.84 -9418.85 -9419.71 -9413.53 -9412.29 -9407.84 -9406.76 -9406.15 -9406.38 -9406.38 -9412.38 -9417.50 -9420.79 -9421.37 -9421.11 -9414.73 -9358.14 -9359.04 -9395.35 -9416.96 -9369.29 -8937.27 -8459.61 -7548.42 -6051.23 -4862.10 -3731.94 -3176.99 -2098.06 -1799.27 -1304.31 -986.70 -646.11 -435.99 -247.49 -107.08 18.06 125.37 165.75 210.68 255.44 359.60 1795.07 4265.98 2930.34 5628.17 7300.12 5523.87 5382.57 4335.29 365.36 248.81 149.93 -117.10 -574.73 -1271.20 -1931.98 -2537.20 -3350.84 -4304.50 -4725.08 -4970.39 -5061.40 -5071.47 -5063.90 -5063.65 -5068.24 -5071.84 -5073.28 -5073.46 -5074.89 -5084.78 -5087.59 -5088.18 -5087.56 -5086.91 -5086.36 -5091.60 -5110.57 -5119.81 -5120.00 -5119.27 -5118.78 -5117.48 -5117.24 -5116.26 -5116.33
-11037.45 -11037.39 -11037.58 -11041.99 -11044.01 -11046.66 -11046.72 -11026.26 -10961.93 -10935.88 -10935.24 -10936.95 -10937.41 -10934.56 -10923.00 -10886.02 -10874.40 -10877.59 -10877.43 -10874.02 -10836.99 -10723.55 -10302.52 -10074.28 -9436.29 -9247.88 -9201.21 -9189.05 -9183.77 -9175.01 -9170.01 -9160.20 -9160.88 -9156.09 -9129.82 -9156.85 -9153.24 -9128.69 -9166.25 -9182.36 -9252.46 -9254.58 -9248.31 -9245.96 -9263.18 -9265.08 -9276.31 -9279.36 -9295.76 -9385.04 -9416.98 -9429.36 -9425.62 -9426.92 -9420.72 -9414.87 -9412.00 -9410.78 -9409.96 -9404.63 -9402.22 -9400.63 -9401.49 -9401.72 -9407.21 -9409.10 -9410.82 -9418.56 -9415.80 -9394.07 -9368.54 -9373.67 -9409.13 -9360.74 -9329.01 -8153.79 -6478.62 -5708.55 -4688.11 -4305.37 -3457.17 -2785.38 -2340.77 -1738.88 -1402.22 -938.26 -557.98 -268.72 -76.25 2.86 61.81 150.73 192.73 223.16 255.59 299.32 769.93 1961.70 2724.73 7095.93 7050.14 5525.46 2968.78 3153.73 404.33 296.97 196.66 30.86 -395.83 -988.41 -1405.28 -2283.34 -3343.31 -4302.61 -4782.01 -4989.10 -5060.12 -5066.55 -5062.86 -5061.58 -5067.39 -5072.60 -5073.27 -5073.85 -5078.46 -5084.89 -5092.54 -5091.86 -5091.05 -5090.49 -5087.97 -5092.46 -5115.28 -5117.52 -5117.58 -5117.93 -5117.58 -5116.47 -5115.66 -5114.81 -5114.85
-11044.10 -11044.03 -11045.60 -11046.72 -11047.47 -11049.58 -11047.74 -11036.91 -10953.86 -10938.91 -10936.54 -10939.67 -10939.07 -10935.47 -10918.15 -10881.36 -10871.30 -10874.16 -10877.00 -10877.09 -10872.25 -10820.33 -10617.41 -10002.89 -9440.20 -9239.48 -9188.95 -9178.06 -9146.13 -9017.31 -9036.66 -9105.50 -9034.99 -9045.53 -9005.27 -8828.78 -8538.59 -8729.67 -8724.44 -8743.80 -8968.07 -9063.84 -9108.63 -9157.98 -9164.19 -9192.13 -9217.11 -9240.22 -9289.12 -9341.57 -9398.55 -9396.95 -9409.24 -9391.88 -9413.19 -9390.41 -9401.90 -9404.73 -9399.73 -9386.05 -9389.42 -9390.14 -9388.54 -9379.18 -9378.55 -9388.53 -9391.61 -9372.29 -9372.62 -9355.45 -9169.36 -9247.53 -9353.27 -9137.79 -8210.68 -6584.37 -4730.11 -3262.94 -2977.86 -3024.53 -2881.01 -2507.89 -2012.19 -1703.75 -1242.62 -950.77 -542.58 -208.43 -41.52 74.79 132.73 189.56 222.02 236.16 253.35 290.60 1810.73 3329.11 3817.56 6581.17 7109.94 5630.16 2673.80 3691.71 1900.47 421.77 179.78 65.36 -149.66 -672.28 -1132.85 -1928.23 -2854.39 -4229.34 -4783.39 -5011.05 -5060.35 -5062.49 -5064.52 -5065.52 -5072.75 -5076.27 -5076.82 -5082.21 -5087.28 -5091.34 -5096.90 -5098.56 -5098.16 -5100.23 -5099.28 -5099.74 -5110.50 -5115.39 -5116.24 -5116.40 -5115.57 -5114.91 -5114.62 -5113.30 -5113.37
-11052.96 -11053.79 -11052.77 -11052.89 -11051.23 -11053.46 -11053.00 -11030.61 -10977.52 -10965.94 -10978.18 -10972.80 -10972.82 -10977.31 -10950.83 -10886.50 -10883.13 -10887.19 -10888.09 -10887.11 -10882.69 -10830.95 -10599.56 -10223.22 -9466.79 -9132.88 -9129.34 -9112.32 -8995.24 -8791.31 -8748.02 -8849.64 -8434.59 -8305.25 -8098.40 -7734.23 -7019.32 -6858.46 -7116.86 -7317.21 -7584.95 -7392.63 -8285.58 -8900.00 -8759.34 -9038.68 -8978.29 -9004.91 -8974.49 -9203.39 -9275.72 -9278.66 -9370.58 -9316.41 -9287.11 -9321.07 -9349.37 -9338.25 -9343.93 -9337.11 -9331.25 -9325.61 -9311.57 -9268.64 -9271.32 -9266.23 -9251.35 -9270.41 -9268.33 -9201.40 -8628.49 -8758.26 -8693.65 -7767.62 -7519.82 -4516.65 -3254.12 -2419.40 -1841.18 -1959.57 -1778.01 -1471.27 -1272.69 -1334.61 -815.01 -724.68 -431.86 -220.03 -27.10 98.42 194.90 213.02 230.28 242.52 266.34 311.47 1403.94 1594.59 2639.00 5218.05 7542.49 7092.37 4587.65 3722.16 2390.34 1001.71 314.43 178.34 62.52 -117.18 -473.73 -1538.85 -2452.86 -3922.57 -4729.66 -4998.06 -5059.41 -5062.35 -5065.03 -5069.21 -5073.12 -5080.83 -5084.63 -5086.93 -5091.47 -5097.67 -5099.31 -5102.88 -5106.28 -5107.03 -5107.72 -5110.59 -5114.95 -5115.19 -5114.79 -5115.16 -5114.14 -5113.12 -5113.19 -5111.81 -5111.88
-11062.36 -11062.30 -11059.88 -11058.76 -11059.67 -11061.21 -11058.53 -11045.59 -11017.18 -11008.51 -11004.93 -11004.40 -11004.07 -10999.93 -10965.63 -10903.30 -10893.69 -10896.86 -10901.68 -10902.68 -10886.26 -10807.16 -10608.90 -9828.30 -9118.96 -8635.67 -8812.66 -8872.40 -8611.25 -8467.90 -8287.89 -7992.26 -7801.25 -7483.70 -6979.43 -6235.30 -5727.75 -5710.19 -5833.98 -5744.10 -6029.38 -6550.60 -6765.52 -7790.46 -8023.83 -8358.25 -8811.69 -8735.18 -8813.24 -9006.03 -9186.68 -9171.93 -9154.09 -9157.11 -9163.51 -9176.20 -9255.90 -9298.47 -9289.86 -9276.85 -9274.27 -9265.99 -9260.76 -9173.65 -9136.17 -9163.39 -9149.02 -9178.51 -9090.67 -8893.09 -8279.91 -7657.87 -7433.73 -6448.94 -4851.19 -3512.70 -2248.38 -1151.21 -846.58 -1158.92 -770.20 -638.74 -605.31 -364.50 -452.81 -357.44 -30.81 -104.44 -20.29 204.16 219.13 243.61 250.32 263.48 296.77 360.48 1243.03 2293.76 4160.77 6673.56 8216.09 8540.55 5378.45 3863.03 2222.17 1103.58 466.07 261.26 184.49 15.34 -432.75 -1147.12 -2424.17 -3694.21 -4661.25 -4966.27 -5039.92 -5069.37 -5069.80 -5071.20 -5077.34 -5081.35 -5086.72 -5090.54 -5092.84 -5097.94 -5100.75 -5105.20 -5107.02 -5109.10 -5111.90 -5112.81 -5114.75 -5114.82 -5113.59 -5113.24 -5112.83 -5112.38 -5111.61 -5110.32 -5110.39
-11066.52 -11066.29 -11064.84 -11063.48 -11062.31 -11061.92 -11060.89 -11042.61 -11019.74 -11008.42 -11007.33 -11005.55 -11003.75 -11000.16 -10948.49 -10902.41 -10891.20 -10893.64 -10895.96 -10895.03 -10873.91 -10689.29 -10007.76 -9147.35 -8115.31 -8031.62 -7984.01 -8388.10 -8190.50 -7986.90 -7773.69 -7196.53 -6733.41 -6504.71 -6213.69 -5616.51 -5219.58 -5133.09 -5225.73 -5251.34 -5407.78 -5487.87 -6032.46 -6799.05 -7448.23 -7758.14 -8239.01 -8552.86 -8670.21 -8754.47 -8980.01 -9055.10 -9119.48 -9104.14 -9129.29 -9143.23 -9230.37 -9273.56 -9274.20 -9266.25 -9262.41 -9254.12 -9242.38 -9139.02 -9108.14 -9095.67 -9093.15 -9078.50 -9033.76 -8586.99 -7437.51 -6863.13 -6321.13 -5605.25 -3799.58 -2688.40 -1240.70 -704.54 -437.20 -577.69 -292.59 -126.50 -177.82 -41.28 119.86 192.06 186.61 213.32 197.77 269.86 264.15 273.38 287.30 304.15 336.29 382.08 651.00 2447.31 4562.93 5331.36 6896.62 8661.92 6497.17 3830.29 1590.19 1574.68 698.31 356.36 232.18 -121.00 -750.79 -1566.48 -2359.10 -3490.44 -4467.10 -4984.39 -5053.26 -5073.84 -5074.03 -5075.02 -5078.86 -5084.14 -5086.89 -5091.77 -5094.15 -5097.62 -5101.46 -5104.34 -5105.83 -5108.13 -5111.98 -5114.21 -5114.40 -5114.94 -5112.78 -5111.90 -5111.15 -5110.81 -5109.45 -5108.84 -5108.63
-11069.76 -11068.96 -11066.76 -11064.81 -11063.27 -11062.00 -11058.65 -11045.53 -11026.30 -11005.91 -11003.61 -11001.80 -11000.00 -10994.28 -10938.17 -10892.79 -10883.92 -10887.44 -10889.98 -10887.37 -10851.50 -10616.63 -9626.85 -8265.47 -7431.55 -7266.17 -7530.16 -7701.68 -7263.12 -7310.92 -7315.65 -6759.83 -6048.89 -5764.79 -5694.81 -5311.47 -4676.66 -4698.11 -4526.01 -4984.54 -4931.15 -5353.15 -5788.67 -6453.29 -6764.92 -7002.97 -7767.23 -8128.29 -8192.57 -8436.48 -8685.15 -8896.64 -8881.94 -9005.02 -9075.64 -9151.75 -9189.09 -9257.58 -9255.39 -9248.02 -9243.85 -9238.61 -9222.08 -9114.48 -9067.99 -9057.65 -8925.50 -8919.08 -8843.16 -8358.64 -7303.24 -6190.46 -5131.95 -3578.70 -2720.05 -1396.24 -611.48 -389.74 -238.68 -114.86 21.14 75.42 109.42 216.71 258.25 265.54 279.27 263.83 297.96 329.04 324.80 340.19 334.48 351.53 362.91 404.63 433.46 1042.92 1939.95 3486.14 4652.86 7352.35 6945.54 4396.25 3589.95 2919.38 1135.69 434.09 302.99 127.72 -1260.51 -1771.52 -2503.77 -3423.59 -4432.72 -4919.06 -5070.62 -5074.99 -5073.80 -5076.01 -5079.60 -5083.03 -5087.95 -5091.36 -5094.26 -5097.60 -5099.60 -5102.06 -5104.73 -5107.40 -5111.36 -5113.11 -5114.36 -5113.15 -5111.48 -5110.52 -5109.84 -5108.89 -5108.38 -5107.11 -5107.17
-11071.70 -11071.62 -11068.33 -11065.84 -11063.78 -11061.71 -11058.40 -11045.00 -11010.16 -11002.46 -11000.07 -10997.46 -10992.85 -10987.58 -10953.06 -10899.88 -10881.47 -10881.47 -10880.85 -10866.18 -10798.50 -10529.80 -9464.43 -8445.37 -7096.90 -6965.81 -6947.58 -7036.64 -6738.37 -6692.19 -6569.15 -6190.05 -5609.63 -4829.47 -4141.90 -3160.20 -3359.04 -3116.05 -3334.75 -3655.63 -4317.12 -5110.94 -5844.81 -6272.44 -6379.52 -6487.27 -6902.65 -7213.29 -7593.22 -7503.86 -7743.62 -8029.07 -8302.91 -8540.50 -8843.03 -8912.74 -9149.56 -9175.70 -9066.16 -9169.08 -9169.31 -9203.41 -9116.28 -8974.90 -8889.14 -8704.42 -8719.20 -8225.89 -7985.64 -7375.74 -6387.88 -5627.66 -4888.01 -3060.93 -2302.15 -1447.44 -623.52 -37.00 17.76 78.59 116.42 135.62 173.77 191.59 240.42 255.20 224.48 245.62 287.14 323.43 332.62 350.44 352.87 369.61 383.87 418.06 437.79 574.69 1673.62 3096.98 4251.91 7102.74 8155.11 7174.26 5450.39 3294.92 1475.23 953.72 572.35 157.98 -694.80 -1579.54 -2591.19 -3457.92 -4467.09 -4955.21 -5063.75 -5078.09 -5079.42 -5078.96 -5080.03 -5081.47 -5086.70 -5089.82 -5091.68 -5095.22 -5099.57 -5102.29 -5103.47 -5104.90 -5111.05 -5113.49 -5114.93 -5112.60 -5108.92 -5108.93 -5108.24 -5107.64 -5106.71 -5105.96 -5105.72
-11073.93 -11073.86 -11072.42 -11066.96 -11064.77 -11061.63 -11059.64 -11034.02 -11014.14 -10994.58 -10991.12 -10988.78 -10986.25 -10983.28 -10953.18 -10897.67 -10888.22 -10901.26 -10887.05 -10874.42 -10836.45 -10444.45 -9215.78 -8097.40 -7107.73 -6994.09 -7002.03 -6891.76 -6494.92 -6175.02 -6158.06 -5986.18 -4634.28 -3228.52 -2643.91 -1999.57 -1457.93 -1171.43 -1449.52 -1775.72 -1575.71 -3905.01 -5120.02 -6265.31 -5608.96 -6296.66 -6310.83 -6252.36 -6483.86 -6534.35 -6837.03 -7067.75 -7395.07 -7676.02 -7974.76 -8549.48 -8658.90 -8827.41 -8824.33 -8916.44 -8806.82 -8285.92 -8615.09 -8474.80 -8233.56 -7947.44 -8128.07 -7319.61 -7399.14 -6615.12 -5163.08 -4107.28 -2619.41 -2077.03 -1620.58 -1015.01 -261.28 25.61 114.68 136.25 146.25 158.18 168.46 177.19 190.59 209.09 190.95 202.36 250.92 293.13 316.62 340.16 366.58 375.82 411.79 435.90 461.78 501.28 901.90 2137.49 4654.20 6106.34 8545.40 7897.18 5865.76 3529.34 2068.46 1644.95 929.03 297.51 -125.66 -714.77 -1929.20 -3010.73 -4015.40 -4383.70 -4821.82 -5087.23 -5090.13 -5085.96 -5082.30 -5082.77 -5085.36 -5088.75 -5090.35 -5093.46 -5095.92 -5098.34 -5100.53 -5101.22 -5110.84 -5114.45 -5113.27 -5109.36 -5107.53 -5106.94 -5106.86 -5106.55 -5105.59 -5104.19 -5104.26
-11083.56 -11083.49 -11081.56 -11074.86 -11073.53 -11070.46 -11063.40 -11027.54 -10985.16 -10970.68 -10972.51 -10963.39 -10968.78 -10962.00 -10948.14 -10939.07 -10938.56 -10941.27 -10934.76 -10950.60 -10882.37 -10549.51 -9226.12 -8334.34 -7344.31 -7366.90 -7495.33 -7311.21 -6324.80 -5746.06 -5391.25 -4893.12 -4333.02 -1663.74 -963.00 -238.84 -260.06 1.81 -45.64 -319.66 -244.96 -492.36 -2756.70 -3299.48 -3186.43 -4041.49 -3789.10 -4325.26 -4274.28 -5159.49 -5553.72 -5184.35 -5055.13 -6437.76 -5863.31 -5949.74 -6527.59 -7044.18 -6932.56 -7073.72 -6633.08 -7178.43 -6680.44 -6938.30 -6441.72 -5704.83 -5237.64 -5550.82 -4992.67 -4719.89 -2974.01 -1862.58 -1309.06 -1170.53 -562.55 -145.32 68.52 163.10 151.26 154.99 157.32 159.43 162.17 166.02 170.06 178.16 186.27 197.64 219.51 258.92 295.43 324.94 364.36 409.49 428.06 454.39 478.82 502.64 912.95 1564.20 3769.44 5022.10 7052.75 7295.25 6697.85 4746.42 3219.15 1755.21 1131.88 454.91 -22.69 -799.06 -1480.02 -2866.61 -3610.53 -4134.23 -4722.93 -4979.99 -5100.27 -5091.91 -5086.68 -5084.75 -5086.59 -5087.87 -5088.35 -5090.22 -5086.78 -5086.93 -5099.62 -5089.43 -5079.96 -5092.57 -5099.44 -5103.56 -5104.69 -5105.02 -5105.27 -5104.24 -5103.58 -5102.74 -5102.81
-11088.30 -11087.64 -11085.40 -11081.28 -11078.11 -11074.70 -11070.77 -11026.44 -10983.77 -10956.57 -10953.25 -10946.88 -10942.62 -10942.22 -10960.68 -11004.53 -11018.94 -11019.32 -11019.46 -11008.89 -10929.87 -10748.71 -9835.86 -8752.49 -8677.29 -8295.56 -8616.05 -8555.75 -6383.09 -5423.92 -4642.74 -3796.35 -2820.55 -1052.40 -246.57 148.65 261.34 272.10 319.41 292.43 311.49 259.45 -588.35 -759.91 -528.79 -1414.35 -1939.22 -2374.45 -2622.64 -3475.11 -3738.95 -3905.78 -4283.49 -4224.05 -4362.08 -4733.83 -4801.93 -4785.38 -4984.02 -4745.70 -4737.40 -4930.02 -4631.01 -4969.11 -4514.86 -4193.35 -4375.61 -3705.19 -3723.18 -2971.48 -1589.30 -587.47 -357.13 -44.57 196.16 259.87 295.74 261.99 199.58 161.80 161.74 163.65 163.61 164.91 166.17 175.68 182.40 192.81 212.21 245.34 261.62 302.37 340.13 393.89 425.90 453.02 472.52 505.30 601.10 1502.74 2215.14 3385.77 4191.83 6135.38 7798.81 7245.75 5806.85 3247.56 2190.23 885.75 125.79 -553.61 -1623.96 -2378.76 -3357.14 -3635.31 -4272.73 -4989.59 -5115.08 -5103.26 -5093.27 -5088.00 -5087.95 -5088.32 -5089.10 -5083.94 -5073.13 -5056.12 -5049.34 -5046.23 -5053.84 -5053.58 -5094.77 -5100.42 -5103.49 -5103.84 -5103.83 -5102.92 -5101.88 -5101.31 -5101.37
-11086.02 -11085.72 -11083.56 -11079.47 -11078.40 -11072.03 -11065.68 -11038.45 -10980.40 -10956.76 -10946.01 -10942.04 -10938.66 -10937.15 -10969.68 -11006.82 -11021.77 -11022.79 -11020.65 -11018.86 -10978.80 -10819.85 -10347.32 -9967.53 -9857.74 -10129.88 -10043.51 -9437.07 -7140.17 -5344.46 -4738.07 -3332.08 -1657.06 -823.27 -208.14 74.14 260.13 368.70 384.62 326.56 316.44 297.33 268.91 260.74 261.12 123.33 -82.88 -169.37 -402.18 -1236.23 -2043.69 -1923.85 -3136.42 -4228.74 -4228.72 -4237.60 -4344.88 -4312.41 -4193.39 -4208.07 -4144.85 -4118.06 -4127.85 -4120.19 -3908.91 -3321.97 -3327.25 -2877.81 -2151.24 -1454.83 -799.15 -52.66 140.53 301.61 377.05 418.56 346.54 279.13 211.49 172.17 166.91 166.64 166.02 166.33 167.48 169.53 178.07 188.97 208.35 238.55 254.22 279.09 334.88 370.24 401.66 431.03 466.59 498.24 512.86 1148.70 2433.59 3090.64 3769.69 5511.88 6736.22 8337.39 6436.18 5066.76 3687.82 1100.57 211.44 -64.09 -483.24 -1251.03 -2064.84 -2543.95 -3984.10 -4900.09 -5126.97 -5111.96 -5096.31 -5089.59 -5089.33 -5089.86 -5089.62 -5071.34 -5041.51 -5027.24 -5025.87 -5025.26 -5025.19 -5037.18 -5082.94 -5101.82 -5103.10 -5102.88 -5102.08 -5101.70 -5100.93 -5100.19 -5099.96
-11081.50 -11081.49 -11079.43 -11077.47 -11073.77 -11070.65 -11064.26 -11028.67 -10958.85 -10950.53 -10942.40 -10938.86 -10934.05 -10934.60 -10959.03 -11011.95 -11018.82 -11015.84 -11015.77 -11012.93 -10995.39 -10930.13 -10782.26 -10673.04 -10683.73 -10714.65 -10526.23 -10189.24 -8752.55 -6647.02 -4580.17 -2535.89 -887.16 -511.38 3.87 138.05 301.26 348.85 438.65 405.91 375.29 319.16 346.46 322.62 325.36 305.53 269.91 253.43 51.85 -210.43 -224.57 -198.32 -518.28 -2007.73 -2065.05 -2320.15 -3821.13 -4238.56 -3787.34 -4006.34 -3967.50 -3997.11 -3994.34 -3274.76 -2738.14 -2029.06 -1786.20 -1579.48 -1126.48 -715.91 -284.16 203.30 313.39 367.40 415.18 464.92 385.50 278.96 199.62 171.62 170.20 169.41 166.96 166.65 168.13 169.40 175.36 186.55 204.66 226.23 248.09 262.96 307.92 349.42 385.70 419.49 456.68 479.42 498.49 507.55 1756.85 2590.69 3185.48 3904.78 4801.84 7354.10 7825.45 5953.56 4470.29 859.18 527.72 83.44 -123.82 -723.08 -1302.00 -2547.57 -4054.78 -4927.73 -5135.69 -5110.14 -5096.65 -5086.07 -5088.18 -5093.20 -5091.60 -5064.55 -5031.51 -5021.79 -5020.43 -5020.59 -5022.93 -5040.42 -5080.96 -5100.10 -5101.94 -5101.51 -5101.08 -5100.54 -5099.33 -5098.77 -5098.58
-11075.18 -11075.12 -11071.37 -11070.68 -11070.54 -11065.35 -11059.76 -11036.23 -10956.23 -10944.21 -10941.56 -10935.57 -10931.84 -10932.30 -10957.63 -11005.36 -11014.51 -11010.93 -11010.73 -11008.71 -10998.89 -10951.23 -10827.92 -10829.74 -10825.03 -10823.84 -10821.50 -10534.70 -9394.82 -8017.65 -5348.98 -2251.09 -735.45 -278.16 87.11 236.59 311.80 334.45 401.21 470.27 450.01 367.41 431.86 408.93 362.81 358.81 382.26 441.08 330.45 276.32 253.40 152.76 -16.69 -359.49 -780.16 -1142.32 -1996.11 -2930.28 -2712.00 -2929.61 -3143.99 -2923.00 -2608.21 -2162.03 -1580.97 -1056.62 -1255.98 -1136.83 -512.42 -127.86 158.36 327.06 481.33 482.09 436.70 400.04 374.43 268.76 185.52 172.89 169.41 166.57 166.30 166.23 166.73 168.18 170.61 177.04 191.75 220.51 243.60 257.45 285.62 332.83 365.00 391.39 435.65 461.90 479.62 500.11 728.01 1582.19 1883.97 2439.22 4556.72 6566.43 8181.50 5181.43 3240.47 3061.95 1856.35 324.11 -46.91 -505.68 -2049.14 -3262.80 -4234.53 -5040.10 -5136.48 -5109.78 -5094.14 -5083.54 -5087.43 -5093.38 -5093.69 -5060.28 -5030.56 -5020.54 -5026.00 -5022.44 -5026.79 -5041.44 -5079.14 -5098.33 -5100.36 -5099.82 -5099.28 -5098.79 -5097.65 -5097.08 -5097.15
-11062.07 -11063.36 -11060.04 -11056.04 -11048.40 -11058.58 -11042.60 -11015.14 -10961.54 -10939.00 -10929.69 -10923.50 -10920.96 -10926.18 -10940.80 -10994.93 -11004.36 -11005.41 -11003.28 -11001.04 -10985.79 -10945.33 -10801.17 -10757.80 -10763.07 -10794.15 -10796.14 -10662.32 -9641.41 -8165.42 -6306.85 -3734.24 -785.02 -194.17 152.69 257.61 315.83 338.12 383.03 467.50 489.12 418.11 508.74 588.36 513.57 509.25 631.55 617.27 432.60 291.92 271.94 249.08 243.62 190.59 105.94 -321.98 -316.15 -900.44 -954.54 -799.26 -1789.06 -1520.58 -1139.96 -1008.20 -453.44 -733.88 -735.27 -610.05 -335.08 61.59 297.68 446.01 454.22 423.96 323.98 319.33 310.26 245.54 196.37 170.93 167.87 167.21 165.92 166.14 166.73 166.90 170.25 177.42 194.94 223.27 247.03 256.28 278.53 314.17 329.98 383.38 410.85 425.95 446.19 491.43 500.74 682.50 1505.02 2996.88 3653.19 6070.90 7164.36 7551.35 5403.08 3782.17 2138.53 291.42 34.10 -395.80 -1359.55 -2244.33 -4290.49 -5067.37 -5132.52 -5109.43 -5077.08 -5078.70 -5081.27 -5092.17 -5089.59 -5077.28 -5053.70 -5039.16 -5044.85 -5054.24 -5041.19 -5052.18 -5083.55 -5095.09 -5096.96 -5097.78 -5098.05 -5097.39 -5096.81 -5095.93 -5095.70
-11009.46 -11009.44 -11006.22 -11017.61 -11023.60 -11016.97 -11017.92 -10977.17 -10926.74 -10887.17 -10899.09 -10893.39 -10885.18 -10889.51 -10908.24 -10987.51 -10995.63 -10992.62 -10991.25 -10985.92 -10967.66 -10786.97 -10558.19 -10457.09 -10498.84 -10601.43 -10555.29 -10269.61 -9102.16 -7943.39 -6444.66 -4174.72 -1150.62 -38.76 210.74 293.66 325.02 347.00 377.64 443.62 476.58 487.54 559.02 724.12 628.87 544.13 753.10 658.00 483.00 356.46 275.90 266.55 259.24 250.93 240.37 151.14 62.44 50.83 -61.92 -152.48 -179.35 -185.25 -255.84 -239.43 -144.70 -232.81 -303.86 -166.32 120.28 272.57 332.24 398.00 358.23 338.38 289.32 277.79 259.65 211.61 178.15 166.13 167.24 166.85 164.55 164.86 165.93 167.46 171.43 176.97 195.99 220.18 241.99 254.63 261.93 279.38 326.98 359.99 394.02 412.38 429.33 468.56 489.32 512.21 1403.07 1895.03 2555.36 4335.84 6195.45 6922.59 5226.75 3559.06 890.06 427.55 43.14 -320.67 -1324.73 -2688.77 -4407.93 -5057.27 -5119.72 -5079.06 -5036.16 -5034.86 -5043.08 -5056.16 -5076.05 -5084.75 -5084.09 -5082.20 -5094.41 -5078.75 -5092.29 -5081.95 -5093.18 -5095.35 -5095.22 -5096.49 -5096.33 -5096.04 -5094.89 -5094.19 -5094.26
-10978.88 -10978.82 -10978.27 -10978.30 -10976.04 -10975.38 -10969.13 -10936.61 -10868.88 -10864.21 -10858.90 -10855.56 -10853.18 -10858.65 -10892.83 -10958.13 -10983.42 -10981.81 -10975.33 -10973.22 -10937.86 -10648.02 -10326.62 -10267.72 -10263.87 -10289.10 -10227.85 -10148.13 -9249.36 -7864.83 -6306.21 -2931.45 -85.08 110.83 269.64 290.22 362.90 447.31 443.85 489.62 598.52 596.35 654.19 801.41 755.96 784.00 767.41 634.87 502.07 347.49 289.94 276.37 267.56 263.56 256.00 242.57 207.45 199.09 147.53 144.45 117.22 52.54 110.67 73.10 80.28 178.59 163.63 132.76 265.31 331.16 325.11 344.52 318.33 274.21 210.38 227.51 204.66 175.29 167.96 165.00 164.63 164.18 163.60 163.43 163.95 166.22 173.34 182.97 198.86 221.99 238.56 246.20 253.28 277.00 297.91 335.03 373.05 396.13 421.23 430.60 467.22 468.54 702.18 1625.15 3728.67 4535.96 5998.29 6211.63 5523.53 4192.56 1990.44 974.95 161.38 -164.59 -1005.58 -2631.75 -4512.15 -5019.93 -5122.39 -5077.09 -5001.37 -4962.93 -4968.35 -5000.65 -5055.06 -5089.62 -5098.40 -5098.78 -5099.08 -5098.36 -5094.21 -5091.28 -5095.76 -5095.55 -5094.16 -5094.60 -5095.32 -5094.48 -5093.66 -5092.76 -5092.83
-10967.62 -10967.56 -10965.56 -10966.66 -10968.44 -10968.14 -10961.94 -10935.15 -10866.12 -10856.45 -10852.70 -10851.22 -10848.15 -10851.86 -10887.85 -10959.32 -10979.39 -10978.68 -10975.18 -10966.30 -10941.98 -10625.23 -10362.11 -10247.91 -10242.68 -10235.28 -10202.47 -9808.88 -9258.16 -6665.68 -3863.15 -786.78 2.53 240.83 292.76 342.32 405.69 505.48 478.42 481.46 571.47 662.87 751.37 857.36 886.40 791.78 739.75 556.47 421.12 349.73 319.33 301.43 280.54 275.39 266.41 260.95 247.19 235.13 231.43 247.07 249.09 248.05 245.41 238.68 256.86 260.91 276.79 287.01 308.12 300.81 274.24 208.09 180.34 215.79 183.67 156.50 158.27 158.90 160.76 162.28 162.95 162.47 162.37 162.36 162.91 166.06 176.16 187.03 204.94 217.22 231.44 241.74 249.03 263.15 278.27 319.71 344.58 379.35 407.21 425.45 442.27 464.81 558.17 918.55 2831.84 3237.45 5072.87 6944.05 6313.69 3853.47 2556.65 1137.87 343.81 -149.82 -571.05 -2068.81 -3935.76 -4789.30 -5138.14 -5122.32 -5038.28 -4957.64 -4973.32 -4995.16 -5055.87 -5084.30 -5096.00 -5096.72 -5097.63 -5097.53 -5094.67 -5092.98 -5094.48 -5094.71 -5093.64 -5093.58 -5093.67 -5093.24 -5092.12 -5091.35 -5091.42
-10957.14 -10958.02 -10958.41 -10958.39 -10958.46 -10958.97 -10955.36 -10932.25 -10869.99 -10853.16 -10849.56 -10847.57 -10845.79 -10848.82 -10898.26 -10952.40 -10978.53 -10978.87 -10976.92 -10976.06 -10946.06 -10647.11 -10388.43 -10238.95 -10230.01 -10155.30 -10004.61 -8973.04 -7806.95 -5077.21 -1066.13 -749.53 -20.29 220.31 307.12 340.55 372.86 454.86 486.07 489.24 541.41 673.65 759.14 851.23 885.51 851.47 710.12 663.55 507.07 386.67 353.90 330.10 306.20 289.35 284.91 275.12 262.45 257.57 272.41 273.47 281.61 286.03 297.25 295.20 295.73 295.06 293.78 290.78 282.71 246.44 181.84 143.81 142.60 156.25 155.79 151.47 152.71 157.32 159.72 161.30 161.41 161.44 162.05 161.56 162.19 166.36 176.43 188.69 201.70 215.89 230.73 237.89 244.91 258.15 269.04 304.69 333.34 347.02 379.28 410.66 429.16 433.05 435.61 736.91 1640.30 2843.15 4239.97 6255.44 6687.67 4676.49 3647.06 2075.38 449.06 28.73 -362.82 -1226.21 -2420.50 -3721.75 -4844.37 -5140.74 -5046.13 -4949.10 -4952.86 -4990.65 -5028.91 -5090.55 -5099.38 -5098.19 -5096.03 -5095.17 -5094.44 -5093.52 -5092.99 -5092.47 -5092.78 -5093.24 -5092.40 -5091.69 -5091.30 -5090.24 -5090.02
-10945.62 -10945.56 -10945.44 -10948.23 -10949.68 -10949.67 -10940.91 -10923.14 -10870.25 -10846.90 -10845.68 -10844.05 -10843.62 -10857.12 -10916.62 -10952.14 -10978.76 -10980.83 -10980.81 -10980.99 -10957.31 -10718.69 -10350.89 -10230.82 -10096.38 -10019.84 -9732.12 -8568.08 -6688.83 -2119.82 -635.90 -3.07 262.04 291.60 301.72 368.66 385.64 514.21 516.47 578.72 569.44 599.04 681.41 776.41 875.20 891.27 839.11 719.61 616.17 501.34 420.62 373.42 332.68 327.42 313.32 307.01 312.22 302.46 292.00 309.88 367.33 402.09 364.53 352.56 342.22 307.25 296.29 276.18 248.73 177.31 128.88 126.98 130.58 146.74 151.64 151.57 151.23 153.70 157.34 158.72 158.88 159.74 159.38 160.43 162.03 163.68 169.64 181.24 205.22 220.47 230.77 238.22 246.45 256.08 269.08 293.08 315.51 338.45 369.32 386.44 406.95 409.77 422.90 583.48 1400.90 2305.29 2598.53 3945.23 5409.76 4694.94 3686.80 1815.79 579.88 64.10 -205.73 -909.97 -1532.35 -2967.84 -4715.91 -4956.12 -5069.60 -4983.46 -4961.24 -4987.04 -5023.29 -5092.83 -5093.53 -5093.66 -5094.85 -5093.83 -5093.90 -5094.03 -5092.81 -5092.18 -5092.59 -5092.34 -5091.67 -5090.67 -5089.54 -5088.58 -5088.65
-10932.39 -10932.33 -10929.08 -10934.26 -10935.01 -10938.49 -10933.59 -10916.16 -10881.37 -10874.36 -10868.41 -10854.81 -10850.60 -10853.48 -10894.06 -10965.49 -10977.99 -10975.67 -10976.50 -10975.65 -10938.94 -10646.02 -9957.26 -9988.67 -9641.59 -8938.97 -8498.09 -7482.68 -4787.97 -1165.00 -229.38 165.53 282.73 305.43 316.17 368.22 461.09 564.13 586.54 671.81 609.05 612.00 666.50 741.88 832.56 889.84 830.96 771.18 630.20 549.59 466.30 386.46 360.77 346.12 332.45 352.90 356.37 324.22 350.76 378.28 452.98 500.49 467.87 403.17 350.63 313.81 299.25 270.67 237.96 162.89 127.08 125.93 127.43 142.39 150.11 149.20 147.03 153.00 155.50 155.02 157.14 157.74 158.43 159.46 161.92 165.73 170.14 180.22 197.77 218.00 230.03 239.01 243.78 253.07 272.37 295.58 311.54 335.01 361.76 369.21 387.19 402.89 423.92 494.86 909.22 1576.48 3356.85 6038.40 7983.25 6299.61 2739.97 1346.55 428.28 195.22 -283.90 -791.37 -1667.82 -2858.16 -4088.80 -4851.19 -5076.27 -4971.42 -4956.40 -4988.92 -5043.44 -5080.21 -5091.72 -5092.36 -5093.32 -5093.22 -5093.97 -5093.80 -5093.32 -5092.34 -5090.97 -5090.88 -5090.30 -5089.20 -5088.44 -5087.22 -5087.29
-10910.55 -10910.49 -10913.30 -10914.74 -10917.22 -10918.77 -10923.39 -10924.52 -10912.47 -10913.58 -10908.62 -10893.84 -10913.53 -10908.10 -10920.11 -10946.27 -10943.83 -10933.50 -10943.45 -10923.26 -10833.58 -10216.50 -9389.21 -8867.88 -7852.12 -7791.20 -6131.34 -5288.17 -2490.40 -478.58 48.58 249.20 303.49 324.90 354.73 410.67 584.62 677.70 768.09 763.26 711.46 634.99 665.23 722.05 778.39 884.56 846.22 800.47 701.56 551.95 468.39 429.48 403.30 378.35 390.88 396.33 392.09 389.80 385.96 488.54 538.64 542.87 492.79 412.29 359.69 319.37 301.97 273.93 255.32 198.50 125.84 125.82 131.52 138.53 147.68 150.89 151.94 153.00 154.46 154.72 156.13 156.18 156.94 158.72 163.07 169.87 181.18 185.44 202.71 221.70 224.94 236.51 244.06 251.41 265.20 287.28 308.74 326.41 342.03 360.91 381.58 398.26 428.88 462.63 1181.02 2828.14 4092.82 5116.41 7595.47 6058.84 3557.68 1984.38 705.78 247.28 -217.70 -646.25 -1696.39 -3722.91 -4849.65 -5126.95 -5072.72 -4971.31 -4943.89 -4985.69 -5032.46 -5082.47 -5093.40 -5091.47 -5090.68 -5091.30 -5093.12 -5093.09 -5093.14 -5091.74 -5090.10 -5089.38 -5089.04 -5087.97 -5086.86 -5085.89 -5085.96
-10896.01 -10897.08 -10897.54 -10902.98 -10903.96 -10905.34 -10906.92 -10923.57 -10933.25 -10944.21 -10948.12 -10951.47 -10955.05 -10957.82 -10949.30 -10926.60 -10919.93 -10917.59 -10917.47 -10824.17 -10636.64 -9923.32 -8254.00 -7304.19 -6563.46 -5229.74 -4357.32 -2694.74 -1552.95 -603.99 -19.99 251.69 346.37 355.79 381.64 460.76 594.80 723.78 878.31 839.48 734.79 764.88 754.05 768.53 831.25 880.23 854.46 808.67 668.16 525.82 511.08 461.73 432.13 415.24 439.15 427.75 415.65 410.28 439.65 545.17 587.08 550.76 488.77 407.66 353.36 316.23 305.60 291.46 261.22 225.01 136.35 130.83 137.16 139.56 144.83 150.97 152.86 153.03 154.46 154.75 155.81 155.59 155.44 158.47 163.97 171.50 184.54 190.19 207.55 219.74 228.31 235.01 242.50 247.54 260.12 289.46 307.71 327.01 342.11 356.19 373.47 402.01 432.13 469.08 503.09 1670.02 3223.78 4919.58 6951.25 6968.13 5229.36 3715.42 783.19 288.70 44.92 -1038.01 -2147.84 -4306.01 -4861.09 -5127.66 -5067.14 -4937.61 -4948.87 -4976.89 -5049.89 -5087.88 -5089.82 -5090.29 -5089.88 -5090.82 -5090.85 -5091.22 -5091.92 -5091.77 -5089.63 -5088.89 -5087.87 -5086.84 -5085.76 -5084.62 -5084.69
-10886.59 -10886.52 -10887.78 -10890.32 -10889.97 -10897.68 -10899.18 -10909.81 -10930.97 -10941.99 -10947.32 -10952.98 -10957.81 -10962.06 -10948.07 -10907.32 -10894.13 -10868.64 -10666.07 -10613.21 -10124.82 -8788.08 -7382.07 -5978.61 -4924.03 -3937.89 -3150.31 -1662.25 -514.80 85.48 231.14 324.83 380.17 422.33 444.93 463.68 635.80 729.19 825.00 831.05 778.92 791.10 849.41 830.93 858.66 872.53 790.01 764.91 586.69 601.97 611.35 518.91 476.71 468.36 486.48 475.50 468.26 458.43 505.99 557.68 565.09 523.93 467.49 398.30 361.39 317.05 309.85 293.03 276.28 240.93 201.00 147.20 138.18 138.80 143.69 148.14 153.05 153.21 154.58 155.10 155.21 154.87 154.75 155.97 161.17 164.54 173.42 189.28 203.04 216.78 228.07 236.63 244.29 250.27 257.05 281.89 304.08 322.41 340.59 358.59 377.59 394.36 415.51 452.64 513.36 2484.74 3768.54 4863.36 6275.05 6019.15 4260.01 2382.07 1207.44 296.97 17.73 -958.97 -2080.02 -3792.64 -4706.37 -5107.32 -5011.91 -4937.70 -4940.23 -4988.27 -5028.53 -5084.69 -5088.66 -5088.69 -5088.18 -5088.48 -5089.30 -5090.68 -5091.20 -5090.68 -5088.82 -5088.09 -5086.87 -5086.05 -5084.50 -5083.41 -5083.48
-10879.66 -10879.59 -10879.86 -10882.78 -10884.82 -10887.84 -10890.09 -10909.42 -10927.37 -10940.12 -10945.51 -10949.55 -10957.25 -10951.15 -10915.90 -10850.25 -10687.76 -10521.20 -10152.95 -9539.94 -8878.20 -7857.83 -5918.60 -5087.40 -4612.29 -3283.74 -1783.98 -452.07 163.74 264.80 313.22 333.75 391.64 441.55 548.77 643.38 671.19 805.53 858.20 905.71 844.96 863.23 862.79 859.50 827.47 843.91 838.10 773.38 689.05 702.52 664.57 591.59 531.95 532.10 542.45 540.74 491.81 489.92 535.41 572.89 557.71 513.98 450.08 396.76 379.42 337.32 318.37 294.54 279.67 253.43 225.47 183.27 145.42 142.01 145.72 146.73 150.64 152.65 154.57 155.17 154.79 154.00 153.27 155.28 159.43 163.52 171.07 187.94 206.05 218.07 225.09 237.69 246.40 255.28 262.42 274.85 299.99 311.60 333.18 352.61 368.05 392.96 418.76 448.29 526.17 1873.75 2634.05 3538.79 6013.61 6889.07 3746.01 1755.20 646.44 255.80 -107.92 -925.30 -1677.58 -2797.57 -4596.89 -5084.39 -5026.64 -4951.87 -4945.28 -4986.24 -5038.31 -5080.81 -5084.98 -5084.51 -5085.96 -5087.98 -5088.42 -5089.34 -5090.31 -5089.56 -5088.24 -5086.86 -5086.05 -5084.52 -5083.37 -5082.28 -5082.35
-10875.76 -10875.89 -10876.82 -10878.70 -10881.93 -10884.32 -10890.19 -10905.79 -10928.57 -10936.52 -10942.61 -10938.85 -10921.37 -10882.76 -10822.56 -10490.97 -10106.53 -9314.07 -8766.40 -8538.88 -8407.86 -6920.55 -5120.84 -4620.90 -3415.62 -2016.76 -679.81 63.49 242.77 282.48 319.20 334.82 359.73 407.53 486.61 557.00 588.74 743.53 884.89 927.30 867.19 838.86 842.57 795.72 774.47 780.39 794.58 786.17 748.03 713.95 664.88 623.41 591.11 600.33 608.94 581.58 532.93 548.95 567.30 562.86 529.70 496.65 444.97 402.79 384.46 359.85 331.35 299.08 281.89 269.00 231.32 179.60 163.88 151.40 147.24 148.25 151.27 152.20 153.62 154.28 153.84 152.80 152.52 153.98 158.36 166.48 170.96 186.05 198.08 217.50 229.39 236.72 245.77 256.32 263.11 275.70 287.29 306.19 324.52 343.89 371.70 392.48 428.79 452.80 506.66 3189.49 4377.64 4949.03 6369.71 6315.39 3682.47 1941.90 652.95 247.06 -144.66 -783.44 -1328.24 -2268.57 -4645.69 -5072.12 -5041.26 -4972.80 -4950.80 -4988.70 -5043.53 -5074.49 -5079.59 -5082.90 -5084.54 -5086.31 -5087.09 -5088.44 -5089.70 -5088.09 -5087.35 -5086.68 -5084.36 -5083.09 -5082.05 -5081.16 -5081.24
-10880.90 -10880.82 -10888.59 -10886.86 -10889.61 -10890.01 -10895.33 -10908.30 -10910.81 -10920.19 -10904.37 -10871.39 -10808.82 -10538.82 -10008.96 -9433.75 -8622.34 -8217.37 -7678.51 -7387.57 -7081.06 -6455.51 -4966.25 -4091.09 -2811.53 -1899.08 -440.77 85.45 245.60 274.81 321.32 348.48 382.17 426.53 486.95 600.95 716.12 760.92 853.07 903.40 870.11 793.60 767.34 743.30 701.48 702.96 715.69 667.42 675.93 655.30 609.67 615.16 608.75 602.53 605.55 583.85 572.99 582.24 601.31 590.33 557.91 534.02 490.71 433.11 396.90 379.18 334.30 307.97 297.46 272.78 252.03 235.78 201.88 155.91 146.66 149.65 154.13 155.26 153.97 152.53 151.11 151.53 151.27 150.84 152.75 161.75 170.69 178.25 192.23 210.38 222.78 238.16 245.84 256.32 266.16 275.58 290.88 303.49 329.53 344.81 360.64 385.03 407.57 443.70 504.51 1836.71 3180.72 5629.33 7186.28 5482.39 3186.83 3039.49 1435.89 317.02 20.38 -254.63 -1581.09 -3609.46 -4984.22 -5069.26 -5049.13 -4999.88 -4989.41 -5009.01 -5058.24 -5069.44 -5078.94 -5082.95 -5084.09 -5085.66 -5086.91 -5087.83 -5089.21 -5087.02 -5086.36 -5085.37 -5083.79 -5082.23 -5081.56 -5080.21 -5080.10
-10924.31 -10924.20 -10921.17 -10920.32 -10919.53 -10923.66 -10925.85 -10922.84 -10896.98 -10880.09 -10826.10 -10601.12 -10171.76 -9972.98 -9313.87 -8443.23 -7853.88 -7279.14 -7025.34 -6984.31 -6880.07 -6262.43 -4659.79 -3618.90 -2827.78 -2178.40 -842.85 -137.53 231.20 291.02 332.36 370.64 452.89 459.66 470.11 521.41 627.26 688.90 781.42 900.40 865.41 782.65 721.02 690.39 666.59 645.10 627.09 609.70 600.98 576.57 577.06 578.39 575.80 572.35 584.12 606.46 621.03 637.21 644.44 625.54 635.46 623.30 531.76 477.09 451.83 396.78 362.09 336.07 315.97 285.44 269.16 248.79 204.29 159.24 151.54 151.16 154.01 154.47 153.80 151.59 149.98 149.90 149.46 148.13 148.15 152.94 160.97 173.76 189.10 201.91 213.22 233.32 244.29 252.62 266.71 275.75 287.25 297.62 315.26 323.74 353.48 371.04 387.59 419.48 1151.51 2251.97 3071.91 5774.47 7322.28 5985.67 4365.99 3094.58 430.74 252.19 -39.72 -619.14 -1961.36 -4404.36 -4967.99 -5061.13 -5042.39 -5026.28 -5020.34 -5038.07 -5055.60 -5067.09 -5077.34 -5081.61 -5083.69 -5084.77 -5086.09 -5086.78 -5086.72 -5086.22 -5085.62 -5084.74 -5082.73 -5081.70 -5080.10 -5078.89 -5078.96
-10948.95 -10948.85 -10948.88 -10946.18 -10949.69 -10951.44 -10943.79 -10930.93 -10882.50 -10794.50 -10663.35 -10284.74 -9423.83 -8484.08 -7481.41 -7291.80 -6932.46 -6890.23 -6892.32 -6896.63 -6835.83 -6229.97 -4793.42 -3187.89 -2768.43 -2363.25 -1732.60 -459.61 147.03 294.56 333.86 384.12 482.27 577.35 557.94 612.31 686.43 674.91 775.94 910.80 879.96 772.30 702.03 652.59 623.71 617.73 602.89 571.79 564.39 555.75 553.75 548.29 546.48 553.77 576.17 604.33 628.73 672.40 706.73 665.93 707.81 678.17 627.88 536.26 466.71 460.28 399.37 361.18 333.24 298.58 275.85 272.66 217.83 157.00 150.08 149.29 151.23 152.14 152.76 152.35 149.49 147.81 147.63 146.83 146.93 149.19 156.66 165.50 181.65 197.84 215.53 229.13 243.51 253.26 263.30 275.23 285.31 306.70 314.44 316.41 344.31 364.35 361.95 477.07 1986.45 2709.09 4671.77 6336.04 6145.13 4630.77 3862.93 1639.95 538.07 263.25 -69.37 -768.51 -1260.87 -4474.19 -4877.94 -5041.73 -5042.27 -5031.71 -5031.73 -5042.86 -5056.58 -5066.86 -5073.94 -5077.26 -5080.33 -5083.48 -5084.24 -5084.52 -5084.85 -5085.68 -5084.86 -5083.11 -5081.54 -5080.67 -5079.23 -5077.84 -5077.92
-10965.09 -10964.70 -10962.06 -10948.92 -10943.44 -10936.39 -10870.11 -10841.21 -10721.02 -10599.24 -10301.93 -9728.36 -8254.38 -7484.79 -6798.62 -6404.56 -6455.57 -6653.39 -6787.12 -6860.73 -6813.80 -6072.99 -5053.93 -3201.06 -2675.77 -2188.49 -1467.52 -118.42 241.80 302.44 318.10 358.19 466.92 658.55 724.29 725.01 812.83 817.98 865.26 899.24 828.85 789.80 695.46 632.52 592.85 576.72 567.79 560.08 549.12 534.89 530.71 529.08 529.06 544.80 562.88 605.50 659.78 727.54 786.05 724.02 806.45 856.44 707.15 620.61 540.67 562.23 462.53 455.92 373.37 322.89 300.14 279.39 249.72 202.35 152.00 147.54 149.60 149.75 151.49 152.19 148.61 147.23 145.48 145.41 145.69 146.73 150.97 161.34 170.00 186.99 204.16 226.58 242.50 254.08 264.39 268.52 284.69 317.66 325.11 318.84 324.79 328.08 332.03 729.17 1678.31 3026.37 5292.93 7098.47 5572.19 3338.08 1362.56 945.56 463.71 183.84 -1.74 -646.42 -2236.98 -3869.59 -4895.51 -5015.35 -5028.86 -5033.58 -5032.55 -5038.21 -5050.84 -5065.16 -5071.46 -5075.80 -5079.27 -5080.64 -5082.17 -5082.93 -5083.17 -5083.97 -5083.74 -5082.09 -5081.18 -5079.66 -5078.13 -5076.90 -5076.98
-10950.15 -10950.08 -10930.84 -10884.17 -10848.56 -10798.09 -10627.34 -10541.61 -10386.94 -9705.73 -8988.54 -8322.62 -7376.08 -6187.63 -5904.40 -5764.11 -5937.11 -6203.04 -6601.06 -6702.48 -6656.09 -5565.17 -4355.47 -3209.61 -2776.54 -2234.31 -1843.94 -853.34 152.38 296.30 326.83 394.38 492.85 623.99 720.23 732.03 849.55 903.02 947.84 939.51 829.88 673.08 608.21 588.02 566.99 551.38 542.57 530.15 525.30 524.37 517.91 516.42 522.99 529.84 571.28 603.46 653.51 737.21 847.57 877.38 878.23 870.32 768.93 646.50 624.17 607.61 511.93 428.15 385.34 341.15 327.53 309.50 266.11 239.89 181.34 152.32 150.08 148.87 151.46 150.32 147.81 145.82 144.07 143.60 143.90 145.43 149.54 156.54 165.14 181.32 197.54 219.72 238.95 256.82 265.32 276.68 303.13 322.36 336.88 340.48 334.64 345.74 520.30 918.21 2003.36 2604.09 4321.57 6353.97 4661.21 3959.01 3029.48 757.96 264.95 65.38 -433.34 -822.89 -2465.47 -3891.08 -4843.98 -5014.59 -5026.39 -5028.33 -5033.47 -5041.25 -5048.28 -5063.09 -5067.53 -5072.92 -5077.44 -5078.06 -5079.12 -5082.32 -5083.01 -5084.15 -5082.62 -5081.71 -5079.85 -5079.09 -5077.12 -5076.02 -5076.11
-10770.43 -10771.44 -10643.40 -10330.40 -10246.64 -10213.29 -9901.91 -9302.96 -8969.20 -8325.27 -7347.11 -6329.56 -6146.73 -5741.66 -5416.09 -5498.14 -5567.75 -5739.48 -6034.21 -6172.65 -6470.07 -5572.43 -4767.29 -3563.60 -3058.32 -2230.36 -1704.73 -1079.96 -67.18 269.03 342.65 446.61 564.71 690.22 681.20 662.25 716.33 807.82 894.49 863.84 808.96 712.75 595.40 551.51 553.16 534.25 512.99 507.18 507.74 484.99 495.73 503.13 514.65 526.03 557.57 575.56 621.43 715.93 849.78 902.24 889.02 838.47 722.71 653.98 624.35 587.54 517.97 416.97 386.82 344.98 336.56 316.29 280.96 253.94 206.74 153.46 149.88 147.99 150.34 147.45 145.23 144.32 143.42 142.83 142.81 144.36 147.90 151.76 163.86 175.60 187.70 216.68 240.33 264.65 274.10 288.68 320.69 342.12 372.58 373.06 366.46 426.05 640.80 2252.27 3202.88 3919.43 5439.12 6611.16 6881.81 4149.00 2912.77 640.48 242.32 -13.37 -652.62 -1100.53 -2398.02 -3680.82 -4783.07 -4992.99 -5024.13 -5025.99 -5028.18 -5037.13 -5049.30 -5061.70 -5066.93 -5070.71 -5074.39 -5073.10 -5078.74 -5081.95 -5085.29 -5084.27 -5081.91 -5080.72 -5079.40 -5078.12 -5076.78 -5075.17 -5075.26
-9845.28 -9846.27 -9346.77 -9267.83 -9060.47 -8509.16 -8202.42 -7521.77 -6840.56 -6287.92 -6192.23 -5810.99 -5532.97 -5356.13 -5286.63 -5299.61 -5350.74 -5488.14 -5675.77 -5756.23 -5877.35 -5688.61 -4853.39 -4141.43 -2936.89 -2080.57 -1662.73 -1378.96 -174.59 259.00 319.86 431.71 545.10 593.38 595.33 528.99 625.02 712.46 775.87 749.84 681.14 613.06 570.37 514.34 510.21 487.64 495.29 485.57 480.23 476.39 482.09 487.23 509.94 525.62 537.29 576.08 605.10 638.31 771.34 856.37 818.50 722.26 674.65 621.63 579.84 530.02 481.88 449.39 415.48 367.67 342.90 312.78 280.75 264.92 213.15 168.23 150.34 148.38 147.47 146.10 144.61 143.12 142.06 142.00 142.33 143.52 147.02 151.09 160.61 166.89 186.57 223.26 249.55 276.16 291.77 302.60 337.45 367.33 393.18 411.36 476.22 701.98 1345.21 2156.12 3007.23 4793.17 5648.92 6654.70 6016.36 4089.39 1323.19 580.98 235.47 -53.72 -701.74 -1516.09 -2493.96 -3570.08 -4504.41 -4889.63 -5022.00 -5008.12 -5014.59 -5037.64 -5046.80 -5056.77 -5064.88 -5044.26 -5060.36 -5056.70 -5058.59 -5078.01 -5082.99 -5082.35 -5081.22 -5080.11 -5078.67 -5077.68 -5075.40 -5074.36 -5074.45
-7765.69 -7768.56 -7730.45 -7292.66 -7374.45 -6508.82 -6414.18 -6011.99 -5905.93 -5579.73 -5386.27 -5343.03 -5306.15 -5279.39 -5273.89 -5270.93 -5294.16 -5331.19 -5416.65 -5439.64 -5452.68 -5277.37 -4791.97 -4397.61 -3602.70 -2357.03 -1916.16 -1128.86 -184.62 256.30 308.40 386.36 425.19 473.88 481.19 488.07 597.62 615.80 649.78 659.66 595.42 532.59 493.75 496.13 476.77 473.36 467.44 462.50 461.36 466.29 477.24 485.77 497.63 521.73 539.58 565.49 581.43 661.48 722.95 812.76 833.75 767.84 719.25 635.14 601.33 553.95 546.01 512.60 454.57 409.50 350.90 320.75 282.47 273.27 233.73 180.88 155.39 146.78 146.00 145.45 143.98 141.35 141.02 141.13 141.23 141.97 143.05 150.50 157.10 172.60 199.67 237.06 288.90 309.08 327.20 347.39 365.90 397.66 418.73 424.97 534.32 1334.44 2044.43 1951.26 3129.11 5324.51 5956.16 4233.52 3691.49 2373.31 961.48 384.88 213.18 -38.21 -619.49 -1747.53 -2818.72 -3898.36 -4656.82 -5010.42 -4995.72 -4964.44 -4974.91 -5003.62 -4998.49 -5009.31 -5006.48 -5000.32 -5012.12 -5017.82 -5027.64 -5030.15 -5064.32 -5076.58 -5080.36 -5079.35 -5078.06 -5076.47 -5074.96 -5073.62 -5073.71
-6046.89 -6049.92 -6085.54 -6244.90 -5997.63 -5887.27 -5712.45 -5531.31 -5373.35 -5300.32 -5290.23 -5272.95 -5275.17 -5275.39 -5274.32 -5271.18 -5277.05 -5298.35 -5310.68 -5340.17 -5304.93 -5061.41 -4655.99 -4560.85 -3827.20 -2605.14 -2343.26 -1265.63 -268.37 273.99 302.00 349.16 386.85 392.70 442.68 547.06 658.65 590.45 559.19 559.56 559.62 524.86 454.26 452.61 448.50 451.25 445.09 445.95 448.20 452.48 470.54 482.05 490.83 508.68 540.63 553.83 576.41 634.76 723.18 764.09 839.65 840.16 795.06 676.58 682.69 620.13 660.71 586.20 504.73 447.07 358.77 333.15 300.45 273.59 245.47 181.94 150.00 146.49 145.66 144.72 143.30 140.80 140.12 140.53 141.12 142.18 144.33 149.89 162.15 171.81 215.77 243.66 300.95 337.31 356.93 370.20 391.31 405.38 442.32 508.76 622.56 2328.07 3122.62 3106.86 4537.39 5728.20 5009.98 3471.29 3488.97 2131.62 665.24 289.81 172.66 -148.21 -664.96 -1267.04 -3518.27 -4705.50 -5028.19 -4999.01 -4943.61 -4913.55 -4920.18 -4959.48 -4974.17 -4976.45 -4973.49 -4972.19 -4977.88 -4980.67 -4984.01 -5007.62 -5060.52 -5078.43 -5079.64 -5078.52 -5077.14 -5076.23 -5074.36 -5072.89 -5072.98
-5510.94 -5512.19 -5564.91 -5574.50 -5500.88 -5450.37 -5437.16 -5404.64 -5311.12 -5278.21 -5268.80 -5271.59 -5279.96 -5284.64 -5286.43 -5279.77 -5285.29 -5295.39 -5305.33 -5314.30 -5304.33 -5041.65 -4635.04 -4524.35 -4445.88 -3168.40 -2119.81 -628.04 12.95 234.61 304.74 331.00 368.39 408.81 469.79 560.22 614.93 594.78 491.00 481.95 524.31 502.11 440.67 406.75 404.23 415.68 420.16 432.11 434.09 443.05 466.31 479.09 489.12 509.68 528.89 560.76 581.96 608.74 657.66 727.25 837.27 873.29 815.78 787.78 765.07 712.78 709.51 669.26 562.32 468.41 387.42 349.89 315.37 282.72 269.79 201.23 156.95 149.59 144.48 143.37 141.97 139.90 139.43 139.90 140.46 142.60 144.88 151.06 161.22 185.93 203.52 270.81 295.76 333.69 358.18 401.05 398.41 432.48 482.02 633.57 1262.52 3167.38 4570.34 5462.73 6542.92 5855.53 4272.59 2751.48 3374.94 2820.87 356.43 233.29 128.01 -390.94 -728.41 -1564.99 -3954.96 -4833.20 -5046.79 -4982.52 -4900.66 -4883.87 -4916.22 -4948.33 -4962.35 -4963.37 -4965.32 -4969.15 -4975.46 -4976.59 -4979.91 -5000.12 -5045.67 -5076.81 -5078.88 -5078.03 -5076.58 -5075.13 -5073.90 -5072.19 -5072.29
-5438.34 -5438.55 -5446.85 -5444.18 -5432.38 -5417.39 -5407.61 -5366.10 -5312.15 -5281.70 -5277.99 -5279.41 -5286.84 -5292.81 -5289.61 -5281.08 -5286.12 -5292.95 -5302.51 -5307.04 -5257.97 -5035.98 -4649.92 -4522.44 -4457.27 -3623.64 -1473.15 -482.12 135.75 234.17 300.76 328.43 349.46 396.36 411.71 397.49 479.16 500.67 437.00 387.68 407.18 416.39 366.07 355.06 386.78 394.98 402.32 421.94 431.21 438.35 454.74 470.80 492.84 514.33 533.32 552.60 586.97 625.24 719.33 783.20 807.74 877.80 831.85 773.14 773.17 771.28 770.35 707.09 624.48 552.98 456.80 370.45 317.09 293.83 271.71 225.49 188.59 145.76 142.32 139.81 138.86 138.04 138.48 139.91 141.66 144.00 150.28 156.81 176.23 202.79 221.84 272.53 300.81 335.31 364.14 406.29 422.19 457.99 527.46 1196.29 2381.95 2910.03 4355.42 6275.05 6987.47 6182.64 4435.89 1990.95 1992.25 896.50 313.09 216.62 -198.84 -868.33 -1352.52 -2199.94 -3295.88 -4894.98 -5046.11 -4982.09 -4900.66 -4881.27 -4924.77 -4946.84 -4961.32 -4962.11 -4964.63 -4968.41 -4972.45 -4975.69 -4978.68 -4998.92 -5053.37 -5076.05 -5078.35 -5077.29 -5075.98 -5074.45 -5073.23 -5071.58 -5071.68
-5447.59 -5447.42 -5444.69 -5439.59 -5431.86 -5421.49 -5411.18 -5372.26 -5322.34 -5291.83 -5289.43 -5288.40 -5291.88 -5292.84 -5288.68 -5281.97 -5282.23 -5294.60 -5300.51 -5306.29 -5284.16 -5011.35 -4694.89 -4506.10 -4495.33 -3504.78 -2783.79 -837.32 40.37 183.52 294.84 303.68 312.99 334.31 348.34 355.75 345.55 342.41 355.52 348.92 363.17 366.49 349.08 344.48 367.60 383.70 401.83 415.03 425.67 441.20 456.48 475.89 491.54 515.51 535.51 554.19 591.98 658.63 710.32 793.74 847.24 837.95 776.44 684.41 679.92 723.97 692.48 668.56 663.62 532.11 441.96 354.91 319.20 288.82 273.15 235.60 173.71 140.09 137.58 135.65 136.63 136.89 137.21 138.54 143.38 148.14 157.96 168.64 189.56 206.48 224.45 268.96 304.85 330.38 359.61 392.57 438.75 472.45 662.98 1778.51 2935.53 3482.52 5620.64 6755.35 4931.31 3548.28 2043.80 1927.93 789.24 347.32 264.09 97.43 -125.32 -891.21 -1683.24 -3183.45 -4075.66 -5033.72 -5019.34 -4961.99 -4887.99 -4884.66 -4923.99 -4947.43 -4963.68 -4961.40 -4962.05 -4967.20 -4971.32 -4974.36 -4976.71 -4997.54 -5052.19 -5072.55 -5077.22 -5076.48 -5075.17 -5073.73 -5072.63 -5071.01 -5071.12
-5452.03 -5450.58 -5430.17 -5422.97 -5400.08 -5410.73 -5394.44 -5380.75 -5331.95 -5294.73 -5269.62 -5261.18 -5260.11 -5267.41 -5278.90 -5293.52 -5293.83 -5307.68 -5318.85 -5331.13 -5260.79 -5032.29 -4658.64 -4445.72 -4535.07 -4041.84 -3150.20 -1926.92 -974.18 -237.29 206.82 203.39 221.97 264.55 304.99 303.44 315.93 317.14 326.75 331.03 334.63 337.24 339.33 345.11 369.25 381.97 396.03 415.60 434.68 451.96 471.28 492.32 502.94 524.26 541.24 557.24 594.79 626.91 716.09 761.33 858.27 863.94 769.09 657.54 577.05 639.12 613.47 555.28 583.18 483.14 402.69 350.46 304.84 278.65 257.24 217.95 150.66 138.18 133.20 134.12 135.12 135.68 136.15 138.14 144.29 155.25 167.87 189.17 205.87 223.36 243.00 269.74 289.59 317.48 342.69 391.11 434.20 693.67 1187.22 1595.78 2238.83 4655.69 5968.79 6996.64 5161.09 3333.54 2309.03 1212.79 454.50 290.25 249.10 130.00 -108.50 -834.48 -1694.11 -3086.64 -4525.07 -4874.24 -4982.10 -4927.68 -4896.05 -4903.58 -4940.50 -4958.20 -4969.40 -4963.95 -4962.45 -4966.60 -4971.16 -4973.06 -4977.19 -4996.60 -5038.60 -5074.78 -5076.99 -5075.94 -5074.54 -5072.95 -5072.02 -5070.51 -5070.61
-5365.50 -5365.40 -5379.06 -5371.27 -5355.52 -5346.60 -5324.80 -5304.07 -5243.60 -5219.82 -5225.06 -5233.48 -5232.70 -5216.70 -5250.67 -5337.69 -5365.25 -5364.52 -5376.52 -5385.00 -5375.04 -5201.81 -4380.34 -3997.76 -4632.78 -4813.80 -3802.42 -3211.15 -1504.21 -414.03 -94.84 -1.21 65.76 206.58 281.96 284.63 290.36 304.57 306.25 305.74 314.61 332.40 333.60 338.90 370.91 387.81 401.67 414.94 444.99 473.37 488.93 503.67 516.90 532.55 554.75 578.82 615.17 662.83 714.12 731.30 768.60 790.29 688.99 607.38 543.51 570.26 539.15 495.82 448.27 400.47 341.80 313.43 284.23 271.08 252.89 205.13 135.97 132.04 131.63 133.03 133.02 135.08 136.25 140.16 149.35 163.05 179.93 192.89 212.21 238.59 247.59 258.54 282.94 305.63 327.12 382.40 509.73 828.53 2328.35 2145.56 3343.08 4927.77 6926.71 6974.82 4225.54 3197.83 2256.99 1082.67 442.74 277.59 232.32 40.91 -114.83 -1030.41 -1965.65 -3453.24 -4551.54 -4778.33 -4967.57 -4945.73 -4930.53 -4932.05 -4951.23 -4966.64 -4971.76 -4971.69 -4963.19 -4963.51 -4968.20 -4971.82 -4977.14 -4996.46 -5042.72 -5074.29 -5076.35 -5075.35 -5073.99 -5072.68 -5071.60 -5070.09 -5070.18
-5363.81 -5363.73 -5360.23 -5353.66 -5342.54 -5334.09 -5316.90 -5279.34 -5231.69 -5217.50 -5208.24 -5197.04 -5190.98 -5194.24 -5246.73 -5346.76 -5375.41 -5385.44 -5390.94 -5395.61 -5392.72 -5323.04 -4349.74 -3818.01 -4292.21 -4938.65 -4719.74 -4044.70 -2385.75 -491.38 -249.81 -193.05 -147.98 133.34 231.34 251.50 241.79 273.29 277.31 275.86 280.46 293.85 317.77 318.75 379.81 396.70 405.56 417.04 439.57 503.19 538.22 534.48 551.62 618.43 623.34 608.56 638.40 714.21 735.24 724.64 647.11 737.88 633.07 540.48 495.30 510.70 464.77 517.69 459.11 344.01 317.21 300.54 277.69 261.64 220.20 160.46 128.23 127.39 129.70 129.56 131.66 132.47 135.43 137.56 153.42 163.74 181.63 199.92 223.34 238.19 246.41 255.62 265.06 281.00 300.80 365.79 527.89 1613.19 3006.80 3909.43 4968.97 6823.13 6937.30 4976.13 4194.70 3399.48 1365.70 560.52 357.91 224.06 148.44 -11.76 -704.97 -1334.31 -2341.11 -3865.60 -4630.13 -4959.84 -4967.27 -4946.00 -4940.24 -4941.17 -4957.74 -4969.37 -4972.80 -4969.60 -4961.02 -4962.82 -4966.18 -4970.51 -4976.16 -5002.07 -5038.53 -5074.31 -5075.15 -5074.37 -5073.25 -5072.10 -5071.00 -5069.74 -5069.83
-5370.96 -5370.87 -5362.98 -5355.97 -5348.57 -5337.64 -5316.75 -5287.74 -5247.55 -5217.57 -5203.14 -5194.38 -5186.12 -5190.24 -5211.78 -5328.00 -5368.00 -5367.64 -5372.25 -5382.11 -5368.83 -5272.03 -4826.93 -4378.97 -4432.55 -4973.91 -5071.90 -3746.23 -2472.80 -455.02 -292.68 -297.76 -211.81 -87.53 75.80 138.14 187.45 241.84 260.93 263.45 262.80 261.65 271.42 287.77 336.31 360.11 360.42 367.55 432.13 527.27 551.94 626.45 618.55 602.07 596.75 628.88 677.15 745.37 722.46 601.67 547.76 664.61 628.66 515.68 469.10 519.22 481.68 466.66 421.68 332.15 310.46 287.16 255.75 238.80 194.55 130.76 120.99 123.53 125.64 128.30 129.52 131.66 134.52 138.00 150.11 170.79 190.18 201.06 224.79 240.41 247.44 255.80 266.11 278.65 305.10 363.24 853.07 1848.59 2414.21 4116.26 6322.94 7205.30 5934.14 4146.78 3990.86 3124.62 1060.22 335.09 278.97 122.28 23.88 -97.02 -826.59 -1337.39 -1993.74 -3071.31 -4426.17 -4793.71 -4961.45 -4948.60 -4938.33 -4949.49 -4962.37 -4974.57 -4974.68 -4966.39 -4957.76 -4959.79 -4965.45 -4969.29 -4974.82 -4991.20 -5035.22 -5072.36 -5074.66 -5073.73 -5072.87 -5071.87 -5070.59 -5069.47 -5069.57
-5374.65 -5374.56 -5367.33 -5361.35 -5353.07 -5340.50 -5327.61 -5292.35 -5246.45 -5217.71 -5202.80 -5190.20 -5179.61 -5175.67 -5218.98 -5319.80 -5348.82 -5347.23 -5349.90 -5355.24 -5347.91 -5222.45 -5063.91 -4792.99 -4580.95 -4968.95 -5138.68 -4486.42 -2671.33 -666.75 -312.50 -311.96 -290.65 -174.24 -3.85 94.42 153.99 180.08 236.53 236.85 231.12 255.59 262.12 250.96 289.95 304.06 314.59 321.41 400.47 410.69 460.73 560.55 536.37 470.02 517.14 543.40 582.60 610.74 673.10 583.51 458.08 579.63 544.77 469.59 435.50 445.87 389.68 398.44 357.05 310.08 290.33 267.02 248.30 187.64 150.24 117.63 117.77 119.64 120.30 125.91 127.93 128.71 132.61 139.28 156.79 176.18 197.91 209.52 224.79 240.77 247.72 258.94 267.31 296.56 320.31 1158.45 1981.97 2084.87 3298.31 5483.19 5726.32 5849.05 4789.17 3306.69 2489.95 1636.58 378.98 278.56 253.00 112.11 -120.05 -528.85 -844.11 -1725.82 -2760.34 -4096.43 -4487.16 -4819.76 -4947.06 -4945.24 -4936.74 -4951.40 -4968.35 -4975.45 -4979.27 -4971.44 -4957.23 -4959.46 -4963.43 -4968.07 -4972.22 -5000.29 -5049.47 -5070.21 -5074.15 -5073.42 -5072.32 -5071.34 -5070.15 -5069.29 -5069.38
-5375.57 -5375.06 -5370.47 -5361.72 -5352.08 -5344.44 -5331.31 -5300.75 -5249.77 -5217.18 -5203.90 -5190.53 -5178.91 -5173.59 -5244.07 -5315.32 -5337.29 -5329.42 -5333.50 -5332.90 -5321.85 -5237.74 -5154.07 -4998.07 -4913.22 -5113.96 -5142.31 -4926.81 -3309.57 -1091.06 -470.21 -510.58 -383.81 -322.31 -217.00 -25.60 97.71 124.29 140.15 189.96 190.96 199.58 209.18 201.94 222.13 259.06 302.63 297.47 325.36 334.66 362.12 474.53 463.02 393.29 450.87 437.73 506.63 536.41 500.00 527.24 398.02 455.96 439.29 414.30 383.19 368.82 342.21 341.28 327.69 306.93 279.94 255.31 209.83 139.40 116.77 113.87 114.87 116.41 118.63 119.53 123.01 126.31 133.56 150.25 160.97 172.09 200.38 210.34 222.85 234.63 246.72 276.39 294.99 305.03 575.28 1872.99 2864.52 2594.29 3279.85 6599.06 6338.30 4349.96 2851.28 3076.08 2084.04 725.01 323.23 232.15 171.23 14.59 -282.57 -636.59 -1599.40 -3408.81 -4126.03 -4761.87 -4938.85 -4942.94 -4944.67 -4937.98 -4935.51 -4958.29 -4974.07 -4982.01 -4987.34 -4969.89 -4963.51 -4970.15 -4975.95 -4979.91 -4980.42 -4997.70 -5050.79 -5070.71 -5073.88 -5072.77 -5071.65 -5071.00 -5070.00 -5069.20 -5069.29
-5372.77 -5372.68 -5368.00 -5361.20 -5351.70 -5341.48 -5327.54 -5296.95 -5274.51 -5285.10 -5271.69 -5252.70 -5205.28 -5195.72 -5239.95 -5265.40 -5248.43 -5277.70 -5263.86 -5270.23 -5270.98 -5235.32 -5190.03 -5192.69 -5183.20 -5175.83 -5219.28 -5142.69 -4149.44 -2827.55 -2173.47 -1404.61 -1585.44 -1362.31 -936.73 -297.67 -96.39 56.39 58.94 65.57 66.58 93.25 76.95 62.82 127.63 233.72 270.54 272.61 269.59 284.53 300.60 306.33 313.27 341.87 372.22 351.74 396.41 341.29 348.06 437.51 363.63 353.28 361.25 345.70 335.23 339.49 335.99 318.98 302.61 285.97 264.25 241.56 157.26 111.81 108.76 108.88 110.56 112.24 115.30 117.30 119.67 122.65 134.95 153.79 169.62 186.71 205.12 209.16 217.24 232.44 247.44 271.18 325.72 422.87 739.83 1987.99 3565.04 3818.50 4784.00 6217.86 6445.19 4007.95 2147.74 1733.58 992.34 402.81 255.04 182.43 85.04 -31.25 -458.53 -963.19 -2110.40 -4461.67 -4951.50 -4946.60 -4936.17 -4935.06 -4936.58 -4936.50 -4944.12 -4962.20 -4979.81 -4990.90 -4998.08 -4999.00 -5011.33 -5000.60 -5008.83 -5024.80 -5016.99 -5017.40 -5078.15 -5074.05 -5073.45 -5072.37 -5071.60 -5070.75 -5070.09 -5069.18 -5069.27
-5363.63 -5362.88 -5360.99 -5352.35 -5346.53 -5336.54 -5325.52 -5330.00 -5379.60 -5375.43 -5356.11 -5354.26 -5331.89 -5316.80 -5285.63 -5212.97 -5200.65 -5192.25 -5187.09 -5200.81 -5174.61 -5200.17 -5244.83 -5258.18 -5288.51 -5306.38 -5280.51 -5298.79 -5161.76 -4385.24 -3614.96 -3562.68 -2730.53 -2752.24 -2675.85 -1610.93 -485.67 -305.00 -347.68 -258.00 -433.97 -415.55 -75.48 8.87 78.15 174.36 221.38 130.90 162.81 271.79 275.25 281.87 282.00 300.20 305.97 303.67 303.84 319.80 313.27 313.30 311.32 312.08 314.20 314.76 318.67 320.62 317.93 308.62 292.54 267.78 238.62 149.82 105.98 96.22 99.84 102.75 105.88 108.38 110.68 114.53 114.96 118.84 122.93 145.60 162.22 183.89 200.94 214.27 221.36 234.88 251.30 279.33 343.54 485.04 1882.75 2619.81 4343.45 5706.79 6175.72 5456.76 4451.42 3152.73 1739.14 926.61 584.22 354.08 217.60 163.95 78.24 -233.97 -788.14 -1532.34 -3672.52 -4686.49 -4952.01 -4942.22 -4929.26 -4913.07 -4931.93 -4938.99 -4957.75 -4979.23 -4989.33 -4999.53 -5011.22 -5031.02 -5050.38 -5074.87 -5085.96 -5092.08 -5093.93 -5093.89 -5091.64 -5080.03 -5073.76 -5071.93 -5071.60 -5070.50 -5069.95 -5069.22 -5069.31
-5357.57 -5357.48 -5354.07 -5347.08 -5336.91 -5329.11 -5323.98 -5324.84 -5399.31 -5406.03 -5390.09 -5367.57 -5360.23 -5332.40 -5288.68 -5176.73 -5141.33 -5134.14 -5126.76 -5123.96 -5127.88 -5187.28 -5277.40 -5291.65 -5305.63 -5317.07 -5327.07 -5327.49 -5266.20 -5220.41 -5103.07 -4981.60 -4652.25 -4085.28 -3253.06 -2666.46 -1432.01 -1103.17 -805.61 -794.72 -1270.55 -1056.18 -386.45 -42.36 3.15 41.84 56.40 60.30 74.99 166.92 234.19 264.28 270.15 272.45 280.76 284.98 288.25 285.28 282.49 286.02 287.10 285.94 286.90 290.36 287.74 286.48 292.15 299.93 273.49 234.86 181.03 107.65 91.64 94.42 97.58 98.61 100.24 103.47 104.63 109.26 111.36 113.77 124.05 139.72 154.53 174.04 197.07 208.20 223.74 232.24 252.85 283.70 369.07 1155.66 1587.54 2323.64 3785.84 6771.15 6977.23 5044.14 2483.87 1949.02 1323.50 568.44 316.86 282.00 195.28 170.37 -171.35 -453.30 -820.26 -2736.14 -4896.89 -4903.93 -4943.98 -4924.83 -4910.32 -4872.63 -4918.32 -4949.17 -4970.46 -4983.30 -4997.21 -5007.80 -5015.47 -5038.89 -5073.74 -5081.83 -5091.54 -5095.60 -5096.49 -5096.06 -5094.95 -5081.29 -5074.96 -5072.14 -5071.16 -5070.46 -5069.96 -5069.36 -5069.44
-5350.35 -5350.26 -5346.10 -5339.39 -5334.15 -5324.15 -5317.41 -5338.32 -5388.70 -5402.93 -5389.99 -5371.28 -5358.15 -5335.98 -5288.54 -5178.00 -5135.01 -5125.22 -5114.86 -5114.32 -5120.53 -5173.63 -5254.65 -5285.23 -5302.86 -5309.57 -5323.59 -5327.63 -5272.92 -5211.26 -5202.65 -5180.04 -5146.04 -4780.13 -3963.40 -2705.21 -1785.00 -1716.90 -1715.74 -1723.90 -1679.77 -1510.47 -484.71 -121.86 -63.32 -46.70 -30.67 -20.64 27.70 125.87 178.23 196.85 234.03 243.24 245.79 273.24 274.66 275.87 270.79 274.64 269.01 269.74 269.58 272.95 272.67 272.71 270.79 262.33 241.26 190.71 151.24 112.25 87.61 89.02 92.32 93.97 97.39 99.70 100.26 105.06 108.31 115.34 132.80 145.93 158.95 169.74 188.20 214.54 228.03 251.76 267.15 349.09 916.09 2488.67 2396.49 4299.64 5543.32 6986.25 7233.48 5441.46 2647.87 1848.22 709.59 423.30 284.92 233.61 172.02 -53.64 -365.29 -648.66 -1194.24 -2208.31 -4599.66 -4656.40 -4910.76 -4899.98 -4877.86 -4862.53 -4921.74 -4947.41 -4974.76 -4985.06 -4997.86 -5017.96 -5032.77 -5054.35 -5075.96 -5089.01 -5093.93 -5097.18 -5098.44 -5096.45 -5092.49 -5085.43 -5074.41 -5072.11 -5071.14 -5070.46 -5070.03 -5069.64 -5069.66
-5341.43 -5341.34 -5338.55 -5330.81 -5325.75 -5314.41 -5310.50 -5335.32 -5401.93 -5402.86 -5386.29 -5371.00 -5357.48 -5335.02 -5257.22 -5164.57 -5128.36 -5119.26 -5110.86 -5107.20 -5113.60 -5146.67 -5247.34 -5279.97 -5292.52 -5300.64 -5314.91 -5317.32 -5275.41 -5212.07 -5204.95 -5208.16 -5208.81 -5035.06 -4937.06 -3146.29 -2094.00 -1685.23 -1655.67 -1644.06 -1588.14 -1481.85 -582.00 -156.51 -152.66 -145.74 -102.84 -48.17 -0.29 58.12 90.09 144.89 162.93 168.79 182.67 195.00 229.58 198.99 226.12 256.40 250.59 250.40 260.58 245.32 244.10 231.03 239.62 228.02 204.85 153.75 118.05 93.12 85.08 85.96 89.57 92.18 94.86 96.08 98.30 101.74 107.53 118.04 127.91 141.24 162.38 181.19 197.53 218.36 239.54 251.22 313.33 390.73 1059.77 2542.09 3471.23 4810.91 7465.45 7213.31 5983.50 5206.61 3854.90 2977.72 1542.90 313.15 257.85 155.50 72.42 -237.88 -850.90 -1328.20 -1640.69 -3222.24 -4130.63 -4605.88 -4885.22 -4884.93 -4874.64 -4871.17 -4910.33 -4946.25 -4970.52 -4983.93 -4999.36 -5012.23 -5042.24 -5074.53 -5087.30 -5094.06 -5096.22 -5098.38 -5099.25 -5098.23 -5090.10 -5083.74 -5075.05 -5072.48 -5071.35 -5070.74 -5070.22 -5069.89 -5069.96
-5330.05 -5328.59 -5324.47 -5323.24 -5316.09 -5309.57 -5302.18 -5330.49 -5399.57 -5397.09 -5387.07 -5372.07 -5356.60 -5333.48 -5265.36 -5155.28 -5134.08 -5122.09 -5110.98 -5106.74 -5110.11 -5169.03 -5245.72 -5269.66 -5279.09 -5290.12 -5307.28 -5314.87 -5264.56 -5216.61 -5211.44 -5221.49 -5229.40 -5212.82 -5122.60 -3745.32 -2455.15 -1873.51 -1788.64 -1679.68 -1593.15 -1470.51 -785.84 -238.96 -200.33 -171.74 -122.90 -91.46 -39.32 -34.19 27.74 54.75 112.58 116.94 83.36 104.69 129.65 129.14 181.03 215.61 245.19 230.95 227.44 198.49 198.77 191.03 184.20 185.19 173.76 121.79 97.84 83.55 83.47 84.36 86.15 86.32 89.09 91.29 93.62 94.52 102.41 112.86 115.99 138.26 170.81 197.67 214.50 227.93 246.37 259.26 354.38 370.98 2000.01 3235.50 3860.72 5577.66 6733.72 5931.50 4171.56 3854.23 2606.27 1183.88 360.37 296.42 233.48 120.50 37.08 -388.76 -775.13 -1794.97 -2601.29 -3775.11 -4677.42 -4794.72 -4877.15 -4879.82 -4873.16 -4871.49 -4912.80 -4956.12 -4968.64 -4984.01 -4991.85 -5010.88 -5036.11 -5077.12 -5090.44 -5096.72 -5098.46 -5099.40 -5100.23 -5099.66 -5094.88 -5081.23 -5074.87 -5072.20 -5071.42 -5071.11 -5070.62 -5070.25 -5070.32
-5303.27 -5303.15 -5303.08 -5302.19 -5290.32 -5261.56 -5276.90 -5306.82 -5380.92 -5388.59 -5381.54 -5365.59 -5352.18 -5334.91 -5272.28 -5155.49 -5128.98 -5118.46 -5110.98 -5104.34 -5106.45 -5157.89 -5215.84 -5231.70 -5229.24 -5254.64 -5249.13 -5270.76 -5261.00 -5256.59 -5258.39 -5251.36 -5300.14 -5308.61 -5222.03 -4532.02 -3526.99 -2893.67 -2201.95 -2057.12 -2047.67 -1740.85 -1145.56 -498.21 -301.33 -251.06 -163.43 -114.42 -106.36 -58.74 -21.92 -4.02 29.22 63.41 59.71 57.86 55.76 60.53 96.29 133.21 179.84 173.02 175.59 147.09 152.57 163.77 167.02 178.83 140.36 97.88 85.33 81.25 80.22 80.69 81.27 80.54 83.91 85.93 87.22 89.36 96.07 105.22 113.75 129.61 168.22 206.06 224.87 239.87 251.71 259.61 329.18 752.19 2079.24 3897.52 5071.30 6861.80 5913.16 4518.89 2218.15 2532.60 1682.10 844.34 331.94 272.61 186.97 76.69 -259.55 -787.77 -1203.65 -1942.31 -3156.55 -3870.54 -4703.80 -4870.00 -4874.49 -4876.01 -4870.65 -4871.45 -4909.38 -4950.09 -4959.66 -4959.06 -4973.98 -4987.32 -5014.88 -5081.23 -5092.64 -5097.37 -5099.13 -5100.63 -5101.62 -5099.73 -5090.59 -5081.95 -5073.98 -5072.67 -5071.89 -5071.59 -5070.98 -5070.69 -5070.77
-5245.11 -5245.02 -5253.19 -5246.81 -5239.22 -5236.41 -5228.47 -5271.72 -5360.05 -5377.33 -5372.82 -5358.19 -5347.75 -5325.19 -5238.15 -5161.29 -5133.89 -5116.66 -5109.48 -5104.53 -5100.01 -5100.00 -5123.62 -5116.93 -5134.09 -5128.10 -5137.01 -5178.18 -5260.97 -5309.96 -5353.57 -5369.10 -5398.50 -5371.47 -5327.55 -5136.81 -4719.74 -4697.81 -3423.49 -2747.07 -2547.52 -2149.82 -1399.46 -658.64 -437.07 -403.03 -264.69 -210.37 -195.78 -109.77 -115.83 -67.49 -24.34 -24.74 -7.82 -12.49 4.30 21.27 21.34 47.98 84.98 86.31 109.13 109.86 112.05 129.19 148.57 129.53 105.50 88.66 74.69 76.61 77.06 77.55 76.76 77.80 80.03 81.35 83.91 85.37 89.50 98.61 119.58 135.37 178.47 194.18 232.28 245.20 256.28 262.09 319.16 769.47 1994.06 2925.53 5102.70 7945.66 6462.95 3357.76 2098.97 1455.36 903.56 397.71 236.62 194.27 109.79 -47.76 -342.58 -926.05 -2021.89 -2574.61 -3453.88 -4136.86 -4763.83 -4871.85 -4873.50 -4867.05 -4857.17 -4851.52 -4874.06 -4892.87 -4902.20 -4909.74 -4928.50 -4935.09 -4986.36 -5049.52 -5093.59 -5097.06 -5100.26 -5101.92 -5102.37 -5100.38 -5090.35 -5082.26 -5074.48 -5072.89 -5072.23 -5071.94 -5071.60 -5071.22 -5071.29
-5232.11 -5232.03 -5232.26 -5227.85 -5226.46 -5219.09 -5217.13 -5286.00 -5335.16 -5378.98 -5373.34 -5362.16 -5350.31 -5336.82 -5276.14 -5174.26 -5135.69 -5126.93 -5117.58 -5114.20 -5112.73 -5103.75 -5102.41 -5105.95 -5113.43 -5121.11 -5130.81 -5156.08 -5229.49 -5358.42 -5391.88 -5404.78 -5407.23 -5411.36 -5406.19 -5303.19 -5168.33 -5041.44 -4297.23 -3300.18 -2739.08 -2523.10 -1357.19 -689.44 -615.70 -569.22 -409.48 -287.76 -357.32 -236.59 -176.50 -118.65 -94.44 -124.95 -119.13 -116.07 -55.77 -68.03 -37.36 -32.00 7.34 41.52 50.82 55.26 83.19 102.16 119.46 110.12 79.54 70.25 71.93 73.96 75.21 74.68 75.41 75.97 76.77 78.29 78.30 80.43 83.38 92.19 116.52 141.96 194.58 213.65 226.10 251.47 262.03 276.85 323.21 2800.83 2987.37 3724.84 6485.65 7605.60 5892.70 4368.01 3466.96 2009.21 469.70 194.96 161.46 64.14 -32.30 -171.90 -965.64 -1347.62 -2197.79 -3195.08 -3948.75 -4434.65 -4810.58 -4870.10 -4872.48 -4868.58 -4848.48 -4847.18 -4865.12 -4888.30 -4900.26 -4907.11 -4916.36 -4926.78 -4944.77 -5037.27 -5091.87 -5099.38 -5102.05 -5103.07 -5103.81 -5102.09 -5090.72 -5082.56 -5074.47 -5073.47 -5072.88 -5072.54 -5072.10 -5071.82 -5071.89
-5226.64 -5226.56 -5224.94 -5222.66 -5220.21 -5215.02 -5212.25 -5288.83 -5340.12 -5382.15 -5378.65 -5368.94 -5355.84 -5343.35 -5269.34 -5186.17 -5151.23 -5144.97 -5140.91 -5129.67 -5135.12 -5132.65 -5118.27 -5119.36 -5125.11 -5133.58 -5137.91 -5167.68 -5235.59 -5367.50 -5398.19 -5406.82 -5408.58 -5413.71 -5405.15 -5304.35 -5175.89 -5145.54 -4908.31 -4118.09 -3017.17 -2601.32 -1830.71 -706.16 -608.23 -619.55 -632.75 -510.11 -541.67 -349.20 -266.41 -217.04 -221.95 -273.27 -199.30 -208.88 -177.59 -142.79 -116.43 -113.50 -79.46 -70.87 -5.72 -3.54 38.07 67.60 77.18 67.69 67.24 68.67 70.45 71.20 72.16 72.60 71.89 71.89 72.99 74.12 75.50 77.01 80.64 91.44 113.56 151.80 181.36 206.96 241.09 250.23 273.77 333.80 756.88 2331.57 3029.19 4302.10 7099.63 8256.57 6638.72 3696.49 2910.17 2011.91 278.95 170.84 110.95 16.43 -178.19 -630.47 -1437.22 -2148.60 -2785.05 -3892.00 -4201.62 -4574.53 -4818.20 -4860.88 -4875.27 -4874.95 -4859.19 -4856.46 -4871.83 -4894.10 -4901.29 -4907.95 -4917.70 -4930.26 -4968.17 -5027.36 -5095.35 -5102.53 -5105.40 -5106.41 -5106.05 -5104.45 -5091.91 -5080.84 -5075.37 -5074.09 -5073.76 -5073.23 -5072.81 -5072.49 -5072.56
-5222.62 -5222.55 -5221.20 -5219.05 -5216.22 -5213.54 -5213.98 -5255.54 -5368.20 -5389.11 -5382.13 -5375.04 -5371.47 -5355.72 -5312.32 -5203.99 -5173.20 -5159.82 -5152.64 -5156.63 -5149.73 -5144.26 -5134.67 -5142.18 -5144.30 -5159.37 -5162.45 -5172.92 -5263.64 -5384.74 -5401.38 -5404.81 -5405.29 -5398.15 -5359.51 -5318.20 -5203.43 -5164.56 -5057.89 -4648.28 -3566.96 -3097.58 -1514.71 -680.82 -604.85 -643.34 -675.12 -714.00 -677.68 -547.68 -431.58 -439.99 -382.73 -361.38 -367.51 -318.11 -237.16 -220.23 -197.99 -168.48 -151.47 -126.55 -58.26 -35.40 3.30 41.43 52.08 61.89 64.17 66.75 67.98 69.16 68.99 69.12 69.37 67.15 70.18 72.33 73.01 73.02 84.49 104.69 119.88 162.18 193.73 221.64 242.02 260.98 313.28 389.82 2632.64 4179.39 3779.53 5187.71 8300.23 6474.18 5379.20 2338.17 985.80 475.36 176.53 136.46 -72.81 -451.89 -473.76 -1141.71 -2077.69 -3103.58 -3259.74 -4108.53 -4538.68 -4712.16 -4787.95 -4869.62 -4876.34 -4877.59 -4877.19 -4870.72 -4890.04 -4904.06 -4906.67 -4912.30 -4923.19 -4932.62 -4969.19 -5039.97 -5099.28 -5105.47 -5107.64 -5107.87 -5107.92 -5103.82 -5095.90 -5080.17 -5075.92 -5074.99 -5074.55 -5073.95 -5073.49 -5073.24 -5073.32
-5221.94 -5221.88 -5220.57 -5219.47 -5218.99 -5216.19 -5218.62 -5272.28 -5357.88 -5386.00 -5383.84 -5377.23 -5373.66 -5363.91 -5315.70 -5213.53 -5189.64 -5180.47 -5176.60 -5169.87 -5176.62 -5175.50 -5173.89 -5178.03 -5167.48 -5181.27 -5196.74 -5219.13 -5309.09 -5394.20 -5401.34 -5399.83 -5398.86 -5394.73 -5371.43 -5347.78 -5199.44 -5187.73 -5161.17 -5030.96 -4718.94 -3763.89 -1667.70 -918.39 -735.19 -852.42 -717.00 -959.45 -912.13 -801.92 -698.82 -667.59 -624.61 -518.02 -450.96 -405.47 -292.53 -262.59 -215.86 -184.54 -163.04 -134.53 -71.30 -29.27 4.71 22.54 40.55 52.24 60.91 63.67 64.60 64.49 65.41 65.32 63.09 64.41 68.17 68.42 66.49 66.40 73.65 100.41 118.55 169.17 209.05 216.40 250.60 281.61 366.09 732.84 1827.73 2715.32 5492.16 6895.92 7042.93 4546.33 3957.77 2043.27 852.84 362.43 188.61 -47.21 -254.06 -1118.17 -1043.93 -1322.90 -2383.24 -3793.25 -3951.53 -4320.02 -4571.91 -4699.92 -4794.10 -4859.69 -4874.04 -4881.41 -4885.04 -4892.74 -4916.24 -4917.43 -4926.81 -4935.48 -4942.26 -4951.16 -4992.62 -5060.15 -5100.34 -5106.64 -5109.43 -5110.27 -5109.64 -5106.11 -5096.56 -5079.84 -5076.86 -5076.23 -5075.57 -5074.86 -5074.48 -5074.08 -5074.15
-5242.20 -5242.18 -5240.99 -5250.53 -5250.31 -5252.40 -5257.97 -5278.21 -5342.26 -5353.36 -5345.65 -5343.80 -5340.63 -5353.85 -5293.78 -5234.15 -5202.78 -5201.37 -5194.21 -5194.65 -5199.63 -5209.05 -5256.36 -5286.05 -5273.70 -5335.75 -5287.81 -5293.95 -5364.40 -5388.82 -5396.49 -5396.70 -5395.33 -5389.86 -5376.25 -5336.86 -5261.94 -5271.20 -5287.37 -5296.94 -5173.26 -4140.91 -2226.05 -1607.20 -1784.90 -1625.50 -1905.95 -1711.79 -1338.42 -1110.75 -990.00 -874.33 -707.12 -559.88 -509.25 -438.26 -370.65 -272.32 -222.01 -198.39 -164.02 -110.74 -73.35 -28.40 3.16 19.34 37.51 44.28 51.74 55.69 58.37 60.28 62.14 61.73 61.51 62.63 63.28 64.26 64.20 65.21 70.15 97.81 122.57 157.58 202.71 233.90 261.13 300.05 791.89 2052.26 2270.79 2305.92 5581.94 6747.35 5675.27 3198.01 4202.25 2266.61 417.14 178.98 121.19 -112.44 -555.65 -1462.79 -1790.01 -2191.87 -2690.43 -3729.75 -4077.61 -4359.07 -4608.36 -4722.32 -4801.20 -4856.43 -4889.22 -4889.66 -4903.52 -4921.82 -4967.53 -5037.61 -5028.27 -5012.28 -4997.93 -5035.21 -5053.05 -5075.18 -5099.83 -5106.04 -5109.70 -5110.95 -5110.57 -5109.65 -5093.18 -5081.29 -5078.13 -5076.81 -5076.78 -5076.05 -5075.27 -5075.00 -5075.07
-5284.50 -5266.89 -5215.53 -5274.43 -5279.61 -5284.65 -5283.20 -5294.93 -5293.10 -5287.06 -5297.16 -5286.29 -5287.17 -5269.58 -5250.06 -5228.16 -5219.49 -5222.81 -5218.62 -5219.14 -5226.81 -5294.51 -5357.73 -5381.50 -5387.71 -5382.35 -5398.03 -5396.58 -5400.06 -5392.31 -5395.75 -5396.99 -5392.24 -5385.07 -5370.11 -5354.78 -5360.40 -5365.53 -5363.43 -5348.61 -5274.33 -4099.39 -3166.30 -3135.90 -2890.32 -2796.25 -2366.70 -1793.11 -1407.67 -1245.14 -1011.03 -863.56 -756.66 -584.33 -521.54 -457.15 -397.03 -277.93 -217.18 -177.65 -144.91 -103.47 -63.06 -26.42 2.92 20.49 33.27 38.94 46.72 52.61 52.55 55.77 56.99 57.47 59.29 60.95 60.88 61.99 62.58 63.06 68.74 83.74 120.73 154.56 199.35 242.29 266.17 498.78 1726.75 2538.64 4370.62 4958.92 7313.41 7014.28 4848.46 2965.90 2034.38 703.48 266.10 182.54 -60.89 -255.12 -800.55 -1923.80 -3004.66 -3136.18 -3758.70 -4195.45 -4343.03 -4432.02 -4567.08 -4670.55 -4772.66 -4850.04 -4901.83 -4916.50 -4926.17 -4952.48 -4973.71 -5055.16 -5077.99 -5102.21 -5117.72 -5134.25 -5116.73 -5112.80 -5097.55 -5104.84 -5109.55 -5110.94 -5112.12 -5109.55 -5092.53 -5082.75 -5079.67 -5078.69 -5077.15 -5076.92 -5076.56 -5076.16 -5076.09
-5223.01 -5222.82 -5042.13 -5102.85 -5280.67 -5299.90 -5301.34 -5294.74 -5279.76 -5278.20 -5279.73 -5276.87 -5274.34 -5272.90 -5261.96 -5239.27 -5231.31 -5235.28 -5235.80 -5238.15 -5252.23 -5296.97 -5403.49 -5414.04 -5411.97 -5403.03 -5395.58 -5400.73 -5397.92 -5394.81 -5393.83 -5392.51 -5388.05 -5383.12 -5376.57 -5372.16 -5373.39 -5368.15 -5365.35 -5356.71 -5333.46 -4644.40 -4131.96 -3380.20 -3153.27 -2862.65 -2438.75 -2026.95 -1596.94 -1374.97 -1172.27 -915.56 -790.18 -614.10 -553.75 -413.87 -349.52 -272.22 -210.28 -149.97 -121.18 -83.02 -59.09 -24.99 -8.48 3.23 22.34 36.07 41.79 45.38 48.91 50.89 54.18 54.78 56.16 56.71 56.94 57.31 59.09 60.40 70.64 85.62 123.00 151.77 202.89 240.49 267.12 663.53 2348.99 3811.19 5233.31 6093.74 6229.16 6135.32 4713.56 3408.61 615.97 380.09 249.86 44.51 -206.25 -1054.50 -1464.86 -2142.15 -3128.14 -3678.58 -4158.91 -4314.16 -4419.61 -4431.62 -4496.06 -4609.19 -4762.92 -4858.02 -4911.42 -4947.25 -4974.04 -4991.64 -5010.86 -5043.90 -5093.07 -5113.79 -5129.78 -5137.52 -5136.66 -5120.76 -5106.29 -5105.92 -5110.33 -5113.76 -5113.73 -5112.07 -5090.98 -5083.70 -5080.81 -5080.38 -5078.92 -5078.14 -5077.35 -5077.14 -5077.21
