-10668.09 -10669.68 -10706.15 -10770.74 -10842.03 -10869.39 -10909.03 -10941.68 -10999.54 -11022.68 -11031.25 -11038.57 -11043.00 -11046.26 -11050.65 -11047.34 -11053.04 -11064.99 -11074.41 -11083.37 -11084.97 -11032.88 -10974.14 -10967.88 -10974.75 -10977.26 -10984.87 -10989.13 -11017.81 -11039.29 -11044.91 -11051.65 -11056.35 -11058.55 -11071.04 -11114.44 -11157.84 -11167.64 -11175.64 -11181.00 -11188.06 -11182.73 -11157.17 -11120.53 -11124.60 -11140.76 -11146.80 -11157.77 -11194.22 -11305.18 -11354.61 -11373.59 -11382.66 -11388.23 -11389.99 -11373.67 -11316.23 -11291.68 -11278.81 -11272.70 -11263.53 -11259.98 -11278.15 -11305.49 -11322.17 -11324.03 -11329.08 -11328.44 -11328.81 -11335.83 -11346.74 -11350.68 -11348.30 -11348.21 -11343.35 -11335.44 -11309.75 -11255.92 -11244.76 -11245.36 -11238.12 -11230.97 -11225.69 -11233.41 -11254.62 -11747.36 -12821.98 -13356.87 -13421.70 -12904.97 -9451.91 -8623.68 -6665.74 -5771.12 -5792.54 -5275.39 -4981.66 -4562.91 -3015.44 -2161.12 -1620.36 -1180.87 -1157.51 -1713.83 -2095.50 -2496.92 -3453.08 -5746.66 -8644.91 -10026.26 -11731.30 -13424.04 -14124.30 -14150.28 -13826.79 -12230.20 -8675.24 -6477.86 -5625.76 -5588.16 -5589.81 -5618.37 -5627.57 -5635.56 -5635.40 -5621.06 -5615.67 -5615.16 -5618.23 -5621.01 -5617.55 -5610.44 -5590.91 -5572.03 -5561.34 -5551.67 -5548.28 -5530.79 -5516.39 -5497.53 -5496.18
-10674.57 -10676.20 -10693.31 -10734.56 -10842.01 -10860.67 -10909.43 -10957.13 -11006.03 -11029.93 -11038.16 -11045.35 -11049.88 -11055.88 -11059.05 -11059.02 -11064.41 -11073.87 -11080.45 -11089.67 -11092.10 -11048.43 -10985.61 -10978.91 -10984.27 -10989.36 -10997.52 -11003.85 -11022.49 -11043.08 -11051.60 -11058.53 -11060.67 -11066.70 -11076.02 -11116.25 -11161.58 -11172.56 -11179.88 -11182.38 -11190.57 -11192.16 -11163.21 -11133.54 -11133.77 -11143.13 -11153.53 -11166.22 -11218.86 -11288.72 -11363.96 -11378.77 -11385.54 -11388.42 -11391.82 -11372.07 -11319.65 -11292.33 -11276.17 -11271.47 -11265.56 -11262.61 -11277.12 -11314.80 -11332.43 -11338.17 -11338.58 -11338.66 -11337.76 -11341.58 -11356.04 -11358.57 -11356.12 -11350.14 -11343.94 -11337.58 -11304.33 -11257.05 -11232.75 -11223.83 -11209.18 -11205.01 -11186.55 -11161.67 -11228.67 -11924.83 -12561.44 -13398.83 -12989.00 -11733.39 -8440.73 -6343.62 -5725.51 -5291.14 -5086.01 -4871.39 -4873.41 -4628.88 -3784.96 -2329.76 -1549.66 -1171.62 -1187.87 -1684.17 -2178.25 -2773.81 -4057.27 -6081.29 -8429.60 -10380.10 -11235.77 -13121.74 -14125.65 -14162.85 -14117.23 -13136.84 -9616.26 -6766.88 -5784.92 -5628.11 -5599.43 -5616.17 -5633.13 -5639.64 -5635.33 -5628.11 -5622.55 -5627.06 -5628.84 -5627.26 -5625.79 -5622.18 -5600.24 -5581.89 -5575.51 -5570.04 -5557.90 -5551.00 -5531.20 -5515.88 -5515.64
-10695.99 -10695.97 -10718.39 -10754.91 -10799.62 -10879.05 -10929.86 -10968.41 -10978.98 -11008.52 -11011.92 -11022.52 -11036.67 -11035.06 -11031.24 -11037.37 -11043.94 -11059.66 -11075.92 -11082.87 -11075.34 -11046.73 -11016.66 -11027.99 -11026.58 -11038.17 -11051.07 -11037.88 -11026.67 -11047.20 -11053.75 -11059.22 -11064.03 -11068.95 -11075.34 -11119.50 -11139.09 -11152.90 -11155.07 -11162.05 -11170.56 -11144.04 -11150.32 -11138.34 -11144.12 -11153.51 -11160.32 -11185.83 -11210.14 -11272.82 -11357.11 -11371.67 -11374.58 -11377.39 -11379.88 -11362.25 -11325.16 -11280.32 -11272.06 -11264.88 -11257.77 -11255.86 -11259.50 -11307.11 -11322.37 -11325.13 -11327.01 -11334.38 -11332.04 -11335.23 -11364.80 -11363.49 -11360.12 -11353.28 -11344.70 -11335.70 -11295.65 -11210.34 -11165.72 -11172.82 -11176.79 -11163.52 -11152.33 -11203.24 -11196.29 -12031.24 -13022.52 -12790.83 -11552.26 -10321.73 -6094.76 -5164.27 -4963.89 -4830.42 -4710.55 -4662.07 -4589.46 -4274.93 -4168.99 -2667.97 -1653.57 -1322.33 -1226.54 -1482.16 -1954.30 -2772.61 -3871.74 -5196.78 -7897.03 -9383.89 -11143.20 -12885.06 -14038.39 -14197.81 -14120.72 -13132.77 -10580.77 -7129.97 -5987.82 -5622.08 -5586.97 -5593.66 -5632.37 -5636.86 -5631.06 -5630.02 -5632.19 -5634.13 -5637.94 -5638.39 -5635.93 -5632.14 -5618.45 -5607.73 -5595.84 -5588.01 -5579.30 -5560.60 -5544.51 -5534.02 -5534.09
-10764.30 -10764.22 -10769.09 -10781.89 -10837.20 -10907.21 -10961.51 -10980.51 -10941.32 -10937.77 -10956.87 -10961.38 -10956.34 -10979.48 -10991.40 -10997.51 -11004.32 -11018.57 -11011.43 -11030.15 -11039.34 -11066.25 -11079.85 -11128.17 -11131.83 -11121.69 -11127.24 -11110.40 -11092.57 -11063.89 -11054.25 -11058.32 -11064.83 -11069.70 -11074.38 -11075.12 -11090.67 -11110.35 -11112.09 -11113.69 -11115.12 -11125.26 -11130.92 -11145.69 -11156.33 -11165.54 -11178.39 -11193.44 -11214.97 -11281.83 -11332.43 -11340.23 -11348.35 -11347.36 -11346.93 -11340.90 -11284.11 -11262.59 -11252.34 -11247.83 -11242.90 -11241.36 -11245.69 -11269.09 -11283.32 -11286.30 -11289.64 -11286.30 -11290.22 -11314.32 -11366.54 -11368.85 -11365.35 -11356.65 -11346.06 -11336.04 -11217.82 -11165.42 -11105.42 -11102.32 -11093.76 -11092.16 -11090.09 -11388.55 -11505.73 -12847.94 -12920.15 -11976.39 -9709.53 -7302.23 -5638.43 -4313.65 -4429.08 -4507.58 -4402.02 -4140.17 -4139.32 -3881.94 -3696.54 -2675.09 -1898.23 -1440.58 -1277.74 -1496.32 -1961.28 -2562.91 -3237.48 -3807.47 -7224.78 -8935.51 -11468.61 -13363.41 -14255.59 -14224.82 -14089.84 -13660.90 -11661.50 -9146.25 -6077.57 -5587.83 -5530.96 -5538.80 -5555.65 -5565.95 -5593.17 -5628.47 -5639.55 -5646.68 -5651.62 -5657.22 -5652.84 -5647.08 -5631.19 -5620.73 -5611.92 -5607.81 -5596.96 -5587.64 -5573.92 -5552.50 -5552.57
-10777.07 -10778.52 -10789.93 -10810.65 -10850.54 -10903.34 -10967.91 -10986.40 -10947.70 -10936.75 -10943.01 -10950.11 -10956.81 -10964.68 -10974.60 -10990.21 -10997.16 -11004.40 -11011.57 -11017.11 -11027.17 -11047.60 -11123.98 -11145.15 -11148.01 -11150.79 -11154.41 -11145.17 -11113.15 -11074.03 -11055.65 -11058.25 -11066.62 -11070.32 -11073.18 -11074.65 -11076.17 -11081.03 -11086.13 -11092.60 -11098.71 -11110.05 -11130.93 -11151.23 -11170.18 -11177.77 -11189.89 -11199.90 -11227.48 -11295.16 -11323.72 -11334.65 -11341.27 -11342.72 -11343.01 -11328.65 -11285.05 -11259.06 -11250.07 -11245.03 -11240.01 -11239.30 -11250.34 -11267.42 -11276.19 -11281.78 -11285.86 -11285.91 -11286.17 -11308.26 -11356.05 -11373.18 -11366.89 -11359.90 -11350.90 -11333.89 -11272.79 -11113.14 -11082.05 -11072.91 -11065.99 -11071.55 -11077.67 -11616.42 -12333.18 -13107.49 -12717.41 -10086.36 -7823.42 -5084.98 -3690.86 -3362.56 -3760.68 -4145.18 -4072.92 -3920.47 -3826.95 -3582.87 -3292.32 -2745.66 -1945.06 -1476.63 -1305.73 -1459.58 -2147.63 -2673.49 -3872.20 -4785.82 -7621.78 -9621.24 -11350.07 -13107.84 -14233.15 -14247.50 -14163.32 -13796.89 -12167.02 -9075.03 -6297.20 -5625.34 -5522.97 -5531.87 -5541.01 -5554.88 -5591.16 -5631.76 -5650.26 -5659.31 -5661.51 -5667.42 -5673.44 -5666.64 -5657.26 -5643.73 -5632.71 -5626.49 -5617.55 -5603.81 -5585.74 -5571.56 -5571.63
-10781.44 -10781.36 -10793.97 -10811.84 -10845.41 -10881.40 -10949.22 -10977.29 -10943.85 -10937.58 -10949.28 -10956.17 -10969.24 -10973.32 -10988.05 -10995.43 -11007.64 -11012.59 -11019.54 -11024.18 -11031.96 -11086.51 -11131.82 -11149.44 -11153.91 -11158.06 -11161.40 -11159.42 -11111.38 -11067.98 -11056.82 -11061.30 -11067.40 -11073.22 -11076.31 -11076.15 -11075.56 -11082.69 -11089.64 -11097.11 -11104.87 -11114.96 -11142.92 -11159.88 -11175.44 -11184.60 -11198.31 -11200.93 -11249.43 -11280.36 -11329.09 -11340.61 -11344.49 -11346.20 -11344.21 -11330.90 -11283.75 -11261.92 -11251.20 -11246.87 -11242.72 -11246.28 -11253.43 -11273.66 -11286.52 -11290.88 -11293.41 -11292.00 -11292.96 -11317.87 -11369.40 -11379.08 -11370.74 -11366.03 -11355.57 -11331.50 -11278.29 -11141.30 -11078.10 -11060.27 -11054.97 -11064.32 -11191.25 -11570.42 -12129.31 -13252.79 -12089.42 -6737.83 -4636.51 -3009.81 -2557.20 -2606.23 -3462.24 -3671.04 -3771.63 -3550.16 -3409.52 -3328.66 -3142.45 -2704.85 -1915.66 -1438.74 -1231.02 -1432.73 -2041.83 -2907.67 -4420.76 -6763.77 -8384.02 -9522.44 -10916.85 -11407.41 -14055.22 -14169.95 -14242.67 -14125.93 -12407.05 -9969.21 -6800.25 -5660.34 -5565.66 -5542.76 -5554.86 -5571.73 -5622.54 -5647.99 -5671.87 -5680.28 -5683.68 -5688.18 -5685.56 -5686.89 -5678.30 -5667.49 -5671.22 -5653.69 -5642.69 -5625.38 -5610.90 -5592.30 -5592.36
-10785.97 -10787.62 -10800.61 -10818.25 -10834.26 -10872.10 -10928.83 -10954.98 -10935.24 -10939.78 -10952.72 -10971.42 -10973.48 -10983.82 -10993.86 -11004.66 -11013.50 -11020.99 -11026.28 -11029.46 -11040.27 -11092.56 -11137.42 -11153.81 -11158.38 -11160.25 -11163.91 -11161.26 -11102.95 -11067.67 -11058.85 -11062.26 -11067.75 -11073.10 -11078.28 -11077.22 -11077.32 -11084.99 -11091.73 -11098.65 -11108.37 -11123.26 -11146.59 -11168.32 -11181.12 -11191.10 -11203.08 -11211.68 -11243.35 -11274.98 -11335.44 -11341.58 -11349.08 -11349.03 -11344.76 -11333.33 -11281.57 -11265.09 -11255.35 -11251.42 -11250.00 -11251.62 -11257.39 -11276.33 -11291.73 -11296.35 -11297.69 -11299.39 -11299.16 -11320.02 -11377.14 -11380.04 -11375.17 -11364.55 -11359.08 -11336.71 -11278.58 -11129.25 -11074.86 -11046.20 -11047.14 -11062.70 -11102.98 -11977.69 -12537.72 -12089.08 -9644.23 -6548.72 -3765.21 -2428.91 -2055.18 -2288.75 -2856.85 -3683.03 -3567.16 -3269.70 -3041.07 -2965.40 -2869.33 -2572.89 -1910.69 -1400.30 -1229.89 -1616.85 -1949.45 -2660.04 -3739.39 -6550.49 -8432.60 -9539.06 -9985.69 -10795.03 -13474.01 -14180.08 -14241.85 -14017.61 -13315.80 -10129.54 -7085.81 -5799.12 -5589.61 -5569.38 -5584.59 -5604.90 -5635.05 -5674.09 -5682.80 -5695.77 -5701.31 -5705.30 -5709.36 -5706.36 -5704.28 -5688.50 -5682.58 -5667.47 -5669.22 -5655.70 -5632.97 -5615.52 -5615.58
-10791.73 -10791.65 -10803.46 -10821.45 -10836.87 -10863.86 -10894.17 -10926.76 -10928.91 -10935.47 -10968.22 -10976.73 -10982.05 -10990.40 -11002.29 -11013.74 -11020.85 -11026.52 -11032.21 -11036.91 -11047.54 -11082.94 -11148.09 -11161.31 -11164.98 -11166.59 -11168.03 -11167.83 -11110.88 -11074.18 -11059.06 -11062.89 -11067.13 -11072.90 -11076.86 -11082.04 -11079.65 -11091.36 -11097.57 -11106.53 -11118.33 -11133.96 -11150.65 -11170.14 -11184.88 -11198.13 -11208.67 -11219.42 -11247.90 -11303.08 -11338.39 -11344.21 -11349.50 -11345.96 -11346.73 -11338.27 -11288.59 -11277.07 -11267.61 -11258.91 -11262.05 -11257.89 -11270.36 -11283.58 -11297.71 -11302.27 -11307.68 -11308.91 -11310.19 -11326.11 -11365.01 -11375.18 -11376.39 -11364.27 -11347.63 -11328.07 -11219.70 -11121.35 -11076.19 -11049.34 -11044.34 -11057.26 -11149.80 -11480.43 -11769.57 -11541.11 -9995.11 -6425.85 -3089.82 -2145.68 -1746.01 -2212.82 -3075.84 -3602.73 -3357.94 -2810.36 -2723.16 -2771.07 -2636.01 -2310.08 -1943.05 -1586.32 -1367.56 -1582.96 -1966.48 -2615.19 -3659.48 -4323.29 -8471.22 -9401.26 -9653.61 -10415.18 -13268.08 -14161.39 -14243.92 -14169.62 -13893.21 -11176.44 -8445.38 -5913.07 -5641.80 -5594.64 -5601.59 -5626.28 -5655.21 -5692.07 -5709.03 -5714.01 -5715.97 -5723.77 -5724.67 -5735.32 -5725.19 -5718.13 -5707.78 -5702.51 -5686.34 -5673.20 -5657.91 -5643.68 -5639.93
-10812.19 -10812.15 -10829.23 -10855.12 -10857.40 -10884.99 -10907.44 -10911.09 -10911.74 -10954.74 -10986.64 -10994.08 -11006.55 -11011.80 -11012.73 -11018.33 -11020.96 -11023.24 -11030.13 -11035.97 -11042.31 -11089.29 -11157.88 -11189.09 -11190.16 -11198.03 -11199.58 -11176.00 -11111.54 -11066.03 -11055.11 -11057.41 -11060.44 -11066.92 -11077.85 -11096.84 -11156.36 -11162.65 -11170.92 -11153.32 -11176.44 -11182.85 -11178.61 -11165.02 -11180.27 -11190.47 -11205.40 -11213.09 -11234.47 -11282.72 -11296.47 -11310.05 -11312.80 -11308.84 -11296.23 -11316.33 -11317.89 -11297.72 -11302.18 -11317.72 -11307.67 -11294.58 -11308.20 -11310.24 -11328.96 -11323.07 -11327.50 -11326.37 -11325.44 -11328.13 -11353.23 -11358.42 -11357.73 -11341.37 -11332.92 -11288.38 -11240.16 -11142.24 -11085.55 -11060.49 -11052.82 -11069.01 -11100.80 -11374.92 -11594.39 -9771.84 -7380.94 -4677.49 -2275.99 -1734.05 -1635.16 -2134.79 -2897.43 -3228.86 -2946.22 -2540.24 -2524.06 -2451.68 -2379.85 -2169.55 -2066.41 -1541.46 -1525.41 -1744.08 -2144.24 -2617.04 -3035.93 -4273.16 -7696.41 -8864.24 -9523.50 -10671.71 -12303.57 -14244.11 -14254.70 -14196.92 -13712.76 -12349.16 -8029.62 -6262.29 -5652.49 -5618.70 -5623.39 -5647.46 -5695.11 -5715.03 -5720.90 -5733.02 -5739.79 -5746.21 -5751.05 -5747.24 -5751.40 -5742.72 -5735.72 -5722.21 -5723.42 -5701.10 -5679.46 -5664.14 -5664.21
-10866.12 -10866.05 -10872.68 -10873.11 -10908.86 -10915.24 -10935.51 -10939.15 -10924.16 -10970.73 -11009.08 -11027.40 -11040.60 -11046.37 -11033.87 -11020.47 -11011.46 -11018.81 -11022.15 -11028.72 -11035.74 -11099.36 -11182.29 -11214.85 -11217.54 -11217.25 -11217.73 -11214.02 -11128.30 -11072.98 -11048.54 -11049.34 -11055.84 -11059.15 -11071.83 -11160.79 -11223.65 -11248.80 -11251.60 -11263.24 -11279.02 -11282.04 -11207.06 -11163.78 -11166.67 -11176.30 -11188.52 -11197.86 -11213.20 -11229.23 -11225.91 -11230.21 -11251.85 -11246.56 -11240.82 -11256.27 -11300.43 -11364.39 -11366.35 -11356.84 -11352.51 -11353.95 -11348.50 -11337.62 -11342.48 -11338.46 -11340.17 -11340.90 -11339.62 -11335.60 -11334.98 -11323.46 -11311.50 -11300.61 -11291.17 -11258.62 -11211.79 -11145.64 -11109.44 -11085.88 -11081.18 -11065.29 -11142.16 -11363.70 -11489.23 -9385.09 -5933.69 -3766.13 -2030.12 -1421.48 -1549.86 -1964.12 -2536.46 -2277.21 -2353.12 -2295.71 -2292.60 -2163.46 -2108.21 -2150.31 -1995.51 -1641.75 -1595.37 -1929.97 -2288.27 -2987.99 -3595.95 -6139.72 -8099.46 -9553.97 -10399.79 -10923.14 -12976.93 -14275.40 -14269.82 -14230.70 -13849.92 -11889.33 -9632.65 -6363.13 -5759.22 -5655.11 -5635.60 -5655.88 -5710.13 -5728.86 -5741.02 -5746.00 -5755.31 -5760.99 -5772.28 -5771.90 -5775.37 -5766.66 -5760.60 -5751.51 -5736.33 -5726.56 -5706.82 -5687.34 -5687.40
-10875.34 -10877.49 -10887.64 -10906.20 -10921.58 -10938.93 -10958.00 -10946.34 -10916.77 -10963.32 -10996.92 -11014.58 -11029.06 -11052.89 -11043.28 -11020.82 -11015.13 -11021.55 -11022.65 -11028.98 -11050.03 -11097.80 -11186.31 -11227.66 -11230.31 -11231.29 -11229.33 -11222.86 -11148.90 -11057.18 -11048.03 -11048.52 -11051.64 -11057.40 -11077.51 -11161.69 -11259.25 -11268.77 -11287.74 -11298.20 -11306.47 -11309.25 -11245.64 -11162.45 -11162.08 -11174.94 -11192.55 -11199.84 -11208.83 -11217.05 -11220.45 -11226.01 -11226.09 -11225.64 -11226.16 -11250.68 -11331.46 -11374.42 -11378.93 -11375.79 -11366.31 -11362.13 -11359.84 -11354.25 -11350.29 -11351.71 -11351.40 -11348.37 -11345.43 -11340.05 -11331.31 -11319.93 -11307.08 -11295.59 -11277.19 -11254.75 -11192.44 -11159.06 -11111.26 -11107.96 -11099.73 -11085.23 -11070.94 -10796.62 -10764.43 -8919.60 -6215.32 -3489.77 -1949.81 -1293.93 -1229.86 -1549.88 -1755.56 -2098.16 -1965.49 -1992.88 -2110.02 -2033.50 -1962.71 -1981.65 -1947.74 -1453.20 -1539.94 -1939.53 -2411.71 -2986.03 -3995.77 -6894.31 -8753.92 -9742.70 -11073.48 -12645.27 -14382.24 -14285.95 -14282.53 -14245.63 -14137.95 -13278.06 -9518.18 -6711.48 -5851.19 -5672.62 -5643.52 -5678.34 -5711.91 -5754.58 -5759.26 -5768.67 -5773.28 -5782.83 -5788.65 -5791.53 -5789.09 -5789.03 -5786.36 -5774.84 -5761.29 -5750.30 -5724.41 -5708.43 -5708.49
-10878.81 -10878.73 -10892.81 -10909.75 -10929.64 -10942.00 -10957.40 -10947.38 -10892.37 -10915.74 -10948.50 -10972.94 -10996.18 -11030.27 -11041.71 -11022.98 -11020.43 -11022.53 -11031.22 -11035.27 -11043.37 -11091.19 -11228.00 -11233.19 -11235.80 -11236.20 -11235.06 -11229.92 -11142.66 -11079.17 -11048.69 -11047.16 -11049.75 -11055.47 -11072.26 -11160.77 -11253.11 -11279.18 -11292.21 -11301.52 -11312.51 -11305.74 -11240.53 -11162.97 -11169.28 -11182.26 -11191.52 -11207.40 -11214.09 -11221.76 -11225.68 -11229.55 -11231.65 -11229.05 -11227.54 -11242.60 -11333.92 -11384.14 -11382.99 -11375.94 -11371.55 -11362.05 -11360.74 -11354.37 -11353.10 -11354.68 -11352.66 -11352.89 -11349.90 -11343.07 -11332.55 -11322.49 -11313.69 -11297.27 -11286.71 -11252.87 -11224.42 -11162.11 -11133.74 -11133.51 -11137.92 -11171.01 -11108.20 -10971.65 -9224.03 -7922.65 -5708.48 -2650.69 -1417.46 -1061.67 -1071.84 -1264.26 -1299.98 -1439.64 -1715.84 -1833.51 -1859.14 -1791.25 -1913.13 -1938.91 -1830.02 -1526.34 -1571.48 -1925.03 -2424.47 -2921.44 -4382.60 -6895.00 -8231.14 -9789.27 -11417.82 -13559.92 -14399.21 -14291.77 -14263.85 -14271.39 -14188.22 -13212.62 -9353.15 -6861.31 -6111.53 -5694.52 -5673.18 -5705.15 -5738.10 -5767.98 -5774.50 -5781.49 -5790.22 -5794.70 -5802.18 -5803.43 -5809.39 -5802.66 -5796.18 -5784.07 -5771.26 -5759.37 -5745.53 -5725.63 -5725.69
-10883.31 -10883.25 -10899.47 -10917.08 -10934.46 -10946.72 -10961.03 -10930.34 -10884.34 -10890.83 -10900.70 -10919.92 -10943.17 -11013.74 -11016.62 -11014.51 -11023.68 -11032.10 -11037.42 -11041.00 -11059.12 -11112.69 -11201.03 -11238.35 -11240.64 -11240.89 -11240.85 -11214.81 -11152.96 -11076.32 -11047.04 -11047.22 -11050.20 -11051.52 -11077.37 -11166.02 -11250.03 -11279.04 -11288.97 -11299.45 -11317.08 -11311.32 -11216.54 -11173.68 -11174.41 -11186.14 -11198.08 -11213.38 -11221.36 -11229.12 -11232.14 -11236.27 -11236.60 -11233.82 -11232.44 -11263.07 -11344.21 -11379.88 -11381.32 -11376.55 -11369.21 -11364.23 -11360.45 -11355.54 -11354.37 -11355.02 -11354.15 -11353.64 -11350.74 -11343.61 -11334.79 -11325.76 -11312.55 -11300.94 -11285.20 -11270.84 -11239.57 -11176.26 -11172.51 -11193.55 -11182.03 -11174.40 -11112.97 -11231.85 -9000.84 -7303.95 -5476.96 -2257.15 -1264.04 -1005.76 -905.50 -975.13 -1083.38 -1246.82 -1500.93 -1618.89 -1724.26 -1762.72 -1826.92 -1804.87 -1603.50 -1414.15 -1585.29 -1877.13 -2495.64 -3539.60 -5736.03 -8665.42 -9383.65 -10525.48 -11527.95 -13044.10 -14292.32 -14238.90 -14229.95 -14196.04 -14029.08 -13148.42 -10715.07 -7568.79 -6202.93 -5743.50 -5696.14 -5714.04 -5746.20 -5774.06 -5786.90 -5785.56 -5800.32 -5802.47 -5805.85 -5811.60 -5811.65 -5808.68 -5799.16 -5794.94 -5780.41 -5767.27 -5754.39 -5738.04 -5738.11
-10887.48 -10887.41 -10903.07 -10921.00 -10933.09 -10951.31 -10964.27 -10944.38 -10890.29 -10877.90 -10890.83 -10898.80 -10923.67 -10953.55 -10986.34 -10995.81 -11022.05 -11044.28 -11061.84 -11056.89 -11068.30 -11138.68 -11209.20 -11241.93 -11242.71 -11236.09 -11238.39 -11222.43 -11153.06 -11066.65 -11052.36 -11052.24 -11051.72 -11054.46 -11085.49 -11170.09 -11256.54 -11275.69 -11289.02 -11302.92 -11319.06 -11311.44 -11229.04 -11181.31 -11177.06 -11193.38 -11205.52 -11221.83 -11231.32 -11234.81 -11248.68 -11246.18 -11249.14 -11241.99 -11241.60 -11276.56 -11352.39 -11387.14 -11383.71 -11379.14 -11369.15 -11364.75 -11359.71 -11357.41 -11354.81 -11354.19 -11353.72 -11352.75 -11349.27 -11341.20 -11333.85 -11321.88 -11309.04 -11293.47 -11283.42 -11267.40 -11248.73 -11240.29 -11241.59 -11226.45 -11231.11 -11205.93 -10922.10 -9446.94 -8052.95 -6140.65 -3793.02 -1867.45 -1059.52 -789.00 -779.68 -900.34 -1073.49 -1247.20 -1431.26 -1599.93 -1628.26 -1692.24 -1746.48 -1605.19 -1405.89 -1207.45 -1484.63 -2024.59 -2707.12 -4358.36 -5281.88 -8720.34 -9754.34 -10140.97 -11306.82 -12991.76 -13675.47 -14172.44 -14172.04 -14094.35 -13996.74 -13739.92 -12466.93 -8281.01 -6273.52 -5823.99 -5717.74 -5733.12 -5757.38 -5784.62 -5789.65 -5797.66 -5801.81 -5805.70 -5808.84 -5812.57 -5812.11 -5810.01 -5801.95 -5794.29 -5782.32 -5770.02 -5760.36 -5745.37 -5745.44
-10876.48 -10874.90 -10886.18 -10902.61 -10919.54 -10940.60 -10949.14 -10933.64 -10889.70 -10887.78 -10904.12 -10909.88 -10926.50 -10945.27 -10985.83 -11018.72 -11061.20 -11101.80 -11115.76 -11126.30 -11122.39 -11172.79 -11196.21 -11215.37 -11206.14 -11205.16 -11209.13 -11205.75 -11139.50 -11091.01 -11082.39 -11061.67 -11078.91 -11090.89 -11106.75 -11188.85 -11243.56 -11276.18 -11287.44 -11303.37 -11319.36 -11309.42 -11247.92 -11193.05 -11198.07 -11211.49 -11223.71 -11232.61 -11254.93 -11275.63 -11316.05 -11351.81 -11344.69 -11355.10 -11312.47 -11319.70 -11391.64 -11391.90 -11385.84 -11379.69 -11370.11 -11365.71 -11361.17 -11357.09 -11354.08 -11352.80 -11352.50 -11351.14 -11346.82 -11339.82 -11330.82 -11315.97 -11304.62 -11290.34 -11277.55 -11268.07 -11265.90 -11262.76 -11266.93 -11247.23 -11225.63 -11122.99 -10350.35 -8948.52 -6654.22 -5227.50 -2949.24 -1470.11 -875.32 -473.87 -566.86 -901.10 -1120.02 -1336.93 -1408.51 -1540.95 -1585.81 -1647.98 -1690.59 -1598.38 -1201.14 -1141.52 -1598.71 -2318.18 -2960.05 -4311.45 -5933.65 -7921.74 -9003.34 -9640.95 -10069.75 -11287.17 -12215.06 -13546.98 -14024.32 -14029.42 -13933.61 -13413.76 -12118.73 -9094.82 -6580.38 -5819.18 -5737.37 -5739.22 -5764.64 -5785.96 -5796.93 -5800.01 -5803.24 -5805.22 -5807.16 -5806.27 -5807.80 -5804.28 -5799.09 -5788.75 -5778.69 -5766.87 -5759.06 -5747.01 -5747.08
-10842.22 -10842.16 -10862.67 -10878.81 -10891.60 -10906.66 -10917.80 -10920.83 -10913.33 -10918.29 -10926.03 -10934.80 -10944.36 -10957.07 -11008.73 -11073.58 -11138.36 -11208.17 -11235.61 -11234.10 -11218.53 -11208.53 -11167.24 -11159.60 -11169.66 -11168.80 -11163.38 -11161.41 -11140.80 -11128.86 -11134.47 -11124.10 -11118.17 -11136.36 -11141.01 -11195.95 -11265.87 -11277.89 -11289.18 -11304.23 -11319.98 -11325.98 -11254.44 -11225.85 -11223.33 -11235.92 -11254.27 -11267.79 -11292.25 -11352.41 -11424.89 -11417.24 -11427.63 -11421.93 -11410.90 -11411.34 -11401.68 -11393.52 -11388.75 -11377.51 -11372.85 -11365.73 -11359.92 -11355.34 -11352.48 -11350.46 -11348.64 -11345.65 -11342.28 -11334.69 -11326.88 -11314.45 -11291.95 -11286.80 -11274.61 -11270.71 -11272.47 -11280.47 -11269.62 -11236.97 -10108.59 -9699.40 -8292.66 -5614.22 -4790.29 -3329.21 -2209.64 -941.21 -729.65 -324.24 -448.88 -856.39 -1157.68 -1275.92 -1381.91 -1444.51 -1517.37 -1614.87 -1627.76 -1520.00 -1264.74 -1410.87 -1732.58 -2317.66 -3447.20 -3939.40 -5474.80 -6408.96 -7116.89 -8260.34 -9921.33 -10395.78 -11235.75 -13118.38 -13815.39 -14004.69 -13846.21 -13445.37 -12431.54 -9633.78 -6837.16 -5914.69 -5742.97 -5743.59 -5771.73 -5792.42 -5798.51 -5800.26 -5799.85 -5800.95 -5800.70 -5798.81 -5796.04 -5790.70 -5785.64 -5773.44 -5768.47 -5760.14 -5753.04 -5744.47 -5743.71
-10848.49 -10851.43 -10863.78 -10875.60 -10890.72 -10908.10 -10916.84 -10922.91 -10922.02 -10925.07 -10934.00 -10943.25 -10953.34 -10963.62 -11020.06 -11066.20 -11122.61 -11174.68 -11228.42 -11265.30 -11273.49 -11236.76 -11170.65 -11159.25 -11158.14 -11158.10 -11155.81 -11153.76 -11151.62 -11149.54 -11146.79 -11144.18 -11147.50 -11151.80 -11163.04 -11215.94 -11256.88 -11284.65 -11298.97 -11309.83 -11324.38 -11325.42 -11285.47 -11229.53 -11239.08 -11251.46 -11265.44 -11281.90 -11306.29 -11375.33 -11443.31 -11451.68 -11446.30 -11445.47 -11442.60 -11425.82 -11410.62 -11397.23 -11389.80 -11379.54 -11370.35 -11365.37 -11358.41 -11353.42 -11349.23 -11345.56 -11343.02 -11340.67 -11337.97 -11332.20 -11325.05 -11311.63 -11294.32 -11279.01 -11273.45 -11270.60 -11275.66 -11282.44 -11272.54 -10151.71 -9540.71 -8148.05 -6063.65 -4112.16 -3565.07 -2545.11 -1400.21 -932.34 -446.52 -325.33 -571.88 -832.18 -939.27 -1132.68 -1266.26 -1345.41 -1463.65 -1569.48 -1609.01 -1396.96 -1298.57 -1525.27 -1849.16 -2323.53 -2979.73 -3787.16 -4691.82 -5427.05 -6456.54 -8039.06 -8994.32 -10107.80 -10932.45 -12047.53 -13476.94 -13667.82 -13723.48 -13496.75 -13086.12 -9661.83 -6982.37 -5942.26 -5752.27 -5743.51 -5774.33 -5791.36 -5798.02 -5797.41 -5795.94 -5792.77 -5790.42 -5788.26 -5785.18 -5780.25 -5771.81 -5759.63 -5753.62 -5749.85 -5743.72 -5735.81 -5735.88
-10861.02 -10863.88 -10873.30 -10886.49 -10899.69 -10909.19 -10924.18 -10927.36 -10925.42 -10928.50 -10940.23 -10949.89 -10956.70 -10966.34 -11003.17 -11070.38 -11102.02 -11140.29 -11194.21 -11246.91 -11270.36 -11248.24 -11178.16 -11165.56 -11164.60 -11162.85 -11160.21 -11158.07 -11159.02 -11157.93 -11155.85 -11155.64 -11156.68 -11161.76 -11166.18 -11224.46 -11272.60 -11291.69 -11305.12 -11319.30 -11330.87 -11325.67 -11291.72 -11236.42 -11245.91 -11259.84 -11272.85 -11281.94 -11323.68 -11387.91 -11442.44 -11454.81 -11452.01 -11450.97 -11448.39 -11434.45 -11418.82 -11398.40 -11392.35 -11380.50 -11373.69 -11366.93 -11359.17 -11351.02 -11346.87 -11342.90 -11339.16 -11335.30 -11332.11 -11326.83 -11323.35 -11307.00 -11293.61 -11274.44 -11271.01 -11269.93 -11275.57 -11247.09 -10995.92 -10006.14 -8418.81 -5479.29 -4648.02 -3194.26 -2616.14 -2050.53 -1562.46 -887.54 -535.64 -382.89 -420.73 -477.62 -670.26 -923.41 -1222.05 -1187.26 -1269.87 -1471.28 -1510.15 -1364.72 -1218.79 -1280.46 -1579.00 -2236.55 -2893.91 -3833.00 -4418.08 -5612.20 -7148.05 -8266.70 -9563.91 -9933.10 -10742.39 -11743.34 -13055.64 -13514.54 -13544.59 -13427.60 -12902.94 -11223.53 -7157.85 -5987.76 -5749.77 -5745.63 -5771.84 -5787.41 -5794.32 -5793.65 -5788.34 -5780.92 -5780.32 -5770.47 -5765.31 -5760.28 -5752.98 -5747.21 -5740.18 -5732.53 -5729.43 -5724.11 -5724.19
-10874.07 -10874.01 -10882.14 -10893.86 -10909.47 -10919.53 -10931.58 -10936.27 -10928.61 -10930.87 -10943.14 -10952.96 -10958.92 -10973.68 -11004.81 -11064.86 -11095.21 -11115.46 -11155.47 -11213.66 -11264.86 -11237.43 -11190.77 -11170.78 -11171.37 -11170.18 -11168.75 -11166.94 -11165.47 -11167.83 -11166.72 -11163.68 -11164.97 -11166.43 -11179.66 -11205.95 -11284.87 -11298.92 -11319.11 -11327.34 -11335.85 -11341.23 -11303.09 -11244.07 -11251.76 -11268.16 -11276.61 -11292.86 -11323.53 -11398.55 -11444.75 -11460.83 -11458.05 -11456.27 -11446.12 -11438.49 -11420.50 -11406.06 -11398.50 -11387.28 -11375.44 -11368.70 -11361.14 -11353.29 -11343.88 -11339.28 -11335.04 -11330.29 -11327.90 -11322.77 -11316.82 -11303.89 -11286.98 -11273.50 -11268.07 -11268.20 -11227.41 -11192.89 -10189.59 -8421.95 -7027.16 -5439.91 -3926.20 -2550.57 -2141.50 -1946.00 -1551.42 -584.97 -299.68 -310.63 -181.17 -167.83 -232.03 -437.89 -694.14 -650.02 -1025.19 -1421.23 -1476.50 -1014.11 -803.51 -990.86 -1740.89 -2126.77 -2803.68 -3728.48 -4592.64 -5913.49 -7778.72 -8338.25 -9254.40 -9844.15 -10421.99 -11901.47 -13125.50 -13370.54 -13379.86 -13269.48 -12591.13 -10737.41 -8250.30 -6054.55 -5801.66 -5750.22 -5765.12 -5784.24 -5789.07 -5786.43 -5777.99 -5775.88 -5764.09 -5757.40 -5756.11 -5745.91 -5735.90 -5723.85 -5718.88 -5714.73 -5712.19 -5709.12 -5710.18
-10888.79 -10888.73 -10902.07 -10908.04 -10917.26 -10926.24 -10940.18 -10940.57 -10933.58 -10934.72 -10946.16 -10949.60 -10957.47 -10965.48 -11026.84 -11059.38 -11084.64 -11100.43 -11120.73 -11169.90 -11229.94 -11230.13 -11187.81 -11174.50 -11175.88 -11176.24 -11174.21 -11172.99 -11171.52 -11172.84 -11171.85 -11171.00 -11172.83 -11176.69 -11183.88 -11246.21 -11287.38 -11308.95 -11320.92 -11334.55 -11347.07 -11344.77 -11309.00 -11265.53 -11262.53 -11274.43 -11287.25 -11299.30 -11316.05 -11394.69 -11461.74 -11468.14 -11464.05 -11459.69 -11452.48 -11442.68 -11430.75 -11413.32 -11401.94 -11391.69 -11379.58 -11370.82 -11363.41 -11356.20 -11343.53 -11337.11 -11331.25 -11325.89 -11319.98 -11318.36 -11309.84 -11299.12 -11283.27 -11270.16 -11267.32 -11267.04 -11262.68 -11055.01 -10012.10 -7562.15 -5373.08 -3845.97 -2924.06 -2187.35 -1808.14 -1483.75 -1400.44 -387.22 -9.88 -51.47 -42.50 -17.66 -46.21 -112.93 -152.87 -424.95 -652.10 -1149.58 -1203.98 -935.81 -817.18 -1129.81 -1577.57 -2541.86 -3123.62 -3473.03 -4793.73 -6187.22 -7595.32 -8340.78 -9135.48 -9851.85 -10642.90 -11351.13 -12420.24 -12811.50 -12945.44 -12954.61 -12432.56 -10993.93 -7747.29 -6043.75 -5787.33 -5738.26 -5754.64 -5782.69 -5787.73 -5779.96 -5773.16 -5759.67 -5749.90 -5741.06 -5735.34 -5727.18 -5710.90 -5715.64 -5703.55 -5698.15 -5696.73 -5694.58 -5694.66
-10915.26 -10923.15 -10928.58 -10936.08 -10940.97 -10953.43 -10965.34 -10957.49 -10923.57 -10914.57 -10927.80 -10933.92 -10937.52 -10939.76 -10956.39 -10974.61 -10978.73 -10998.94 -11012.10 -11050.25 -11117.32 -11164.69 -11158.24 -11167.48 -11170.67 -11172.12 -11169.66 -11169.28 -11163.52 -11164.97 -11157.35 -11157.03 -11165.55 -11169.32 -11177.25 -11236.99 -11275.11 -11295.66 -11307.34 -11315.08 -11326.77 -11335.60 -11316.40 -11281.45 -11280.67 -11290.82 -11303.88 -11312.93 -11347.03 -11420.77 -11459.89 -11472.48 -11469.38 -11464.68 -11456.88 -11451.11 -11434.95 -11424.65 -11410.07 -11400.85 -11390.49 -11378.19 -11366.63 -11355.70 -11342.11 -11333.84 -11328.88 -11322.42 -11311.00 -11309.48 -11298.60 -11285.61 -11271.43 -11268.00 -11265.68 -11266.60 -11214.38 -10772.49 -9554.18 -6845.13 -4451.00 -3300.64 -2561.11 -2005.75 -1579.52 -923.73 -412.56 -54.94 18.81 21.36 29.67 24.79 14.94 3.00 -14.10 -47.95 -241.22 -383.95 -695.37 -622.50 -829.85 -1226.96 -1749.95 -2364.90 -3019.91 -3811.09 -4869.49 -6242.76 -7711.83 -8569.15 -9146.75 -9967.84 -10606.05 -10892.86 -11590.66 -12147.49 -12347.63 -12385.29 -12282.24 -11103.32 -8056.06 -6042.53 -5774.62 -5713.18 -5751.92 -5771.79 -5776.45 -5767.89 -5760.87 -5749.02 -5738.13 -5729.12 -5718.25 -5704.72 -5696.08 -5687.35 -5680.74 -5676.84 -5676.88 -5675.92 -5677.47
-10952.13 -10951.53 -10953.84 -10960.33 -10975.61 -10984.42 -10991.92 -10981.99 -10904.93 -10899.38 -10907.44 -10915.20 -10922.33 -10925.68 -10913.69 -10886.16 -10902.45 -10912.94 -10931.08 -10938.32 -10966.14 -11071.77 -11121.32 -11148.29 -11160.92 -11162.83 -11162.85 -11162.48 -11151.89 -11144.47 -11146.80 -11146.92 -11149.60 -11155.25 -11168.51 -11210.08 -11244.39 -11265.73 -11284.81 -11303.49 -11309.56 -11317.29 -11302.67 -11291.67 -11298.59 -11308.55 -11319.15 -11327.39 -11341.36 -11429.83 -11466.76 -11476.57 -11473.60 -11469.31 -11461.69 -11455.11 -11446.02 -11428.74 -11422.40 -11414.03 -11400.51 -11381.40 -11370.60 -11359.34 -11351.26 -11337.64 -11330.65 -11319.96 -11310.67 -11304.42 -11288.82 -11277.78 -11273.39 -11273.98 -11276.13 -11227.14 -11111.94 -10187.02 -8590.32 -6323.02 -4242.62 -2975.21 -2241.80 -1735.28 -916.61 -164.60 -30.63 11.36 41.30 51.21 54.72 63.82 54.05 22.80 -2.34 -27.22 -42.66 -56.36 -335.69 -372.15 -599.50 -1361.12 -1764.92 -2516.93 -3408.84 -4089.14 -4692.55 -6665.47 -8036.04 -8682.41 -9307.20 -9667.49 -10029.59 -10308.65 -11176.26 -11888.86 -12014.95 -11940.56 -11860.51 -9403.06 -7859.76 -5997.05 -5723.55 -5699.11 -5744.68 -5759.55 -5761.45 -5756.57 -5751.28 -5735.78 -5716.66 -5705.42 -5690.88 -5686.09 -5676.31 -5665.32 -5662.38 -5662.28 -5664.42 -5659.76 -5659.84
-10967.50 -10969.59 -10974.39 -10981.02 -10987.85 -10995.61 -10997.58 -10972.24 -10911.58 -10899.46 -10903.50 -10910.21 -10918.31 -10921.59 -10906.98 -10879.28 -10877.95 -10888.34 -10896.63 -10912.69 -10930.38 -11016.39 -11092.44 -11146.26 -11163.34 -11167.02 -11166.78 -11166.76 -11158.07 -11148.13 -11147.22 -11149.25 -11157.25 -11163.11 -11167.34 -11222.70 -11249.38 -11272.30 -11285.31 -11302.56 -11316.10 -11331.30 -11315.15 -11308.42 -11317.80 -11328.71 -11340.50 -11339.01 -11377.10 -11445.61 -11478.70 -11482.94 -11481.56 -11475.26 -11468.30 -11460.07 -11454.67 -11444.07 -11435.95 -11417.90 -11403.14 -11391.75 -11369.39 -11364.84 -11353.48 -11342.43 -11328.19 -11319.98 -11310.18 -11302.36 -11292.20 -11281.55 -11279.18 -11281.53 -11277.21 -11080.50 -10419.28 -8486.16 -7064.46 -4975.33 -3636.74 -2691.09 -2288.61 -1713.03 -598.16 -68.63 14.32 40.07 57.79 74.34 97.61 93.17 74.42 69.29 46.89 19.67 4.42 -9.36 -26.37 -59.70 -478.75 -1348.61 -1996.11 -2523.34 -3246.94 -4043.98 -4507.94 -5916.24 -8092.95 -8309.57 -8629.56 -8912.00 -9744.93 -10402.01 -11021.33 -11331.86 -11566.31 -11791.15 -11339.58 -9731.63 -7360.11 -5963.41 -5693.81 -5686.92 -5717.06 -5745.94 -5749.00 -5733.44 -5719.50 -5707.27 -5690.11 -5675.09 -5673.50 -5668.11 -5659.34 -5652.03 -5649.01 -5645.56 -5644.33 -5641.68 -5641.76
-10979.80 -10979.74 -10981.92 -10989.31 -10994.78 -11005.38 -11008.24 -10981.75 -10909.38 -10905.92 -10908.32 -10914.57 -10919.94 -10923.68 -10910.72 -10883.16 -10881.41 -10889.86 -10898.74 -10909.55 -10930.04 -10984.26 -11046.09 -11134.35 -11161.09 -11172.49 -11174.43 -11172.93 -11163.94 -11157.07 -11154.25 -11158.78 -11165.52 -11168.72 -11177.91 -11195.84 -11216.37 -11263.86 -11277.95 -11301.25 -11315.65 -11338.73 -11329.91 -11322.62 -11335.13 -11343.65 -11352.46 -11357.85 -11366.52 -11460.72 -11488.56 -11490.50 -11488.00 -11480.16 -11474.55 -11465.00 -11460.24 -11448.54 -11441.96 -11430.68 -11410.26 -11401.03 -11385.93 -11369.31 -11355.18 -11348.86 -11328.45 -11321.35 -11309.63 -11303.55 -11292.89 -11288.41 -11283.95 -11285.91 -11182.18 -10664.00 -9764.06 -7805.86 -5940.14 -4653.98 -3659.98 -2543.51 -1432.82 -849.24 -116.60 -13.20 31.83 49.09 84.74 103.96 108.50 108.86 104.26 88.64 64.08 57.16 53.54 29.59 7.46 -33.88 -149.60 -763.72 -1903.35 -1851.81 -1900.86 -3125.36 -3295.02 -5121.26 -6596.06 -7219.62 -8057.77 -8564.90 -9266.87 -9993.62 -10624.33 -11027.07 -11395.44 -11652.79 -11089.81 -9585.61 -7206.04 -6074.55 -5669.59 -5680.47 -5707.27 -5731.28 -5730.02 -5714.03 -5701.45 -5688.22 -5667.22 -5661.11 -5659.65 -5651.97 -5645.70 -5632.54 -5628.12 -5619.69 -5622.87 -5624.24 -5624.32
-10991.91 -10991.85 -10995.21 -11005.51 -11009.44 -11014.02 -11014.92 -10996.75 -10934.15 -10912.18 -10912.14 -10919.83 -10924.36 -10927.19 -10921.26 -10892.29 -10884.08 -10892.89 -10901.78 -10910.48 -10926.90 -10964.69 -11054.95 -11081.59 -11150.32 -11172.77 -11178.21 -11178.96 -11172.90 -11164.58 -11162.42 -11155.76 -11157.81 -11153.42 -11119.37 -11141.15 -11128.39 -11096.45 -11153.65 -11182.22 -11283.21 -11298.56 -11303.39 -11316.41 -11339.43 -11350.93 -11367.44 -11367.14 -11381.84 -11466.62 -11494.18 -11494.45 -11493.31 -11486.04 -11476.54 -11466.11 -11462.68 -11453.70 -11445.97 -11433.20 -11422.70 -11403.02 -11394.80 -11379.41 -11361.95 -11348.34 -11334.24 -11319.51 -11311.78 -11299.61 -11291.67 -11284.06 -11271.86 -11158.97 -11104.34 -9853.12 -8088.42 -6488.42 -5530.03 -4690.79 -3243.79 -911.43 -592.37 -314.19 -82.94 18.53 62.70 89.16 116.84 130.63 140.10 143.18 132.21 132.16 115.33 85.74 74.59 51.54 28.13 -31.14 -66.65 -181.45 -709.84 -1125.06 -997.47 -929.28 -948.21 -2358.48 -4277.76 -6182.25 -7354.03 -8049.47 -8882.74 -9554.40 -10260.66 -10864.84 -11318.76 -11408.99 -10743.78 -9294.19 -7256.57 -5852.89 -5698.87 -5677.52 -5708.27 -5722.43 -5724.51 -5709.46 -5699.19 -5679.81 -5660.93 -5651.63 -5642.02 -5641.81 -5625.49 -5619.78 -5615.66 -5609.29 -5607.27 -5605.99 -5607.42
-11004.16 -11004.10 -11011.38 -11015.58 -11018.55 -11022.71 -11022.96 -11015.40 -10936.86 -10919.99 -10923.99 -10931.47 -10935.85 -10936.22 -10925.26 -10895.05 -10889.73 -10903.47 -10908.77 -10919.58 -10930.75 -10966.03 -11005.86 -11068.99 -11126.63 -11154.02 -11156.18 -11173.19 -11144.00 -11017.17 -11033.77 -11103.12 -11022.17 -11024.63 -10965.11 -10712.58 -10319.98 -10569.98 -10600.06 -10629.77 -10939.76 -11065.39 -11134.50 -11214.05 -11240.26 -11276.18 -11312.50 -11341.12 -11384.76 -11435.52 -11486.20 -11480.39 -11484.22 -11461.43 -11476.88 -11452.67 -11458.75 -11455.49 -11448.67 -11431.65 -11423.78 -11417.20 -11402.92 -11393.56 -11371.85 -11348.08 -11337.20 -11300.44 -11298.70 -11296.20 -11119.66 -11164.65 -11195.45 -10882.47 -9959.48 -8189.33 -6226.65 -4755.62 -4455.11 -3819.72 -2400.31 -498.34 -147.20 -38.95 11.01 47.34 84.76 112.05 134.91 166.81 182.04 195.99 213.24 160.48 153.36 140.93 92.44 53.47 24.68 -22.86 -86.98 -238.90 -594.85 -416.80 -315.61 -430.25 -588.68 -751.03 -1882.32 -4934.41 -6435.43 -7738.74 -8214.87 -9091.89 -9778.42 -10650.42 -11046.44 -11199.75 -10149.71 -8905.57 -6652.62 -5851.57 -5683.17 -5671.84 -5709.53 -5723.31 -5721.21 -5707.86 -5687.51 -5676.05 -5657.10 -5648.14 -5633.38 -5624.89 -5614.71 -5605.44 -5596.53 -5594.04 -5596.59 -5591.07 -5591.15
-11019.23 -11021.41 -11023.38 -11027.21 -11026.76 -11033.31 -11036.35 -11016.14 -10965.94 -10958.63 -10976.67 -10974.83 -10979.93 -10993.27 -10965.11 -10915.16 -10914.20 -10931.20 -10933.39 -10939.97 -10951.91 -10960.01 -10948.75 -10910.53 -10951.12 -11012.49 -11087.83 -11095.85 -10992.21 -10793.06 -10743.25 -10832.05 -10341.02 -10138.72 -9853.18 -9377.88 -8472.85 -8269.96 -8639.85 -8919.34 -9287.21 -9089.91 -10152.86 -10905.10 -10756.47 -11119.91 -11076.59 -11109.77 -11079.75 -11305.05 -11372.14 -11370.00 -11450.79 -11394.67 -11362.15 -11392.16 -11416.59 -11401.86 -11403.01 -11391.25 -11381.95 -11369.72 -11350.28 -11301.13 -11291.21 -11277.76 -11244.50 -11261.68 -11252.21 -11174.14 -10612.71 -10723.83 -10591.23 -9449.24 -9206.26 -6001.46 -4638.71 -3868.26 -2984.17 -2340.70 -1323.08 -599.63 0.05 43.33 83.07 92.48 168.75 292.29 356.94 407.14 428.83 285.58 301.86 279.45 256.04 293.30 87.01 68.32 38.05 -21.92 -78.96 -759.20 -1677.20 -791.36 -943.72 -692.63 -470.81 -532.06 -710.03 -1617.17 -3860.45 -6826.25 -7330.10 -8088.12 -9062.49 -9908.50 -10592.93 -10568.50 -9894.98 -8141.45 -7144.40 -5699.47 -5650.27 -5672.99 -5704.25 -5719.66 -5716.84 -5702.20 -5683.40 -5664.51 -5649.08 -5638.33 -5621.39 -5611.52 -5600.48 -5593.54 -5583.21 -5576.59 -5581.48 -5575.30 -5575.38
-11035.69 -11035.63 -11038.72 -11038.78 -11044.77 -11052.59 -11050.83 -11041.64 -11015.47 -11014.54 -11011.31 -11015.69 -11021.82 -11020.36 -10996.94 -10942.41 -10940.99 -10952.29 -10963.11 -10973.14 -10970.76 -10945.44 -10901.68 -10625.27 -10291.79 -10198.38 -10612.17 -10766.11 -10506.98 -10440.60 -10226.28 -9821.33 -9547.49 -9097.62 -8419.91 -7518.03 -6905.92 -6889.09 -7077.35 -6988.08 -7386.64 -8046.90 -8245.39 -9476.86 -9819.17 -10275.11 -10900.99 -10828.01 -10915.80 -11106.52 -11285.41 -11268.44 -11248.84 -11249.19 -11251.05 -11264.46 -11337.88 -11371.51 -11360.21 -11344.55 -11335.42 -11320.35 -11310.65 -11215.10 -11172.39 -11189.51 -11166.60 -11182.85 -11080.57 -10866.88 -10240.76 -9545.75 -9265.17 -8136.28 -6273.98 -4743.17 -3372.63 -2222.01 -1212.42 -799.27 -133.99 -25.26 23.32 85.16 103.34 173.50 422.60 551.56 629.70 791.97 742.89 629.81 625.96 672.15 562.29 547.28 227.09 94.21 41.05 -29.74 -134.72 -539.18 -3459.27 -2484.78 -2204.03 -1754.60 -1903.06 -794.01 -756.61 -717.30 -2694.66 -4961.35 -6796.93 -7063.38 -8155.25 -9078.83 -10016.02 -10317.17 -9434.75 -8487.14 -6533.88 -5823.32 -5632.70 -5663.76 -5691.16 -5718.62 -5709.26 -5694.13 -5682.28 -5658.85 -5638.85 -5627.05 -5604.96 -5601.89 -5586.62 -5577.33 -5570.81 -5568.52 -5563.78 -5560.43 -5560.51
-11047.97 -11049.24 -11051.72 -11054.88 -11057.25 -11059.09 -11062.52 -11046.18 -11030.63 -11028.06 -11027.40 -11031.81 -11037.01 -11035.91 -10992.86 -10954.03 -10953.93 -10962.67 -10973.07 -10978.60 -10973.79 -10884.91 -10507.42 -9913.73 -9158.45 -9301.54 -9317.38 -10013.44 -9858.54 -9790.46 -9511.33 -8731.34 -8086.07 -7767.15 -7379.92 -6688.34 -6241.11 -6151.92 -6294.85 -6351.72 -6570.59 -6649.72 -7261.59 -8139.49 -9021.28 -9471.05 -10148.08 -10586.76 -10728.69 -10783.52 -11032.33 -11132.42 -11214.74 -11193.51 -11225.57 -11239.46 -11323.42 -11363.94 -11357.11 -11346.50 -11336.68 -11323.61 -11304.62 -11192.16 -11151.20 -11123.69 -11110.95 -11079.62 -11012.89 -10526.57 -9269.32 -8621.28 -7997.31 -7194.74 -5101.45 -3684.06 -2017.91 -1322.05 -284.14 -130.80 7.07 33.10 47.40 101.53 148.75 245.52 425.09 720.44 987.80 1148.20 1077.53 1044.85 1170.02 1029.41 1177.70 855.56 317.75 111.07 43.26 -15.99 -79.14 -1025.10 -4926.80 -4718.56 -4048.60 -3457.11 -2626.41 -1936.85 -1141.83 -1233.33 -2544.10 -4379.07 -5652.67 -6557.82 -7682.86 -9341.06 -9678.47 -10360.68 -9343.71 -8149.03 -6474.50 -5701.99 -5637.44 -5663.11 -5687.14 -5707.24 -5699.25 -5684.65 -5670.20 -5652.83 -5633.67 -5607.27 -5595.02 -5586.52 -5573.57 -5565.49 -5556.74 -5554.56 -5546.91 -5545.26 -5542.67
-11062.37 -11061.41 -11061.68 -11064.47 -11066.49 -11070.56 -11070.38 -11062.49 -11042.64 -11034.01 -11036.37 -11039.76 -11044.37 -11049.11 -11007.06 -10963.70 -10964.89 -10971.20 -10980.41 -10984.23 -10967.28 -10823.92 -10100.94 -9016.40 -8275.81 -8159.13 -8618.66 -8928.59 -8474.45 -8712.98 -8828.02 -8100.82 -7139.43 -6788.61 -6701.37 -6280.80 -5587.54 -5638.59 -5480.00 -6061.93 -5831.59 -6496.05 -6966.49 -7692.01 -8111.35 -8435.62 -9495.52 -9999.35 -10068.48 -10332.64 -10632.65 -10919.00 -10899.23 -11071.81 -11166.98 -11253.08 -11291.21 -11358.35 -11352.05 -11341.75 -11329.96 -11321.24 -11297.43 -11179.85 -11117.13 -11093.79 -10897.70 -10869.67 -10755.81 -10135.50 -9007.23 -7702.43 -6547.24 -4846.17 -3818.07 -1926.13 -825.59 -480.00 -15.60 23.15 49.13 69.56 91.13 124.13 153.79 210.23 270.16 606.43 918.07 973.34 1247.01 1388.29 1423.11 1354.37 1331.52 730.90 470.13 172.43 69.73 12.28 -80.94 -787.92 -5312.97 -5622.08 -5305.65 -4739.45 -3925.38 -3232.45 -2513.39 -2032.76 -1703.00 -1871.39 -2641.93 -4187.62 -5868.94 -7207.43 -10251.08 -10512.90 -9499.40 -8810.50 -6281.21 -5862.86 -5614.34 -5630.60 -5679.19 -5692.72 -5687.90 -5672.03 -5655.02 -5632.34 -5611.85 -5594.32 -5590.56 -5569.90 -5561.00 -5549.99 -5544.03 -5534.88 -5532.21 -5527.03 -5527.08
-11075.42 -11075.35 -11073.38 -11074.71 -11077.71 -11083.63 -11085.93 -11075.98 -11047.80 -11044.21 -11045.22 -11049.29 -11057.80 -11058.60 -11032.37 -10984.43 -10971.43 -10984.24 -10991.29 -10986.46 -10940.09 -10731.73 -9859.76 -9003.53 -7810.65 -7705.92 -7712.27 -7870.34 -7649.37 -7738.90 -7660.78 -7258.33 -6593.62 -5744.13 -4971.45 -3869.50 -4094.97 -3707.00 -4112.72 -4542.21 -4962.27 -6240.88 -7109.00 -7551.90 -7646.44 -7781.06 -8324.82 -8737.48 -9221.19 -9059.94 -9331.59 -9713.58 -10097.94 -10433.66 -10859.21 -10962.14 -11250.96 -11271.85 -11141.48 -11261.49 -11258.07 -11289.71 -11185.08 -11019.14 -10899.64 -10627.24 -10623.16 -9927.33 -9567.74 -8835.18 -7689.34 -6945.47 -6194.87 -4251.93 -3098.78 -1390.43 -185.04 30.81 38.03 54.84 70.80 87.29 120.39 144.27 187.30 218.76 266.44 399.00 465.70 641.23 822.87 1062.08 1199.73 1404.91 1437.15 921.93 723.49 197.43 109.87 31.58 -14.18 -249.08 -3566.45 -6136.78 -5819.74 -5201.96 -5026.19 -4794.24 -4197.96 -3069.01 -2104.36 -1395.49 -1768.06 -2689.99 -4349.15 -5878.56 -8887.36 -9748.51 -9361.93 -8152.36 -6817.93 -6062.74 -5627.12 -5609.30 -5656.23 -5672.99 -5670.88 -5656.44 -5634.46 -5617.55 -5590.21 -5585.34 -5567.05 -5556.49 -5546.38 -5533.41 -5526.20 -5520.38 -5515.19 -5512.86 -5510.78
-11090.47 -11090.39 -11097.64 -11088.27 -11087.83 -11094.66 -11094.60 -11076.49 -11064.31 -11053.16 -11054.73 -11058.40 -11063.01 -11066.91 -11045.78 -11005.53 -11001.99 -11029.11 -11013.22 -11011.09 -10985.39 -10652.05 -9605.58 -8640.98 -7784.36 -7683.23 -7708.46 -7593.41 -7227.13 -6972.36 -7017.66 -6859.52 -5468.10 -3842.60 -3001.91 -2495.86 -1672.45 -1361.84 -1569.03 -1631.23 -1643.93 -4315.80 -5878.97 -7528.89 -6545.17 -7566.06 -7616.03 -7553.76 -7796.59 -7835.19 -8191.49 -8448.26 -8905.48 -9288.42 -9764.32 -10508.15 -10659.16 -10862.47 -10863.72 -10974.45 -10845.17 -10241.58 -10611.69 -10445.91 -10098.32 -9699.85 -9837.73 -8763.27 -8784.30 -7767.75 -6312.77 -5228.40 -3584.58 -2755.14 -1455.28 -359.88 43.34 58.12 68.09 74.73 84.54 102.08 139.01 176.42 204.55 240.13 270.78 314.03 376.63 450.81 532.17 677.52 870.02 1136.76 1338.74 1168.66 803.00 593.57 286.10 54.45 -24.53 -199.42 -3134.16 -5689.76 -5278.85 -5480.55 -5189.30 -5149.38 -4987.08 -4297.62 -3437.83 -2803.80 -1874.10 -1813.21 -2492.54 -2781.62 -6165.01 -8810.95 -9498.51 -8194.92 -6421.05 -5980.30 -5690.52 -5593.67 -5608.53 -5642.73 -5645.64 -5640.27 -5616.10 -5594.03 -5578.44 -5559.92 -5546.34 -5541.44 -5530.97 -5516.89 -5511.74 -5508.81 -5499.74 -5492.99 -5493.04
-11114.32 -11114.24 -11120.07 -11110.06 -11115.85 -11120.02 -11118.14 -11086.06 -11052.33 -11044.39 -11049.56 -11052.86 -11063.13 -11068.37 -11063.94 -11060.18 -11063.62 -11079.32 -11076.98 -11103.47 -11044.44 -10758.24 -9617.55 -8847.23 -7987.61 -8001.38 -8109.46 -7925.96 -6992.88 -6445.18 -6153.77 -5654.26 -5095.86 -2155.51 -1179.64 -446.78 -459.06 -213.02 -140.37 -342.97 -352.08 -810.75 -2230.09 -2621.54 -3289.60 -4913.99 -4737.55 -5531.25 -5531.02 -6449.47 -6824.17 -6446.02 -6311.99 -7889.98 -7323.18 -7538.05 -8233.80 -8838.69 -8729.67 -8902.85 -8378.90 -8978.52 -8402.30 -8669.54 -8001.39 -7078.02 -6441.21 -6704.24 -6074.30 -5802.79 -3970.92 -2638.91 -1803.85 -1520.66 -117.84 43.59 59.24 76.80 83.67 99.81 111.74 125.67 151.31 182.22 220.61 252.41 292.62 323.79 355.78 393.96 440.37 508.65 641.09 919.05 1030.85 1140.48 995.17 729.11 283.61 134.40 22.45 -80.04 -428.46 -1349.35 -4202.34 -5158.47 -5380.86 -5091.42 -5081.07 -5001.08 -4553.03 -3788.82 -3045.58 -2332.91 -2114.53 -2340.23 -3850.84 -5780.30 -7945.15 -7182.82 -6595.18 -6085.21 -5739.00 -5595.80 -5581.28 -5607.77 -5607.77 -5604.34 -5598.50 -5574.37 -5541.37 -5537.05 -5528.18 -5515.56 -5507.79 -5495.21 -5489.95 -5479.03 -5475.63 -5474.23 -5474.28
-11134.77 -11133.32 -11135.80 -11136.26 -11136.54 -11135.57 -11139.58 -11106.10 -11063.83 -11045.57 -11049.58 -11050.79 -11056.34 -11062.96 -11091.71 -11147.17 -11168.70 -11174.39 -11182.76 -11175.47 -11102.94 -10943.55 -10151.05 -9213.93 -9148.80 -8808.99 -9076.66 -9005.16 -6957.47 -6057.43 -5348.15 -4579.49 -3503.78 -1439.23 -421.59 -103.74 -87.85 -80.49 -67.86 -75.60 -78.30 -96.61 -435.24 -520.41 -727.19 -1887.77 -2414.66 -3084.89 -3602.24 -4656.46 -4886.03 -5049.95 -5556.67 -5532.71 -5646.65 -6103.66 -6186.36 -6174.07 -6393.44 -6132.53 -6111.60 -6358.65 -5951.89 -6324.66 -5770.88 -5336.16 -5527.12 -4822.66 -4840.55 -4096.76 -2428.29 -882.03 -158.77 35.76 49.52 71.95 95.61 100.04 102.11 123.95 133.25 147.99 172.54 203.60 228.44 269.31 291.27 328.07 360.25 396.93 431.27 469.13 477.82 575.67 726.85 1012.01 1129.24 809.72 439.08 126.11 74.85 12.47 -141.43 -347.11 -2067.71 -4169.76 -5573.73 -5247.90 -5037.55 -4976.51 -5307.19 -5372.50 -4129.36 -3665.51 -2790.34 -1914.46 -2123.03 -3449.30 -4140.40 -5717.21 -6435.33 -6194.54 -5864.76 -5620.05 -5564.31 -5557.07 -5578.12 -5559.12 -5532.41 -5511.69 -5511.63 -5491.44 -5508.85 -5496.63 -5482.87 -5470.06 -5469.02 -5457.87 -5451.55 -5453.73 -5453.78
-11151.31 -11150.05 -11152.11 -11155.21 -11151.96 -11154.01 -11155.73 -11132.33 -11080.27 -11055.10 -11057.09 -11062.69 -11065.08 -11075.07 -11118.03 -11159.72 -11186.21 -11191.44 -11200.91 -11199.11 -11165.33 -11023.20 -10602.97 -10271.51 -10172.61 -10400.31 -10310.56 -9769.52 -7635.17 -5973.97 -5470.33 -4093.37 -2245.35 -1000.91 -122.21 -96.73 -70.88 -45.16 -33.70 -38.52 -54.32 -40.69 -48.53 -89.53 -102.85 -100.46 -123.23 -393.85 -471.32 -1370.03 -2519.21 -2593.92 -4279.94 -5548.05 -5509.65 -5500.06 -5628.76 -5583.13 -5429.98 -5428.11 -5337.31 -5283.34 -5284.24 -5271.29 -5057.04 -4443.25 -4478.45 -4059.29 -3128.60 -2290.68 -1216.85 23.30 40.12 55.01 68.34 91.08 110.43 129.77 129.96 136.06 136.54 163.54 176.74 206.79 231.18 264.26 294.02 322.84 358.39 389.31 426.69 451.63 481.47 512.05 578.85 748.75 1019.66 1005.00 711.34 312.71 77.44 53.62 20.94 0.73 -912.41 -3654.00 -5572.30 -5608.93 -5276.89 -5125.54 -5355.95 -5473.97 -5398.77 -5033.44 -3899.74 -3238.03 -2859.24 -2114.87 -2831.74 -4189.30 -5621.45 -5612.94 -5914.42 -5696.66 -5575.86 -5533.48 -5506.30 -5496.36 -5479.96 -5468.15 -5444.40 -5443.32 -5469.27 -5466.46 -5463.82 -5454.37 -5443.36 -5439.96 -5436.34 -5434.12 -5431.39
-11167.68 -11166.39 -11168.26 -11168.74 -11172.53 -11172.62 -11168.94 -11132.32 -11078.03 -11075.37 -11075.52 -11078.29 -11086.47 -11092.20 -11122.71 -11186.12 -11198.05 -11207.71 -11208.16 -11211.70 -11194.41 -11131.56 -10991.03 -10891.74 -10894.64 -10912.15 -10730.58 -10412.52 -9079.49 -7199.54 -5295.14 -3258.32 -971.24 -244.45 -98.56 -74.95 -30.62 -16.58 4.23 3.56 1.51 -1.12 7.18 -6.50 -24.59 -48.08 -77.69 -84.80 -177.74 -186.26 -77.85 -91.57 -907.75 -2823.88 -2861.25 -3205.49 -5016.56 -5499.88 -5018.75 -5198.96 -5138.49 -5136.02 -5126.67 -4402.76 -3909.96 -3244.21 -3086.82 -2505.82 -1562.94 -1071.22 -418.48 37.25 51.77 65.40 78.17 101.87 143.94 170.50 161.58 154.60 161.83 178.02 187.47 207.71 230.49 252.36 292.40 323.52 357.56 375.92 398.41 430.11 451.16 493.81 531.28 676.86 892.84 1109.02 895.59 691.66 145.59 122.61 91.34 26.51 -10.81 -1574.55 -4466.90 -5021.44 -5463.63 -5170.48 -5161.29 -5236.15 -5436.19 -5530.32 -5262.96 -4657.73 -4214.93 -3645.67 -2907.03 -2816.68 -3530.96 -4410.99 -5893.09 -5794.88 -5618.50 -5513.02 -5477.67 -5464.43 -5453.09 -5439.08 -5419.51 -5424.63 -5444.66 -5446.24 -5437.58 -5429.90 -5422.88 -5419.31 -5410.84 -5409.91 -5407.34
-11183.48 -11183.40 -11187.51 -11187.45 -11185.11 -11190.75 -11187.57 -11165.02 -11092.14 -11088.54 -11084.52 -11093.39 -11096.43 -11101.99 -11142.03 -11200.75 -11210.49 -11217.26 -11217.36 -11219.52 -11210.24 -11161.21 -11037.57 -11036.18 -11024.73 -11012.39 -10998.91 -10727.37 -9642.92 -8452.31 -6048.14 -2861.39 -401.69 -131.87 -79.62 -36.64 -4.44 4.86 14.66 16.68 18.98 27.43 28.58 29.41 19.84 -1.95 -4.40 -1.68 -20.54 -23.77 -26.35 -65.30 -99.86 -590.49 -1170.06 -1762.89 -2628.37 -3646.47 -3643.99 -4154.36 -4319.16 -4048.76 -3711.07 -3236.31 -2618.99 -2243.66 -2477.07 -1228.09 7.15 23.92 34.42 45.56 70.08 78.03 96.57 133.66 198.03 226.86 199.75 192.34 180.35 183.82 190.84 208.04 223.40 245.83 278.74 301.92 331.53 374.82 386.29 404.02 428.00 479.52 492.28 507.34 713.00 955.43 959.88 570.16 246.01 190.51 149.78 75.89 53.44 10.18 -1175.16 -3915.23 -5493.81 -5569.30 -5081.94 -5090.00 -5464.77 -5756.13 -5924.08 -5775.67 -5670.80 -5244.08 -4159.13 -3055.24 -2844.30 -4031.18 -5293.36 -5779.93 -5680.41 -5480.09 -5437.25 -5422.21 -5412.06 -5409.21 -5396.07 -5397.51 -5417.19 -5420.46 -5415.35 -5402.42 -5391.91 -5388.47 -5380.04 -5381.27 -5381.32
-11193.19 -11192.99 -11192.77 -11193.22 -11194.48 -11198.87 -11194.38 -11165.05 -11114.00 -11097.66 -11098.32 -11100.93 -11108.79 -11118.42 -11139.89 -11199.53 -11221.01 -11223.52 -11225.03 -11225.98 -11213.22 -11167.95 -11019.74 -10973.38 -10971.66 -10988.69 -10973.57 -10841.83 -9898.70 -8696.91 -6572.10 -2976.38 -189.93 -101.66 -43.07 -16.17 4.61 19.03 23.16 35.10 36.91 45.59 43.12 46.08 41.28 36.46 30.60 26.71 24.20 12.72 -4.63 -21.70 -67.70 -100.00 -116.12 -608.60 -287.25 -879.97 -1241.87 -1352.48 -2648.07 -2318.04 -1979.39 -1729.30 -1027.05 -1532.01 -782.13 -48.90 15.76 34.02 47.59 63.88 71.46 87.36 113.24 140.95 241.27 249.89 215.40 214.55 215.13 194.45 207.89 219.66 232.26 248.07 274.94 299.90 324.56 365.95 384.15 396.12 423.75 463.80 473.01 476.03 556.31 695.68 906.57 797.48 916.16 583.71 262.71 123.91 98.64 17.68 -36.80 -300.11 -1850.84 -5698.23 -5078.24 -5113.64 -5439.31 -5772.98 -5872.92 -5941.71 -5967.56 -5737.98 -5004.28 -3851.37 -2459.97 -3207.22 -4912.71 -5802.81 -5695.32 -5509.82 -5427.22 -5414.72 -5411.68 -5406.08 -5396.98 -5387.97 -5393.13 -5389.02 -5382.32 -5373.77 -5370.27 -5363.20 -5360.95 -5356.38 -5352.98
-11162.75 -11162.71 -11166.54 -11177.37 -11183.04 -11181.35 -11183.33 -11147.78 -11104.57 -11074.02 -11085.32 -11087.40 -11087.96 -11100.16 -11122.89 -11210.92 -11221.04 -11225.26 -11225.25 -11223.90 -11205.11 -11025.26 -10793.80 -10689.38 -10716.05 -10805.74 -10741.61 -10469.93 -9458.99 -8544.71 -6583.91 -2731.20 -512.24 -71.37 -23.23 6.97 15.13 25.84 37.78 50.26 57.31 62.98 66.55 59.69 57.51 53.21 40.91 33.05 31.17 25.87 9.48 -5.15 -26.52 -57.29 -91.99 -124.84 -134.24 -138.05 -244.13 -381.92 -455.80 -407.19 -563.95 -544.15 -276.18 -319.43 -232.13 16.47 28.92 43.64 53.79 71.57 85.61 90.59 143.43 185.81 256.08 258.60 234.71 234.83 226.64 212.97 217.69 225.46 238.82 251.02 273.87 290.99 320.30 352.18 374.92 396.71 410.17 442.95 463.83 469.91 505.57 625.35 784.87 1006.65 1053.36 682.20 300.92 182.07 120.34 80.54 22.26 -356.33 -2029.99 -5261.12 -5143.12 -4993.29 -5399.39 -5655.82 -5822.60 -5961.35 -6060.09 -5917.03 -5379.53 -3601.05 -2440.58 -2611.83 -3830.78 -5045.09 -5712.91 -5551.35 -5446.48 -5400.21 -5398.71 -5399.91 -5383.51 -5378.94 -5369.91 -5369.26 -5354.34 -5356.00 -5339.27 -5339.07 -5327.27 -5325.82 -5325.87
-11153.92 -11153.85 -11158.82 -11162.27 -11164.19 -11164.77 -11164.58 -11133.60 -11072.51 -11065.68 -11069.70 -11073.33 -11073.82 -11087.51 -11126.29 -11195.87 -11225.46 -11227.90 -11227.91 -11226.77 -11192.15 -10899.68 -10577.70 -10509.08 -10496.91 -10506.66 -10438.53 -10375.30 -9610.84 -8560.41 -7086.22 -1264.42 -100.32 -69.58 -7.32 7.39 18.76 38.33 51.52 71.31 87.34 89.88 89.68 101.52 86.84 77.55 62.92 54.93 41.97 32.12 19.35 9.27 0.11 -17.82 -54.23 -94.60 -113.85 -124.56 -138.76 -141.75 -145.30 -144.77 -132.02 -107.95 -75.40 7.64 13.52 22.23 32.49 43.68 57.95 70.27 88.51 102.39 154.75 176.82 243.28 232.99 239.10 237.10 233.06 224.53 221.46 227.46 240.25 249.72 278.85 294.61 310.58 338.95 369.47 383.43 395.46 440.69 449.04 468.65 493.44 542.54 660.03 890.08 1102.49 968.03 602.90 290.08 122.45 105.50 66.43 -580.22 -2229.31 -5089.09 -5493.27 -5105.87 -5233.92 -5385.41 -5721.54 -5907.62 -6056.56 -6025.71 -5416.90 -3821.53 -2513.10 -2041.27 -2484.24 -4729.89 -5514.88 -5609.44 -5419.10 -5376.76 -5363.68 -5361.56 -5363.19 -5358.33 -5343.19 -5336.31 -5331.44 -5323.80 -5325.76 -5310.70 -5303.78 -5299.74 -5299.79
-11164.41 -11164.33 -11170.10 -11172.09 -11171.53 -11171.81 -11172.86 -11144.52 -11082.11 -11079.16 -11080.14 -11081.95 -11087.70 -11097.83 -11138.66 -11215.35 -11240.52 -11248.40 -11242.80 -11235.30 -11208.85 -10888.37 -10622.72 -10503.17 -10483.35 -10465.00 -10433.51 -10132.53 -9677.76 -6999.36 -3447.33 -147.39 -90.79 -28.68 5.28 13.24 22.37 42.25 66.09 82.49 110.95 131.56 142.09 140.25 121.36 83.71 84.35 67.60 52.29 36.82 29.75 20.77 8.28 3.99 -14.35 -47.79 -98.98 -112.54 -122.09 -123.04 -141.94 -133.69 -113.20 -69.71 -17.67 8.77 19.47 26.33 36.13 47.43 51.78 68.19 83.31 110.97 153.38 162.13 183.11 214.40 233.04 234.88 233.15 223.84 222.67 229.73 241.00 253.13 272.05 284.95 307.56 315.78 351.35 374.79 392.98 423.73 430.15 456.59 477.65 499.34 601.25 857.74 1123.36 1024.85 821.23 449.38 174.32 137.28 114.06 81.42 -578.29 -3642.85 -5686.17 -5214.90 -5121.35 -5350.41 -5526.14 -5844.47 -6004.62 -6001.31 -5411.87 -4289.18 -2799.92 -1804.80 -3416.39 -5231.71 -5578.15 -5587.64 -5396.38 -5343.08 -5336.46 -5342.74 -5343.13 -5329.40 -5324.16 -5318.25 -5310.38 -5297.71 -5293.50 -5287.80 -5276.83 -5275.10 -5275.15
-11173.72 -11173.69 -11178.01 -11181.43 -11184.42 -11185.54 -11182.17 -11167.22 -11106.73 -11089.64 -11091.95 -11097.20 -11100.53 -11105.33 -11161.69 -11220.51 -11248.03 -11254.84 -11256.53 -11258.60 -11226.93 -10925.26 -10666.44 -10508.44 -10485.85 -10418.50 -10305.76 -9524.50 -8487.22 -5520.90 -491.83 -156.74 -85.59 -37.54 6.48 20.29 38.61 60.05 73.21 101.28 126.75 182.59 204.80 209.94 193.33 139.92 98.56 91.84 71.57 53.54 39.79 26.24 14.84 7.02 2.04 -25.56 -58.31 -91.82 -96.12 -105.86 -115.39 -105.12 -70.83 -20.65 11.54 20.84 24.06 31.13 41.38 46.80 52.90 64.83 79.58 109.35 131.28 169.09 187.44 214.57 227.62 228.37 227.41 218.78 222.60 225.75 237.85 254.78 269.35 278.22 292.49 307.66 339.07 356.48 371.49 391.37 402.67 439.47 468.17 482.90 500.73 684.37 1057.47 1113.57 934.56 481.94 300.65 230.17 153.49 65.64 -139.09 -3248.93 -5857.74 -5276.97 -5141.38 -5283.15 -5492.96 -5786.52 -5935.44 -5973.72 -5708.88 -4438.37 -2580.38 -2565.86 -2561.25 -5168.78 -5488.24 -5510.72 -5382.84 -5312.81 -5304.21 -5312.19 -5310.00 -5312.24 -5305.30 -5285.89 -5284.52 -5277.38 -5270.56 -5263.82 -5261.99 -5255.40 -5252.64
-11179.84 -11179.77 -11185.99 -11186.70 -11192.95 -11195.05 -11195.34 -11175.26 -11126.04 -11105.01 -11108.87 -11108.99 -11117.38 -11136.72 -11198.76 -11236.61 -11268.83 -11270.53 -11273.48 -11272.81 -11250.07 -11009.46 -10640.57 -10507.49 -10387.10 -10326.22 -10117.27 -9235.51 -7525.25 -2469.78 -468.43 -122.53 -54.64 -13.07 -0.46 17.59 38.62 70.58 95.96 124.61 164.09 184.63 234.01 256.87 208.43 149.44 129.17 101.16 82.54 71.06 44.70 35.93 23.42 14.25 6.57 -11.91 -30.19 -51.42 -62.64 -70.76 -66.67 -42.66 -11.58 4.93 15.29 23.15 29.78 40.89 45.30 49.63 55.30 67.62 83.79 106.03 130.98 152.88 179.13 203.75 209.96 214.43 209.01 208.77 212.78 223.32 236.12 250.11 263.28 273.93 290.16 307.40 332.22 348.40 367.77 391.62 403.79 423.58 448.15 473.36 501.21 565.78 942.57 1167.43 1131.54 671.15 416.51 241.06 162.52 103.07 -196.80 -4149.09 -5993.93 -5404.23 -5193.26 -5315.85 -5472.65 -5709.41 -5855.04 -5937.16 -5550.56 -5080.48 -2463.09 -1927.94 -3057.88 -4488.90 -5216.85 -5451.03 -5355.29 -5287.04 -5281.87 -5283.96 -5289.84 -5286.12 -5277.49 -5274.41 -5269.00 -5260.85 -5255.67 -5249.03 -5237.95 -5232.59 -5232.65
-11182.32 -11182.25 -11187.15 -11192.49 -11197.59 -11202.00 -11203.70 -11182.32 -11150.29 -11154.54 -11150.47 -11137.89 -11136.89 -11143.41 -11189.81 -11264.25 -11276.49 -11279.35 -11282.40 -11281.25 -11245.75 -10952.84 -10267.42 -10295.89 -9992.20 -9420.58 -9139.25 -8327.02 -5012.88 -1072.70 -166.63 -99.64 -37.84 -8.67 6.62 17.58 48.82 65.82 101.45 141.52 170.79 205.94 258.46 287.54 236.73 164.07 129.16 115.41 93.70 74.66 57.46 43.75 33.30 19.55 11.01 0.53 -18.71 -34.43 -28.81 -36.58 -28.24 -14.54 10.96 15.70 20.39 26.61 34.56 42.07 47.03 54.36 59.54 77.25 84.21 104.29 115.62 136.56 165.07 187.26 198.75 197.32 202.72 203.53 209.13 218.16 231.90 245.01 257.05 272.59 283.83 303.49 320.88 338.46 350.25 380.41 400.00 411.05 434.76 467.38 505.68 532.18 773.59 1222.14 1190.08 760.40 553.30 344.15 178.39 112.67 -26.14 -1792.16 -5738.37 -5538.48 -5226.85 -5288.68 -5513.77 -5676.56 -5908.12 -5925.30 -5714.85 -4129.29 -2527.96 -1485.59 -1783.09 -3172.18 -5260.21 -5429.73 -5318.82 -5272.33 -5261.60 -5270.44 -5276.08 -5266.28 -5261.95 -5254.97 -5245.85 -5243.13 -5237.22 -5228.79 -5222.83 -5213.55 -5213.61
-11174.14 -11174.07 -11183.63 -11187.85 -11195.96 -11198.56 -11204.25 -11209.99 -11201.50 -11204.51 -11201.99 -11189.44 -11214.74 -11209.24 -11226.52 -11254.65 -11257.32 -11252.65 -11259.48 -11245.70 -11157.64 -10543.25 -9720.50 -9242.06 -8377.69 -8386.76 -7020.32 -5731.05 -1743.76 -176.72 -137.41 -80.02 -34.45 -2.94 9.15 27.33 68.88 94.42 134.31 173.47 218.05 219.53 261.06 295.38 260.54 193.75 154.39 126.86 103.70 76.72 62.85 45.94 35.60 24.66 17.76 9.05 -3.37 -6.86 -15.92 -17.68 -4.99 7.59 15.76 23.81 28.36 32.94 41.79 44.88 48.49 56.22 64.49 72.53 83.89 93.37 113.33 134.55 155.02 166.94 173.78 179.68 182.93 187.42 202.94 215.77 227.09 238.34 260.39 266.44 281.28 297.29 306.03 323.02 343.02 363.81 390.30 404.56 413.97 446.87 477.24 498.92 676.06 1059.58 1149.38 899.90 491.43 260.53 131.86 87.20 29.77 -661.41 -3141.09 -5498.06 -5269.32 -5302.36 -5603.92 -5788.73 -5936.09 -5894.38 -5637.37 -4145.01 -2536.22 -1293.78 -1469.62 -2786.43 -4628.82 -5469.55 -5391.31 -5249.72 -5237.56 -5237.18 -5253.03 -5252.62 -5250.56 -5242.86 -5233.37 -5225.19 -5219.89 -5213.54 -5205.73 -5198.54 -5198.61
-11171.48 -11172.44 -11177.80 -11189.45 -11193.31 -11197.55 -11204.91 -11220.32 -11232.39 -11248.62 -11258.87 -11264.59 -11268.14 -11273.79 -11268.94 -11248.28 -11243.81 -11243.37 -11243.02 -11166.90 -10992.71 -10315.01 -8708.66 -7844.96 -7215.98 -6097.84 -5395.37 -2467.70 -881.91 -182.61 -134.42 -76.05 -20.34 0.69 8.47 50.80 81.56 108.11 161.17 199.10 255.08 267.97 284.39 294.00 276.36 213.60 162.96 137.16 112.10 88.65 64.74 48.09 40.37 31.58 22.49 16.13 8.15 3.03 0.85 -3.89 -3.49 20.35 26.03 33.16 41.00 42.46 46.81 51.67 55.84 59.65 62.43 68.07 75.64 90.38 101.73 122.17 132.21 144.73 158.11 166.63 177.57 180.10 190.79 213.75 222.53 232.43 253.62 261.76 278.18 290.03 303.88 310.58 322.94 337.24 363.18 386.36 404.54 424.52 454.85 488.26 564.71 977.25 1099.49 831.28 510.24 210.11 119.93 65.07 -22.18 -552.15 -3506.46 -5234.07 -5134.26 -5263.60 -5483.82 -5888.12 -5948.98 -5929.25 -5591.27 -4138.01 -2378.35 -1127.91 -1578.57 -1746.59 -4057.59 -5391.66 -5485.65 -5305.52 -5229.09 -5231.84 -5228.71 -5232.40 -5234.14 -5234.13 -5222.04 -5216.02 -5208.17 -5203.85 -5197.59 -5188.49 -5188.56
-11172.66 -11172.59 -11180.53 -11188.56 -11193.39 -11204.02 -11206.89 -11221.94 -11247.86 -11262.55 -11267.41 -11274.22 -11281.86 -11286.88 -11278.51 -11244.91 -11230.44 -11210.53 -11041.60 -10995.20 -10563.59 -9293.11 -7962.75 -6703.42 -5778.80 -4936.64 -4302.19 -1945.37 -347.63 -156.06 -112.64 -57.13 -16.41 1.99 25.13 46.44 81.08 102.89 147.22 208.04 280.95 288.32 309.60 314.90 283.28 216.59 184.88 160.67 117.77 103.24 78.73 61.57 44.51 35.24 29.83 21.22 14.92 15.19 10.92 22.05 52.55 52.16 44.40 45.37 48.36 49.08 50.96 58.22 61.53 62.46 65.71 70.98 74.58 83.60 97.82 106.73 124.55 137.01 147.61 161.39 162.89 180.56 196.29 207.55 219.31 229.77 244.55 260.29 270.75 284.12 297.65 306.20 318.52 328.52 342.90 367.65 390.99 414.08 441.91 482.44 517.20 759.44 1009.81 826.64 476.77 213.33 133.10 68.04 11.09 -952.13 -3308.14 -5327.91 -5186.26 -5238.60 -5493.91 -5830.21 -5953.10 -5882.84 -5476.03 -4202.76 -1892.66 -1151.08 -935.41 -1493.96 -2025.79 -5022.45 -5519.79 -5376.62 -5236.43 -5214.44 -5218.86 -5223.21 -5224.19 -5222.43 -5214.95 -5209.20 -5203.00 -5199.87 -5192.76 -5183.53 -5183.61
-11175.39 -11175.31 -11183.00 -11189.72 -11196.97 -11206.80 -11213.19 -11232.47 -11253.49 -11268.30 -11274.94 -11282.34 -11290.71 -11288.73 -11259.97 -11200.43 -11063.23 -10921.69 -10607.04 -10081.81 -9486.12 -8502.91 -6698.24 -5956.06 -5522.69 -4376.69 -2270.51 -508.35 -176.03 -144.87 -80.20 -35.07 -6.04 9.43 30.28 54.08 83.82 140.66 177.00 196.00 300.61 316.16 329.23 321.98 286.06 237.45 208.23 171.50 135.16 105.71 85.92 71.54 50.69 38.01 35.43 32.95 21.98 19.97 25.80 40.37 60.60 64.34 57.58 49.24 54.22 56.14 58.30 65.59 66.77 66.95 66.93 69.96 73.38 78.61 94.39 100.91 113.39 122.80 137.66 146.92 155.13 169.46 183.57 202.17 213.94 229.12 241.22 257.58 272.14 284.11 293.00 303.55 312.77 323.60 335.99 354.03 379.75 389.44 412.04 447.06 476.39 654.11 884.33 781.04 378.74 172.45 120.64 68.41 -6.08 -2120.92 -5001.78 -5391.10 -5226.80 -5283.70 -5538.92 -5815.65 -5953.64 -5869.82 -5267.20 -4190.32 -1801.89 -1010.86 -891.70 -1418.84 -2054.82 -4098.34 -5464.08 -5374.21 -5238.55 -5209.22 -5217.77 -5217.66 -5220.32 -5219.04 -5213.03 -5205.73 -5201.66 -5196.28 -5191.42 -5183.28 -5183.36
-11180.43 -11180.83 -11187.28 -11196.82 -11205.74 -11214.09 -11221.65 -11241.23 -11262.96 -11274.54 -11282.14 -11280.75 -11268.94 -11238.00 -11185.47 -10899.44 -10571.44 -9893.07 -9424.62 -9227.44 -9109.64 -7755.34 -5999.92 -5559.18 -4478.27 -2657.65 -702.17 -244.93 -192.54 -129.98 -64.06 -25.36 -3.31 27.35 41.00 72.76 95.42 150.03 206.26 234.71 295.29 342.77 336.63 312.18 297.33 250.58 221.58 183.33 153.17 117.58 90.19 80.55 66.91 47.58 40.41 38.08 39.05 42.88 47.42 56.18 73.18 76.42 68.30 59.24 61.67 62.46 67.33 68.48 69.72 71.02 69.80 71.95 73.70 80.44 87.81 97.61 103.43 116.71 130.50 140.89 155.87 169.49 176.68 196.20 213.41 229.98 240.51 261.83 272.23 280.92 295.51 301.33 307.78 319.35 324.72 341.31 357.69 372.45 391.97 405.77 452.19 491.12 553.78 592.31 370.14 167.74 108.78 51.51 -2.00 -1546.77 -4899.94 -5420.27 -5268.24 -5306.27 -5495.96 -5792.75 -5931.75 -5862.69 -5312.88 -3583.75 -1776.53 -1042.55 -967.87 -1611.96 -3062.21 -4682.96 -5495.33 -5368.74 -5232.09 -5206.52 -5210.31 -5217.33 -5220.90 -5218.54 -5213.67 -5208.53 -5203.50 -5199.31 -5194.02 -5188.29 -5188.37
-11194.12 -11194.04 -11209.78 -11213.30 -11219.61 -11227.57 -11237.25 -11252.14 -11259.41 -11270.28 -11257.67 -11229.79 -11176.64 -10944.56 -10489.11 -9994.09 -9299.07 -8955.25 -8495.04 -8245.04 -7969.23 -7361.74 -5898.14 -5072.71 -3726.84 -2296.79 -485.04 -235.37 -198.14 -151.37 -58.93 -18.88 -0.93 26.49 51.47 74.56 112.71 148.71 209.48 255.50 305.11 316.46 309.41 285.06 268.23 252.38 233.41 203.24 161.39 139.52 108.99 92.12 74.65 71.00 61.44 56.30 57.99 62.73 71.69 69.63 81.89 84.00 81.17 77.32 72.74 70.66 72.70 72.98 72.89 72.65 72.33 72.93 74.00 77.82 85.84 94.08 101.98 112.52 126.00 129.60 157.09 165.31 174.34 196.68 207.93 225.07 242.15 256.30 270.83 279.29 288.81 301.07 306.53 314.20 319.81 328.81 335.76 348.29 386.64 391.02 387.85 400.00 397.89 425.96 321.82 151.19 86.98 45.48 -3.97 -2029.09 -4500.40 -5509.30 -5270.40 -5298.23 -5546.26 -5721.21 -5881.96 -5705.52 -5249.64 -3200.32 -2077.12 -1003.38 -1187.32 -1875.84 -3715.90 -5229.09 -5537.66 -5331.64 -5220.90 -5202.21 -5215.40 -5221.21 -5224.78 -5223.00 -5218.19 -5215.69 -5210.96 -5207.63 -5203.25 -5197.92 -5198.00
-11245.71 -11245.59 -11249.70 -11255.47 -11258.81 -11268.68 -11275.41 -11275.39 -11251.46 -11237.13 -11190.47 -10992.22 -10621.97 -10453.02 -9880.38 -9128.59 -8629.38 -8149.03 -7933.33 -7898.73 -7801.66 -7186.88 -5604.34 -4602.14 -3726.89 -2469.12 -795.19 -243.58 -180.16 -129.05 -58.59 -20.83 7.59 26.32 55.04 75.57 113.15 169.29 199.76 260.98 299.35 295.54 265.85 243.53 231.08 214.07 196.64 186.15 159.84 148.06 131.83 113.70 98.28 97.14 83.65 84.55 77.71 84.20 95.88 105.73 107.02 93.08 88.69 86.62 84.61 80.39 82.98 79.77 79.63 76.33 73.73 73.39 75.18 78.57 83.95 91.19 101.21 110.87 122.70 132.06 146.93 160.23 172.97 191.33 203.35 221.79 234.15 250.35 267.62 282.18 287.56 298.98 306.18 312.68 318.46 322.54 328.21 337.01 352.26 362.80 351.28 331.97 316.18 292.73 244.75 128.77 95.47 41.27 4.24 -2469.33 -5132.18 -5649.85 -5263.43 -5385.56 -5688.29 -5850.39 -5901.43 -5462.87 -4686.26 -2909.71 -1189.14 -966.49 -969.70 -2094.09 -4172.78 -5671.42 -5501.78 -5287.70 -5201.76 -5200.78 -5217.59 -5225.98 -5228.24 -5229.25 -5226.61 -5223.41 -5219.51 -5217.55 -5217.71 -5212.68 -5212.77
-11277.99 -11277.89 -11285.74 -11287.56 -11299.91 -11306.78 -11301.15 -11290.16 -11242.74 -11160.04 -11040.22 -10710.42 -9933.64 -9105.16 -8218.72 -8068.45 -7777.68 -7775.49 -7808.95 -7821.70 -7764.45 -7158.35 -5734.24 -4174.69 -3799.41 -2634.92 -1258.23 -353.18 -185.92 -130.53 -55.06 -19.14 -4.14 20.62 56.93 86.04 125.14 181.68 221.40 265.54 270.16 241.04 229.75 212.74 186.74 189.13 183.03 163.71 153.38 149.52 145.41 135.23 127.12 118.39 106.43 105.07 98.88 111.77 126.79 130.72 125.38 102.49 99.84 95.18 90.84 86.88 87.48 84.32 81.83 79.01 73.67 72.09 72.99 77.70 81.66 88.11 94.06 105.00 115.80 126.52 143.93 155.16 174.53 182.98 211.59 224.81 236.12 251.40 267.04 282.26 290.26 296.96 307.32 312.95 318.36 326.33 329.83 332.63 337.04 343.15 342.51 326.14 314.00 236.64 173.59 143.50 89.19 47.91 -307.66 -2060.62 -4216.88 -5436.41 -5470.32 -5466.13 -5740.53 -5872.91 -5843.55 -5186.96 -3978.34 -2303.69 -1049.99 -896.89 -1078.92 -2322.75 -4671.21 -5657.03 -5515.79 -5272.86 -5197.53 -5206.17 -5222.20 -5226.91 -5235.94 -5237.99 -5237.05 -5237.26 -5236.87 -5234.48 -5234.14 -5230.74 -5230.84
-11301.10 -11301.33 -11305.58 -11299.62 -11300.32 -11296.70 -11236.12 -11207.89 -11088.50 -10969.87 -10693.05 -10153.90 -8767.83 -8093.28 -7468.25 -7099.64 -7215.81 -7492.36 -7679.09 -7777.51 -7734.74 -7000.22 -5978.79 -4155.44 -3678.65 -2550.32 -1247.81 -266.83 -210.84 -129.77 -78.15 -36.04 -3.86 12.52 37.15 68.11 132.81 185.01 233.92 236.43 220.15 207.01 199.71 188.77 169.07 163.78 155.14 150.82 144.59 134.29 128.98 131.21 124.14 123.26 126.27 136.89 144.81 156.08 171.55 163.42 151.85 117.66 108.94 106.74 103.29 95.13 90.48 86.53 83.02 78.74 72.99 70.35 71.14 73.56 77.20 82.92 87.17 99.03 110.45 122.24 135.65 152.63 174.71 188.53 205.05 220.43 230.18 249.94 264.50 276.20 285.23 299.38 310.46 320.53 328.80 332.23 337.90 332.96 333.06 332.79 331.06 311.35 289.54 228.12 185.35 129.59 83.15 48.98 -37.63 -1271.11 -3893.61 -5385.81 -5490.50 -5604.23 -5748.55 -5805.15 -5521.07 -4749.98 -2651.95 -1194.52 -749.76 -752.63 -1022.76 -1701.17 -3829.46 -5460.21 -5455.58 -5241.57 -5203.86 -5210.82 -5230.65 -5243.45 -5252.83 -5254.35 -5252.84 -5253.03 -5247.19 -5252.21 -5256.26 -5253.11 -5253.21
-11292.32 -11292.25 -11280.16 -11239.19 -11209.56 -11164.42 -10997.43 -10913.04 -10758.61 -10079.89 -9365.06 -8728.55 -7804.62 -6658.13 -6410.76 -6296.25 -6537.12 -6894.94 -7428.47 -7560.20 -7532.72 -6466.88 -5269.10 -4135.97 -3698.52 -3025.96 -2165.02 -723.90 -223.92 -176.54 -116.80 -60.44 -23.08 5.93 27.03 68.46 140.71 192.83 208.98 187.64 177.14 158.11 141.77 142.77 133.91 128.58 128.61 123.24 124.06 123.28 116.70 114.95 118.83 120.53 128.34 138.03 153.70 175.38 201.41 203.05 186.54 143.40 126.75 116.94 108.77 101.90 95.34 90.04 84.21 76.77 72.97 69.00 67.52 68.94 71.48 79.66 87.27 96.24 105.14 120.60 130.84 149.20 168.42 184.44 195.23 214.70 229.99 244.88 262.74 273.82 284.01 303.05 312.94 339.82 346.57 347.89 349.31 340.11 333.42 309.58 302.11 272.67 241.25 210.58 159.27 122.18 90.84 47.29 -250.91 -1766.27 -4324.04 -5428.41 -5588.77 -5750.03 -5800.92 -5670.66 -5066.45 -4220.92 -1971.32 -774.93 -623.58 -693.23 -1214.67 -2049.05 -3321.49 -5369.72 -5417.03 -5294.52 -5222.72 -5227.22 -5251.95 -5256.60 -5264.98 -5267.28 -5266.85 -5265.06 -5267.59 -5271.81 -5273.80 -5273.91 -5274.02
-11117.91 -11119.38 -10998.64 -10692.01 -10614.62 -10585.23 -10277.40 -9680.36 -9346.69 -8702.43 -7726.11 -6716.18 -6534.76 -6153.30 -5813.10 -5942.65 -6039.05 -6266.00 -6658.09 -6839.59 -7274.76 -6380.67 -5579.41 -4426.37 -3919.68 -3103.81 -1969.31 -577.20 -258.17 -213.25 -164.92 -93.94 -50.61 -3.51 24.72 57.04 95.95 139.88 145.01 141.17 140.41 124.55 106.93 107.30 119.83 113.85 104.96 106.36 110.83 94.82 99.32 101.28 110.45 115.64 123.41 126.16 155.66 192.69 227.57 236.10 206.53 164.61 146.26 124.47 116.92 105.90 102.17 92.58 84.01 75.34 71.15 67.14 64.57 64.81 68.99 74.59 82.84 88.74 104.34 116.34 130.26 144.81 157.71 175.02 192.66 210.62 228.94 238.05 259.94 275.26 286.48 309.56 324.09 354.00 360.39 360.08 355.93 343.50 327.50 300.52 289.46 248.63 213.09 163.84 130.49 100.48 66.55 37.06 -340.75 -2309.40 -4107.41 -5269.03 -5547.91 -5772.73 -5810.51 -5692.46 -4292.71 -3069.19 -1184.45 -706.41 -546.93 -780.50 -1102.85 -1710.95 -3543.71 -5419.29 -5440.28 -5318.99 -5247.32 -5248.79 -5267.15 -5283.30 -5285.57 -5277.17 -5288.54 -5286.73 -5286.61 -5290.84 -5290.02 -5297.97 -5298.08
-10197.15 -10198.14 -9705.60 -9633.59 -9432.44 -8885.48 -8582.36 -7903.78 -7223.84 -6670.96 -6572.98 -6191.03 -5913.77 -5734.65 -5662.58 -5679.78 -5745.51 -5924.32 -6171.76 -6277.13 -6464.20 -6273.01 -5504.83 -4849.52 -3689.38 -2871.29 -1855.81 -661.29 -277.09 -233.26 -171.52 -110.78 -64.72 -18.39 6.06 33.22 55.03 79.73 97.12 93.45 93.53 94.13 86.08 83.70 89.50 81.49 91.36 92.92 91.27 88.38 88.59 88.56 99.00 107.04 114.54 121.44 137.80 178.72 224.10 235.23 217.66 191.08 159.16 144.66 127.33 113.95 102.29 98.70 85.01 76.19 70.33 64.23 59.60 60.38 66.58 73.96 81.89 87.36 99.88 108.33 123.23 141.00 155.53 168.12 194.26 209.78 223.64 237.56 257.32 274.54 291.34 310.54 330.78 356.11 364.23 364.79 356.86 344.17 319.05 285.48 246.43 208.31 181.13 145.70 114.19 80.52 49.64 -267.59 -1095.74 -2870.74 -4397.16 -4766.40 -5355.99 -5732.31 -5813.87 -5542.45 -4144.54 -2231.55 -889.57 -576.67 -549.39 -837.23 -1394.53 -2562.86 -3790.75 -5152.66 -5415.19 -5337.61 -5263.47 -5271.02 -5277.65 -5292.32 -5299.85 -5311.01 -5305.21 -5308.67 -5312.96 -5312.95 -5323.22 -5317.90 -5318.01
-8121.14 -8124.00 -8092.42 -7662.71 -7748.74 -6890.58 -6799.04 -6399.13 -6292.80 -5966.51 -5772.27 -5725.59 -5687.73 -5656.88 -5648.55 -5645.92 -5670.95 -5714.01 -5822.93 -5851.78 -5878.40 -5758.24 -5284.59 -4957.07 -4185.99 -3036.70 -2339.81 -480.09 -333.87 -241.00 -193.00 -134.07 -107.67 -36.51 -7.44 11.63 32.98 36.01 54.27 52.53 52.51 57.60 61.81 68.81 68.51 73.16 75.02 76.64 77.21 80.21 84.69 84.23 85.58 89.42 98.30 114.00 119.17 154.96 183.88 218.62 229.56 192.60 165.69 152.09 141.32 122.74 106.36 98.95 79.81 72.85 64.65 57.25 54.80 55.69 62.93 68.90 72.83 81.25 89.13 105.25 118.12 141.25 159.01 170.21 187.87 208.39 219.44 239.03 246.91 275.63 290.77 303.43 335.84 354.99 361.72 366.69 354.87 327.51 294.97 276.15 225.97 195.67 166.32 125.90 93.05 52.26 25.78 -765.91 -1737.77 -3005.33 -3877.54 -4647.51 -5396.04 -5799.46 -5859.24 -5103.47 -3777.08 -1931.21 -809.66 -483.61 -615.17 -961.90 -1581.76 -3029.83 -4595.64 -5406.61 -5438.81 -5291.02 -5251.99 -5262.36 -5275.75 -5283.14 -5321.84 -5330.48 -5330.26 -5330.95 -5332.43 -5335.22 -5333.66 -5337.45 -5337.57
-6405.25 -6408.28 -6451.66 -6618.62 -6376.29 -6272.44 -6100.49 -5922.15 -5765.46 -5692.85 -5680.07 -5661.90 -5659.85 -5658.37 -5653.88 -5649.61 -5653.76 -5675.30 -5688.22 -5723.40 -5696.52 -5451.05 -5054.73 -4986.01 -4303.09 -3155.59 -3007.88 -864.17 -343.75 -255.40 -216.59 -170.52 -114.31 -70.81 -24.71 -10.06 3.56 28.03 31.72 32.08 35.97 42.12 45.31 53.26 54.47 60.89 60.09 61.48 65.30 68.08 77.21 76.36 74.63 80.81 90.57 101.80 118.47 132.48 178.35 215.65 235.16 206.08 196.24 167.51 152.34 133.34 115.40 95.24 76.31 70.47 55.37 49.62 50.00 51.74 56.57 62.45 67.56 77.26 82.08 104.44 118.71 136.91 150.59 164.48 191.68 201.03 214.44 232.00 249.86 262.53 285.79 293.26 333.06 350.23 353.15 355.07 341.55 334.08 293.01 253.28 223.49 189.51 141.09 117.56 76.66 45.07 -220.11 -942.70 -1521.11 -2379.19 -3237.09 -4909.19 -5727.21 -5966.06 -5783.66 -5244.77 -3259.68 -1294.88 -552.16 -489.27 -602.20 -1259.12 -2321.42 -4113.83 -4814.49 -5469.16 -5433.15 -5272.23 -5236.04 -5249.59 -5264.95 -5289.75 -5334.04 -5347.06 -5350.78 -5353.20 -5353.60 -5349.73 -5354.89 -5355.60 -5355.73
-5871.82 -5873.06 -5933.44 -5948.41 -5883.10 -5838.99 -5829.54 -5800.22 -5708.31 -5675.55 -5665.83 -5668.25 -5675.61 -5677.79 -5676.67 -5669.32 -5669.93 -5678.95 -5688.66 -5700.82 -5691.09 -5428.81 -5022.43 -4921.16 -4867.53 -3686.36 -2515.68 -448.54 -315.43 -285.91 -229.87 -185.36 -136.78 -121.44 -61.33 -23.97 -18.86 -0.61 6.00 16.49 26.39 25.18 35.56 36.47 36.12 41.16 43.74 48.73 49.13 56.75 63.66 61.05 63.79 72.75 77.24 99.06 112.33 132.15 171.80 218.92 248.02 227.82 195.99 196.48 170.06 144.24 115.39 87.93 69.69 63.05 53.02 46.69 44.73 45.32 46.93 57.40 62.42 74.52 81.16 103.21 117.33 125.98 147.87 162.62 176.88 192.89 211.46 225.94 240.52 264.13 271.70 305.41 326.90 341.75 346.25 334.86 332.22 315.03 267.78 237.14 204.01 169.61 130.50 101.64 67.82 15.31 -156.88 -837.35 -1684.93 -2000.26 -3778.14 -5088.43 -5772.00 -6016.61 -5848.24 -4606.26 -2161.69 -1032.65 -559.19 -622.05 -876.18 -1471.69 -3042.51 -4780.64 -5488.53 -5509.38 -5357.80 -5267.41 -5249.93 -5261.40 -5280.90 -5296.12 -5341.08 -5370.49 -5367.86 -5372.06 -5368.14 -5371.40 -5370.03 -5372.61 -5372.75
-5801.61 -5801.80 -5817.18 -5822.45 -5816.73 -5810.38 -5804.38 -5766.30 -5715.52 -5687.15 -5682.18 -5682.72 -5690.33 -5692.98 -5686.91 -5679.12 -5678.75 -5688.81 -5699.14 -5702.39 -5654.16 -5431.50 -5044.95 -4926.58 -4892.39 -4118.07 -1612.38 -475.43 -329.32 -299.00 -249.48 -197.30 -174.30 -148.30 -140.57 -98.15 -49.22 -19.76 -11.46 -4.01 5.39 10.56 24.71 23.46 28.26 30.43 30.95 36.87 42.54 43.13 47.02 47.12 54.91 65.13 65.85 79.46 106.22 136.80 173.01 207.49 204.82 198.28 173.76 172.61 141.58 113.88 91.84 82.39 61.97 50.73 46.34 41.66 40.54 41.17 43.45 52.21 58.06 67.27 78.52 92.37 105.88 123.59 142.41 163.66 178.05 195.50 208.91 216.87 239.66 257.62 270.42 296.40 322.09 335.52 340.04 329.95 311.94 282.84 256.28 217.05 172.13 148.59 111.22 81.70 58.70 -10.51 -608.48 -1470.05 -1660.00 -2213.91 -3807.77 -4709.19 -5897.94 -5979.83 -5518.55 -4220.41 -2416.40 -925.92 -587.55 -680.20 -1392.93 -1763.81 -3366.95 -4862.98 -5543.62 -5497.17 -5305.68 -5264.24 -5270.51 -5290.46 -5291.84 -5314.60 -5361.87 -5384.69 -5387.40 -5388.35 -5386.88 -5390.51 -5392.74 -5394.80 -5395.01
-5813.38 -5813.22 -5817.24 -5821.01 -5819.13 -5817.13 -5812.35 -5780.56 -5731.82 -5703.76 -5703.44 -5699.95 -5702.73 -5702.03 -5697.27 -5692.64 -5691.26 -5701.38 -5708.10 -5716.82 -5694.13 -5420.51 -5106.70 -4924.32 -4923.37 -4002.36 -3306.55 -1008.01 -342.75 -312.53 -271.23 -253.22 -221.36 -188.64 -172.17 -122.62 -87.77 -50.84 -32.30 -20.29 -10.24 7.19 12.59 17.03 18.57 17.96 25.44 26.41 28.85 34.83 38.68 41.67 46.10 56.36 56.96 71.32 94.75 130.16 150.41 175.75 174.74 170.46 151.53 133.23 119.01 94.50 64.93 60.14 49.25 40.59 39.65 32.95 33.58 36.09 37.76 43.05 50.75 58.50 75.31 86.10 109.06 124.67 141.95 156.39 181.26 189.41 205.21 215.84 233.90 252.82 265.67 292.98 317.89 324.06 319.52 311.87 283.95 258.71 231.76 188.06 151.00 127.16 94.76 63.09 26.78 -419.07 -1650.45 -1839.32 -1941.91 -2336.05 -3722.63 -5173.39 -5741.08 -5944.80 -5445.61 -3792.37 -2089.40 -742.34 -594.07 -696.47 -1422.26 -2220.30 -3773.24 -4946.90 -5531.06 -5436.70 -5339.03 -5285.81 -5300.21 -5311.80 -5309.87 -5329.19 -5379.33 -5402.82 -5408.97 -5406.03 -5404.54 -5403.24 -5406.59 -5410.47 -5410.59
-5820.86 -5819.59 -5805.88 -5807.22 -5793.34 -5808.57 -5800.19 -5792.06 -5744.75 -5710.82 -5693.17 -5686.89 -5684.48 -5690.83 -5698.66 -5713.38 -5712.82 -5728.26 -5741.23 -5754.23 -5688.51 -5460.58 -5085.57 -4878.88 -4977.27 -4525.35 -3671.12 -2339.12 -823.43 -490.72 -285.82 -272.81 -247.05 -219.01 -181.75 -158.79 -122.90 -94.63 -83.21 -74.46 -45.42 -12.05 -6.83 2.02 1.92 10.88 12.57 15.54 18.69 24.32 28.12 35.77 42.00 47.39 47.85 49.28 65.61 87.42 112.43 130.53 148.91 120.00 111.37 93.49 79.96 63.74 56.67 47.49 37.40 36.57 30.27 29.33 28.88 31.15 32.90 39.95 47.18 52.49 65.91 79.98 103.15 118.81 132.59 149.06 168.42 187.22 202.73 212.02 228.97 251.33 267.73 289.88 304.06 310.17 305.68 285.32 262.02 233.87 196.72 169.44 144.17 99.06 87.79 54.78 -35.02 -892.48 -1648.86 -1969.53 -1954.13 -2478.23 -3710.91 -5341.47 -5845.87 -5908.27 -5721.62 -4645.65 -1530.00 -1067.23 -664.76 -802.40 -1303.83 -2092.30 -3410.62 -4871.22 -5462.07 -5415.85 -5363.28 -5316.15 -5323.31 -5330.99 -5338.09 -5349.35 -5381.53 -5417.89 -5420.86 -5419.27 -5414.86 -5421.19 -5421.59 -5424.86 -5424.90
-5738.19 -5738.10 -5757.35 -5760.90 -5752.34 -5752.64 -5740.10 -5724.95 -5671.57 -5651.70 -5656.61 -5666.51 -5665.35 -5653.85 -5688.66 -5776.43 -5802.58 -5798.56 -5816.97 -5829.76 -5823.15 -5648.88 -4835.79 -4456.34 -5094.99 -5304.16 -4299.45 -3693.99 -1902.73 -744.16 -366.00 -309.74 -279.53 -250.79 -204.33 -169.62 -153.00 -123.16 -122.55 -110.63 -76.90 -40.74 -39.72 -36.30 -5.56 0.20 3.79 5.76 7.42 14.91 21.80 23.60 31.22 34.16 38.16 41.16 46.03 64.54 90.44 90.01 89.13 88.02 80.40 76.69 69.75 60.50 48.73 35.11 30.61 26.36 23.88 21.98 22.46 22.10 25.81 31.03 39.74 47.17 57.90 82.26 92.88 113.98 130.20 145.09 160.88 178.07 194.84 211.42 220.12 247.12 265.60 279.64 296.90 301.20 290.30 260.41 235.36 214.04 182.35 161.63 113.23 90.67 58.57 -118.64 -817.32 -1511.92 -1773.49 -1893.62 -1947.47 -2765.16 -3666.82 -5699.34 -5857.83 -6055.04 -5913.42 -4721.66 -2818.57 -1648.71 -988.76 -1069.64 -1481.21 -2000.31 -3461.85 -4824.73 -5453.64 -5460.70 -5373.36 -5342.61 -5341.99 -5343.37 -5348.91 -5358.89 -5400.15 -5428.54 -5433.86 -5430.57 -5432.11 -5431.08 -5432.61 -5436.50 -5436.57
-5741.66 -5741.59 -5744.71 -5747.62 -5744.57 -5743.41 -5737.95 -5707.06 -5665.92 -5655.44 -5651.33 -5644.00 -5640.19 -5644.53 -5696.60 -5798.70 -5832.32 -5839.13 -5850.11 -5856.50 -5850.61 -5787.86 -4820.48 -4293.39 -4767.04 -5427.90 -5233.80 -4577.62 -2942.67 -940.09 -595.54 -364.70 -288.71 -259.57 -212.50 -191.74 -191.01 -154.79 -145.87 -145.60 -128.70 -119.76 -81.31 -85.44 -65.27 -44.78 -16.54 -7.89 -8.40 2.64 12.61 18.25 21.59 22.30 26.52 33.11 35.78 39.49 57.74 68.35 58.05 64.91 62.36 52.01 44.27 41.09 31.65 26.27 22.06 16.50 15.34 17.02 17.39 17.27 19.51 26.07 34.53 42.84 52.35 65.47 90.57 99.56 123.27 131.30 159.25 169.91 184.40 201.77 218.39 233.76 260.13 274.64 281.04 284.02 272.32 252.84 223.95 188.53 171.58 136.81 98.43 66.13 11.74 -668.78 -1308.43 -1905.96 -1865.10 -1826.26 -2045.82 -3039.12 -4255.62 -5602.05 -6017.72 -6086.71 -6024.99 -5319.13 -4017.18 -2521.98 -2124.11 -1342.24 -1848.97 -2466.16 -3607.70 -4995.56 -5451.41 -5437.24 -5381.80 -5357.47 -5353.70 -5359.77 -5363.68 -5388.13 -5415.55 -5442.27 -5444.12 -5447.08 -5445.35 -5444.39 -5446.48 -5447.95 -5448.03
-5755.57 -5755.49 -5755.85 -5758.84 -5756.60 -5754.03 -5744.79 -5724.02 -5689.60 -5667.76 -5659.78 -5655.37 -5647.07 -5658.28 -5681.24 -5802.35 -5838.92 -5844.31 -5850.97 -5856.01 -5854.17 -5756.83 -5317.55 -4870.92 -4929.80 -5470.72 -5583.53 -4274.26 -3015.58 -1045.66 -942.76 -685.35 -325.07 -282.92 -254.32 -239.84 -210.74 -177.58 -164.45 -158.55 -161.87 -164.26 -144.14 -125.21 -107.98 -88.98 -45.98 -50.24 -39.78 -23.36 1.43 -4.20 5.25 12.38 13.47 18.01 22.23 24.18 23.14 29.64 28.40 26.90 29.23 32.72 32.93 28.85 28.98 20.51 14.20 9.64 10.10 10.40 8.72 12.04 16.75 18.87 26.57 34.70 46.22 67.74 82.24 99.71 114.75 125.21 144.77 168.27 185.35 197.01 216.71 239.80 257.36 268.02 271.65 266.38 250.28 235.12 207.50 162.90 140.52 109.89 83.48 44.57 -73.61 -1053.44 -1639.01 -1904.80 -1811.42 -1803.70 -1983.67 -3224.32 -4614.61 -5456.29 -6062.62 -6130.12 -6163.82 -5962.41 -5406.26 -3642.65 -2777.81 -2208.16 -2113.08 -3207.13 -4288.85 -5430.15 -5520.18 -5432.27 -5388.45 -5374.71 -5374.42 -5378.82 -5379.53 -5389.49 -5426.77 -5456.91 -5460.02 -5455.04 -5454.23 -5456.37 -5455.54 -5458.91 -5458.98
-5767.89 -5767.82 -5769.04 -5767.03 -5771.68 -5767.64 -5762.98 -5737.20 -5699.58 -5677.17 -5673.69 -5665.46 -5657.02 -5657.69 -5705.82 -5810.09 -5840.36 -5844.72 -5848.55 -5852.44 -5850.86 -5728.90 -5573.80 -5308.08 -5100.94 -5486.64 -5657.45 -5014.51 -3208.75 -1238.71 -929.12 -797.86 -504.32 -405.71 -327.61 -270.27 -224.16 -211.04 -187.96 -188.63 -192.27 -173.31 -157.26 -145.14 -129.84 -116.02 -94.24 -98.58 -89.32 -79.89 -35.36 -39.63 -17.68 -0.28 -3.30 1.01 13.50 8.32 13.50 15.42 18.49 19.65 23.56 25.47 18.00 16.38 17.31 14.86 5.35 2.73 2.06 0.36 2.57 7.83 7.97 13.04 22.04 28.36 36.84 58.13 80.24 91.08 103.84 118.76 137.48 165.59 186.89 199.19 224.27 247.58 255.11 258.19 259.54 238.24 223.92 184.94 168.39 136.80 115.71 90.47 57.86 -13.57 -498.04 -1507.67 -1810.31 -1795.44 -1731.83 -1821.27 -1971.99 -3154.47 -4566.01 -5809.38 -6063.51 -6165.59 -6217.74 -6202.23 -6051.51 -5396.23 -3753.16 -2860.89 -2265.38 -3555.25 -4983.68 -5423.26 -5488.90 -5427.45 -5400.31 -5385.47 -5389.33 -5386.78 -5402.98 -5417.85 -5455.00 -5470.09 -5467.92 -5464.29 -5462.84 -5463.20 -5466.14 -5468.88 -5468.96
-5779.40 -5779.74 -5780.82 -5780.54 -5779.93 -5780.92 -5774.43 -5754.10 -5717.73 -5686.31 -5685.36 -5676.08 -5672.43 -5673.01 -5739.64 -5822.68 -5842.76 -5841.07 -5846.67 -5848.85 -5845.29 -5766.44 -5685.60 -5528.72 -5443.61 -5650.71 -5677.62 -5467.44 -3858.16 -1647.82 -1071.94 -1146.30 -823.38 -683.72 -571.25 -391.83 -261.42 -247.64 -245.75 -223.07 -217.04 -201.17 -182.66 -163.96 -156.19 -144.48 -111.45 -121.38 -118.77 -103.17 -106.44 -72.21 -59.76 -32.97 -23.63 -20.98 -12.75 -3.65 -0.47 2.36 6.40 8.99 10.87 13.01 10.29 4.68 6.06 0.06 -0.09 -1.74 -7.40 -8.48 -5.39 -2.09 2.05 8.45 18.29 26.96 38.02 49.35 67.42 83.34 100.46 122.05 133.50 148.79 192.53 208.60 238.38 249.80 251.42 244.13 239.32 223.67 184.56 161.06 140.31 103.97 76.32 38.60 19.54 -283.66 -586.25 -1414.00 -1709.89 -1718.51 -1741.57 -1853.31 -2146.79 -3287.61 -4932.99 -5753.43 -6099.48 -6201.65 -6269.17 -6314.99 -6209.63 -5916.95 -4494.81 -3115.83 -2725.97 -4303.34 -5419.11 -5520.30 -5479.44 -5428.30 -5411.97 -5408.92 -5417.42 -5424.23 -5423.14 -5429.37 -5456.52 -5471.42 -5474.66 -5477.74 -5474.76 -5473.02 -5473.67 -5477.11 -5477.19
-5789.12 -5789.04 -5789.57 -5791.50 -5790.68 -5788.41 -5787.12 -5762.73 -5749.38 -5773.76 -5770.33 -5755.03 -5711.09 -5706.05 -5761.36 -5791.43 -5781.64 -5808.89 -5798.92 -5806.68 -5810.43 -5772.60 -5738.42 -5743.58 -5734.58 -5729.48 -5776.22 -5700.88 -4704.56 -3385.58 -2753.51 -2012.31 -2217.69 -1945.52 -1389.42 -683.49 -437.11 -279.22 -274.71 -266.30 -251.77 -235.99 -219.03 -193.13 -180.70 -164.93 -145.00 -150.05 -159.80 -141.00 -142.80 -139.88 -134.34 -88.48 -83.50 -82.09 -71.53 -79.53 -54.12 -29.24 -17.18 -14.20 -8.16 -5.50 -5.99 -4.79 -1.74 -17.89 -21.93 -17.57 -14.78 -15.75 -11.26 -15.45 -3.97 3.26 12.87 24.94 33.04 46.15 61.67 74.60 91.96 118.98 140.27 161.19 190.39 224.80 245.27 251.20 247.61 235.84 210.80 179.48 165.16 125.65 121.47 90.01 52.61 -23.17 -308.91 -985.99 -1394.97 -1635.52 -1673.80 -1685.97 -1764.05 -1932.29 -2630.71 -3640.83 -5257.14 -5879.19 -6125.37 -6220.09 -6285.04 -6338.11 -6328.47 -6115.47 -4669.95 -3649.08 -3370.90 -4622.04 -5406.34 -5518.32 -5468.65 -5427.43 -5417.74 -5422.93 -5431.18 -5438.75 -5446.04 -5448.49 -5471.57 -5479.47 -5485.19 -5484.12 -5480.36 -5480.17 -5481.20 -5484.78 -5484.86
-5794.33 -5794.86 -5796.19 -5797.27 -5795.14 -5793.41 -5795.04 -5809.12 -5867.09 -5876.06 -5866.91 -5869.53 -5856.35 -5849.82 -5822.33 -5753.43 -5742.88 -5737.70 -5737.13 -5751.58 -5732.41 -5758.86 -5804.37 -5821.18 -5859.21 -5879.23 -5849.81 -5871.55 -5734.20 -4956.44 -4191.19 -4152.77 -3347.45 -3382.20 -3314.47 -2165.88 -868.24 -620.20 -706.76 -501.23 -457.54 -410.91 -247.11 -220.27 -201.85 -188.79 -180.83 -199.57 -196.22 -162.25 -164.23 -156.25 -151.83 -128.38 -123.90 -115.71 -108.59 -109.22 -100.89 -86.33 -61.69 -55.51 -34.18 -34.01 -31.62 -24.72 -23.66 -28.32 -32.27 -32.08 -26.46 -28.51 -24.27 -26.95 -14.45 -2.01 7.34 18.46 25.40 39.51 48.67 63.97 70.05 104.41 125.84 158.83 186.05 228.29 245.70 248.65 229.03 214.14 182.00 165.81 130.63 94.52 70.95 55.13 -16.35 -166.68 -582.60 -1393.44 -1663.79 -1637.52 -1640.55 -1687.29 -1843.04 -2027.50 -2544.64 -3997.86 -5625.15 -5956.10 -6145.71 -6204.07 -6273.85 -6345.13 -6342.72 -6203.89 -4787.86 -3737.31 -3530.92 -4962.65 -5478.81 -5526.94 -5448.60 -5432.20 -5427.10 -5429.82 -5438.80 -5447.47 -5458.76 -5466.19 -5473.12 -5485.94 -5496.82 -5489.56 -5488.56 -5489.24 -5490.08 -5491.82 -5491.90
-5804.11 -5804.04 -5804.22 -5806.96 -5808.87 -5808.01 -5805.09 -5817.86 -5904.39 -5918.86 -5913.10 -5902.07 -5900.41 -5878.70 -5845.15 -5737.56 -5707.70 -5703.08 -5698.75 -5698.07 -5704.13 -5762.39 -5857.53 -5873.03 -5889.50 -5898.80 -5914.59 -5915.18 -5850.66 -5807.52 -5688.62 -5567.37 -5246.23 -4687.23 -3869.32 -3296.36 -1954.03 -1557.32 -1287.49 -1212.00 -1525.42 -909.19 -359.19 -281.99 -251.42 -248.37 -236.23 -220.30 -236.24 -216.03 -206.81 -185.81 -184.29 -177.20 -161.75 -152.12 -138.22 -133.78 -125.56 -107.18 -96.91 -85.09 -66.14 -68.07 -67.03 -62.40 -54.48 -37.49 -48.70 -41.76 -39.71 -39.16 -36.67 -29.67 -19.16 -8.07 -0.54 9.10 12.92 28.86 39.31 51.38 65.99 86.97 117.70 142.83 175.47 206.78 246.78 246.94 230.13 200.59 159.14 140.17 103.03 88.48 52.41 -11.06 -86.32 -783.34 -1415.33 -1568.71 -1598.40 -1638.25 -1683.69 -1721.93 -1834.69 -1931.44 -3153.82 -4318.19 -5527.09 -6120.40 -6169.51 -6202.35 -6263.44 -6323.49 -6325.47 -6067.22 -4366.35 -3412.18 -3631.98 -4595.90 -5522.38 -5510.33 -5462.53 -5435.96 -5438.12 -5438.27 -5451.89 -5464.73 -5474.07 -5483.83 -5493.01 -5497.60 -5497.48 -5499.06 -5495.66 -5495.17 -5495.49 -5498.53 -5498.60
-5814.12 -5814.04 -5815.24 -5816.58 -5816.08 -5814.69 -5817.11 -5847.02 -5907.02 -5935.97 -5932.81 -5917.99 -5912.52 -5902.47 -5855.21 -5751.97 -5712.63 -5707.23 -5704.17 -5700.69 -5709.43 -5768.97 -5848.41 -5883.06 -5900.27 -5905.64 -5918.66 -5925.72 -5871.65 -5808.94 -5799.66 -5773.31 -5740.69 -5375.21 -4564.14 -3314.87 -2395.35 -2339.18 -2358.50 -2360.46 -2344.01 -2169.35 -772.81 -415.44 -365.25 -308.01 -290.93 -270.63 -278.40 -255.21 -248.43 -238.66 -215.89 -207.94 -204.04 -179.17 -167.72 -159.43 -150.24 -121.85 -132.11 -118.91 -95.15 -84.02 -77.60 -74.58 -72.37 -73.55 -70.52 -65.27 -50.95 -52.02 -57.26 -48.71 -34.27 -26.40 -10.50 -1.37 0.91 17.45 28.69 43.34 62.44 79.40 114.61 133.01 160.84 204.24 228.14 219.42 218.56 167.47 143.47 112.59 90.97 61.94 31.18 -74.91 -582.18 -1541.67 -1762.26 -1662.80 -1614.29 -1632.12 -1716.59 -1766.04 -1846.65 -2301.30 -3484.27 -4724.42 -5636.56 -6074.99 -6166.48 -6184.07 -6243.08 -6273.59 -6153.32 -5769.00 -3913.42 -3226.90 -3421.48 -4751.69 -5519.11 -5477.66 -5457.99 -5438.11 -5447.11 -5456.48 -5460.23 -5472.60 -5479.75 -5499.91 -5513.57 -5508.02 -5505.16 -5504.28 -5501.72 -5501.05 -5502.08 -5503.59 -5503.60
-5823.26 -5823.19 -5824.27 -5827.28 -5828.15 -5826.21 -5828.03 -5861.20 -5938.84 -5946.41 -5942.69 -5937.03 -5929.86 -5915.72 -5845.64 -5762.29 -5728.76 -5721.22 -5717.38 -5715.34 -5724.62 -5760.13 -5857.40 -5889.45 -5899.73 -5909.35 -5928.58 -5927.21 -5883.76 -5820.35 -5809.74 -5810.12 -5813.28 -5633.60 -5536.59 -3744.58 -2690.61 -2275.91 -2250.08 -2261.80 -2237.95 -2129.76 -1209.01 -683.05 -663.13 -655.39 -444.97 -312.81 -323.06 -304.15 -285.24 -259.52 -248.48 -250.06 -234.68 -216.33 -193.15 -191.05 -174.98 -158.99 -163.10 -148.88 -104.98 -104.81 -98.46 -93.86 -90.73 -91.38 -91.52 -93.73 -77.53 -71.94 -71.92 -67.38 -47.93 -35.91 -21.55 -14.44 -5.86 11.42 22.42 36.23 46.57 57.78 89.34 109.69 144.38 180.21 210.76 212.99 187.79 157.06 109.24 75.55 69.95 49.30 5.40 -439.62 -1185.50 -1725.56 -1714.75 -1667.18 -1641.46 -1676.73 -1721.81 -1806.11 -1925.90 -2463.53 -3525.01 -5042.02 -5690.36 -6098.73 -6151.00 -6181.48 -6217.03 -6253.13 -6187.74 -5375.67 -3629.42 -3130.66 -4243.50 -5589.78 -5602.62 -5498.17 -5440.14 -5443.91 -5459.95 -5473.04 -5478.65 -5485.09 -5491.55 -5502.76 -5517.73 -5519.31 -5515.56 -5510.75 -5508.67 -5506.43 -5506.60 -5509.04 -5509.12
-5830.11 -5830.39 -5832.39 -5832.94 -5833.85 -5833.30 -5835.56 -5868.78 -5950.73 -5960.00 -5958.26 -5952.35 -5948.28 -5927.03 -5867.17 -5766.83 -5749.09 -5740.94 -5734.06 -5725.80 -5733.39 -5791.17 -5868.63 -5892.29 -5900.93 -5911.16 -5925.81 -5932.93 -5883.51 -5833.91 -5829.84 -5842.37 -5851.25 -5830.98 -5735.03 -4349.67 -3055.74 -2467.99 -2398.89 -2318.62 -2242.64 -2107.16 -1436.88 -898.03 -825.41 -757.45 -594.33 -534.52 -474.34 -463.17 -323.66 -307.07 -276.80 -273.34 -271.49 -246.13 -227.64 -221.17 -197.47 -187.14 -170.50 -172.53 -155.79 -129.76 -120.33 -110.58 -108.81 -100.30 -98.20 -100.86 -93.43 -87.09 -87.17 -79.89 -69.20 -65.94 -51.00 -35.88 -22.07 -8.81 13.38 29.42 37.60 54.61 76.91 88.76 139.10 160.66 182.17 177.09 167.70 154.99 94.21 67.88 56.26 19.14 -350.33 -1395.47 -1672.51 -1764.17 -1673.99 -1667.30 -1718.58 -1701.32 -1763.28 -1850.76 -1958.00 -2761.06 -3643.06 -5278.76 -5968.00 -6116.96 -6159.38 -6182.20 -6218.50 -6236.01 -5952.26 -5615.58 -3530.92 -3363.22 -4791.55 -5701.93 -5572.03 -5442.66 -5430.65 -5461.15 -5475.93 -5494.67 -5500.35 -5506.64 -5512.13 -5520.61 -5523.50 -5523.43 -5520.97 -5516.64 -5512.65 -5512.04 -5511.94 -5513.58 -5513.66
-5820.93 -5820.82 -5822.84 -5825.90 -5821.83 -5808.84 -5825.59 -5861.37 -5946.09 -5964.05 -5967.43 -5961.23 -5956.36 -5943.95 -5889.63 -5782.02 -5761.45 -5753.18 -5746.27 -5740.16 -5747.82 -5791.83 -5849.40 -5864.44 -5859.73 -5883.31 -5877.17 -5896.90 -5887.08 -5886.84 -5891.95 -5886.45 -5928.69 -5931.89 -5827.45 -5161.27 -4148.19 -3552.46 -2896.35 -2788.45 -2711.70 -2540.28 -1913.47 -1207.11 -965.69 -879.28 -766.29 -666.76 -673.09 -553.54 -395.89 -372.65 -331.20 -290.18 -282.69 -269.54 -255.72 -247.75 -229.94 -214.84 -200.98 -195.37 -181.49 -169.32 -152.79 -130.78 -117.38 -105.19 -105.80 -108.25 -98.79 -99.73 -100.70 -94.69 -91.84 -94.34 -75.46 -60.72 -46.22 -22.71 4.17 14.67 28.30 40.73 57.41 77.29 116.75 136.59 158.45 155.89 152.11 119.71 83.69 50.81 42.49 5.41 -619.40 -1487.02 -1814.44 -1736.48 -1694.88 -1706.93 -1772.15 -1783.13 -1866.77 -1998.60 -2479.69 -3403.17 -4532.39 -5608.34 -6047.89 -6110.52 -6158.50 -6187.39 -6222.57 -6173.94 -5906.73 -4700.86 -3710.30 -4601.38 -5558.99 -5628.56 -5454.47 -5409.72 -5420.10 -5471.13 -5490.72 -5516.97 -5527.16 -5531.46 -5533.52 -5527.45 -5539.32 -5538.17 -5530.23 -5525.26 -5519.94 -5518.18 -5516.05 -5517.67 -5517.74
-5779.59 -5779.52 -5791.13 -5791.81 -5791.56 -5792.20 -5796.20 -5844.22 -5937.93 -5970.82 -5972.95 -5966.28 -5963.31 -5949.59 -5875.49 -5800.97 -5776.86 -5768.08 -5759.98 -5755.48 -5749.51 -5747.46 -5769.01 -5761.06 -5775.09 -5768.35 -5775.17 -5814.09 -5899.31 -5949.88 -5985.92 -5982.77 -5980.45 -5960.89 -5923.85 -5785.15 -5390.38 -5086.08 -3839.20 -3299.69 -2825.70 -2247.08 -1722.94 -1144.81 -1036.03 -918.37 -800.29 -735.01 -676.48 -644.20 -579.53 -486.94 -429.56 -403.85 -352.79 -334.93 -302.29 -275.84 -270.65 -245.54 -226.16 -220.26 -206.57 -188.54 -179.54 -151.66 -127.41 -125.74 -116.88 -116.82 -116.66 -113.42 -110.47 -109.75 -116.70 -111.51 -93.26 -80.54 -52.09 -22.80 -0.92 8.61 22.76 30.55 51.36 62.72 95.59 110.58 128.56 120.98 112.82 94.75 51.44 30.95 -166.38 -135.21 -555.98 -1659.45 -1786.12 -1704.94 -1718.05 -1790.26 -1877.13 -1973.76 -2084.38 -2582.09 -2873.71 -4164.34 -5357.21 -5912.66 -6062.62 -6122.43 -6171.10 -6194.67 -6230.32 -6169.48 -5820.71 -4704.57 -4781.35 -5951.76 -5690.89 -5482.95 -5388.68 -5389.95 -5430.99 -5486.87 -5524.96 -5537.12 -5549.62 -5554.62 -5553.65 -5548.03 -5545.39 -5543.55 -5535.65 -5531.40 -5524.88 -5523.44 -5522.06 -5521.61 -5521.68
-5782.56 -5782.49 -5785.70 -5789.94 -5789.92 -5792.98 -5796.85 -5871.47 -5927.66 -5983.56 -5984.85 -5980.55 -5978.76 -5974.01 -5920.47 -5826.48 -5790.07 -5787.06 -5779.75 -5778.01 -5774.90 -5762.49 -5758.65 -5758.42 -5762.59 -5767.29 -5774.52 -5797.76 -5877.42 -6003.84 -6020.18 -5990.01 -5980.71 -5967.04 -5950.00 -5935.08 -5840.84 -5434.51 -4760.13 -3561.52 -2586.44 -2099.15 -1423.50 -1283.50 -1016.66 -901.89 -804.82 -732.57 -687.58 -629.32 -593.96 -541.53 -521.97 -501.34 -455.79 -417.17 -373.17 -378.05 -327.99 -302.72 -261.39 -237.08 -222.03 -216.75 -195.36 -180.67 -157.21 -145.05 -132.82 -128.75 -125.27 -123.44 -118.40 -123.01 -121.19 -118.55 -111.36 -95.05 -82.69 -45.81 -22.17 -8.26 11.62 13.66 32.39 44.96 67.24 86.72 89.65 87.17 78.50 49.98 34.73 -174.74 -495.50 -1020.43 -1502.65 -1734.44 -1722.63 -1721.71 -1826.66 -2152.44 -2209.56 -2843.99 -3069.04 -3334.77 -4678.43 -5123.56 -5724.12 -6004.96 -6113.64 -6138.16 -6184.20 -6221.15 -6243.12 -6220.28 -5843.48 -6501.15 -6820.61 -6172.38 -5463.06 -5356.06 -5331.22 -5378.05 -5431.41 -5497.39 -5535.17 -5568.34 -5574.50 -5567.04 -5565.12 -5560.76 -5556.42 -5550.65 -5543.20 -5536.82 -5531.24 -5528.53 -5526.26 -5526.20 -5526.27
-5792.14 -5792.08 -5794.42 -5797.85 -5798.22 -5803.11 -5806.43 -5892.72 -5947.24 -5995.16 -6000.70 -6001.56 -5995.15 -5991.28 -5925.80 -5850.93 -5820.08 -5818.01 -5816.06 -5802.54 -5810.31 -5806.59 -5784.12 -5781.20 -5782.52 -5785.69 -5786.50 -5817.31 -5888.72 -6013.31 -6015.38 -5996.62 -5981.86 -5967.63 -5955.94 -5949.71 -5909.07 -5817.43 -5152.31 -3885.62 -2745.65 -2006.97 -1560.88 -1325.17 -1015.89 -892.05 -810.06 -742.74 -679.46 -614.70 -585.54 -557.05 -536.56 -512.49 -488.32 -459.72 -446.05 -433.17 -412.74 -392.11 -336.93 -311.78 -247.64 -248.36 -220.07 -197.60 -174.78 -161.57 -146.54 -143.04 -134.02 -137.55 -135.36 -134.25 -146.36 -139.14 -132.40 -124.35 -111.47 -95.46 -62.01 -35.46 -15.79 3.84 10.62 16.64 41.48 58.67 63.00 55.15 50.18 34.91 23.62 -476.72 -1211.60 -1627.74 -1756.06 -1725.77 -1713.59 -1864.02 -2309.41 -2608.02 -2828.23 -3533.50 -4208.03 -4837.43 -5365.58 -5851.04 -6048.90 -6118.10 -6126.94 -6151.44 -6200.35 -6237.54 -6338.32 -6315.71 -6177.34 -7311.44 -7246.04 -5728.69 -5375.68 -5327.48 -5338.59 -5399.97 -5469.93 -5530.59 -5580.88 -5593.55 -5596.60 -5594.61 -5582.93 -5572.96 -5565.34 -5558.57 -5548.98 -5541.98 -5537.60 -5533.38 -5531.24 -5530.69 -5530.76
-5802.22 -5802.16 -5803.01 -5806.78 -5810.53 -5812.95 -5818.95 -5867.77 -5989.46 -6016.22 -6018.06 -6019.59 -6021.98 -6015.18 -5977.91 -5876.73 -5849.68 -5840.13 -5834.49 -5841.76 -5830.46 -5822.10 -5807.24 -5810.10 -5807.83 -5818.31 -5818.07 -5826.56 -5920.56 -6027.56 -6015.78 -6002.12 -5986.52 -5977.77 -5965.67 -5959.38 -5913.60 -5714.54 -5152.75 -4186.53 -2685.62 -1925.16 -1495.25 -1289.95 -1066.33 -887.44 -807.14 -736.96 -700.16 -644.28 -593.59 -557.54 -521.71 -501.86 -482.32 -461.73 -442.16 -424.30 -413.65 -413.22 -393.83 -362.82 -285.19 -275.52 -259.15 -214.31 -198.33 -175.84 -165.22 -156.13 -156.79 -154.68 -159.71 -157.66 -156.31 -165.07 -147.63 -134.36 -124.93 -123.27 -103.71 -73.50 -52.12 -28.55 -16.83 -1.29 5.48 33.90 32.39 24.17 16.95 -13.40 -100.53 -663.58 -1502.08 -1750.04 -1747.44 -1811.09 -2108.23 -2585.96 -3785.69 -3703.94 -4272.20 -4914.35 -5514.44 -5849.30 -5941.00 -6084.16 -6093.81 -6130.61 -6141.10 -6123.63 -6132.49 -6200.19 -6243.54 -6336.59 -6648.29 -6223.45 -6420.77 -5659.92 -5353.31 -5327.28 -5363.99 -5417.76 -5483.03 -5548.32 -5597.22 -5606.51 -5605.51 -5602.41 -5593.71 -5581.97 -5574.05 -5564.65 -5556.33 -5548.34 -5543.45 -5538.15 -5536.14 -5536.23 -5536.30
