-14246.16 -14245.98 -14408.94 -14512.51 -14580.98 -14710.23 -14794.54 -14935.18 -15106.92 -15127.49 -15181.34 -15165.95 -15238.78 -15414.79 -15677.29 -15775.03 -15822.13 -15861.32 -15886.80 -15943.55 -15955.22 -15898.04 -15720.34 -15643.24 -15547.71 -15413.52 -15288.80 -14446.17 -13078.35 -11696.27 -5674.78 -2284.57 -315.55 -55.51 0.69 12.23 35.19 77.11 126.08 96.28 99.03 88.89 94.59 99.72 92.09 72.40 70.59 70.46 62.94 63.53 67.92 58.93 26.03 13.38 -14.56 -53.78 -72.88 -82.18 -42.99 -23.40 -24.57 -36.64 -37.07 -0.86 7.20 30.31 39.03 46.83 61.43 65.54 74.82 86.32 115.26 126.17 137.77 161.02 228.18 265.72 226.88 243.80 246.73 260.03 262.60 280.41 297.64 312.44 336.60 353.76 368.18 385.68 390.61 418.94 437.82 482.24 501.34 520.65 753.72 1029.51 1069.40 602.41 233.53 159.70 126.96 69.46 57.75 36.40 -1095.18 -3659.02 -4895.04 -4936.92 -5040.74 -5221.89 -5367.54 -5592.55 -5668.03 -5527.07 -5445.04 -5073.43 -4121.20 -3415.89 -3187.97 -3471.13 -3237.08 -3159.30 -3457.35 -4586.58 -5481.90 -5834.50 -5839.98 -5839.01 -5817.48 -5363.61 -3884.12 -2727.36 -1890.53 -2041.03 -2530.07 -2813.65 -3025.04 -3025.64 -3025.76
-14470.10 -14463.01 -14549.99 -14666.40 -14782.96 -14790.53 -14876.81 -14937.73 -15003.20 -15040.78 -15083.68 -15181.66 -15349.20 -15508.10 -15675.47 -15777.83 -15855.21 -15879.77 -15906.00 -15936.11 -15935.75 -15866.52 -15619.95 -15416.53 -15258.38 -15232.01 -15089.49 -14686.53 -13778.82 -11483.45 -4524.12 -823.30 -41.92 -3.13 16.83 24.15 37.39 83.44 138.10 175.79 156.26 204.71 145.34 154.31 164.37 143.66 146.10 99.24 91.12 78.20 75.91 74.27 52.89 36.25 26.77 -5.90 3.24 -5.66 -8.32 -7.24 -6.55 0.41 1.55 12.51 19.70 36.29 50.99 56.32 66.78 78.02 89.75 105.26 116.81 139.66 155.69 174.71 284.09 306.78 266.09 267.64 283.99 277.18 293.86 297.31 306.39 317.39 333.42 349.54 365.97 382.49 388.30 399.84 422.94 467.70 483.95 490.18 584.88 744.46 983.74 879.78 1015.43 609.17 247.02 115.35 97.46 54.02 2.03 -1090.15 -2813.74 -5099.29 -5085.65 -5001.78 -5315.52 -5561.57 -5633.17 -5705.90 -5747.66 -5555.81 -4942.86 -4105.38 -3525.22 -3501.85 -3407.33 -3278.93 -3640.19 -4498.80 -5500.57 -5834.33 -5823.66 -5730.62 -5773.12 -5647.49 -4003.05 -2931.60 -1888.55 -1777.04 -2338.28 -2983.49 -3100.23 -3150.90 -3172.82
-14802.87 -14802.55 -14879.37 -14866.89 -14894.25 -14910.56 -14929.72 -14958.11 -14999.90 -15072.43 -15117.92 -15232.56 -15350.84 -15590.18 -15707.08 -15838.80 -15881.07 -15920.46 -15942.41 -15975.70 -15927.57 -15683.99 -15234.31 -14967.80 -14848.04 -14923.09 -14748.43 -14418.97 -12785.10 -10188.19 -1293.87 -74.35 -25.72 6.53 22.25 33.43 51.38 91.41 185.19 186.10 266.54 371.80 301.07 233.78 237.05 211.79 237.41 117.56 108.36 106.88 78.73 84.47 72.36 60.59 48.47 32.42 14.82 7.29 -5.23 -5.64 1.93 9.51 10.71 20.68 29.77 44.14 53.95 63.92 75.14 93.52 101.13 120.30 142.48 145.80 187.00 228.08 308.21 346.03 305.08 296.93 291.06 288.11 302.90 313.27 323.23 326.71 338.02 346.89 356.61 364.36 369.39 386.51 402.56 440.30 473.64 481.97 498.89 638.23 821.34 1114.72 1175.69 725.40 301.55 181.81 124.95 104.16 36.70 -594.82 -1297.60 -4387.50 -4757.35 -4731.24 -5261.42 -5420.22 -5565.77 -5730.73 -5861.02 -5738.99 -5213.88 -3740.04 -3084.63 -3366.58 -3422.01 -3390.43 -3669.76 -4199.13 -4921.69 -5728.78 -5723.27 -5631.97 -5571.77 -5417.93 -4248.89 -2654.21 -2025.44 -1931.10 -2541.77 -2932.72 -3262.79 -3374.46 -3374.68
-15073.50 -15073.27 -15060.18 -15034.06 -15030.89 -14977.91 -14956.37 -14996.00 -15121.72 -15147.08 -15235.46 -15372.68 -15466.52 -15623.93 -15731.74 -15832.47 -15912.37 -15962.24 -16018.63 -16051.62 -15930.42 -15492.12 -14945.20 -14625.19 -14450.58 -14391.20 -14410.55 -14476.98 -13609.61 -10004.71 -2250.47 -42.33 0.02 15.75 36.55 43.99 81.64 185.29 271.28 272.88 243.95 388.64 408.35 337.54 394.41 504.98 385.29 223.30 146.02 142.78 101.77 104.04 94.28 79.72 60.18 52.26 36.46 28.24 14.07 18.85 22.84 22.18 31.53 35.09 36.53 62.93 70.31 82.30 96.10 106.39 116.51 129.34 152.14 170.00 219.65 239.97 323.45 340.73 314.71 300.38 299.56 302.22 308.12 316.58 326.19 329.29 339.56 343.34 347.41 353.88 364.81 375.61 391.31 426.58 437.23 471.64 479.92 530.71 677.86 962.99 1208.87 1090.07 733.96 310.37 140.59 117.87 64.43 -67.48 -1337.29 -4151.55 -4926.45 -4669.65 -5036.50 -5125.79 -5459.45 -5673.09 -5863.53 -5843.46 -5251.26 -3707.82 -2703.31 -2496.32 -2670.98 -3255.49 -3533.91 -3771.31 -4418.09 -5223.16 -5403.72 -5311.56 -5321.62 -5144.68 -4036.84 -2993.33 -2197.25 -2077.70 -2483.29 -3014.53 -3311.88 -3451.24 -3451.32
-15155.84 -15155.75 -15139.34 -15095.49 -15019.53 -14972.17 -14941.88 -14994.61 -15178.26 -15268.55 -15339.63 -15399.82 -15548.04 -15660.53 -15734.36 -15852.95 -15931.32 -16028.45 -16110.95 -16144.30 -16016.01 -15447.44 -14971.07 -14537.68 -14335.86 -14354.56 -14591.42 -14026.34 -13232.36 -1189.28 -99.52 -8.69 4.43 32.30 61.21 80.96 108.07 235.12 406.85 377.77 292.92 465.50 597.91 553.61 752.60 527.49 466.60 263.44 174.28 169.44 146.09 132.02 125.49 121.78 90.63 75.57 57.00 47.59 40.64 49.78 45.46 46.93 44.44 48.21 58.26 71.57 88.27 100.42 111.41 116.32 117.38 138.03 155.27 180.19 219.26 228.50 250.82 277.81 298.23 302.24 300.92 304.90 314.37 322.75 327.98 333.97 340.56 344.36 348.61 349.49 360.37 368.14 379.95 403.58 410.20 445.90 466.82 492.29 628.59 902.35 1216.11 1152.05 931.65 482.80 172.65 114.90 81.72 31.14 -1183.48 -3845.55 -5049.55 -4758.32 -4716.25 -5061.36 -5316.59 -5600.44 -5799.12 -5826.63 -5259.99 -4124.62 -2652.51 -1555.59 -2636.13 -3237.54 -3561.73 -3649.11 -3885.35 -4332.89 -4940.92 -5101.19 -5127.41 -4914.33 -4407.22 -3194.97 -2361.23 -2226.83 -2578.98 -3071.55 -3163.17 -3243.77 -3243.64
-15166.53 -15166.32 -15171.21 -15130.67 -15055.53 -14996.82 -14987.74 -15088.27 -15208.64 -15298.69 -15376.99 -15462.99 -15581.84 -15662.55 -15774.83 -15865.43 -15959.56 -16042.69 -16166.87 -16243.40 -16061.95 -15499.31 -15059.81 -14509.71 -14421.59 -14764.21 -14771.26 -10333.94 -3934.39 -150.74 -13.48 -7.29 20.90 32.49 94.95 99.87 120.41 242.23 368.51 494.80 372.87 566.15 848.36 970.02 950.77 689.84 423.51 363.97 214.03 205.04 186.71 161.74 147.36 134.35 122.84 99.49 80.01 62.84 63.29 58.13 58.76 60.26 69.85 71.01 83.41 100.23 101.32 107.23 124.99 129.90 132.69 142.59 154.93 180.65 199.85 244.11 270.46 288.48 298.19 300.63 299.90 305.28 315.31 323.48 328.33 336.22 342.49 345.86 348.83 350.96 353.16 358.86 371.33 390.46 398.20 416.02 441.11 456.40 499.46 630.07 1107.83 1213.52 1020.88 508.68 301.71 200.93 101.85 -5.62 -615.60 -3831.32 -5096.04 -4740.69 -4715.42 -5015.45 -5388.49 -5722.77 -5808.04 -5811.65 -5566.39 -4301.20 -2453.76 -2014.01 -1937.42 -3085.27 -3332.67 -3585.22 -3707.65 -4129.73 -4511.38 -4850.45 -4845.94 -4865.69 -4608.65 -3251.63 -2545.47 -2152.86 -2366.56 -2877.40 -2992.49 -2918.59 -2870.37
-15194.20 -15194.11 -15255.14 -15254.93 -15155.83 -15125.15 -15178.01 -15180.58 -15259.10 -15340.49 -15412.11 -15485.11 -15640.45 -15734.02 -15845.19 -15898.80 -15939.49 -16013.81 -16110.36 -16200.70 -16033.83 -15518.55 -14829.71 -14535.73 -14477.22 -14837.33 -14817.34 -7725.07 -1306.38 -79.52 -10.97 7.35 45.46 57.37 94.10 126.32 150.17 282.50 337.88 494.88 507.06 524.65 733.26 797.38 926.87 688.53 524.36 346.07 259.74 250.25 206.13 192.74 177.52 162.95 144.89 117.46 103.10 77.07 69.60 75.71 81.60 90.38 105.82 106.85 99.87 114.24 125.43 143.69 146.10 147.23 151.92 158.68 164.70 185.61 214.67 234.19 262.54 287.04 292.18 296.82 296.17 301.80 310.50 321.38 328.76 334.57 340.50 346.16 350.75 353.02 353.53 354.12 369.98 391.35 397.12 403.02 420.37 446.79 485.27 584.44 999.45 1279.59 1296.33 758.75 362.13 199.07 112.76 46.54 -811.90 -4447.71 -5337.08 -4818.91 -4997.93 -5326.01 -5530.67 -5711.02 -5780.92 -5776.29 -5412.50 -4955.01 -2378.67 -1751.43 -2102.59 -2636.06 -2869.55 -3495.91 -3705.94 -4137.06 -4562.38 -4586.45 -4740.89 -4740.57 -4624.00 -3584.07 -2651.29 -2134.86 -2205.21 -2497.11 -2600.38 -2561.56 -2561.44
-15226.68 -15226.59 -15346.61 -15393.49 -15387.11 -15298.43 -15331.72 -15280.72 -15301.82 -15395.93 -15441.74 -15563.19 -15687.68 -15767.58 -15767.26 -15733.56 -15793.36 -15717.76 -15735.95 -15791.86 -15550.99 -14954.81 -14125.90 -13987.74 -13972.10 -10390.57 -7400.70 -4068.86 -1263.93 -15.53 -6.75 7.67 45.32 79.14 119.68 155.16 189.75 264.18 398.50 532.87 580.45 580.72 588.43 586.21 760.36 741.41 538.37 411.30 321.93 269.70 240.89 224.94 209.52 179.92 155.09 131.89 120.19 94.01 110.44 104.45 105.47 112.36 139.16 131.10 121.37 131.93 143.60 152.39 160.31 166.82 172.43 180.98 184.32 205.88 216.56 229.98 251.14 277.93 288.71 292.94 296.55 303.09 313.31 318.16 327.77 337.12 341.74 349.28 353.28 357.22 357.75 355.67 357.19 385.14 397.00 404.39 429.07 460.27 504.42 609.92 870.09 1252.42 1358.75 779.34 402.22 264.11 100.98 24.25 -400.06 -2951.56 -5418.48 -5058.38 -5143.57 -5411.25 -5577.72 -5654.40 -5738.32 -5731.13 -5538.00 -4018.32 -2536.25 -1680.69 -1699.65 -2232.03 -2921.79 -3299.77 -3714.59 -3884.52 -4049.43 -4429.01 -4721.17 -4706.08 -4535.59 -3703.59 -2626.87 -2094.73 -2011.14 -2221.72 -2353.22 -2315.85 -2315.77
-15267.88 -15267.78 -15452.15 -15531.64 -15577.36 -15539.79 -15458.81 -15453.01 -15436.14 -15447.57 -15496.27 -15668.42 -15802.26 -15858.79 -15610.80 -15449.76 -15199.11 -14995.55 -15245.82 -15106.90 -14783.59 -14061.31 -13385.04 -12576.44 -10480.22 -8229.88 -1468.58 -936.57 -26.90 -6.41 0.56 26.14 54.19 95.05 138.39 183.42 211.00 257.43 358.25 379.62 388.25 473.19 472.94 524.78 650.24 889.95 669.20 491.07 438.37 306.60 267.16 238.01 232.67 209.75 187.39 162.95 149.60 148.81 138.33 132.43 142.80 156.00 153.57 156.90 156.10 156.94 176.61 172.25 173.92 181.05 185.71 189.12 191.80 206.34 218.13 238.39 259.70 270.79 282.88 290.31 295.96 299.49 309.39 323.08 331.39 343.38 355.87 360.19 364.60 369.42 362.67 360.77 359.92 369.72 393.16 405.82 424.19 461.59 467.73 526.23 692.88 1116.23 1288.25 954.36 446.18 246.51 122.16 60.47 -26.66 -1812.93 -3614.07 -5193.31 -5151.80 -5180.17 -5475.04 -5562.24 -5697.79 -5687.81 -5455.54 -4023.24 -2482.90 -1397.09 -1584.15 -2136.67 -2668.56 -3179.89 -3479.90 -3894.71 -4224.08 -4577.77 -4696.71 -4673.62 -4546.31 -3636.03 -2789.68 -2116.06 -1882.69 -2014.38 -2011.48 -2069.18 -2069.10
-15303.81 -15324.59 -15451.10 -15672.33 -15694.30 -15702.73 -15678.85 -15556.46 -15524.86 -15535.71 -15617.79 -15775.41 -15891.31 -15840.37 -15482.30 -15051.52 -14800.30 -14732.88 -14833.63 -14584.91 -14097.21 -13116.42 -11448.83 -10269.49 -8833.68 -5016.23 -1808.20 -89.58 -29.02 -8.40 16.00 40.21 76.92 106.41 138.69 186.20 216.60 257.52 311.71 339.83 345.46 394.18 476.80 610.03 749.84 860.68 706.12 644.94 540.63 352.52 285.71 274.27 248.86 231.17 202.99 190.43 161.97 173.18 172.23 156.03 160.02 182.45 190.10 197.40 200.03 187.40 200.08 205.25 194.97 207.38 197.72 198.34 204.21 212.93 220.95 238.58 249.42 263.65 276.51 283.28 294.77 298.50 307.05 327.06 337.25 350.48 374.28 382.74 384.17 382.68 373.40 367.91 363.02 363.67 380.51 389.01 408.45 460.13 467.42 493.87 582.15 1125.37 1280.17 924.81 539.08 205.42 122.09 62.61 -9.17 -468.71 -3160.27 -4864.47 -4878.46 -5030.91 -5241.57 -5576.73 -5668.66 -5732.17 -5421.74 -4062.43 -2438.40 -1330.97 -1797.31 -1957.69 -2590.06 -3089.01 -3462.55 -3769.00 -4376.85 -4547.28 -4662.35 -4642.25 -4290.48 -3884.93 -2796.89 -2185.38 -1833.21 -1815.26 -1837.91 -1882.10 -1882.07
-15330.68 -15330.59 -15536.94 -15710.75 -15796.24 -15808.54 -15789.73 -15710.01 -15627.98 -15617.18 -15640.94 -15758.35 -15829.07 -15772.53 -15333.08 -14837.16 -14582.54 -14471.89 -14171.93 -14077.29 -13234.15 -11621.31 -9957.24 -7952.62 -6997.40 -4592.75 -1447.33 -134.54 -20.37 -8.05 29.12 69.51 89.23 120.06 157.67 170.06 265.31 302.83 324.66 365.56 387.00 413.84 484.49 633.49 805.37 813.87 637.05 559.87 381.59 372.01 335.75 316.50 283.02 265.36 222.28 219.99 204.03 213.47 208.28 226.79 252.33 224.05 214.21 220.21 217.64 213.59 217.61 221.64 223.73 224.65 228.31 218.03 218.50 224.40 228.65 237.15 251.83 265.67 276.67 288.63 293.77 303.43 321.83 330.12 342.85 364.72 377.31 388.14 392.92 392.09 387.30 375.47 365.34 366.08 370.84 387.63 391.22 430.59 460.16 488.76 585.35 870.58 1121.11 820.35 450.03 219.29 139.57 76.78 22.44 -68.46 -1890.80 -5003.28 -4781.56 -4917.13 -5155.56 -5498.06 -5705.43 -5699.01 -5331.66 -4168.69 -2127.58 -1443.48 -1459.52 -2026.20 -2385.25 -3232.20 -3614.33 -3708.57 -4049.42 -4388.74 -4643.83 -4630.50 -4249.38 -3837.24 -2816.95 -2219.99 -1763.07 -1667.17 -1652.71 -1758.89 -1758.90
-15365.39 -15365.30 -15570.19 -15745.30 -15854.07 -15873.86 -15862.13 -15743.49 -15685.76 -15645.86 -15674.48 -15691.01 -15722.92 -15586.95 -15186.24 -14648.48 -14247.13 -13967.65 -13531.88 -12763.59 -11624.97 -10273.09 -7857.39 -6411.91 -6150.68 -1560.12 -210.03 -42.83 -3.10 11.21 66.67 98.69 106.42 119.39 186.74 243.35 272.16 340.09 334.60 389.98 563.02 546.54 491.45 609.24 781.40 822.18 671.09 510.48 420.29 408.19 368.48 331.40 318.35 300.68 238.16 261.13 222.63 215.00 226.64 287.84 260.82 253.71 249.87 228.53 242.37 249.37 245.29 250.78 252.43 248.00 240.76 240.08 233.95 233.24 237.08 240.73 255.72 260.35 277.26 288.95 297.07 307.13 322.85 336.97 352.35 367.53 377.20 394.80 398.01 398.62 392.69 378.87 371.34 368.76 371.04 382.97 388.85 390.43 441.83 461.95 508.23 756.62 1036.32 858.29 416.22 189.41 114.08 83.41 13.56 -282.75 -3896.22 -5044.95 -4854.42 -5075.91 -5248.64 -5500.02 -5699.42 -5701.30 -5146.07 -4169.35 -2067.08 -1392.24 -1554.93 -2318.12 -2684.93 -3088.67 -3442.53 -3568.77 -3959.04 -4488.11 -4640.69 -4627.57 -4412.34 -3644.15 -2929.18 -2275.44 -1819.04 -1540.19 -1532.17 -1653.29 -1653.30
-15419.49 -15440.77 -15588.44 -15788.01 -15865.64 -15863.53 -15831.30 -15783.08 -15726.19 -15684.40 -15690.20 -15656.84 -15529.56 -15386.57 -15004.04 -14272.36 -13507.58 -12643.88 -12037.88 -11599.27 -11328.52 -8829.57 -6317.16 -5629.12 -3627.32 -290.29 -189.61 -36.39 -1.39 27.67 69.41 101.91 110.24 120.72 179.16 229.33 229.93 307.90 322.32 451.72 706.17 668.26 537.04 571.17 763.32 809.27 679.45 512.53 460.05 475.86 379.19 364.39 403.44 363.71 314.83 315.59 281.82 290.83 330.45 361.89 310.67 299.26 288.72 260.78 267.13 266.39 270.30 267.38 269.46 273.92 259.29 250.09 250.10 253.06 248.88 250.95 253.84 263.61 280.82 287.76 303.04 316.86 323.80 341.82 355.95 371.18 383.51 403.74 406.03 401.30 394.07 386.80 375.11 369.76 369.76 382.87 388.07 390.29 403.96 442.04 511.28 554.01 696.41 824.55 501.74 199.86 135.19 73.19 19.63 -79.66 -4012.73 -5304.96 -5031.11 -5143.31 -5328.47 -5587.24 -5729.34 -5698.84 -5190.67 -3649.53 -2059.57 -1658.11 -1766.37 -2590.11 -3018.84 -3186.40 -3279.98 -3573.13 -3902.37 -4431.30 -4619.91 -4619.85 -4445.05 -3681.61 -3059.76 -2558.47 -1770.22 -1506.56 -1456.43 -1594.42 -1594.47
-15442.88 -15442.80 -15616.22 -15774.29 -15832.22 -15796.95 -15749.52 -15716.89 -15648.10 -15625.97 -15592.34 -15520.89 -15349.88 -14806.69 -13922.39 -12966.05 -12051.54 -11621.68 -11117.44 -10668.29 -9561.39 -8114.30 -6046.19 -5104.17 -3916.39 -2073.64 -142.61 -27.30 -5.61 19.39 50.28 85.80 109.76 148.71 199.89 239.43 349.59 434.34 432.18 531.21 743.91 795.81 698.93 671.89 723.92 792.92 754.96 702.10 623.80 538.04 416.68 440.10 456.37 394.29 337.39 332.42 324.90 341.92 407.11 416.04 347.72 372.06 324.97 313.68 302.16 294.65 295.50 291.48 288.14 282.32 277.25 275.40 269.99 260.38 253.57 251.61 256.00 269.84 281.50 285.17 312.18 316.51 327.50 347.06 357.67 373.77 389.20 400.12 407.07 404.54 401.00 388.95 378.85 373.76 372.22 381.52 387.05 389.45 405.11 421.21 431.04 434.53 432.44 484.05 407.09 182.66 115.07 62.76 12.26 -592.30 -3186.88 -5449.83 -5109.60 -5185.97 -5476.05 -5625.30 -5721.99 -5527.50 -5118.57 -3318.91 -2329.98 -1738.01 -2230.89 -2726.12 -3101.13 -3185.09 -3265.58 -3507.87 -3791.56 -4277.71 -4617.17 -4626.85 -4472.47 -3701.26 -3149.56 -2629.27 -1935.83 -1414.00 -1359.03 -1479.70 -1489.43
-15405.19 -15405.14 -15558.88 -15717.22 -15747.23 -15681.83 -15559.72 -15505.78 -15533.80 -15570.72 -15494.98 -15192.50 -14422.42 -14056.80 -13134.45 -11945.57 -11302.67 -10930.40 -10795.42 -10485.78 -9530.93 -7875.15 -5821.59 -4849.14 -4202.83 -2672.31 -739.37 -49.52 -10.31 20.17 46.97 65.25 110.83 133.02 265.35 270.49 418.89 640.82 631.70 584.16 784.16 922.61 721.53 681.06 682.09 672.93 672.93 673.87 612.95 500.59 466.25 508.94 484.83 369.00 390.63 347.27 345.73 382.05 424.87 399.93 394.70 405.07 373.14 364.08 352.33 335.17 349.18 325.26 317.38 304.60 294.71 282.33 277.05 270.72 265.96 259.92 259.67 272.74 281.59 290.85 311.07 319.93 333.77 348.95 359.26 375.99 386.00 397.19 405.63 404.65 401.42 389.60 379.94 375.48 374.79 378.91 383.25 387.09 391.12 392.95 388.32 374.30 335.36 361.69 304.92 143.29 103.77 40.15 8.97 -166.49 -3684.20 -5084.18 -5058.18 -5335.89 -5603.24 -5679.20 -5677.87 -5268.68 -4582.19 -3063.75 -1660.60 -2033.33 -2263.18 -2811.02 -3093.39 -3237.24 -3315.18 -3513.59 -3844.71 -4288.64 -4622.10 -4637.52 -4378.37 -3682.19 -3184.11 -2693.66 -1771.99 -1456.74 -1174.83 -1251.55 -1251.46
-15356.77 -15356.72 -15538.96 -15675.76 -15631.79 -15477.68 -15308.28 -15247.27 -15382.45 -15427.53 -15348.10 -14776.74 -13520.92 -12252.54 -10918.93 -10680.76 -10326.53 -10601.19 -10880.19 -10710.13 -9636.37 -7781.78 -6063.85 -4578.44 -3812.72 -2356.49 -787.38 -50.24 -11.19 15.11 46.62 51.27 79.33 138.32 172.58 287.68 441.45 661.97 778.82 781.50 873.55 901.34 738.88 640.44 600.53 620.57 631.41 646.54 636.37 582.13 547.53 554.57 508.52 437.74 429.87 372.16 369.32 468.55 479.70 430.15 477.67 430.44 410.44 392.06 376.39 369.54 375.04 348.03 333.38 326.45 306.88 308.54 289.95 274.72 270.36 268.40 266.74 272.37 280.42 294.19 315.53 324.63 337.26 347.11 367.88 378.63 387.75 397.82 402.32 402.03 397.25 390.00 382.08 378.65 376.63 378.65 381.76 385.10 387.00 387.76 379.34 367.36 345.22 266.05 186.75 157.91 104.14 46.94 -11.76 -114.29 -2081.46 -4667.69 -5001.03 -5255.93 -5607.92 -5630.58 -5573.25 -4983.82 -3880.95 -2372.04 -1504.37 -2185.65 -2822.17 -2984.22 -3099.46 -3254.26 -3385.84 -3597.61 -3917.55 -4391.70 -4636.69 -4644.73 -4204.34 -3571.72 -3083.57 -2389.67 -1607.36 -1226.07 -999.87 -1080.95 -1080.93
-15222.70 -15246.56 -15437.02 -15600.28 -15451.25 -15255.04 -14828.74 -14882.75 -14987.50 -15175.09 -14891.19 -14105.49 -12107.79 -11000.14 -10079.42 -9527.52 -9702.72 -10392.96 -10910.36 -10840.69 -9751.76 -7666.47 -6338.70 -4760.07 -3486.77 -1540.71 -173.32 -42.94 -11.56 29.50 45.95 48.58 90.66 181.81 241.67 268.82 406.05 506.88 793.33 865.70 905.86 830.86 683.82 552.29 534.36 555.72 556.81 578.46 602.94 615.99 633.82 599.89 523.53 478.37 513.66 497.72 524.88 590.97 508.64 464.00 530.22 498.16 441.16 438.27 434.41 425.27 390.57 372.31 356.09 344.92 321.13 311.07 300.19 290.48 276.75 273.77 272.99 277.10 281.11 292.41 309.20 323.10 341.29 353.40 363.27 376.29 384.71 396.77 399.54 399.45 395.44 389.00 384.50 384.13 381.31 381.59 387.25 387.60 386.90 378.51 370.04 326.47 310.58 235.34 193.84 132.94 98.27 76.09 2.04 -70.70 -2242.38 -4608.01 -4791.09 -5154.82 -5518.90 -5514.62 -5239.45 -4560.30 -2612.40 -1214.85 -1062.64 -1332.66 -2097.18 -2820.02 -3147.26 -3391.31 -3687.88 -3851.30 -4095.04 -4415.58 -4643.39 -4660.32 -4296.71 -3626.42 -2937.69 -2173.37 -1560.43 -895.00 -953.57 -1172.41 -1172.58
-15030.86 -15030.93 -15161.77 -15190.27 -14984.87 -14590.99 -14188.79 -14193.09 -14438.57 -13973.95 -13391.25 -12498.30 -11221.28 -9571.57 -9070.75 -8788.60 -9189.56 -9943.81 -10835.69 -10781.16 -10007.37 -7739.64 -6076.45 -4714.37 -2912.44 -767.32 -248.28 -106.26 -16.80 3.16 24.20 35.60 88.84 134.82 258.72 349.67 533.46 629.72 757.08 797.42 772.13 602.25 582.23 514.25 494.65 517.01 522.46 501.60 527.36 572.80 595.60 591.58 573.69 551.87 552.35 541.18 633.85 676.41 572.30 560.98 566.43 495.89 474.90 489.73 483.71 457.15 418.89 404.35 385.30 359.27 340.13 323.55 305.17 297.69 283.91 277.66 276.72 280.23 283.69 296.03 306.00 320.76 338.50 351.05 358.98 377.21 385.15 393.88 395.02 393.50 389.70 388.67 390.30 396.90 396.21 397.04 400.29 406.00 392.80 335.65 318.50 272.69 253.96 220.02 145.22 106.29 91.57 38.38 -24.03 -464.15 -2261.60 -4620.25 -4761.63 -5050.03 -5424.21 -5403.63 -4832.37 -4078.34 -1905.69 -759.12 -644.44 -976.14 -2167.61 -2911.23 -3141.77 -3503.79 -3663.27 -3933.10 -4148.89 -4468.17 -4688.76 -4620.40 -4269.91 -3526.95 -2753.32 -2175.99 -969.90 -720.34 -1071.51 -1428.50 -1428.79
-14930.04 -14922.79 -14672.05 -14123.12 -13602.09 -13316.41 -12854.57 -12434.52 -12510.87 -12474.13 -11566.76 -10295.15 -9979.82 -9253.31 -8803.63 -8678.46 -8948.38 -9703.44 -10475.27 -10530.12 -9851.42 -7917.12 -6149.00 -4447.05 -3814.36 -1039.22 -247.81 -148.17 -58.66 -13.03 0.44 23.42 100.18 230.43 330.92 402.60 478.57 624.68 714.59 711.04 645.74 511.26 566.56 519.22 461.06 480.02 458.79 452.05 488.24 494.90 547.30 576.00 591.75 608.56 640.31 662.45 699.26 714.09 664.02 686.43 570.75 540.34 562.79 531.97 532.44 479.78 462.55 426.15 397.41 369.39 354.80 332.07 311.75 299.54 286.89 279.50 278.08 279.88 289.61 299.57 309.53 319.73 331.71 347.24 358.06 375.79 381.00 384.10 389.49 387.59 387.21 389.38 394.25 413.97 423.29 409.08 395.26 393.99 369.88 330.38 295.79 238.80 209.00 160.69 115.07 102.34 66.75 12.45 -28.81 -532.21 -2414.67 -4771.85 -4706.76 -4890.55 -5432.80 -5451.03 -4147.63 -3005.05 -1144.58 -677.93 -551.96 -1088.67 -1817.37 -2504.06 -3173.65 -3625.60 -3732.02 -3898.75 -4129.12 -4485.22 -4704.12 -4633.79 -4365.21 -3593.54 -2531.05 -1684.98 -944.59 -730.68 -1128.72 -1645.16 -1645.43
-14408.79 -14409.31 -13593.85 -12872.12 -12161.06 -11439.51 -11089.73 -10755.07 -10555.72 -10531.84 -10370.23 -9779.20 -9371.22 -9195.48 -9037.61 -8893.43 -9095.53 -9549.30 -10085.88 -10143.01 -9418.67 -8441.53 -5986.18 -4680.39 -3655.97 -1052.28 -297.26 -263.26 -94.73 -42.94 5.57 42.06 86.45 188.81 301.37 296.60 357.73 454.75 529.14 487.03 466.79 434.47 466.42 449.77 419.29 398.37 413.14 424.25 465.77 485.82 506.99 505.37 563.62 589.19 631.49 653.08 674.35 734.08 744.91 699.39 643.33 654.36 625.15 585.71 540.64 475.88 472.72 463.45 409.58 381.63 367.03 332.99 318.72 301.89 286.78 280.18 278.20 280.35 288.70 295.29 308.27 319.71 332.59 341.31 360.07 375.12 377.66 379.15 381.29 382.96 384.34 392.19 398.59 427.26 432.14 418.44 398.42 366.57 344.36 320.25 276.44 214.63 179.19 153.95 113.20 90.04 41.27 -25.98 -68.69 -1024.07 -3630.80 -4546.31 -4590.83 -4796.10 -5088.49 -5213.68 -4078.18 -2212.91 -876.24 -563.29 -560.48 -965.65 -1457.06 -2523.64 -3125.86 -3573.15 -3732.28 -3868.39 -4141.65 -4580.54 -4720.75 -4713.25 -4286.59 -3038.76 -2101.47 -1355.10 -777.84 -912.90 -1420.24 -1568.64 -1568.62
-12998.18 -13000.11 -12432.70 -11381.24 -10909.42 -10033.21 -9906.05 -9969.46 -10061.32 -10172.14 -10004.47 -9602.12 -9561.15 -9498.66 -9296.77 -9185.07 -9071.28 -9262.66 -9573.14 -9546.29 -9094.04 -7912.86 -6246.02 -4503.58 -3525.43 -1487.99 -319.37 -310.27 -182.33 -77.97 -25.55 18.93 33.71 157.64 154.14 176.72 314.79 331.12 392.72 369.49 327.78 334.75 367.41 378.94 375.59 377.54 370.35 402.83 433.75 460.23 479.50 484.66 513.60 570.05 583.92 604.25 600.67 665.03 720.52 735.85 747.73 698.68 625.60 566.13 558.78 516.95 511.95 488.46 428.01 400.53 374.11 338.67 314.34 296.23 283.20 277.41 274.34 278.14 283.92 294.41 304.82 321.72 337.38 344.89 356.59 369.08 373.01 374.33 374.01 377.02 380.96 389.84 409.85 433.47 432.07 409.25 394.14 348.43 314.34 294.95 242.30 203.66 167.70 132.89 102.23 58.06 15.63 -46.09 -289.66 -2097.22 -3887.18 -4182.80 -4815.98 -5002.23 -4958.56 -4704.48 -3750.28 -1930.34 -833.42 -505.68 -625.26 -850.89 -1168.91 -2413.92 -3404.11 -3750.18 -3835.01 -3941.88 -4134.82 -4544.51 -4732.93 -4570.32 -3976.97 -2612.57 -1478.92 -1007.08 -917.10 -1272.28 -1425.69 -1317.12 -1316.85
-11865.56 -11867.52 -11419.80 -10840.08 -10371.65 -9866.54 -9934.35 -10197.41 -10423.34 -10542.63 -10285.41 -10142.12 -9868.09 -9915.31 -9693.31 -9375.25 -9144.57 -9111.57 -9142.03 -9220.28 -8713.67 -7701.14 -6026.80 -4676.61 -3428.53 -1857.43 -598.53 -286.53 -184.49 -85.84 -43.76 7.39 30.35 59.95 114.58 214.07 287.80 298.93 268.17 303.68 289.76 307.04 320.23 335.55 342.11 341.96 352.04 373.83 409.00 429.13 448.38 455.33 486.94 524.15 536.01 540.52 569.57 628.39 700.32 731.14 758.00 756.44 714.42 635.90 628.59 603.47 598.34 514.11 464.75 440.95 370.26 323.75 302.68 287.31 276.68 269.18 268.38 274.46 278.62 293.48 305.09 319.82 331.59 341.19 358.47 362.12 366.42 367.24 368.39 368.34 374.64 380.23 394.77 417.23 418.27 397.20 367.90 349.54 303.53 262.90 233.69 193.96 139.05 123.55 88.38 51.26 3.24 -23.22 -464.81 -1608.03 -2708.00 -4418.04 -5301.17 -5619.27 -5518.38 -5038.21 -3209.01 -1336.96 -668.25 -605.58 -664.24 -1062.00 -1916.10 -3257.40 -3559.63 -3822.46 -3878.93 -3977.25 -4156.44 -4419.97 -4738.37 -4414.59 -3272.88 -1914.12 -1117.88 -1085.31 -1280.56 -1398.06 -1577.05 -1561.90 -1562.50
-11700.47 -11700.72 -11395.56 -11074.95 -10762.98 -10594.33 -10626.98 -10796.57 -10911.40 -10904.20 -10765.00 -10645.97 -10559.41 -10381.59 -10025.83 -9417.92 -9151.08 -9086.43 -9093.37 -9040.35 -8903.03 -7831.13 -6216.71 -5082.63 -3484.22 -1181.18 -293.04 -238.59 -121.82 -69.27 -22.22 2.24 16.49 35.15 105.35 175.91 174.75 177.56 171.76 225.32 255.32 252.32 292.58 286.90 288.32 302.93 318.07 351.75 349.62 378.92 419.00 433.09 444.75 486.58 497.54 530.87 586.71 673.38 696.46 662.63 692.19 694.50 682.10 732.97 690.04 621.29 647.87 604.18 537.86 446.55 368.41 320.08 288.64 271.09 265.74 265.49 261.72 271.53 277.27 291.65 304.45 312.22 329.26 339.73 349.81 358.52 360.28 361.33 361.01 360.42 362.36 385.58 400.71 421.62 415.16 361.40 344.76 320.28 271.77 246.93 212.96 170.68 137.21 110.52 75.90 43.43 16.65 -18.63 -1093.42 -1775.50 -3853.13 -4989.76 -5614.63 -5835.92 -5628.68 -4524.76 -2191.98 -1198.27 -835.68 -905.39 -1180.90 -1280.41 -2621.96 -3872.81 -4023.97 -3817.95 -3812.79 -4002.54 -4444.02 -4663.50 -5006.35 -4472.67 -2978.19 -1544.72 -1270.91 -1339.50 -1541.93 -1719.72 -1938.17 -2456.37 -2459.05
-11795.09 -11794.47 -11598.55 -11347.37 -11261.39 -11209.08 -11221.14 -11264.95 -11368.48 -11312.37 -11128.42 -10964.86 -10865.45 -10588.33 -10163.58 -9528.69 -9183.12 -9071.14 -9082.34 -8988.52 -8464.75 -7562.87 -6414.49 -4481.91 -3185.02 -1379.47 -280.44 -237.95 -123.34 -85.38 -34.56 -2.31 8.86 31.12 52.05 78.18 91.80 128.01 149.37 164.86 186.09 193.83 228.68 231.61 268.81 280.16 280.21 327.81 341.23 363.88 408.58 424.76 479.11 506.05 554.27 575.09 615.12 679.85 707.63 669.86 576.98 569.50 536.33 612.96 584.40 512.30 565.47 587.81 484.46 443.18 353.77 301.19 275.98 264.21 257.79 253.59 254.27 260.41 271.06 280.43 291.64 309.19 323.19 339.42 345.83 353.13 350.54 350.83 351.56 350.13 353.78 378.24 395.33 406.85 401.34 371.92 332.82 291.04 258.93 224.44 175.36 148.57 112.46 89.33 64.95 38.34 -89.67 -464.83 -1101.98 -2317.71 -3822.62 -4636.77 -5726.76 -5793.90 -5352.79 -4107.17 -2412.08 -1115.52 -872.85 -988.67 -1501.99 -1926.73 -3943.05 -4165.11 -3762.92 -3626.95 -3851.24 -4059.03 -4739.48 -5193.20 -5088.57 -3992.74 -2439.09 -1518.64 -1512.05 -1792.65 -1944.53 -2258.46 -2742.78 -3403.61 -3408.61
-11860.32 -11861.08 -11739.20 -11594.17 -11478.30 -11449.44 -11486.79 -11622.76 -11560.02 -11491.21 -11405.41 -11213.25 -11076.72 -10875.77 -10224.34 -9773.65 -9421.45 -9172.67 -9093.53 -8886.72 -8243.86 -6991.05 -5865.30 -4246.34 -3943.28 -1677.89 -632.12 -267.88 -172.07 -105.14 -47.72 -20.20 -8.11 11.35 42.68 75.21 88.00 111.26 134.14 151.35 161.09 179.69 193.63 219.89 240.97 255.76 284.44 324.00 345.70 359.83 395.86 449.09 520.09 549.42 586.96 577.31 582.27 604.13 687.94 680.31 615.46 526.98 457.79 473.34 441.81 438.89 426.76 397.20 419.75 363.99 334.61 285.36 262.21 250.62 245.80 241.76 241.25 248.02 264.24 272.77 295.25 312.63 320.98 329.85 339.02 337.85 342.19 343.96 342.85 340.63 343.68 367.92 387.25 386.59 363.23 345.67 302.15 260.67 231.95 191.43 151.06 123.83 102.40 69.61 44.38 23.42 -272.89 -640.10 -1782.88 -2401.72 -3700.88 -4989.75 -5543.22 -5744.24 -5255.04 -3675.16 -2078.40 -930.75 -885.25 -996.73 -1530.79 -3211.18 -4436.37 -4205.39 -3792.58 -3818.05 -3926.31 -4738.70 -5552.80 -5541.21 -5232.99 -3628.86 -2377.61 -2121.64 -2281.92 -2321.04 -2488.36 -2867.20 -3338.81 -4026.44 -4029.93
-11989.16 -11990.63 -11929.62 -11808.70 -11810.69 -11741.48 -11702.51 -11713.24 -11628.22 -11546.92 -11504.56 -11436.06 -11257.42 -11008.68 -10441.12 -9891.88 -9535.55 -9388.30 -9255.89 -8837.61 -7400.99 -6117.64 -4966.87 -3830.88 -3754.96 -2913.73 -1317.35 -287.70 -250.01 -148.87 -68.68 -67.80 -54.22 -17.58 33.07 61.11 69.50 84.37 107.27 118.37 133.52 153.77 170.01 198.90 212.09 238.84 260.70 297.57 301.35 346.09 398.08 458.35 515.42 567.84 563.14 456.15 426.95 508.67 597.80 582.57 624.50 570.68 488.21 392.85 360.86 361.29 348.54 328.70 315.35 283.41 278.49 267.34 248.71 241.01 236.41 234.64 230.16 236.19 250.28 265.17 286.54 305.21 320.18 322.73 329.77 331.71 335.69 332.86 332.36 336.91 338.08 348.53 359.10 356.10 343.48 306.91 274.39 235.46 192.66 173.45 150.84 103.69 97.86 67.10 34.69 -107.70 -337.21 -1437.98 -1858.62 -2426.96 -3633.57 -5181.88 -5643.48 -5700.14 -5512.20 -4477.29 -1555.92 -1139.58 -875.07 -1061.14 -1517.97 -3280.46 -4304.39 -4254.66 -4285.82 -4733.10 -5614.72 -6150.28 -6364.74 -6217.20 -5438.76 -3815.80 -2839.46 -2471.66 -2565.33 -2673.41 -2950.93 -3628.88 -3918.20 -4396.83 -4395.97
-12161.25 -12161.52 -12119.21 -12042.32 -12056.85 -12076.67 -12016.45 -11909.38 -11786.10 -11656.81 -11549.48 -11459.62 -11284.86 -11155.12 -10837.04 -10247.35 -10048.25 -9713.41 -9246.06 -8493.77 -7573.89 -5971.92 -4785.35 -4020.06 -3879.09 -3859.35 -2146.70 -1103.64 -318.02 -213.44 -168.61 -145.66 -112.20 -49.07 6.63 29.82 47.27 69.81 86.00 100.90 121.84 141.57 145.53 155.66 197.95 219.35 237.10 255.78 260.80 329.28 376.54 359.20 398.06 520.83 502.53 390.49 386.19 532.74 553.77 411.52 414.41 445.54 380.56 363.81 348.28 336.41 308.40 288.53 259.37 244.05 237.16 229.38 226.53 222.48 220.83 217.28 221.13 227.86 240.25 266.28 274.47 293.87 306.69 313.61 319.62 322.30 320.77 320.44 321.44 327.93 330.44 332.99 340.15 337.91 318.35 282.15 253.30 223.28 179.77 167.71 119.83 100.83 70.16 50.90 -107.35 -408.43 -1251.09 -1778.69 -1810.69 -2583.75 -3457.81 -5507.97 -5659.44 -5836.76 -5693.08 -4555.63 -2749.43 -1652.40 -1135.19 -1285.69 -1858.19 -2965.91 -4313.90 -4305.55 -4517.79 -5156.49 -6612.00 -7195.69 -7293.90 -6700.00 -5412.10 -4347.24 -3489.57 -2955.31 -2912.96 -3000.14 -3455.05 -3926.40 -4232.43 -4577.75 -4577.59
-12286.60 -12286.63 -12240.33 -12227.78 -12225.56 -12233.63 -12082.77 -11938.00 -11808.70 -11705.56 -11641.26 -11556.23 -11485.58 -11304.71 -10904.95 -10503.99 -10301.80 -9920.86 -9169.29 -8635.30 -7646.08 -6527.29 -4674.63 -4206.77 -4000.31 -4192.70 -3798.86 -3111.06 -921.47 -261.05 -230.78 -176.08 -135.43 -62.17 2.62 10.26 10.15 42.66 64.35 72.51 94.04 103.26 130.87 141.84 154.39 166.20 189.08 207.64 244.92 300.82 296.61 293.07 350.14 550.51 497.81 389.15 388.62 481.02 461.47 373.80 337.51 360.03 308.65 294.39 299.43 279.15 268.55 259.86 226.00 220.15 208.90 212.29 211.92 209.27 208.32 207.81 212.86 219.71 233.55 242.65 270.29 279.42 294.70 300.96 307.74 308.30 311.16 314.95 316.74 318.70 324.06 325.89 322.44 314.42 299.38 277.54 245.07 198.24 173.44 141.69 107.42 81.97 50.41 25.71 -563.44 -1381.83 -1764.85 -1755.93 -1911.20 -2799.40 -3962.61 -5419.33 -5806.40 -5863.27 -5799.32 -5133.62 -3904.44 -2566.13 -2219.62 -1483.92 -2230.51 -3383.92 -4481.30 -4442.89 -4577.69 -5496.96 -7114.97 -7718.15 -7678.10 -7037.86 -5768.84 -4925.30 -4096.71 -3346.85 -3302.55 -3536.66 -3913.18 -4252.77 -4476.64 -4667.15 -4667.14
-12349.06 -12349.01 -12319.59 -12320.58 -12307.48 -12286.19 -12167.44 -12057.24 -11934.25 -11784.62 -11705.63 -11676.68 -11578.32 -11392.51 -11236.04 -10798.16 -10385.78 -10148.12 -9414.54 -8817.97 -8044.61 -6604.88 -5026.99 -4315.84 -4160.85 -4196.60 -4225.23 -3689.10 -2848.68 -1012.08 -387.82 -237.96 -158.32 -127.48 -41.90 -20.71 2.28 18.32 49.03 63.68 73.60 72.62 89.86 110.69 134.73 135.39 163.92 185.82 200.41 233.38 232.25 297.53 359.03 466.59 411.59 348.34 290.23 337.19 272.86 267.09 270.19 256.63 251.95 255.67 260.56 251.49 251.10 228.48 217.90 214.19 199.04 188.00 179.67 191.41 198.15 197.33 199.20 207.41 223.99 241.71 252.05 274.53 281.82 291.35 298.97 301.09 298.65 303.85 309.32 311.14 312.65 315.04 306.86 296.41 282.53 260.99 225.95 172.87 151.59 124.73 103.61 67.80 42.36 19.13 -729.36 -1540.09 -1709.18 -1673.97 -1801.72 -3040.16 -4402.77 -5281.18 -5852.51 -5903.92 -5928.84 -5751.47 -5275.22 -3662.80 -2857.40 -2392.84 -2716.06 -4315.06 -4716.36 -4880.61 -5202.07 -6231.44 -7608.52 -7818.96 -7444.69 -6926.00 -5937.12 -5376.92 -4492.71 -3763.23 -3681.43 -3881.43 -4129.95 -4377.75 -4592.84 -4717.02 -4717.11
-12376.46 -12376.36 -12366.20 -12353.27 -12350.85 -12324.14 -12267.93 -12134.49 -11982.09 -11835.26 -11777.31 -11729.86 -11678.42 -11587.14 -11347.27 -11037.67 -10677.47 -10386.04 -9904.29 -9498.82 -8417.57 -6840.75 -5601.51 -4662.53 -4344.16 -4231.46 -4210.52 -3777.90 -3040.04 -1618.38 -922.04 -264.15 -203.37 -153.12 -99.75 -65.98 -5.74 -6.55 29.77 45.72 54.72 67.94 75.20 83.00 109.12 125.28 131.03 151.82 172.40 176.57 194.40 269.98 285.43 303.77 312.74 284.78 241.21 239.88 229.51 226.08 231.33 242.29 248.05 251.46 232.75 221.97 217.07 216.42 203.13 196.36 179.34 166.64 167.38 175.41 173.54 175.22 184.31 192.71 206.70 229.79 246.72 254.86 264.92 276.78 283.72 293.01 291.96 296.34 298.36 298.87 301.97 298.10 295.58 267.25 249.53 205.28 184.14 153.28 131.31 111.28 87.27 48.73 17.13 -39.48 -1200.71 -1558.87 -1577.33 -1651.29 -1783.62 -2900.17 -4424.52 -5662.79 -5875.26 -5960.84 -6016.64 -6036.20 -5904.96 -5311.20 -3826.62 -3020.71 -3500.90 -4724.25 -5237.40 -5159.04 -6188.40 -7496.15 -7620.01 -7805.02 -7496.25 -6911.75 -6571.33 -5642.45 -4703.57 -4259.55 -4006.13 -4143.56 -4378.04 -4557.18 -4679.37 -4723.45 -4723.50
-12362.13 -12360.64 -12360.27 -12347.95 -12346.93 -12332.51 -12304.65 -12181.31 -12001.96 -11866.03 -11742.03 -11722.71 -11665.70 -11599.03 -11388.27 -11228.83 -10820.86 -10494.04 -10149.95 -9861.58 -9427.90 -7821.63 -6481.89 -5116.17 -4558.26 -4681.21 -4591.02 -4339.59 -3750.45 -2584.99 -1842.38 -893.75 -264.21 -218.70 -180.80 -90.57 -14.99 -10.94 -1.21 26.10 31.54 35.07 51.97 67.60 73.46 86.03 127.10 128.07 137.81 151.66 154.75 218.01 216.80 208.29 251.70 214.62 195.03 203.36 208.67 195.83 203.03 209.51 213.12 223.34 202.16 182.41 182.97 181.79 185.65 181.83 162.96 150.43 150.29 153.63 159.65 166.45 176.05 187.50 202.55 209.28 228.40 241.55 255.50 264.41 267.13 271.78 287.92 297.09 301.14 290.38 282.74 271.62 266.31 250.20 201.15 178.25 156.37 124.54 101.43 77.63 62.82 43.72 25.01 -525.98 -1344.63 -1559.87 -1537.27 -1658.34 -1903.24 -2817.24 -4628.86 -5602.44 -5943.70 -6032.11 -6087.00 -6118.26 -6004.48 -5748.62 -4471.47 -3638.16 -4962.22 -6331.21 -6338.65 -6474.79 -6686.21 -7281.68 -7725.53 -7896.25 -7784.97 -7283.82 -6842.35 -6199.54 -4933.12 -4476.25 -4290.97 -4515.20 -4673.62 -4709.37 -4755.15 -4768.63 -4768.63
-12282.49 -12282.31 -12274.21 -12285.16 -12271.99 -12276.69 -12230.41 -12132.47 -11977.91 -11731.41 -11593.11 -11558.01 -11577.31 -11549.77 -11452.14 -11373.21 -11136.80 -10884.67 -10643.75 -10556.86 -10011.72 -8569.00 -7494.90 -6480.63 -5664.98 -5406.18 -5644.75 -5532.35 -4614.17 -4135.39 -4129.87 -2461.33 -322.34 -240.91 -177.19 -94.11 -48.41 -18.70 -12.39 -1.34 2.80 11.05 19.52 42.78 61.74 64.28 89.95 95.55 82.18 111.60 115.39 117.03 114.10 150.63 166.44 172.97 179.29 166.47 165.97 162.72 164.79 163.66 173.86 174.18 164.99 167.72 175.61 157.74 149.91 151.04 145.10 136.23 136.63 134.85 146.91 152.09 162.28 178.09 191.52 200.96 218.32 226.61 235.54 245.33 253.82 263.13 276.28 294.37 302.81 288.74 274.92 255.50 220.77 201.54 182.89 143.88 135.10 107.44 78.38 53.30 39.13 -113.10 -536.21 -1139.30 -1436.80 -1495.14 -1532.23 -1769.94 -2353.65 -3112.12 -4961.56 -5688.98 -5998.13 -6048.03 -6074.38 -6108.97 -6087.07 -5902.88 -4606.21 -4829.92 -6761.59 -7256.20 -6924.79 -6878.10 -7215.31 -7592.87 -7964.79 -8086.61 -8055.24 -7753.93 -7443.53 -6909.58 -5160.13 -4788.69 -4643.01 -4685.27 -4728.45 -4790.22 -4818.12 -4835.37 -4835.54
-12169.54 -12164.93 -12167.05 -12185.57 -12199.19 -12200.26 -12146.04 -12052.51 -11849.49 -11580.52 -11433.99 -11390.31 -11343.58 -11338.03 -11371.00 -11405.25 -11280.49 -11164.12 -10974.06 -10764.70 -10631.26 -9771.04 -7938.75 -7362.96 -7075.79 -6985.51 -6579.99 -6709.45 -6526.92 -6078.87 -5342.03 -3989.82 -325.53 -277.76 -256.83 -191.10 -80.81 -55.38 -50.65 -14.99 -9.13 -6.80 1.72 25.46 48.85 62.12 65.34 65.89 65.65 85.89 88.77 98.75 84.50 113.63 124.86 145.27 164.32 150.02 131.21 132.01 145.02 146.30 146.63 141.67 141.30 146.31 154.33 144.33 139.57 130.02 127.49 121.32 128.35 127.85 132.50 141.21 149.47 161.89 172.93 190.92 198.82 211.80 211.26 226.95 237.51 253.29 268.07 289.98 295.09 282.55 246.10 219.81 184.94 179.58 154.12 113.80 82.97 77.51 58.94 45.10 1.37 -278.15 -832.38 -1292.21 -1358.41 -1423.96 -1559.18 -1769.08 -2111.16 -3151.43 -5047.24 -5718.39 -6033.86 -6018.91 -6041.57 -6079.19 -6081.09 -5954.90 -4740.63 -5972.20 -7811.03 -7262.83 -6935.89 -6896.19 -7213.15 -7659.18 -7828.25 -8166.57 -8341.92 -8277.35 -7972.20 -7128.13 -5797.82 -5032.78 -4678.99 -4679.08 -4682.42 -4631.28 -4639.91 -4679.15 -4679.56
-12143.83 -12143.79 -12129.66 -12135.65 -12137.19 -12128.00 -12091.71 -11998.01 -11731.49 -11535.04 -11376.53 -11262.61 -11217.82 -11267.34 -11331.08 -11481.73 -11513.81 -11486.00 -11293.73 -11093.94 -10865.91 -10123.46 -9256.72 -8474.33 -7845.40 -7599.36 -7803.67 -7775.06 -7494.91 -7827.02 -7491.87 -6595.74 -4333.28 -2799.70 -827.70 -296.60 -187.44 -113.71 -78.32 -27.19 -22.56 -17.92 -9.48 0.57 -10.45 11.32 27.96 46.41 41.20 53.08 53.21 65.37 72.77 85.55 99.67 110.28 118.19 116.34 109.88 109.93 113.29 119.28 120.74 117.36 115.05 114.67 118.04 137.88 116.98 112.44 106.97 106.98 111.26 117.09 123.41 130.05 134.19 145.05 149.41 171.67 184.93 192.79 200.84 205.38 225.38 238.51 256.75 275.19 282.96 271.88 239.01 209.81 166.23 142.90 109.97 91.86 73.78 59.30 48.53 -11.97 -165.33 -601.06 -1141.12 -1373.89 -1400.20 -1422.85 -1555.57 -1645.88 -2549.59 -3332.62 -4799.19 -6028.36 -6064.36 -6028.39 -6026.46 -6060.05 -6060.55 -5814.91 -4446.73 -5260.84 -7538.01 -7075.59 -6834.47 -6909.38 -7033.79 -7430.14 -8055.14 -8242.80 -8373.01 -8362.92 -8140.89 -7380.51 -6271.17 -5025.18 -4657.46 -4433.86 -4388.07 -4313.21 -4317.23 -4217.72 -4218.10
-12189.06 -12189.00 -12147.02 -12138.30 -12139.61 -12139.62 -12115.33 -11970.05 -11751.70 -11480.51 -11364.63 -11224.70 -11192.23 -11200.58 -11302.34 -11500.79 -11606.85 -11582.59 -11336.94 -11203.43 -10763.81 -10220.40 -9338.27 -8598.81 -8170.66 -8113.57 -8052.60 -8147.60 -8232.06 -8273.74 -8505.61 -8303.71 -7898.62 -7009.97 -4135.46 -1089.54 -315.77 -242.25 -167.24 -147.27 -93.27 -58.08 -28.31 -20.78 -21.83 -15.20 -12.67 -3.83 6.43 21.64 21.52 20.01 48.17 63.28 66.39 87.60 90.66 93.26 82.67 83.32 87.80 91.75 91.55 97.96 95.81 94.41 94.00 88.00 87.32 88.79 97.08 90.96 87.95 100.75 112.53 113.16 119.75 132.82 134.15 153.85 165.75 174.34 182.29 186.34 205.00 221.85 241.16 254.75 263.80 225.87 211.59 182.05 147.48 112.06 86.97 72.92 65.60 48.21 32.13 -99.58 -335.77 -1352.09 -1307.79 -1339.31 -1420.82 -1466.74 -1561.08 -1908.54 -2727.17 -3643.46 -4873.36 -5760.07 -6018.89 -6007.54 -6018.38 -6025.71 -5908.83 -5568.97 -4163.04 -5141.33 -7522.41 -6815.57 -6628.09 -6932.89 -7144.64 -7394.40 -7959.54 -8278.23 -8381.85 -8369.71 -8360.05 -7103.75 -5923.80 -5208.95 -4311.27 -4115.64 -3937.69 -3857.83 -3818.19 -3817.66 -3828.89
-12197.44 -12197.33 -12135.40 -12098.88 -12098.72 -12129.01 -12109.96 -11976.89 -11758.40 -11536.35 -11387.84 -11289.46 -11223.57 -11205.52 -11372.43 -11547.39 -11697.89 -11626.52 -11376.92 -11092.61 -10544.63 -10193.96 -9338.14 -8683.33 -8451.30 -8639.62 -8930.81 -8612.24 -8641.67 -8783.27 -8708.27 -8973.32 -9467.89 -8831.75 -8228.06 -4418.40 -2194.85 -578.26 -292.95 -244.16 -191.97 -145.05 -93.14 -66.18 -53.44 -47.05 -29.74 -14.42 -10.09 -6.92 0.23 -4.69 26.34 31.32 37.15 46.80 64.50 59.64 64.23 63.33 63.64 62.00 75.28 56.60 57.66 60.02 73.20 68.58 72.96 66.82 78.60 81.80 80.03 82.21 98.12 105.07 107.13 113.82 123.59 137.96 148.16 150.82 151.94 154.11 171.04 179.00 204.19 241.87 243.18 223.57 199.80 166.61 126.25 86.61 71.17 68.63 47.76 32.96 -42.22 -242.20 -1175.16 -1399.87 -1322.52 -1340.95 -1387.74 -1510.52 -1655.12 -2178.05 -3196.44 -4306.61 -5059.71 -5820.51 -5965.89 -5986.95 -6003.06 -6010.38 -5940.15 -5218.44 -4063.19 -6844.15 -7532.82 -6509.56 -6607.20 -6829.22 -7320.38 -7707.98 -8238.52 -8377.69 -8389.10 -8375.59 -8365.99 -7466.61 -5605.91 -4923.02 -4186.75 -3881.76 -3744.85 -3800.52 -3816.80 -3939.90 -3939.79
-12118.57 -12104.82 -12043.39 -12021.14 -12022.00 -12056.29 -11996.03 -11949.05 -11746.58 -11571.66 -11460.30 -11347.41 -11241.75 -11255.27 -11377.48 -11512.23 -11579.20 -11513.96 -11193.17 -10962.57 -10424.35 -9914.95 -9397.09 -9133.40 -9319.80 -9467.69 -9488.37 -9522.42 -9768.49 -9586.72 -9653.88 -9736.03 -9849.92 -9488.01 -8748.68 -6117.59 -3502.70 -1635.92 -1005.17 -307.37 -265.50 -233.20 -168.28 -147.40 -119.61 -73.86 -45.57 -46.35 -65.37 -61.11 -13.49 -9.89 6.84 13.19 9.87 23.42 29.10 31.64 45.88 45.75 53.55 43.23 43.71 46.68 47.30 46.47 46.61 49.92 57.46 53.93 55.00 64.15 66.72 68.99 74.34 80.07 89.85 97.00 103.61 106.28 120.69 128.85 137.28 138.61 147.51 148.97 191.28 208.54 206.91 188.15 175.99 154.35 100.67 62.14 64.65 53.35 31.36 -0.39 -111.81 -524.53 -1336.25 -1316.87 -1290.10 -1264.47 -1385.50 -1547.89 -1680.43 -2357.07 -3142.46 -4723.03 -5555.05 -5896.33 -5972.49 -5997.06 -5997.13 -5987.61 -5724.22 -5418.44 -4994.53 -7742.46 -6897.15 -6279.82 -6338.31 -6714.46 -7271.96 -7971.61 -8225.86 -8389.44 -8387.37 -8380.45 -8225.45 -7571.66 -6223.86 -4610.21 -4068.50 -3852.48 -3811.08 -3906.09 -4029.44 -4196.70 -4196.72
-11928.48 -11928.24 -11949.14 -11921.02 -11827.91 -11630.85 -11699.42 -11741.69 -11618.40 -11479.74 -11412.14 -11254.45 -11102.47 -11185.14 -11191.14 -11259.67 -11200.72 -11123.56 -10950.68 -10527.88 -9996.47 -9866.02 -9735.86 -9781.22 -9967.29 -10370.08 -10467.30 -10599.99 -10580.38 -10850.84 -10728.12 -10535.98 -10843.80 -10334.90 -8898.56 -7022.00 -5304.29 -3923.28 -3010.24 -1735.52 -1516.18 -325.78 -288.63 -230.59 -212.64 -195.98 -120.88 -82.87 -125.84 -99.80 -26.14 -21.76 -18.42 -0.36 2.11 9.49 12.08 15.85 22.30 24.47 28.06 29.34 29.65 25.41 28.50 33.42 35.01 42.96 43.57 44.18 47.89 53.08 51.91 55.69 58.45 59.48 70.62 79.70 88.52 96.50 99.14 106.32 113.34 120.11 120.99 131.00 162.67 170.94 179.90 159.88 151.88 126.81 105.75 51.83 53.61 50.63 8.83 -81.58 -412.43 -894.97 -1373.42 -1329.89 -1361.08 -1336.29 -1462.55 -1765.05 -2184.97 -2961.78 -3854.12 -4962.04 -5691.41 -5860.17 -5964.65 -5991.95 -5998.48 -5938.10 -5706.07 -4606.28 -6298.56 -7160.17 -6743.34 -6162.06 -6275.92 -6511.71 -6976.14 -7759.86 -8098.12 -8354.36 -8364.69 -8360.48 -8252.82 -7541.48 -5536.25 -4702.56 -4125.23 -3987.83 -3870.38 -3784.17 -4017.62 -4240.91 -4241.05
-11672.30 -11672.12 -11727.31 -11661.82 -11529.55 -11437.23 -11301.30 -11374.76 -11424.77 -11311.96 -11254.74 -11051.71 -10836.98 -10907.16 -10889.98 -10931.98 -10891.40 -10581.89 -10462.35 -9967.00 -9746.26 -9878.29 -10049.54 -10400.72 -10516.02 -11014.92 -11250.13 -11351.51 -11564.99 -11478.42 -11452.18 -11491.50 -11523.05 -10757.45 -9453.90 -7814.51 -5979.18 -5413.26 -4429.29 -4023.23 -3154.99 -538.19 -377.62 -297.87 -282.20 -282.91 -227.62 -211.06 -222.45 -158.69 -118.00 -132.20 -74.70 -42.77 -27.45 -18.37 -7.40 -0.27 2.79 10.22 15.25 13.54 15.73 16.61 17.78 18.46 23.31 18.58 27.08 32.48 34.51 39.02 36.79 40.42 36.60 43.60 57.00 63.28 75.15 81.99 82.43 89.07 100.13 101.66 103.84 110.02 128.26 143.27 147.83 133.24 124.15 96.74 56.81 44.35 35.58 41.10 25.77 -134.43 -689.27 -1362.51 -1475.03 -1411.63 -1471.11 -1495.83 -1738.77 -2293.05 -2621.13 -3740.97 -4879.12 -5450.35 -5788.88 -5918.95 -5986.47 -6000.32 -6013.53 -5947.89 -5631.42 -4799.56 -6984.38 -7124.23 -6127.07 -5935.68 -5982.57 -6027.57 -6546.52 -6980.57 -7501.02 -7875.98 -8122.41 -8203.07 -8011.99 -7140.05 -5618.23 -4771.87 -4098.80 -3800.17 -3647.28 -3398.25 -3597.02 -4153.31 -4153.36
-11501.53 -11501.41 -11547.32 -11460.38 -11391.89 -11236.22 -11171.93 -11212.99 -11204.98 -11145.57 -11021.42 -10694.28 -10382.56 -10414.12 -10724.08 -10671.40 -10593.60 -10451.08 -10136.84 -9794.09 -9721.16 -9758.50 -10054.97 -10414.73 -10677.51 -10944.52 -11280.75 -11578.11 -11705.49 -11773.59 -11800.16 -11788.23 -11749.09 -11578.48 -10512.03 -8850.38 -6571.19 -5624.63 -4925.79 -4697.75 -4318.19 -1650.81 -440.00 -421.82 -354.32 -327.70 -288.44 -267.70 -291.22 -241.46 -218.48 -227.84 -175.01 -158.79 -102.01 -70.25 -17.61 -20.74 -12.90 -10.32 0.15 7.64 11.33 8.24 9.09 2.41 6.12 7.90 13.81 18.73 26.47 29.91 30.96 25.01 27.77 30.72 34.66 45.76 48.09 56.84 63.37 67.57 76.01 74.95 79.15 84.51 95.14 104.54 98.90 89.08 78.40 54.59 41.81 21.36 17.61 10.05 -19.33 -286.47 -1157.75 -1576.92 -1528.49 -1686.97 -1700.86 -2162.16 -2495.22 -2816.52 -4220.17 -4706.22 -5426.71 -5784.14 -5959.07 -5990.97 -6013.21 -6021.63 -6024.52 -5960.16 -5705.78 -6913.58 -8147.72 -6981.66 -5829.21 -5705.33 -5708.59 -5821.44 -6092.32 -6692.98 -7220.84 -7324.45 -7626.55 -7807.84 -7746.68 -6653.66 -5409.16 -4565.51 -3593.86 -3358.43 -2996.89 -2851.23 -3314.20 -4257.05 -4256.89
-11422.02 -11421.92 -11404.63 -11329.24 -11243.61 -11128.65 -11039.01 -10950.83 -11014.88 -11035.62 -10748.18 -10185.63 -10068.90 -10240.43 -10560.87 -10517.79 -10428.81 -10318.51 -10162.14 -9830.74 -9676.39 -9748.64 -10039.14 -10332.68 -10643.35 -11063.05 -11359.97 -11669.10 -11769.84 -11844.05 -11851.19 -11853.82 -11854.62 -11663.57 -10642.04 -9182.11 -7025.65 -5994.99 -5160.61 -4769.24 -4368.54 -2557.28 -1428.79 -903.91 -530.09 -468.81 -408.69 -321.80 -320.41 -299.59 -302.72 -269.79 -246.64 -229.01 -174.27 -150.65 -108.67 -64.64 -45.20 -39.08 -26.29 -23.13 -1.53 -20.24 -4.74 -5.06 -0.67 0.41 4.76 6.64 16.56 14.80 18.34 18.10 12.57 15.46 17.11 20.10 30.51 38.36 47.47 52.91 53.45 60.15 58.52 51.18 70.17 80.75 69.77 63.64 58.51 40.95 26.98 -15.39 -93.07 -155.42 -270.88 -889.68 -1374.07 -1553.10 -1979.48 -2075.50 -2238.94 -2799.84 -3484.61 -4315.19 -5000.89 -5616.87 -5847.28 -5991.51 -5995.84 -6008.44 -6029.69 -6057.62 -6099.93 -6051.15 -5870.32 -8185.07 -8260.30 -6180.10 -5787.97 -5706.21 -5724.13 -5800.02 -6130.27 -6439.33 -6818.96 -7123.14 -7271.38 -7274.61 -7163.34 -6539.93 -5088.89 -4151.61 -3424.56 -2931.32 -2609.41 -2815.96 -3379.10 -4677.82 -4677.53
-11348.43 -11348.26 -11259.19 -11128.10 -11024.82 -10996.16 -10897.48 -10744.72 -10763.61 -10719.35 -10196.48 -9720.52 -9666.50 -10010.53 -10272.55 -10321.10 -10271.63 -10193.47 -10061.66 -9913.06 -9702.20 -9818.81 -10110.95 -10543.65 -10744.54 -11081.10 -11419.37 -11634.96 -11735.14 -11799.84 -11810.53 -11778.74 -11808.70 -11585.30 -10489.37 -9355.28 -7704.99 -6209.82 -5366.40 -4998.78 -4408.32 -3832.18 -2699.66 -1878.71 -1543.81 -912.43 -890.05 -773.78 -555.37 -357.50 -340.27 -330.23 -287.11 -243.64 -244.34 -211.49 -154.94 -144.22 -135.09 -119.88 -100.07 -83.14 -43.58 -58.72 -49.89 -34.70 -54.46 -17.03 -4.88 -1.38 -0.96 0.56 0.93 4.31 5.70 -3.10 9.43 14.92 17.26 19.73 29.70 36.83 40.84 36.49 43.75 40.35 40.50 56.00 43.67 32.82 20.71 6.88 -9.32 -68.94 -273.06 -969.96 -1210.31 -1636.28 -1677.78 -2140.34 -3454.31 -3249.10 -3846.98 -4698.72 -5057.95 -5553.48 -5694.94 -5929.93 -5929.93 -5987.67 -5984.41 -5960.91 -5970.67 -6043.13 -6032.52 -5998.13 -6432.52 -6711.76 -7028.87 -6082.84 -5773.96 -5778.50 -5809.16 -5862.54 -6039.06 -6256.87 -6700.55 -6934.72 -7127.05 -7172.12 -7100.51 -6192.98 -5314.01 -4161.14 -3387.29 -2923.68 -2847.69 -3121.09 -3800.03 -5274.47 -5274.11
-11127.03 -11126.69 -10958.09 -10882.49 -10820.89 -10877.68 -10765.33 -10590.99 -10500.01 -10340.11 -9995.70 -9587.43 -9588.01 -9717.82 -9718.36 -9721.98 -9743.34 -9713.99 -9651.99 -9776.01 -9595.32 -9750.81 -10153.89 -10481.60 -10806.43 -11045.11 -11042.28 -11226.30 -11296.97 -11464.27 -11374.81 -11502.92 -11308.34 -11247.04 -10408.81 -9154.49 -7223.64 -6457.80 -5638.64 -5064.38 -4636.12 -3965.06 -2721.81 -2149.15 -1763.18 -1575.09 -1283.65 -1349.06 -1047.88 -596.50 -485.88 -506.44 -537.38 -311.33 -268.04 -263.25 -219.34 -200.49 -164.23 -163.36 -150.63 -138.81 -111.33 -104.74 -90.06 -99.42 -106.08 -68.40 -28.28 -23.19 -18.90 -19.78 -12.41 -14.27 -39.98 -28.77 -1.63 4.05 -1.39 3.91 15.95 22.91 22.23 28.62 24.22 24.42 29.56 14.31 14.41 22.21 -33.57 -78.62 -126.22 -282.86 -809.36 -1378.90 -1915.80 -2261.87 -2589.81 -3259.20 -4220.10 -5096.43 -5428.24 -5659.57 -5680.27 -5814.09 -5907.82 -5928.20 -5904.70 -5857.89 -5834.72 -5654.77 -5562.21 -5449.44 -5395.96 -5780.97 -7393.21 -7161.46 -6360.98 -5894.52 -5780.08 -5809.29 -5859.75 -5881.73 -5919.50 -6172.28 -6373.07 -6638.08 -6940.58 -6970.28 -7013.87 -6461.46 -5543.31 -4486.97 -3891.53 -3794.93 -3761.84 -4000.62 -4730.99 -5927.22 -5926.91
-10682.92 -10682.50 -10636.37 -10534.11 -10655.22 -10697.72 -10515.88 -10146.89 -9990.78 -9747.12 -9544.22 -9312.46 -9154.28 -9308.09 -8962.05 -8895.50 -8804.93 -8643.19 -8926.52 -8944.94 -8834.08 -9200.22 -9399.27 -9502.28 -9981.24 -9610.77 -10066.31 -10218.78 -10159.76 -10095.35 -10005.48 -9948.54 -10288.94 -10080.74 -9600.57 -8453.31 -7359.23 -6003.02 -5491.60 -4854.08 -4518.15 -3751.01 -2618.12 -2208.08 -1942.40 -1817.94 -1793.00 -1871.82 -1561.18 -1199.15 -1091.88 -1050.42 -866.54 -515.09 -357.90 -334.51 -315.43 -268.94 -240.93 -234.23 -198.58 -174.47 -155.73 -130.69 -122.65 -119.41 -121.78 -108.24 -82.13 -84.80 -68.04 -49.91 -46.63 -68.14 -75.83 -50.75 -33.44 -10.02 -4.51 4.67 8.41 11.94 13.70 13.77 11.70 14.07 4.09 -11.54 -30.52 -77.90 -127.79 -163.05 -191.31 -216.44 -543.01 -1799.10 -2403.27 -3294.94 -4069.70 -5247.17 -5387.37 -5631.41 -5836.17 -5862.81 -5872.99 -5854.53 -5855.87 -5811.24 -5666.19 -5394.10 -4974.64 -4674.24 -4488.57 -3737.37 -4777.29 -5327.82 -7152.14 -6576.38 -5814.55 -5413.98 -5551.14 -5801.55 -5839.69 -5782.25 -5739.67 -5709.81 -5624.66 -6017.90 -6562.47 -6727.60 -6936.52 -6586.91 -5641.95 -4797.18 -4417.49 -4252.38 -4519.29 -4738.77 -5374.07 -6362.85 -6362.94
-10057.19 -9973.36 -9928.06 -10155.57 -10510.97 -10603.93 -10341.58 -10078.87 -9214.60 -8916.59 -9011.55 -8836.51 -8679.55 -8252.56 -7950.20 -7639.17 -7496.59 -7008.45 -7305.02 -7434.18 -7684.28 -8175.74 -8403.38 -8722.40 -8650.97 -8893.60 -8669.30 -9029.41 -8862.21 -8714.43 -9033.50 -8964.85 -9002.55 -8757.18 -8498.57 -8072.46 -6559.61 -5684.29 -4957.76 -4735.46 -4308.91 -3533.85 -2811.99 -2551.51 -2226.64 -2127.21 -2046.42 -1906.34 -1627.24 -1401.49 -1202.92 -1122.00 -1012.33 -781.14 -526.52 -566.84 -454.94 -318.48 -285.49 -255.92 -251.69 -209.10 -178.63 -163.68 -164.24 -144.54 -129.29 -128.77 -106.52 -114.22 -119.07 -96.86 -121.35 -133.89 -110.10 -68.38 -52.93 -25.77 -20.02 -19.45 -9.28 -1.53 9.05 4.50 0.60 -3.02 -34.02 -51.68 -117.62 -133.35 -141.50 -183.11 -224.78 -552.77 -1051.38 -1849.06 -3181.62 -4055.17 -5181.15 -5417.77 -5707.29 -5772.52 -5866.49 -5836.75 -5731.72 -5688.13 -5278.85 -5228.41 -4776.05 -4499.83 -3585.97 -2772.39 -1539.03 -2617.06 -4491.96 -6159.18 -6507.92 -5763.64 -5330.27 -5079.60 -5156.19 -5427.82 -5567.31 -5558.77 -5473.00 -5319.09 -5023.36 -5555.42 -6067.76 -6457.91 -6612.37 -6472.74 -5580.22 -5089.91 -4754.31 -4705.85 -4804.61 -5081.79 -5484.07 -6023.52 -6154.60
-9148.61 -9147.82 -9459.35 -9636.82 -10139.86 -10433.17 -10204.83 -9635.56 -8965.40 -8695.07 -8578.88 -8452.58 -8205.70 -7926.78 -7474.00 -7102.00 -7048.86 -6520.00 -6493.69 -6735.47 -6856.19 -7092.29 -7412.36 -7730.84 -7888.23 -8004.11 -7969.85 -8142.63 -8276.09 -8032.74 -8071.54 -8097.96 -8099.67 -8180.16 -7935.68 -7157.34 -6419.45 -5501.65 -4911.49 -4555.78 -4272.16 -3624.95 -3209.37 -2700.39 -2449.42 -2317.58 -2135.28 -1895.34 -1584.21 -1435.34 -1291.42 -1123.64 -1025.38 -851.42 -780.24 -681.26 -538.26 -385.85 -364.51 -321.20 -298.76 -271.15 -232.47 -196.09 -198.37 -207.29 -173.80 -142.99 -145.34 -159.06 -152.27 -145.58 -146.11 -144.37 -129.32 -107.03 -97.40 -84.97 -63.96 -65.03 -47.27 -41.84 -23.80 -26.32 -28.79 -49.81 -93.59 -114.24 -142.15 -156.25 -164.90 -197.40 -434.88 -861.76 -1864.84 -2379.21 -3954.96 -4588.84 -5298.97 -5712.07 -5783.69 -5839.08 -5885.38 -5701.71 -5470.37 -4697.68 -3952.94 -3630.09 -2342.55 -1699.49 -2116.48 -1680.94 -1683.85 -2304.78 -4394.34 -5677.81 -5773.65 -5528.31 -5039.29 -4739.13 -4872.81 -5080.98 -5406.93 -5422.29 -5083.42 -4466.03 -4455.99 -5305.52 -5947.92 -6472.34 -6631.30 -6466.41 -5661.12 -5259.60 -4889.08 -4905.04 -5002.67 -5061.31 -5350.89 -5245.40 -5246.44
-8333.18 -8332.97 -8755.68 -9410.55 -10025.60 -10409.17 -10235.64 -9633.06 -9050.04 -8649.50 -8517.45 -8428.79 -8250.38 -7904.40 -7575.71 -7143.55 -6861.07 -6439.92 -6430.75 -6590.56 -6622.14 -6808.11 -7100.73 -7380.46 -7512.38 -7614.59 -7817.26 -7895.98 -7865.45 -7828.93 -7846.40 -7962.07 -7999.76 -7880.11 -7649.44 -6964.01 -6253.93 -5702.18 -5070.64 -4884.13 -4511.65 -3859.90 -3457.66 -2878.75 -2541.61 -2350.93 -2218.47 -1979.39 -1801.58 -1630.26 -1411.71 -1189.12 -1044.68 -889.96 -770.08 -630.27 -566.68 -515.17 -428.83 -360.41 -328.17 -277.92 -253.32 -244.87 -237.32 -233.99 -195.45 -176.62 -178.88 -179.25 -187.93 -183.82 -175.12 -156.90 -146.61 -136.60 -130.88 -122.11 -121.19 -110.90 -100.09 -81.61 -78.37 -93.57 -87.93 -96.50 -102.59 -116.87 -147.71 -167.48 -192.41 -230.20 -728.77 -1371.72 -2053.23 -3121.02 -4283.10 -4982.46 -5241.90 -5722.53 -5725.04 -5556.56 -5251.85 -4622.31 -3660.45 -1823.71 -1181.63 -591.37 -554.22 -468.38 -949.68 -1348.96 -1991.55 -2782.88 -4763.54 -5461.17 -5395.41 -5376.81 -5250.19 -4802.28 -4811.84 -5175.26 -5435.07 -5439.31 -5016.55 -4426.55 -4625.57 -5282.88 -6193.78 -6612.37 -6664.22 -6270.08 -5768.20 -5358.37 -5004.69 -4943.65 -4923.59 -4753.08 -4663.77 -3793.73 -3794.90
-8310.66 -8310.91 -8670.89 -9306.15 -9834.10 -10196.15 -10280.77 -9924.06 -9210.82 -8777.37 -8549.44 -8403.16 -8322.26 -8155.17 -7934.71 -7466.20 -7280.69 -6954.24 -6746.17 -6630.66 -6640.38 -6758.55 -7054.20 -7260.22 -7346.45 -7468.21 -7661.42 -7836.14 -7843.06 -7830.47 -7781.91 -7897.48 -7922.63 -7895.91 -7471.97 -7175.03 -6280.46 -5784.66 -5294.34 -5042.79 -4792.02 -4178.51 -3788.05 -3029.93 -2635.17 -2514.76 -2371.98 -2238.37 -2061.50 -1792.37 -1478.50 -1287.02 -1085.89 -861.71 -748.49 -637.40 -587.15 -544.90 -486.42 -469.30 -378.19 -318.82 -299.44 -274.37 -255.42 -245.44 -228.41 -217.96 -207.22 -213.50 -212.69 -205.96 -201.56 -182.64 -168.03 -166.27 -159.85 -149.70 -140.10 -129.48 -120.89 -110.85 -102.90 -113.32 -120.60 -113.09 -116.16 -66.03 -130.17 -182.28 -214.80 -232.52 -931.19 -1589.43 -2468.44 -3238.96 -4510.81 -4496.57 -4085.43 -3412.68 -4212.91 -3747.14 -2222.13 -1124.61 -858.36 -489.38 -270.44 -183.34 -134.93 -281.55 -959.43 -2159.96 -2384.64 -3422.07 -4664.87 -5276.42 -5374.15 -5397.93 -5129.32 -4846.90 -4912.89 -5193.31 -5458.61 -5353.90 -5211.24 -4764.66 -5232.45 -5656.69 -6040.95 -5880.30 -5516.77 -5736.67 -5360.33 -5098.61 -4794.76 -4664.91 -4579.52 -4019.18 -3091.87 -2469.07 -2469.67
-8472.64 -8451.35 -8556.93 -8791.38 -9304.48 -9841.05 -9973.54 -9591.19 -9151.96 -8683.63 -8491.89 -8297.78 -8211.31 -8210.67 -7989.61 -7696.79 -7343.18 -7065.21 -6790.59 -6553.90 -6431.06 -6580.35 -6939.07 -6957.95 -6874.29 -6972.00 -7187.48 -7357.95 -7504.19 -7228.77 -7500.26 -7502.90 -7705.67 -7778.26 -7450.53 -7138.71 -6586.37 -5535.97 -5371.25 -4917.65 -4735.23 -4245.16 -3714.31 -3422.64 -2932.53 -2821.43 -2626.30 -2463.23 -2176.78 -1957.32 -1792.09 -1410.89 -1240.76 -1038.29 -843.79 -685.72 -604.54 -546.85 -516.74 -478.17 -435.29 -388.92 -325.34 -311.64 -306.69 -282.59 -269.60 -261.38 -252.29 -241.00 -230.95 -224.42 -215.38 -203.01 -198.38 -186.21 -177.34 -166.90 -164.09 -150.58 -132.59 -126.49 -118.55 -118.76 -118.90 -124.15 -122.40 -120.37 -157.19 -291.93 -568.63 -397.00 -1096.07 -2098.82 -2595.34 -3349.83 -3490.50 -2973.17 -1002.99 -790.27 -1260.01 -525.15 -498.94 -267.17 30.72 -5.07 -46.32 -61.20 -311.97 -448.33 -2122.08 -3493.49 -3814.10 -4675.87 -5078.22 -5285.12 -5377.92 -5414.94 -5160.69 -4778.67 -4775.11 -5087.13 -5315.18 -5377.48 -5238.21 -5200.96 -5558.15 -5580.79 -5521.49 -5056.89 -4602.33 -4685.85 -4673.99 -4282.38 -4225.75 -4056.48 -3952.52 -3558.47 -2982.11 -1993.97 -1993.93
-7735.69 -7734.62 -7348.34 -7896.64 -7855.01 -8418.76 -8533.47 -8660.81 -8318.36 -8028.75 -7585.41 -7331.20 -7363.34 -7257.20 -7186.64 -7123.70 -6660.39 -6469.33 -6251.39 -6120.59 -5840.71 -5613.42 -5838.03 -6072.00 -6470.33 -6312.81 -6410.67 -6316.29 -6408.72 -6507.05 -6388.91 -6556.92 -6647.57 -7107.37 -6724.06 -6526.47 -6207.31 -5533.15 -5058.20 -4724.85 -4324.63 -4157.62 -4116.99 -3814.27 -3761.70 -3115.58 -3258.07 -2988.18 -2528.98 -2371.70 -1931.99 -1598.11 -1319.07 -1146.76 -908.78 -774.38 -619.83 -541.85 -509.80 -484.68 -474.14 -428.74 -370.03 -342.51 -326.75 -312.11 -291.62 -282.11 -280.90 -275.04 -249.46 -241.02 -231.12 -232.23 -222.95 -217.07 -199.82 -190.09 -183.76 -181.96 -172.96 -147.05 -136.01 -132.58 -124.77 -135.34 -147.37 -158.73 -169.90 -340.50 -1249.77 -1867.92 -1452.98 -2082.76 -2392.36 -2247.05 -1854.51 -995.58 4.40 -1.22 43.10 -7.19 88.99 88.85 71.93 35.85 -28.40 -56.75 -574.10 -1961.50 -4077.29 -4351.46 -4682.78 -4964.75 -5145.78 -5369.63 -5410.35 -5419.73 -5258.20 -4925.79 -4764.77 -5051.60 -5304.70 -5401.38 -5464.94 -5427.99 -5462.61 -5210.45 -4889.06 -4417.06 -4410.35 -4919.88 -4657.72 -4222.12 -3818.04 -3703.59 -3718.48 -3343.33 -2944.55 -2335.95 -2335.44
-6630.73 -6573.53 -6545.25 -6624.40 -6784.18 -7019.65 -7476.56 -7109.42 -6921.50 -6603.40 -5946.63 -6238.70 -5853.83 -5858.59 -5445.11 -5717.15 -5718.61 -5576.03 -5107.47 -4684.99 -4609.21 -4403.03 -4540.77 -4712.39 -4727.61 -5117.22 -5345.50 -5475.34 -5575.11 -5663.00 -5597.61 -5574.84 -5708.22 -5656.62 -5896.22 -5213.37 -5138.26 -4540.17 -4278.02 -4155.09 -4180.32 -4165.38 -4321.40 -4146.29 -3800.81 -3638.95 -3532.92 -3226.48 -2844.82 -2368.18 -1983.44 -1800.07 -1440.68 -1206.75 -1014.27 -822.39 -710.37 -608.50 -556.18 -508.85 -483.72 -473.62 -443.13 -361.69 -350.82 -333.79 -323.00 -312.57 -305.63 -293.58 -280.16 -265.17 -272.97 -260.28 -248.66 -239.20 -232.71 -211.48 -210.81 -194.87 -181.93 -170.02 -165.17 -161.70 -144.02 -163.50 -176.20 -200.52 -224.14 -360.85 -1010.42 -2025.54 -2309.20 -2407.50 -1615.58 -628.64 -374.51 20.50 72.16 30.04 115.18 141.72 147.64 138.15 74.28 47.00 -179.99 -496.06 -1448.58 -3405.65 -5189.54 -5559.99 -5329.08 -5202.54 -5288.19 -5386.07 -5431.79 -5459.69 -5446.71 -5208.50 -5153.09 -5375.46 -5495.08 -5401.18 -5324.07 -5166.49 -4803.24 -4578.48 -4098.40 -4192.38 -4488.50 -5211.13 -4886.80 -4454.18 -3877.08 -3791.70 -3743.53 -3487.14 -3222.52 -3075.81 -3075.33
-6298.69 -6314.65 -6324.10 -6249.62 -6178.08 -5896.78 -5701.49 -5477.58 -5153.48 -4884.90 -4842.75 -4600.21 -4725.94 -4395.06 -4455.66 -4298.41 -4430.68 -4412.01 -4454.56 -4381.23 -4074.35 -3664.09 -3695.20 -4222.98 -4315.29 -4540.67 -4841.17 -4867.17 -5201.33 -5212.94 -5096.16 -4989.13 -4749.71 -4539.50 -4040.80 -4376.57 -4193.73 -4207.98 -3758.91 -3931.98 -4249.28 -4646.45 -4813.22 -4577.40 -4154.20 -3825.04 -3773.00 -3460.88 -3108.99 -2645.20 -2258.99 -1926.34 -1613.48 -1494.85 -1140.79 -864.66 -778.82 -661.60 -565.69 -535.33 -519.50 -499.86 -485.14 -437.31 -384.43 -379.82 -346.39 -339.43 -328.38 -315.00 -305.10 -303.97 -302.48 -297.71 -283.75 -252.43 -253.91 -231.57 -221.11 -217.11 -207.95 -200.88 -183.49 -178.33 -182.85 -177.64 -188.21 -202.03 -252.43 -330.79 -811.92 -776.47 -1757.75 -1661.23 -593.16 -21.09 19.20 99.60 156.45 103.60 236.16 261.09 211.85 134.24 77.57 -5.71 -852.71 -1572.80 -2785.23 -4133.72 -5778.70 -6002.86 -5522.44 -5353.69 -5373.92 -5413.14 -5438.94 -5471.83 -5500.47 -5515.76 -5473.90 -5525.07 -5532.98 -5148.97 -4716.31 -4257.07 -3960.02 -3789.45 -3789.92 -4214.43 -4984.56 -5326.63 -4784.25 -4330.04 -3975.79 -3894.03 -3825.83 -3655.44 -3632.58 -3662.62 -3662.40
-6474.11 -6474.12 -6095.02 -6021.28 -5718.19 -5437.94 -4734.83 -4467.17 -4220.35 -4158.93 -4075.74 -3892.04 -3712.59 -3642.72 -3330.97 -3454.55 -3621.40 -3833.85 -3644.87 -3732.02 -3545.40 -3417.51 -3458.43 -3660.50 -4025.91 -4068.82 -4213.20 -4211.62 -4476.04 -4223.97 -4411.32 -4087.73 -4157.43 -3799.17 -3590.37 -3508.33 -3461.83 -3183.81 -3476.38 -4096.25 -4565.00 -4983.17 -5125.86 -4935.88 -4513.34 -4398.46 -4203.75 -3840.37 -3171.37 -2871.87 -2442.59 -2285.65 -2012.84 -1624.54 -1233.05 -946.71 -857.66 -704.44 -624.80 -582.22 -547.64 -512.24 -496.15 -474.56 -466.79 -456.57 -409.22 -372.67 -348.78 -331.04 -322.27 -319.68 -315.80 -307.22 -299.83 -282.23 -275.91 -260.39 -244.09 -234.56 -227.58 -216.06 -212.19 -196.05 -204.10 -209.10 -215.79 -220.43 -260.56 -330.22 -439.71 -431.24 -971.58 -477.36 -139.86 -19.95 30.26 160.21 288.68 309.69 365.03 283.45 164.80 91.75 50.78 22.75 -1533.85 -3251.64 -4067.79 -5506.63 -6264.10 -6048.58 -5322.06 -5286.49 -5397.93 -5421.80 -5449.00 -5479.23 -5510.11 -5523.33 -5310.58 -4922.58 -4631.64 -4584.85 -4209.56 -3732.96 -3613.84 -3618.88 -3920.51 -4625.64 -5355.02 -5199.36 -4673.78 -3959.65 -3734.19 -3725.73 -3780.34 -3804.43 -3840.47 -3922.58 -3922.58
-6302.98 -6302.41 -5904.16 -5423.66 -4724.23 -4175.14 -3941.19 -3819.12 -3872.30 -3830.45 -3690.88 -3506.54 -3560.21 -3318.45 -2942.92 -2887.40 -2984.67 -2923.84 -2991.88 -2711.85 -2573.53 -2568.77 -2789.85 -3161.20 -2943.72 -3291.16 -3098.64 -3207.99 -3215.20 -3289.80 -3191.22 -3251.39 -2958.51 -2906.16 -2851.33 -2966.46 -2986.22 -3139.78 -3423.66 -3937.75 -4784.76 -5140.73 -5145.93 -5140.86 -5015.25 -4725.81 -4448.66 -4106.13 -3457.10 -3228.23 -3060.93 -2774.58 -2253.43 -1853.44 -1550.01 -1253.12 -977.77 -842.51 -675.33 -639.44 -558.38 -540.17 -521.34 -510.32 -489.86 -489.96 -455.06 -387.16 -370.76 -353.67 -342.57 -336.44 -326.32 -313.30 -306.56 -305.47 -291.74 -277.26 -269.10 -248.80 -248.35 -241.20 -226.84 -216.98 -218.14 -209.96 -212.04 -214.32 -234.62 -258.66 -312.42 -292.73 -383.46 -169.81 -57.67 2.38 119.88 529.01 487.79 385.90 406.25 202.65 126.48 60.39 18.40 -678.51 -2655.77 -3705.38 -4609.92 -5841.09 -6479.35 -6024.34 -5282.81 -5247.05 -5406.47 -5426.85 -5458.52 -5482.46 -5332.85 -4810.82 -4227.96 -4272.28 -4080.90 -3890.06 -3647.24 -3570.31 -3687.11 -3943.06 -4551.20 -4994.99 -5349.60 -4744.53 -4137.94 -3581.68 -3429.46 -3466.44 -3567.78 -3731.56 -3845.51 -3880.27 -3902.53
-5454.46 -5453.43 -4653.74 -4033.62 -3693.28 -3555.39 -3229.08 -3198.62 -3287.16 -3094.51 -3058.95 -2920.00 -2620.50 -2222.76 -1980.01 -1930.97 -1767.41 -1815.83 -1656.80 -1906.41 -1946.55 -1939.46 -2035.27 -2080.46 -2223.68 -2267.65 -1868.42 -1853.47 -2109.88 -2156.94 -2092.87 -2150.13 -2316.90 -2331.85 -2348.56 -2675.19 -2797.79 -2900.77 -2960.95 -3371.71 -3850.74 -4494.79 -5001.49 -5208.03 -5214.77 -5034.30 -4853.86 -4431.81 -3742.28 -3532.15 -3282.93 -2775.45 -2520.97 -1910.11 -1647.53 -1407.62 -1117.56 -978.32 -880.55 -690.46 -610.39 -564.12 -551.16 -529.36 -504.07 -492.95 -481.68 -421.60 -378.10 -372.63 -354.53 -347.15 -336.97 -326.88 -318.23 -311.57 -303.23 -287.75 -273.56 -263.10 -259.15 -238.93 -219.70 -202.17 -200.76 -196.52 -171.01 -180.44 -162.38 -144.05 -136.78 -108.48 -75.32 -73.67 -25.83 53.67 386.49 910.24 1003.17 450.24 194.72 115.94 91.85 23.32 -24.19 -1040.48 -2923.30 -4754.96 -5354.96 -6237.92 -6686.93 -6105.14 -5371.75 -5287.75 -5413.77 -5431.34 -5459.77 -5070.48 -4616.15 -4060.36 -3493.10 -3493.02 -3664.45 -3606.70 -3562.11 -3650.92 -4016.48 -4268.16 -4814.99 -5156.05 -5024.15 -4433.20 -3671.78 -3425.84 -3450.28 -3542.06 -3632.91 -3678.78 -3775.45 -3764.51 -3764.63
-4254.94 -4080.38 -3831.32 -3413.25 -3005.79 -2589.46 -2300.56 -2148.20 -2058.72 -2191.02 -1858.95 -1682.28 -1660.30 -1600.97 -1462.33 -1468.36 -1325.48 -1271.85 -1243.40 -1200.54 -1203.07 -1186.02 -1247.10 -1312.61 -1592.41 -1646.83 -1722.92 -1941.43 -1973.10 -2111.66 -2031.17 -2054.78 -2176.99 -2261.78 -2510.26 -2745.09 -2953.17 -2941.12 -2960.33 -2903.63 -3110.93 -3858.03 -4950.24 -5264.58 -5253.10 -5237.52 -4988.02 -4511.18 -4041.09 -3908.51 -3565.39 -3439.47 -2919.94 -2255.23 -1983.70 -1702.45 -1446.96 -1280.91 -1008.08 -824.17 -651.06 -615.12 -585.53 -541.28 -519.06 -506.52 -500.40 -462.90 -440.80 -372.42 -367.22 -355.47 -344.98 -333.81 -325.11 -315.25 -302.53 -294.48 -283.87 -277.14 -268.11 -242.72 -200.20 -137.51 -119.86 -79.16 -108.04 -84.65 -91.11 -75.81 -20.64 -22.33 -0.71 -19.42 10.59 232.71 845.13 1094.92 1042.39 322.51 83.26 88.19 51.52 -40.80 -824.75 -2712.12 -5043.36 -5839.87 -6762.55 -6700.41 -6681.38 -6219.27 -5876.38 -5558.80 -5417.47 -5434.45 -5187.47 -4624.11 -4111.23 -3480.39 -3123.38 -3155.61 -3404.62 -3543.41 -3744.07 -4009.83 -4343.16 -4643.23 -4943.45 -5004.56 -4614.46 -4300.95 -3697.99 -3555.29 -3629.25 -3750.59 -3823.21 -3808.36 -3793.77 -3772.54 -3772.50
-3192.38 -3033.70 -2801.91 -2538.32 -1872.73 -1530.99 -1216.94 -1191.54 -1125.11 -1203.28 -1263.73 -1346.50 -1299.01 -1286.07 -1226.14 -1162.61 -1148.59 -1099.18 -1073.39 -1116.79 -1135.37 -1168.88 -1139.66 -1259.59 -1529.11 -1706.35 -1873.70 -2064.17 -2324.85 -2403.25 -2411.74 -2440.72 -2563.25 -2776.14 -2975.67 -3355.41 -3317.09 -3353.83 -3305.24 -3120.48 -3037.40 -3711.46 -4705.01 -5325.97 -5327.26 -5292.21 -5265.07 -4970.01 -4490.96 -4225.61 -4111.23 -3922.14 -3074.45 -2810.62 -2241.40 -2041.42 -1663.25 -1529.03 -1134.14 -886.29 -747.63 -667.77 -609.68 -565.94 -529.84 -530.45 -521.35 -513.90 -462.56 -390.20 -367.53 -365.13 -349.81 -336.82 -333.30 -309.17 -307.04 -302.60 -297.66 -284.63 -269.36 -231.38 -207.13 -87.73 -59.39 -39.80 -41.05 -12.61 8.12 59.13 60.97 40.22 25.30 106.32 213.72 615.29 998.33 859.77 388.05 101.91 36.20 25.54 -17.29 -354.83 -2945.11 -3270.56 -6092.84 -6727.93 -6797.44 -6587.13 -6515.92 -6519.33 -6334.18 -5869.20 -5509.13 -5370.48 -4828.62 -4324.11 -3293.07 -3082.66 -2970.37 -3149.54 -3399.16 -3609.11 -4086.70 -4495.62 -4952.47 -5019.13 -4892.09 -4840.88 -4471.19 -4147.87 -3812.84 -3726.88 -3840.64 -3959.67 -3955.68 -3981.96 -3928.77 -3899.00 -3882.95
-2304.28 -2304.72 -2103.79 -1474.37 -1247.95 -1039.28 -859.49 -846.98 -926.24 -1052.96 -1183.42 -1277.02 -1284.08 -1247.74 -1228.81 -1194.53 -1195.57 -1194.74 -1157.27 -1229.52 -1311.34 -1284.36 -1332.59 -1364.06 -1526.81 -1667.54 -1887.44 -2075.46 -2297.66 -2470.56 -2515.58 -2558.94 -2816.15 -2994.14 -3454.55 -3729.54 -3900.18 -3676.71 -3251.26 -2965.65 -3002.63 -3871.59 -4798.39 -5370.28 -5358.81 -5345.24 -5345.08 -5219.52 -4940.56 -4813.33 -4554.13 -4329.72 -3929.17 -3243.15 -2844.72 -2403.44 -1972.32 -1509.37 -1176.86 -975.86 -812.11 -724.10 -643.28 -606.33 -571.44 -549.47 -545.59 -530.06 -504.89 -428.60 -383.95 -360.92 -349.41 -341.56 -332.78 -313.74 -309.27 -309.88 -308.10 -302.76 -277.22 -237.46 -154.50 -70.23 -33.10 -9.51 8.81 39.33 58.08 81.84 103.46 96.92 96.84 341.94 604.39 990.43 1097.99 638.61 116.39 69.80 3.10 -429.31 -979.51 -1837.57 -7278.34 -6966.37 -6645.51 -6757.07 -6489.28 -6366.18 -6525.96 -6830.40 -6846.71 -6358.97 -5855.55 -4986.60 -4316.77 -3884.67 -3199.75 -3168.57 -3291.10 -3517.29 -3843.28 -4064.08 -4582.45 -5254.79 -5228.27 -5037.86 -4828.70 -4724.02 -4571.18 -4459.42 -4111.36 -3872.33 -3942.78 -3984.71 -3996.68 -3994.39 -3955.88 -3913.78 -3898.11
-1550.94 -1551.54 -1389.11 -1174.28 -1075.13 -956.60 -899.26 -909.50 -992.81 -1145.23 -1279.04 -1396.35 -1418.18 -1374.55 -1378.63 -1353.01 -1380.68 -1360.24 -1326.16 -1407.79 -1404.94 -1319.90 -1354.29 -1352.29 -1472.62 -1591.00 -1705.81 -1884.78 -2129.33 -2339.65 -2470.27 -2494.41 -2594.04 -2767.43 -3122.17 -3308.72 -3475.15 -3161.94 -2888.62 -2597.75 -2587.86 -3857.49 -5416.56 -5393.35 -5390.69 -5374.27 -5365.96 -5363.39 -5311.81 -5201.74 -4915.44 -4729.72 -4347.95 -3828.06 -3030.79 -2651.08 -2097.56 -1628.96 -1329.14 -1159.97 -942.86 -860.37 -755.20 -682.44 -630.24 -589.68 -579.21 -570.13 -570.87 -440.41 -394.51 -372.88 -349.84 -346.56 -336.09 -334.54 -315.43 -328.01 -336.79 -329.35 -321.84 -237.45 -86.91 -36.51 -9.36 1.45 28.48 63.39 72.57 260.78 188.38 234.35 362.87 972.08 1166.76 1385.42 1147.95 350.27 100.54 20.93 -82.21 -2029.59 -4917.88 -7632.57 -7335.41 -7110.51 -6947.96 -6754.16 -6558.52 -6565.24 -6835.35 -7275.04 -7177.53 -6604.20 -5576.72 -4522.97 -3583.10 -3498.63 -3446.38 -3562.72 -4057.84 -4212.43 -4374.88 -4705.16 -4905.12 -5152.03 -5111.21 -4872.63 -4743.14 -4732.27 -4814.52 -4636.87 -4258.35 -3986.45 -3918.14 -3944.85 -3941.37 -3858.52 -3838.30 -3750.81 -3746.02
-1233.47 -1233.41 -1190.10 -1172.52 -1094.88 -1012.80 -1010.76 -1047.57 -1104.10 -1181.19 -1339.72 -1558.66 -1513.47 -1514.29 -1492.33 -1476.26 -1461.67 -1438.25 -1408.16 -1380.62 -1375.61 -1309.71 -1311.86 -1320.57 -1347.83 -1380.69 -1587.77 -1742.52 -2021.33 -2290.94 -2406.71 -2446.74 -2440.64 -2459.84 -2529.33 -2645.27 -2596.25 -2436.44 -2194.05 -2129.94 -2506.31 -3843.83 -5036.87 -5433.62 -5422.47 -5415.23 -5401.66 -5394.43 -5371.78 -5367.81 -5243.91 -5140.61 -4786.37 -4044.31 -3661.18 -3128.87 -2612.64 -1872.87 -1677.31 -1493.64 -1327.98 -1199.73 -883.41 -855.79 -775.32 -711.94 -635.66 -610.55 -655.90 -685.17 -487.57 -382.78 -362.08 -350.61 -373.60 -365.48 -384.71 -392.17 -382.84 -382.88 -315.79 -232.34 -77.77 16.90 11.75 15.32 36.25 319.70 456.60 856.42 759.32 825.40 1032.93 1749.80 2296.62 2079.54 1500.19 652.96 98.57 2.58 -114.62 -5976.72 -7230.50 -6748.05 -6067.16 -6431.52 -6846.42 -6869.72 -6929.14 -6970.39 -7249.58 -7532.59 -7334.72 -6329.06 -4454.30 -3676.53 -3408.96 -3828.77 -3965.65 -4372.26 -4716.21 -4800.89 -4762.60 -4690.08 -4645.41 -4773.97 -4752.29 -4749.95 -4764.11 -4901.72 -5031.06 -4802.63 -4418.65 -4040.88 -3838.03 -3825.52 -3776.87 -3661.96 -3588.02 -3504.73 -3424.30
-1201.29 -1203.44 -1179.67 -1135.60 -1087.65 -1083.73 -1120.42 -1213.32 -1232.50 -1305.20 -1499.80 -1604.98 -1595.84 -1569.31 -1518.05 -1482.81 -1442.46 -1392.86 -1390.28 -1344.24 -1325.40 -1305.51 -1283.73 -1318.24 -1311.61 -1343.65 -1469.40 -1603.07 -1899.91 -2266.80 -2418.21 -2473.67 -2471.94 -2447.63 -2419.44 -2328.66 -2143.64 -1923.91 -2013.18 -2269.39 -2626.76 -3649.56 -4466.72 -5452.58 -5449.95 -5431.83 -5429.12 -5420.61 -5408.03 -5378.76 -5325.29 -5186.28 -4805.64 -4562.90 -4425.65 -3637.04 -2882.18 -2306.05 -2133.85 -1862.40 -1775.75 -1545.79 -1145.06 -988.05 -896.02 -808.67 -698.39 -710.89 -829.11 -898.75 -688.40 -496.66 -440.64 -444.10 -433.39 -464.94 -480.91 -478.49 -472.92 -392.28 -243.32 -190.52 18.26 58.37 80.82 80.08 349.35 736.21 1182.85 1408.99 1576.06 2066.19 2050.94 2359.50 2433.11 1700.56 1526.78 868.43 -459.66 -1495.08 -3042.49 -6083.60 -5203.26 -5074.95 -4848.57 -5435.09 -5986.62 -6926.73 -7435.22 -7464.06 -7606.49 -7503.65 -6259.21 -5052.12 -4287.78 -3702.52 -3851.57 -4116.28 -4349.71 -4545.42 -4766.24 -4760.39 -4709.17 -4608.42 -4371.57 -4456.72 -4724.91 -4794.36 -4923.50 -5079.99 -5233.81 -4841.37 -4302.87 -3917.88 -3703.72 -3571.21 -3407.62 -3275.61 -3202.54 -2966.29 -2965.96
-1107.64 -1114.28 -1094.05 -1099.29 -1094.00 -1096.07 -1178.48 -1284.34 -1344.48 -1424.39 -1525.15 -1577.03 -1573.17 -1533.15 -1487.19 -1410.72 -1387.84 -1337.34 -1341.69 -1326.49 -1323.62 -1301.21 -1242.24 -1293.87 -1297.86 -1334.28 -1365.63 -1561.98 -1807.20 -2369.36 -2497.58 -2607.10 -2599.61 -2643.80 -2388.24 -2104.05 -1820.33 -1566.63 -1919.02 -2270.29 -2629.11 -2994.74 -3939.09 -4949.49 -5477.50 -5467.73 -5453.38 -5450.97 -5428.02 -5417.04 -5407.79 -5345.91 -5043.40 -4906.28 -4441.72 -3926.00 -3214.97 -2941.04 -2301.42 -2216.85 -1924.81 -1503.25 -1207.23 -1152.20 -1096.95 -1018.83 -910.93 -862.21 -997.38 -1006.54 -939.63 -1080.32 -768.51 -597.42 -589.23 -640.69 -691.27 -614.61 -589.23 -445.55 -209.07 -101.73 26.66 94.37 111.63 121.90 732.39 1129.65 2156.82 2429.73 2402.43 2153.13 1849.78 1406.94 1789.72 1012.92 910.00 -271.32 -2770.91 -3724.80 -4371.97 -4445.13 -3559.65 -3369.52 -3633.78 -4275.02 -5378.85 -6286.47 -7400.20 -7542.06 -7515.50 -6858.16 -5747.18 -4423.25 -3903.39 -4168.97 -4329.94 -4483.61 -4511.01 -4557.38 -4660.36 -4634.75 -4533.25 -4411.88 -4378.38 -4638.87 -4920.00 -5183.29 -5258.41 -5391.05 -5374.49 -4845.12 -4291.32 -3634.39 -3386.28 -3118.22 -2951.29 -2768.30 -2680.77 -2657.83 -2657.74
-1039.75 -1046.66 -1064.99 -1084.37 -1084.33 -1131.47 -1192.62 -1298.38 -1389.83 -1499.88 -1560.19 -1547.21 -1512.20 -1487.73 -1415.62 -1358.99 -1313.75 -1268.24 -1253.77 -1227.84 -1269.25 -1231.86 -1186.35 -1198.11 -1226.28 -1282.06 -1315.43 -1427.49 -1801.41 -2353.18 -2665.61 -2732.44 -2955.13 -2937.83 -2604.04 -1853.83 -1491.74 -1428.42 -1765.59 -2036.39 -2344.79 -2355.53 -2844.02 -4209.88 -5066.54 -5452.49 -5478.66 -5467.29 -5458.72 -5441.97 -5436.40 -5406.22 -5389.33 -5078.96 -4635.05 -4446.26 -4071.95 -3379.59 -3106.16 -2743.58 -2340.25 -1963.99 -2026.91 -1823.46 -1517.73 -1381.41 -1339.02 -1238.31 -1308.64 -1329.95 -1622.72 -1773.08 -811.77 -1476.93 -1011.22 -339.70 -362.06 -439.71 -690.67 -616.82 -190.62 -19.84 73.38 114.87 277.22 659.74 1290.46 1614.27 2166.21 2205.50 1831.31 1480.47 1188.52 824.90 329.73 189.45 -158.41 -936.40 -3757.51 -4244.49 -4110.40 -3852.42 -3620.41 -3586.89 -3837.98 -4141.35 -4620.56 -5390.00 -6209.16 -7063.72 -6901.34 -6128.14 -5466.51 -4538.49 -4197.55 -4431.26 -4540.88 -4465.70 -4429.59 -4389.93 -4458.00 -4531.20 -4503.41 -4442.71 -4603.46 -4899.94 -5286.73 -5595.40 -5680.32 -5604.11 -5576.79 -5250.24 -4426.72 -3454.61 -3114.68 -2771.23 -2584.18 -2575.17 -2635.97 -2712.49 -2712.70
-1011.29 -1011.24 -1052.14 -1060.24 -1069.54 -1130.62 -1222.81 -1288.02 -1433.24 -1491.38 -1541.66 -1534.05 -1467.45 -1433.71 -1386.70 -1308.29 -1241.03 -1218.46 -1190.38 -1173.34 -1182.99 -1159.39 -1150.49 -1160.14 -1194.08 -1208.05 -1286.92 -1395.90 -1683.48 -2342.88 -3006.36 -3251.00 -3338.02 -3088.22 -2838.80 -1924.22 -1455.66 -1398.78 -1731.75 -1943.48 -1784.37 -1885.53 -2465.49 -3543.88 -4973.95 -5470.20 -5501.67 -5487.23 -5475.26 -5466.32 -5456.91 -5437.80 -5404.08 -5199.82 -4963.84 -4722.18 -4501.55 -4038.09 -3711.02 -3342.13 -3040.92 -2510.18 -2342.79 -2236.01 -1974.79 -1837.04 -1710.08 -1670.34 -1666.44 -1717.47 -1776.46 -1270.03 -357.63 -1113.50 -764.11 -125.29 -112.02 -195.32 -316.67 -235.08 9.70 269.24 586.01 740.44 683.14 832.86 803.21 1325.43 1345.11 1109.95 844.38 754.11 672.01 -406.74 31.31 -448.17 -1944.54 -4058.26 -4147.57 -4693.04 -4654.96 -4409.19 -4338.51 -4433.81 -4796.67 -4749.54 -4541.36 -5158.67 -5465.67 -5978.23 -6357.63 -6273.30 -5342.93 -4882.41 -4687.93 -4677.93 -4547.65 -4319.20 -4252.33 -4281.92 -4384.17 -4434.61 -4487.62 -4556.53 -4743.93 -5160.96 -5750.07 -5780.16 -5905.02 -5903.51 -5731.63 -5205.45 -4454.63 -3421.36 -2985.53 -2629.67 -2535.46 -2621.96 -2870.75 -3003.94 -3004.26
-1036.82 -1036.72 -1076.51 -1081.15 -1081.66 -1149.37 -1224.84 -1312.98 -1447.25 -1504.91 -1535.44 -1523.09 -1455.40 -1409.61 -1362.02 -1299.25 -1246.48 -1184.94 -1155.95 -1150.43 -1145.20 -1138.35 -1140.06 -1146.84 -1160.33 -1164.08 -1229.53 -1301.90 -1564.81 -2298.09 -2962.97 -3383.77 -3688.87 -3568.11 -3217.92 -1876.04 -1481.32 -1409.29 -1490.96 -1719.18 -1378.86 -1529.80 -2420.80 -4117.99 -5362.50 -5523.62 -5515.06 -5506.27 -5490.73 -5480.95 -5465.86 -5459.98 -5430.28 -5315.95 -5009.02 -4941.32 -4773.52 -4355.91 -4051.63 -3632.01 -3443.53 -3006.31 -2768.00 -2496.40 -2316.48 -2214.47 -2095.63 -1953.39 -1815.36 -1690.86 -1195.89 -849.93 239.85 314.51 71.49 162.73 100.16 288.68 425.27 476.05 672.81 790.40 784.13 665.22 372.48 451.64 423.82 482.68 296.09 397.77 314.16 96.30 -1.09 -1787.31 -2459.24 -2269.52 -2444.08 -5310.82 -5208.96 -5015.23 -4926.52 -4822.36 -5121.15 -5326.34 -5384.04 -5251.47 -4999.95 -4843.22 -5094.58 -5496.14 -5790.69 -5848.82 -5446.41 -5058.85 -4937.24 -4815.40 -4549.52 -4362.20 -4281.17 -4308.83 -4385.84 -4463.07 -4537.53 -4582.83 -4840.96 -5244.97 -5809.87 -5987.49 -6082.79 -6069.29 -5998.19 -5321.52 -4516.93 -3562.47 -3030.20 -2943.95 -2755.66 -2866.68 -3053.95 -3248.16 -3315.67
-1122.06 -1121.92 -1160.80 -1160.19 -1170.98 -1201.64 -1245.01 -1330.12 -1439.86 -1504.95 -1516.26 -1490.58 -1422.43 -1393.13 -1334.73 -1239.81 -1209.40 -1148.59 -1133.78 -1142.01 -1131.03 -1119.37 -1122.58 -1112.28 -1121.98 -1157.63 -1174.17 -1217.41 -1426.86 -2066.04 -2758.37 -3188.30 -3673.38 -3575.34 -2892.01 -1989.18 -1377.79 -1344.71 -1478.97 -1443.46 -1292.82 -1693.44 -2748.93 -4400.94 -5555.01 -5535.48 -5518.94 -5508.29 -5503.27 -5486.71 -5479.61 -5450.50 -5435.38 -5390.32 -5019.26 -4819.85 -4572.53 -4429.27 -4310.76 -3952.42 -3631.79 -3244.02 -3041.85 -2772.52 -2447.81 -2389.42 -2242.36 -1983.67 -1740.20 -1333.12 -302.58 339.26 755.32 1201.18 1173.05 1395.66 1693.59 1310.77 1466.35 1208.53 1079.06 993.76 819.70 232.73 41.18 3.56 11.60 41.64 79.17 140.58 41.84 10.60 -1458.42 -4056.30 -4745.11 -5182.01 -5198.33 -5156.40 -5067.29 -5044.70 -5078.14 -5339.28 -5430.77 -5656.52 -5896.67 -5844.86 -5421.62 -5197.72 -5134.49 -5386.73 -5743.98 -5743.31 -5488.72 -5131.14 -5009.03 -4853.66 -4673.06 -4573.34 -4449.90 -4425.74 -4418.15 -4525.23 -4571.42 -4696.69 -5000.12 -5396.31 -5923.21 -6165.60 -6171.72 -6225.59 -6161.53 -5685.65 -4600.11 -3755.38 -3440.52 -3369.59 -3349.53 -3560.81 -3539.32 -3627.20 -3627.50
-1214.92 -1208.10 -1209.63 -1214.82 -1229.99 -1243.73 -1297.45 -1367.99 -1421.94 -1469.66 -1501.74 -1478.80 -1411.14 -1379.22 -1320.48 -1256.47 -1183.91 -1132.75 -1133.83 -1138.89 -1111.56 -1066.96 -1043.70 -1055.74 -1070.51 -1119.37 -1147.42 -1195.76 -1325.34 -1637.24 -2475.53 -2930.51 -3346.26 -3310.54 -2747.44 -2074.54 -1446.28 -1455.54 -1575.71 -1604.61 -1569.69 -2257.51 -3039.51 -4820.73 -5550.57 -5543.24 -5526.32 -5514.09 -5501.65 -5492.64 -5482.47 -5388.27 -5151.91 -5002.58 -4756.25 -4580.54 -4523.96 -4509.67 -4414.46 -4224.22 -3853.38 -3534.34 -3191.43 -2940.68 -2678.32 -2528.53 -2336.29 -1965.01 -1386.81 -792.53 281.93 915.89 1327.83 1580.94 1689.07 1572.16 1715.29 1446.15 1327.84 1067.69 504.61 453.70 21.99 36.28 -327.77 -529.44 -332.74 -243.18 -615.00 -1515.12 -2148.26 -2976.56 -4562.68 -5073.43 -5097.92 -5216.40 -5202.06 -5169.56 -5253.17 -5265.24 -5523.41 -5696.36 -5915.14 -6021.24 -6070.52 -6075.77 -5883.33 -5601.74 -5454.36 -5696.02 -5950.65 -5695.49 -5527.29 -5314.60 -5130.47 -4932.90 -4857.06 -4737.29 -4682.76 -4611.14 -4644.09 -4636.48 -4703.16 -4793.90 -5087.85 -5306.50 -6070.39 -6266.54 -6347.87 -6310.21 -6238.23 -5560.88 -4703.44 -3937.24 -3702.32 -3799.32 -3714.96 -3915.85 -3941.33 -3970.37 -3970.68
-1325.38 -1325.23 -1308.18 -1312.63 -1336.26 -1353.14 -1345.23 -1382.05 -1419.12 -1458.46 -1460.79 -1454.97 -1406.51 -1351.81 -1307.24 -1245.92 -1182.72 -1136.43 -1126.47 -1111.39 -1079.89 -1006.20 -996.42 -987.49 -1005.10 -1040.50 -1090.25 -1141.27 -1290.36 -1695.23 -2347.99 -2687.65 -2935.08 -2961.37 -2492.35 -2053.89 -1954.19 -1816.98 -2225.32 -2473.73 -2581.14 -3170.34 -4082.96 -5343.92 -5548.60 -5539.41 -5526.94 -5516.95 -5503.57 -5490.29 -5482.20 -5199.49 -4769.74 -4729.32 -4357.28 -4014.97 -3945.72 -4335.46 -4335.93 -4169.31 -3971.04 -3644.82 -3562.77 -3485.58 -3147.21 -3002.54 -2627.30 -2183.30 -1560.68 -1203.12 -393.46 516.86 698.01 659.60 957.63 716.72 776.63 710.51 656.05 73.80 95.65 -360.59 -694.28 -1111.95 -1590.00 -1922.59 -2249.59 -2358.21 -2983.22 -4037.04 -3663.24 -5215.41 -5339.76 -5790.66 -5779.76 -5617.23 -5534.62 -5631.14 -5614.31 -5918.22 -6138.28 -6341.75 -6339.39 -6323.74 -6183.08 -6064.63 -5905.45 -5791.00 -5880.86 -6297.73 -6394.21 -6477.17 -6109.31 -5677.73 -5400.31 -5303.69 -5154.82 -4999.09 -4930.44 -4852.55 -4845.37 -4894.56 -4910.44 -5049.65 -5334.16 -5850.35 -6206.26 -6429.11 -6531.71 -6553.38 -6364.43 -5857.65 -4654.52 -4017.78 -4025.63 -4118.22 -4151.38 -4261.90 -4269.00 -4222.08 -4222.29
-1421.57 -1421.44 -1402.10 -1380.32 -1393.88 -1387.08 -1395.67 -1409.27 -1422.94 -1434.63 -1418.68 -1405.13 -1362.10 -1318.83 -1251.32 -1221.47 -1192.07 -1134.65 -1091.44 -1081.48 -1030.55 -990.18 -965.68 -952.96 -956.69 -982.63 -1032.21 -1114.29 -1261.81 -1707.39 -2319.73 -2653.51 -2986.21 -2975.44 -2610.20 -2383.29 -2183.32 -2662.31 -2827.32 -3150.11 -3407.59 -4161.43 -4930.52 -5549.49 -5544.72 -5533.95 -5524.57 -5509.07 -5502.07 -5491.06 -5478.78 -5470.37 -5064.82 -4866.21 -4594.66 -4198.19 -4211.68 -4304.55 -4335.91 -4248.33 -4123.08 -4119.20 -3957.99 -3927.64 -3747.19 -3571.05 -3217.65 -2962.38 -2448.11 -1884.76 -1453.26 -618.64 -62.58 136.20 357.90 185.97 157.69 102.94 -17.89 1.57 -390.34 -751.70 -1389.02 -2264.59 -2904.85 -3858.83 -4328.26 -4489.18 -4784.67 -5187.95 -5920.62 -6044.56 -6134.82 -6064.26 -5826.51 -5738.20 -5746.43 -5873.35 -6108.11 -6573.23 -6723.57 -6900.62 -6760.70 -6419.23 -6143.70 -6093.56 -6191.57 -6276.75 -6795.86 -7125.33 -6997.21 -6874.22 -6515.28 -6161.04 -6026.08 -5675.56 -5399.33 -5207.14 -5101.42 -5016.30 -4974.48 -5006.85 -5137.07 -5225.57 -5433.84 -5979.01 -6434.33 -6680.60 -6764.96 -6704.19 -6670.23 -6074.65 -5047.72 -4426.00 -4186.49 -4260.14 -4288.57 -4337.87 -4371.90 -4357.12 -4360.59
-1468.66 -1468.57 -1462.19 -1449.27 -1433.75 -1434.11 -1432.00 -1424.89 -1415.49 -1399.86 -1388.01 -1379.63 -1328.07 -1290.74 -1233.36 -1202.42 -1151.88 -1125.77 -1072.46 -1038.11 -998.66 -981.48 -943.83 -928.53 -913.79 -949.94 -1013.95 -1079.64 -1159.31 -1424.27 -2232.54 -3112.21 -3388.98 -3401.66 -2853.47 -2582.85 -2631.69 -2939.44 -3130.24 -3382.66 -3826.00 -4617.20 -4935.98 -5408.53 -5485.42 -5489.73 -5519.47 -5504.28 -5494.23 -5488.83 -5479.52 -5466.10 -5172.39 -4986.34 -4760.48 -4510.48 -4434.88 -4452.61 -4359.55 -4285.39 -4245.29 -4167.90 -4130.34 -4125.26 -3998.75 -3822.12 -3592.50 -3052.26 -2649.20 -2365.60 -1987.01 -1403.92 -686.25 -624.46 -515.00 -615.98 -290.17 -980.01 -951.53 -743.15 -1682.29 -2851.69 -3319.24 -4562.22 -5042.29 -5775.11 -6299.41 -6232.94 -6082.75 -5960.28 -5991.74 -6085.27 -6121.57 -6134.62 -5975.78 -5766.06 -5783.98 -5937.47 -6337.98 -6652.07 -6806.08 -6859.19 -6654.76 -6406.16 -6288.04 -6501.92 -6835.81 -7420.23 -7602.76 -7902.64 -7474.67 -7072.42 -6772.24 -6312.60 -6104.84 -5809.42 -5540.26 -5365.33 -5152.74 -5074.36 -5062.92 -5078.54 -5161.40 -5374.25 -5664.55 -6067.10 -6629.97 -6803.99 -6994.82 -6957.84 -6784.39 -5859.53 -5267.94 -4572.80 -4317.64 -4320.21 -4320.34 -4412.56 -4461.67 -4456.69 -4456.82
-1485.85 -1485.77 -1480.30 -1464.90 -1459.73 -1451.84 -1434.20 -1418.75 -1404.85 -1381.39 -1359.20 -1332.87 -1302.02 -1269.66 -1219.61 -1183.99 -1130.17 -1109.11 -1065.93 -1026.12 -988.22 -968.84 -929.67 -906.66 -907.09 -918.01 -973.53 -1073.08 -1146.34 -1329.66 -1816.36 -3046.27 -3781.71 -3652.17 -3224.60 -2903.37 -2804.24 -2924.63 -3070.81 -3325.26 -3666.75 -4184.72 -4488.86 -4658.62 -5155.73 -5395.03 -5512.19 -5494.72 -5490.72 -5495.44 -5406.42 -5187.12 -4798.79 -4535.16 -4216.49 -4298.42 -4466.31 -4452.82 -4377.54 -4172.54 -4059.74 -4020.72 -4072.56 -3979.82 -3589.23 -2962.25 -3107.79 -2273.22 -2335.10 -2105.19 -2061.06 -1985.18 -1696.02 -1383.08 -1421.18 -1221.63 -1591.98 -1631.75 -2394.35 -3268.81 -4112.04 -4563.34 -5120.70 -6039.52 -6489.77 -6915.32 -6875.11 -6548.30 -6334.86 -5831.69 -5832.43 -6072.63 -6273.48 -6337.04 -6113.80 -5999.16 -6035.83 -6162.70 -6427.35 -6669.44 -6809.65 -6842.77 -6794.93 -6937.07 -6962.18 -7694.92 -7854.60 -8307.76 -8518.64 -8584.65 -7862.71 -7257.10 -6829.00 -6407.52 -6074.30 -5855.00 -5586.72 -5408.98 -5204.67 -5102.81 -5089.75 -5146.03 -5227.06 -5322.37 -5619.69 -6120.90 -6607.65 -6937.28 -7063.14 -7155.46 -7015.41 -6144.29 -5380.02 -4715.72 -4455.96 -4440.25 -4484.22 -4488.81 -4482.87 -4426.76 -4409.66
-1490.97 -1489.69 -1481.20 -1470.71 -1463.61 -1454.65 -1432.13 -1414.71 -1394.15 -1372.20 -1342.44 -1322.20 -1287.53 -1268.40 -1209.80 -1182.29 -1129.61 -1092.72 -1051.74 -1022.82 -991.34 -959.12 -925.59 -909.39 -914.95 -939.64 -991.45 -1087.18 -1165.59 -1259.23 -1526.43 -2524.85 -3628.43 -3854.15 -3406.20 -3117.94 -3058.04 -3136.55 -3264.47 -3295.48 -3523.80 -3708.64 -4057.16 -4188.75 -4408.36 -4802.36 -5351.27 -5498.76 -5439.47 -5278.38 -5115.65 -4810.61 -4518.28 -3891.65 -3682.68 -3671.53 -4121.99 -4408.22 -4088.54 -3840.06 -3909.53 -3892.74 -3713.24 -3296.03 -1912.99 -737.83 -54.66 -447.16 -1132.01 -1816.87 -1942.73 -1988.69 -2052.07 -1979.51 -2205.30 -2953.32 -3237.53 -3442.78 -4639.68 -4923.84 -5531.03 -6240.82 -6371.50 -6817.82 -6922.46 -7118.36 -7047.58 -6809.01 -6375.77 -6097.17 -5908.98 -6053.98 -6405.76 -6505.72 -6555.14 -6493.46 -6487.96 -6502.29 -6635.23 -6752.46 -6920.73 -7031.59 -7296.60 -7555.23 -7653.33 -8379.09 -8704.65 -9102.97 -9243.95 -8872.66 -8194.46 -7421.71 -7012.83 -6399.45 -6031.05 -5610.29 -5565.82 -5347.13 -5133.05 -5045.55 -5051.55 -5091.95 -5080.53 -5205.94 -5618.47 -6001.68 -6298.76 -6777.24 -6871.57 -7089.66 -7145.85 -6451.10 -5544.39 -4753.38 -4588.82 -4561.60 -4557.16 -4531.98 -4414.04 -4273.08 -4273.06
-1482.15 -1482.25 -1478.17 -1465.70 -1460.68 -1443.77 -1429.73 -1408.25 -1398.69 -1367.18 -1344.82 -1316.36 -1277.47 -1259.24 -1198.14 -1173.68 -1143.47 -1085.68 -1051.47 -1032.59 -996.78 -959.05 -939.34 -925.41 -925.48 -959.76 -1034.54 -1092.24 -1175.36 -1266.52 -1348.64 -1922.14 -2544.87 -3508.77 -3528.54 -3238.78 -3039.85 -3164.12 -3270.75 -3311.61 -3181.40 -3169.53 -3444.11 -3672.48 -4214.57 -4644.50 -5224.66 -5429.93 -5135.59 -4966.73 -4663.52 -4663.96 -4041.15 -3056.75 -2876.64 -3004.67 -3654.77 -3615.78 -3808.21 -3425.54 -3164.19 -2977.70 -2689.93 -1827.99 -656.89 559.89 584.71 37.03 -1032.66 -1477.70 -1577.43 -1731.64 -1977.81 -2582.12 -2797.06 -3266.27 -3756.84 -4833.04 -5542.41 -5942.08 -6368.95 -6393.05 -6421.25 -6617.34 -6554.43 -6647.02 -6612.73 -6460.78 -6160.33 -5917.12 -5808.66 -5732.30 -6127.10 -6320.35 -6426.28 -6495.29 -6416.41 -6452.77 -6413.87 -6594.72 -6802.87 -7016.72 -7465.01 -7716.14 -7972.46 -8169.76 -8638.56 -8670.41 -8229.27 -8325.79 -7602.32 -7165.69 -6710.85 -5831.07 -5765.01 -5139.98 -4895.39 -4815.77 -4524.06 -4665.03 -4286.45 -4593.41 -4622.46 -4723.80 -5199.55 -5256.68 -5742.37 -5997.10 -6144.01 -6563.18 -6402.69 -6233.76 -5608.40 -4916.30 -4642.02 -4652.08 -4629.06 -4569.28 -4499.05 -4333.30 -4333.45
-1455.71 -1455.66 -1452.51 -1452.86 -1449.25 -1438.72 -1422.59 -1403.89 -1388.51 -1367.05 -1339.00 -1303.97 -1280.92 -1263.48 -1205.91 -1176.35 -1153.91 -1116.15 -1080.38 -1050.05 -1004.34 -965.17 -955.67 -954.84 -947.39 -995.92 -1035.10 -1110.15 -1176.60 -1249.47 -1339.47 -1579.98 -2391.03 -3622.93 -3470.70 -2995.18 -2904.11 -2813.61 -2982.02 -2806.74 -2786.99 -2440.79 -2818.99 -3097.52 -3653.70 -4226.36 -4750.10 -4867.98 -4795.49 -4325.67 -4202.93 -3703.87 -3415.44 -2471.22 -2011.46 -2338.38 -2844.60 -2858.94 -2759.30 -2432.07 -2633.67 -2370.52 -2154.04 -1544.06 59.95 466.83 172.25 -600.14 -1345.90 -1219.68 -1376.13 -1609.74 -2391.21 -3029.71 -3621.53 -4394.55 -4781.44 -5012.97 -5526.09 -5542.02 -5566.03 -5450.56 -5444.10 -5180.90 -5256.16 -5054.67 -5459.87 -5492.23 -5422.17 -5371.53 -5360.67 -5420.72 -5623.57 -5669.88 -5575.32 -5806.31 -5622.71 -5718.88 -5797.58 -6003.54 -6331.12 -6201.40 -6543.03 -7132.87 -7270.47 -7461.56 -7615.08 -7852.70 -7158.81 -6796.28 -6495.75 -6065.91 -5349.62 -5026.83 -4501.91 -4027.81 -4111.56 -4157.33 -3831.70 -3769.56 -3879.58 -3689.70 -3800.53 -3971.73 -3854.61 -4240.26 -4296.04 -5181.30 -5047.35 -5247.68 -5466.47 -5213.23 -5112.74 -4788.62 -4695.16 -4684.35 -4653.55 -4600.27 -4547.55 -4487.36 -4487.53
-1432.37 -1432.31 -1427.03 -1436.16 -1435.44 -1422.36 -1415.85 -1400.17 -1382.61 -1367.17 -1342.47 -1322.12 -1286.53 -1270.99 -1239.57 -1204.52 -1172.68 -1150.91 -1128.56 -1076.09 -1028.34 -999.65 -973.99 -978.30 -982.33 -993.76 -1036.23 -1089.85 -1168.28 -1225.16 -1318.29 -1536.82 -2552.27 -3403.29 -3205.43 -2870.85 -2358.84 -2301.35 -2267.01 -2219.92 -1953.52 -2110.16 -2415.98 -2577.22 -3015.18 -3826.32 -4024.87 -3915.89 -3969.08 -3725.82 -3632.20 -3392.90 -2740.91 -1749.18 -1458.25 -1757.85 -2054.70 -2021.76 -2033.15 -1808.87 -1752.30 -2249.84 -2551.68 -2657.53 -2133.56 -1845.77 -1862.46 -2372.39 -1992.40 -2375.96 -2307.94 -2295.50 -3187.23 -3926.49 -4389.42 -4749.82 -4829.98 -4899.25 -4684.46 -4799.72 -4533.18 -4135.54 -4226.25 -4022.77 -4331.18 -4340.20 -4227.72 -4120.09 -4504.23 -4464.02 -4553.91 -4674.78 -4714.41 -4763.64 -4862.59 -4961.69 -5151.24 -5093.46 -5255.60 -5506.32 -5688.86 -5511.36 -5464.88 -5684.77 -6021.84 -5961.08 -6021.59 -5772.03 -5747.96 -5505.89 -5324.09 -4883.16 -4424.37 -4024.04 -3775.05 -3371.50 -3308.30 -3160.74 -3183.12 -3078.21 -3054.84 -3041.03 -3030.28 -3052.37 -3124.35 -3430.49 -3579.95 -3842.50 -3971.59 -4387.30 -4538.12 -4798.04 -4766.34 -4712.92 -4697.46 -4679.11 -4660.91 -4607.01 -4585.79 -4544.92 -4545.01
-1410.42 -1410.36 -1410.28 -1420.42 -1424.65 -1419.03 -1411.54 -1397.80 -1379.47 -1362.53 -1337.97 -1329.25 -1307.98 -1269.36 -1252.49 -1219.36 -1224.51 -1189.10 -1162.51 -1127.79 -1047.72 -1018.53 -994.01 -968.68 -978.57 -978.27 -1021.83 -1027.00 -1123.71 -1295.40 -1358.04 -1414.13 -2271.78 -2643.66 -3039.49 -2936.79 -2398.77 -2074.28 -1908.04 -1778.51 -1652.62 -1760.74 -1847.05 -2122.97 -2365.29 -2472.40 -2492.44 -3091.46 -3176.67 -3295.13 -3347.08 -3026.18 -2469.38 -1501.95 -1176.66 -1360.73 -1633.18 -1906.98 -2077.60 -2222.65 -2020.07 -2516.02 -3213.02 -3565.94 -3587.72 -3879.23 -4031.92 -3533.79 -3557.52 -3249.57 -3957.06 -4246.33 -4393.92 -4513.18 -4643.03 -4677.25 -4608.43 -4456.17 -4349.87 -4145.69 -4069.90 -4017.70 -3880.43 -3833.16 -3826.37 -3908.67 -3751.93 -3817.44 -3961.82 -4107.60 -4277.97 -4368.57 -4418.12 -4452.77 -4614.22 -4746.30 -4935.02 -4984.93 -5053.51 -5187.59 -5398.53 -5234.29 -5103.15 -5299.51 -5529.82 -5639.07 -5540.64 -5413.91 -5239.96 -5055.54 -4805.39 -4403.48 -4087.20 -3786.39 -3468.05 -3217.41 -3020.51 -2901.48 -2839.55 -2808.96 -2847.25 -2886.05 -2914.44 -2951.50 -3005.00 -3158.18 -3310.08 -3474.11 -3746.90 -3947.36 -4343.86 -4400.15 -4628.06 -4659.60 -4675.20 -4661.41 -4635.18 -4608.60 -4568.93 -4536.04 -4536.10
-1406.00 -1405.98 -1407.67 -1413.38 -1415.61 -1411.13 -1402.99 -1393.25 -1385.61 -1369.72 -1357.90 -1336.35 -1304.13 -1280.79 -1272.87 -1247.18 -1226.83 -1213.13 -1170.29 -1149.10 -1089.31 -1047.90 -968.67 -942.36 -938.12 -942.24 -985.17 -988.25 -1101.92 -1239.00 -1323.66 -1440.45 -1837.45 -2470.31 -2921.53 -3246.16 -3046.57 -2365.31 -2143.79 -1779.18 -1746.70 -1948.30 -1959.63 -2017.39 -2308.25 -2190.80 -2120.58 -2339.11 -2697.35 -2829.98 -3007.12 -2851.97 -2229.29 -1596.85 -1134.72 -1456.99 -1886.92 -2370.77 -2609.93 -2927.10 -3336.42 -3245.38 -3694.64 -4107.58 -4233.13 -4263.35 -4266.61 -4096.63 -4065.49 -4321.42 -4630.03 -4691.22 -4728.65 -4791.19 -4765.82 -4695.74 -4645.27 -4549.18 -4418.15 -4297.95 -4214.02 -4074.26 -3948.61 -3806.02 -3690.73 -3674.79 -3706.55 -3848.06 -3979.34 -4199.93 -4336.60 -4502.47 -4524.30 -4630.05 -4746.13 -4883.95 -4941.26 -4977.38 -5036.12 -5197.24 -5351.33 -5233.66 -5112.00 -5292.14 -5511.10 -5553.81 -5482.35 -5348.86 -5090.09 -4832.91 -4596.59 -4285.91 -4053.60 -3770.94 -3485.63 -3227.14 -3014.94 -2880.55 -2816.88 -2824.90 -2859.61 -2920.41 -2946.60 -3019.69 -3044.25 -3168.71 -3240.53 -3459.39 -3651.27 -3967.83 -4196.27 -4343.73 -4479.30 -4590.61 -4628.49 -4632.59 -4605.68 -4580.17 -4539.70 -4511.87 -4511.93
