-11913.50 -11913.71 -11371.08 -10938.27 -10574.01 -10319.19 -10418.88 -10529.32 -10678.74 -10832.77 -10903.48 -10962.56 -11034.62 -11085.99 -11017.49 -10931.73 -10875.66 -10815.36 -10798.80 -10794.68 -10832.79 -10867.71 -10966.88 -11008.79 -11033.39 -11033.01 -10966.57 -10915.55 -10872.74 -10830.99 -10784.59 -10798.66 -10858.06 -10924.49 -11072.51 -11151.36 -11247.80 -11362.12 -11399.69 -11368.58 -11272.47 -11186.92 -11117.79 -10945.96 -10920.02 -10945.59 -11021.53 -11044.40 -11126.30 -11425.52 -11626.84 -11777.01 -11865.10 -11978.73 -11980.10 -11876.03 -11715.17 -11602.03 -11416.67 -11272.67 -11174.72 -11101.57 -10973.25 -10760.66 -10582.78 -10500.58 -10426.89 -10379.73 -10274.46 -10247.02 -10181.79 -10154.52 -10106.41 -10061.34 -10098.04 -10265.38 -10432.42 -10947.50 -11243.86 -11363.83 -11363.45 -11327.14 -11386.34 -11610.89 -11873.95 -11928.01 -10883.05 -9822.09 -8936.85 -8511.22 -8122.11 -7860.44 -7754.29 -7845.12 -8225.55 -9285.23 -8150.60 -2268.85 -206.13 629.53 2419.01 5455.38 5857.88 4863.48 1417.13 -950.56 -4191.95 -8653.66 -9541.75 -8859.74 -8474.33 -7782.72 -7423.41 -7135.54 -6493.44 -5326.79 -4473.95 -3117.97 -455.06 275.43 304.25 346.49 379.57 356.65 315.43 298.15 287.52 275.91 255.88 210.70 153.77 153.39 -255.49 -656.00 -678.15 -935.54 -1053.87 -1431.01 -1871.14 -2202.22 -2201.75
-12074.16 -12068.11 -11817.34 -11359.99 -10812.11 -10733.28 -10555.54 -10641.68 -10758.03 -10887.28 -10969.79 -11074.79 -11140.73 -11147.27 -11135.12 -11039.03 -10960.08 -10902.70 -10913.85 -10934.04 -10942.87 -11016.41 -11085.25 -11139.25 -11190.37 -11146.39 -11064.90 -11019.45 -10989.73 -10945.35 -10911.88 -10909.07 -10972.07 -11007.54 -11162.06 -11301.94 -11400.40 -11425.47 -11471.26 -11454.27 -11387.17 -11268.51 -11139.44 -11035.91 -10988.53 -11124.30 -11106.01 -11113.87 -11237.54 -11622.90 -11811.34 -11911.54 -11826.83 -11862.11 -11866.03 -11812.66 -11629.67 -11533.57 -11392.78 -11276.33 -11178.75 -11109.27 -10938.52 -10801.30 -10602.37 -10474.02 -10444.01 -10368.24 -10296.37 -10240.65 -10167.07 -10157.69 -10099.37 -10086.21 -10102.06 -10306.78 -10569.93 -11061.23 -11439.94 -11445.47 -11401.54 -11377.14 -11424.94 -11660.26 -11894.61 -11608.30 -10335.30 -9680.52 -8624.02 -8500.73 -8017.49 -7849.67 -7658.74 -7769.32 -8098.17 -9231.00 -8754.88 -4521.90 -220.16 441.37 3934.85 7361.57 7594.91 2506.77 963.36 296.67 -3058.02 -6627.90 -9774.14 -9170.88 -8617.45 -8028.41 -7596.65 -7284.60 -6925.20 -6440.66 -5351.48 -3776.21 -1303.09 232.51 279.24 345.45 370.89 383.31 319.61 295.98 290.43 281.75 273.39 269.98 262.31 215.77 1.00 -539.57 -1021.38 -1349.99 -1601.98 -2001.63 -2150.80 -2455.03 -2470.91
-12191.64 -12193.02 -12117.75 -11897.17 -11094.01 -11055.65 -10686.38 -10741.51 -10871.49 -11011.62 -11037.52 -11131.25 -11203.42 -11231.01 -11234.13 -11190.56 -11117.62 -11033.75 -11052.68 -11087.02 -11072.21 -11102.55 -11144.29 -11213.19 -11250.23 -11245.64 -11208.49 -11140.30 -11104.12 -11113.82 -11066.99 -11067.97 -11060.86 -11200.34 -11285.72 -11427.98 -11543.21 -11557.11 -11583.55 -11539.01 -11457.59 -11353.53 -11403.06 -11392.32 -11315.19 -11268.23 -11267.20 -11331.17 -11525.25 -11700.77 -11999.00 -12035.55 -11924.86 -11888.77 -11872.41 -11787.95 -11609.14 -11519.60 -11338.81 -11296.03 -11261.93 -11269.99 -11178.71 -10929.49 -10814.12 -10691.56 -10615.78 -10503.44 -10438.58 -10361.11 -10398.78 -10308.80 -10323.79 -10222.17 -10221.94 -10310.15 -10715.30 -11089.35 -11478.82 -11547.30 -11513.65 -11501.22 -11554.21 -11668.97 -11703.66 -11002.85 -10403.19 -8721.64 -8377.81 -8230.27 -8036.10 -7816.16 -7730.14 -7866.12 -8249.00 -9439.60 -10381.74 -6838.07 -1849.20 722.65 3071.93 7403.11 7271.15 4252.50 2136.26 -839.84 -5922.45 -10009.41 -10068.29 -9141.56 -8718.91 -8272.15 -7743.86 -7415.11 -7412.44 -7017.51 -6132.91 -5059.12 -3131.26 -1156.91 -191.69 300.32 341.19 317.91 293.62 294.28 291.72 295.95 292.09 284.54 275.12 264.87 168.54 -157.86 -747.21 -1349.28 -1717.34 -1692.89 -1921.77 -2090.38 -2086.04
-12351.55 -12351.64 -12311.05 -12168.11 -11858.58 -11287.58 -10956.01 -10926.78 -10994.95 -11130.08 -11226.69 -11256.60 -11286.21 -11362.75 -11422.10 -11367.91 -11391.73 -11299.99 -11278.69 -11290.44 -11315.36 -11267.86 -11247.83 -11260.92 -11303.59 -11345.20 -11359.31 -11324.42 -11216.88 -11250.17 -11245.40 -11181.96 -11221.10 -11353.37 -11489.97 -11604.03 -11651.85 -11675.66 -11658.66 -11623.63 -11559.03 -11630.68 -11630.00 -11422.89 -11581.39 -11609.47 -11538.98 -11653.39 -11701.35 -11913.17 -12205.59 -12213.42 -12159.79 -12060.40 -11976.42 -11886.58 -11787.84 -11545.72 -11453.30 -11427.95 -11469.32 -11450.67 -11392.90 -11207.43 -11078.29 -10945.54 -10891.23 -10778.64 -10649.15 -10719.93 -10674.64 -10600.28 -10620.52 -10521.64 -10453.16 -10498.88 -10879.65 -11461.30 -11862.90 -11783.45 -11708.02 -11765.39 -11729.05 -11607.58 -11170.00 -10129.62 -8508.01 -7928.79 -7574.23 -7673.65 -7643.00 -7708.53 -7960.15 -8121.08 -8369.71 -9575.22 -10871.86 -9336.90 -3707.88 54.03 3558.99 6720.35 6499.38 5453.76 2775.39 -668.35 -5178.34 -11101.41 -10060.44 -9551.84 -8909.24 -8509.92 -8136.16 -7846.61 -7704.42 -7478.83 -7332.80 -6068.61 -4830.45 -2928.10 -2058.29 -912.27 284.69 286.95 281.34 282.01 292.59 299.49 300.91 297.62 286.13 279.44 266.22 239.88 -239.25 -926.20 -1219.97 -1304.68 -1399.09 -1133.26 -1134.23
-12531.23 -12531.21 -12493.77 -12394.52 -12244.72 -11768.99 -11186.63 -11142.82 -11231.94 -11334.54 -11357.23 -11386.55 -11451.16 -11506.91 -11557.17 -11663.46 -11699.44 -11682.80 -11770.22 -11608.40 -11549.42 -11493.95 -11346.63 -11355.80 -11408.34 -11503.89 -11510.50 -11469.60 -11472.08 -11448.52 -11385.44 -11365.45 -11431.20 -11510.05 -11627.97 -11755.82 -11776.48 -11759.37 -11740.91 -11717.84 -11693.63 -11735.91 -11901.11 -12022.94 -11973.36 -11910.08 -11893.77 -11924.91 -12019.65 -12166.57 -12422.69 -12462.94 -12368.88 -12306.04 -12187.96 -12026.40 -11864.85 -11709.34 -11602.19 -11575.91 -11627.61 -11693.20 -11690.11 -11674.44 -11534.19 -11376.33 -11255.49 -11257.72 -11134.03 -11023.05 -10977.85 -10938.76 -10968.45 -10802.07 -10805.12 -10762.91 -11570.87 -11781.21 -12230.92 -12165.14 -12235.00 -12269.91 -12107.82 -11228.20 -10776.87 -8238.11 -7365.03 -6661.04 -6537.14 -6739.20 -7195.54 -7675.30 -8204.05 -8472.79 -8580.71 -10320.82 -10490.58 -7093.09 -640.19 164.12 1541.81 4078.33 5400.98 4787.70 2374.61 -747.31 -5098.62 -8854.84 -10180.34 -9714.21 -9282.35 -8846.17 -8714.79 -8404.26 -8362.71 -8323.21 -8078.92 -7983.77 -6042.26 -5405.91 -3173.53 -1880.64 -1755.52 -676.75 266.56 273.12 289.11 288.78 294.56 295.55 297.97 285.54 262.79 231.96 -18.29 -332.65 -381.05 -323.13 -61.38 -218.93 -219.33
-12610.54 -12616.08 -12634.67 -12634.29 -12435.67 -12095.40 -11601.94 -11348.71 -11370.91 -11483.54 -11485.92 -11468.34 -11495.22 -11598.55 -11729.53 -11868.35 -11889.23 -11872.96 -11841.99 -11821.52 -11725.31 -11647.45 -11512.86 -11464.12 -11523.39 -11586.01 -11640.72 -11598.29 -11557.90 -11549.97 -11519.71 -11513.31 -11603.32 -11672.24 -11700.05 -11780.80 -11800.39 -11820.46 -11817.72 -11795.98 -11791.77 -11829.15 -11987.70 -12128.26 -12198.45 -12178.62 -12157.71 -12136.20 -12216.88 -12414.78 -12518.80 -12552.46 -12541.95 -12470.64 -12357.63 -12228.21 -12051.01 -11914.66 -11748.36 -11766.15 -11766.50 -11762.90 -11852.68 -11854.67 -11735.27 -11641.52 -11519.77 -11393.86 -11335.42 -11338.63 -11283.73 -11246.82 -11170.26 -11076.37 -11053.51 -11080.33 -11484.46 -12201.93 -12519.75 -12532.63 -12570.14 -12553.27 -12225.64 -10881.71 -9312.97 -7258.22 -6143.49 -6044.80 -5988.64 -6285.18 -6509.50 -7851.84 -8315.79 -8561.03 -9139.76 -9694.47 -10618.39 -4945.77 -720.65 -192.90 2008.12 4052.62 5237.06 4850.87 3132.05 -1110.99 -9782.36 -11031.32 -10361.69 -9789.38 -9356.45 -9142.52 -8877.62 -8758.34 -8728.53 -8675.79 -8565.79 -8029.32 -7083.39 -6008.98 -4986.00 -4074.02 -3705.10 -2799.77 -1561.91 -271.66 274.54 282.45 285.01 287.62 286.53 285.60 269.70 249.79 195.08 98.86 43.20 92.91 98.89 148.54 148.41
-12634.45 -12634.43 -12704.43 -12772.41 -12732.23 -12509.84 -11963.05 -11724.53 -11641.08 -11625.61 -11595.43 -11566.62 -11645.73 -11698.85 -11907.27 -11957.21 -11992.91 -11960.65 -11903.56 -11873.83 -11814.61 -11670.34 -11560.42 -11538.76 -11614.48 -11693.77 -11709.13 -11686.28 -11630.70 -11661.49 -11666.67 -11672.78 -11698.75 -11728.13 -11745.87 -11779.48 -11800.02 -11836.08 -11855.58 -11839.13 -11841.74 -11875.12 -12043.06 -12206.45 -12291.27 -12303.43 -12272.18 -12220.20 -12376.75 -12439.16 -12580.61 -12613.79 -12590.56 -12579.31 -12523.37 -12401.78 -12180.86 -12069.67 -11913.86 -11896.78 -11875.75 -11941.13 -11964.96 -11893.80 -11821.88 -11750.90 -11695.13 -11611.36 -11587.84 -11546.24 -11535.47 -11494.56 -11441.84 -11402.38 -11257.97 -11275.10 -11625.31 -12160.36 -12603.46 -12696.68 -12740.51 -12690.72 -12182.90 -11257.64 -9998.00 -6631.50 -5861.09 -5494.01 -5408.58 -5722.95 -6587.64 -7702.02 -8596.51 -8719.18 -9223.74 -9991.20 -10672.80 -8305.97 -2686.13 -210.14 2140.15 4660.33 5605.11 4565.97 2462.92 -1223.75 -4569.94 -9464.99 -10537.84 -9859.16 -9441.04 -9324.36 -8968.99 -8911.38 -8895.80 -8848.75 -8620.12 -8245.94 -7315.38 -6296.20 -5785.69 -5043.43 -4240.84 -3405.74 -2668.28 -2106.88 -538.67 -97.92 219.21 222.15 279.01 276.01 271.41 239.62 202.12 165.47 151.78 180.97 195.37 209.52 209.42
-12739.29 -12752.87 -12831.10 -12888.69 -12869.36 -12777.54 -12364.88 -12059.42 -11994.31 -11836.15 -11763.21 -11733.10 -11717.85 -11848.46 -11971.78 -12054.30 -12052.67 -11969.36 -11926.76 -11889.84 -11870.43 -11742.56 -11644.63 -11623.43 -11682.82 -11733.44 -11777.32 -11753.90 -11707.28 -11700.15 -11729.87 -11735.44 -11743.76 -11761.88 -11772.17 -11781.02 -11809.92 -11849.98 -11879.25 -11884.41 -11881.10 -11941.36 -12075.31 -12269.73 -12346.63 -12347.40 -12301.50 -12307.01 -12395.14 -12467.44 -12626.42 -12652.42 -12611.72 -12592.17 -12533.44 -12435.31 -12242.60 -12134.23 -12036.97 -12005.74 -12019.63 -12036.84 -11984.39 -11936.69 -11895.97 -11839.22 -11779.28 -11764.32 -11711.74 -11705.32 -11645.74 -11655.94 -11628.29 -11516.05 -11442.26 -11451.62 -11715.06 -12348.86 -12693.65 -12829.92 -12815.26 -12808.25 -12716.99 -10325.97 -8944.55 -6203.71 -5391.32 -5260.19 -5380.45 -5730.32 -6892.53 -8050.67 -8545.12 -8911.78 -9137.33 -9900.03 -10234.65 -5270.86 -737.60 150.90 2231.54 3597.12 6356.11 5114.43 3609.45 -816.91 -5135.32 -11583.11 -10699.07 -9893.18 -9642.17 -9302.00 -9106.61 -8991.13 -8929.40 -8812.30 -8584.03 -8037.87 -7266.50 -6512.07 -5914.38 -5369.59 -4537.16 -3812.95 -3102.33 -2108.10 -1370.39 -532.61 -161.23 29.26 199.26 259.85 245.03 199.69 171.62 165.24 161.29 195.98 219.32 240.52 240.43
-12923.05 -12923.15 -12921.27 -13023.03 -13079.73 -13112.35 -13011.27 -12398.73 -12132.88 -12051.36 -11918.98 -11890.30 -11899.39 -11940.47 -12103.53 -12190.43 -12142.41 -12085.55 -12001.65 -11987.90 -11925.37 -11829.47 -11690.60 -11699.94 -11773.65 -11833.57 -11862.03 -11870.38 -11801.02 -11800.74 -11789.57 -11824.80 -11816.76 -11829.51 -11850.89 -11863.18 -11840.34 -11919.47 -11942.13 -11957.44 -11978.11 -12055.70 -12168.85 -12323.51 -12403.98 -12384.14 -12345.90 -12359.67 -12409.08 -12521.56 -12664.65 -12697.96 -12641.39 -12589.89 -12555.50 -12531.54 -12391.72 -12366.18 -12255.44 -12147.30 -12224.50 -12150.49 -12121.14 -12040.32 -11985.47 -11959.76 -11963.10 -11950.65 -11956.68 -11897.34 -11860.09 -11810.52 -11763.95 -11768.10 -11727.02 -11765.25 -12218.26 -12498.34 -12755.83 -12883.20 -12889.29 -12873.68 -12587.58 -11579.48 -9857.73 -6354.72 -5419.62 -5235.35 -5604.99 -6052.68 -7275.72 -8419.07 -8674.07 -8713.06 -8915.02 -9258.60 -9132.04 -7362.27 -663.01 1671.97 3915.72 5345.73 6382.42 6094.83 4262.36 -524.85 -4399.07 -8494.46 -10622.46 -10010.47 -9665.30 -9431.72 -9154.40 -9050.08 -8918.74 -8806.07 -8570.19 -7960.19 -7462.15 -6596.63 -6152.27 -5594.50 -4858.64 -3947.28 -3224.57 -2055.32 -1585.36 -1041.12 -656.39 -195.90 81.02 89.91 132.84 138.85 94.66 121.88 158.25 199.19 227.94 252.60 257.21
-13235.38 -13235.58 -13250.18 -13391.32 -13364.87 -13424.15 -13378.70 -13253.64 -12715.33 -12401.83 -12164.33 -12061.59 -12123.97 -12197.28 -12295.80 -12368.89 -12335.96 -12307.94 -12174.19 -12123.03 -12126.22 -11999.33 -11925.53 -11942.58 -11934.94 -12023.47 -12076.34 -11991.43 -11914.64 -11935.62 -11937.19 -11973.96 -12011.19 -11991.88 -12024.66 -12011.11 -12078.38 -12087.98 -12112.61 -12090.67 -12135.20 -12223.97 -12386.73 -12476.84 -12473.22 -12487.19 -12444.48 -12453.18 -12473.44 -12553.02 -12657.05 -12723.13 -12689.21 -12614.99 -12611.95 -12619.35 -12643.40 -12571.03 -12532.15 -12537.83 -12550.78 -12465.17 -12413.59 -12360.40 -12413.88 -12233.60 -12243.74 -12209.71 -12157.24 -12140.76 -12117.26 -12097.66 -12129.64 -12225.09 -12080.27 -12273.37 -12429.37 -12715.66 -12928.39 -12990.27 -13002.41 -12947.04 -12794.94 -11750.18 -8925.01 -7072.99 -5454.51 -5403.61 -6094.79 -6653.41 -7539.48 -8515.53 -8545.04 -8628.98 -8754.84 -9430.07 -7744.89 -2396.71 -586.53 1037.44 2060.43 4417.23 4556.90 3273.81 2182.31 124.54 -450.73 -8793.44 -10606.78 -10075.53 -9641.08 -9425.15 -9289.39 -9084.26 -8962.65 -8814.50 -8413.37 -8096.84 -7355.48 -6772.98 -6300.03 -5846.79 -5137.29 -4369.03 -3189.37 -2337.86 -1479.68 -1291.21 -1203.48 -828.51 -627.87 -161.04 -191.31 -103.72 53.38 120.49 158.70 193.98 223.02 243.93 243.87
-13672.64 -13672.79 -13654.54 -13611.41 -13770.63 -13720.43 -13760.24 -13626.44 -13271.53 -12594.92 -12484.21 -12386.38 -12353.79 -12419.00 -12576.51 -12590.96 -12572.23 -12461.28 -12447.94 -12360.51 -12277.43 -12190.80 -12139.95 -12114.92 -12108.29 -12137.74 -12183.56 -12177.85 -12092.25 -12081.11 -12096.12 -12155.97 -12137.81 -12212.75 -12175.87 -12233.59 -12212.36 -12247.79 -12269.91 -12286.09 -12340.95 -12425.71 -12565.36 -12573.06 -12606.31 -12586.72 -12562.11 -12571.65 -12574.93 -12597.87 -12688.15 -12762.24 -12703.28 -12622.82 -12630.46 -12701.60 -12800.10 -13025.17 -12969.65 -12811.31 -12824.52 -12891.72 -12814.20 -12583.39 -12577.42 -12481.10 -12466.44 -12457.93 -12473.39 -12496.29 -12515.70 -12556.93 -12568.23 -12501.39 -12528.27 -12562.20 -12786.06 -13017.22 -13144.41 -13199.28 -13214.41 -13107.35 -12693.73 -11658.05 -8957.46 -6716.96 -5504.09 -5627.98 -6324.15 -7139.86 -7716.05 -8444.05 -8453.70 -8542.64 -8796.63 -9421.26 -8708.74 -2588.45 -288.65 399.99 2711.60 3699.42 4654.81 4422.71 2250.29 -2336.69 -5782.71 -10468.25 -10197.12 -9566.26 -9446.56 -9464.83 -9452.22 -9312.96 -9159.03 -9023.74 -8711.65 -8140.68 -7807.53 -7165.30 -6760.50 -6263.02 -5390.16 -4661.53 -3460.78 -2463.68 -1824.28 -1473.80 -1388.25 -1318.22 -1249.43 -883.72 -693.48 -310.43 -104.46 44.89 154.38 168.06 195.46 209.60 209.55
-14003.75 -14016.42 -13996.68 -13999.57 -14008.45 -14090.39 -14079.45 -13923.54 -13517.17 -13081.52 -12799.38 -12702.20 -12820.77 -12733.72 -12782.64 -12751.26 -12715.14 -12644.97 -12565.42 -12489.60 -12424.32 -12370.90 -12298.95 -12255.06 -12236.90 -12252.98 -12279.85 -12270.86 -12193.73 -12150.44 -12185.35 -12238.06 -12307.85 -12358.00 -12368.04 -12348.07 -12347.83 -12320.64 -12361.10 -12377.75 -12422.85 -12549.29 -12606.72 -12767.71 -12757.57 -12756.13 -12675.64 -12650.90 -12680.44 -12707.34 -12750.33 -12799.42 -12741.26 -12605.58 -12545.76 -12697.76 -12934.55 -13182.85 -13186.44 -13105.17 -13084.60 -13094.87 -13050.04 -12917.43 -12796.77 -12756.85 -12751.49 -12679.97 -12658.18 -12685.21 -12776.27 -12743.15 -12804.78 -12766.18 -12745.54 -12754.25 -12952.63 -13059.03 -13283.78 -13312.79 -13304.80 -13271.50 -13095.17 -11586.86 -8988.74 -6763.40 -5706.50 -5905.30 -6375.99 -6926.84 -7633.19 -8279.79 -8431.49 -8482.48 -8247.84 -7845.85 -7834.52 -4189.12 268.90 1557.82 4545.17 6028.62 5799.38 4745.58 1655.43 -1996.60 -7938.72 -10345.16 -9778.51 -9426.63 -9376.43 -9439.29 -9507.03 -9508.18 -9388.78 -9228.72 -9120.82 -8745.77 -7919.63 -7366.95 -6959.98 -6305.61 -5689.66 -4501.04 -3831.49 -2666.76 -2062.07 -1682.32 -1605.22 -1544.00 -1454.36 -1155.66 -855.62 -556.64 -425.80 -277.16 -57.52 112.56 167.30 172.14 172.10
-14144.65 -14144.61 -14117.63 -14111.49 -14125.19 -14131.59 -14157.07 -14172.51 -13983.58 -13699.12 -13439.18 -13324.05 -13252.02 -13137.58 -12950.47 -12860.49 -12792.66 -12714.73 -12630.51 -12584.04 -12544.22 -12457.29 -12366.80 -12325.77 -12310.50 -12327.30 -12367.20 -12365.27 -12324.35 -12309.86 -12346.18 -12338.31 -12354.49 -12384.50 -12422.93 -12455.76 -12438.99 -12461.03 -12431.32 -12448.90 -12507.46 -12623.62 -12721.70 -12822.15 -12880.53 -12843.70 -12772.38 -12766.34 -12753.41 -12763.69 -12796.53 -12816.54 -12753.11 -12592.47 -12518.21 -12667.29 -13063.34 -13309.99 -13331.99 -13231.11 -13211.32 -13230.57 -13175.66 -12996.20 -12894.18 -12853.69 -12805.88 -12829.93 -12806.30 -12861.53 -12926.68 -12970.23 -12975.00 -12933.57 -12893.04 -12891.30 -12984.01 -13159.32 -13307.73 -13366.25 -13366.24 -13350.74 -13045.73 -12012.59 -8830.97 -6700.81 -5994.85 -6007.11 -6098.07 -6484.11 -7118.99 -8238.26 -8390.45 -8446.09 -8256.25 -6861.99 -2442.48 -419.70 238.33 2587.78 3723.89 5540.93 4806.67 3441.86 821.60 173.34 -5919.33 -9967.03 -9566.44 -9297.29 -9306.90 -9458.07 -9527.42 -9570.10 -9566.18 -9471.05 -9307.99 -8868.49 -7836.99 -7340.53 -6995.35 -6497.78 -5946.84 -4744.89 -3803.64 -2551.79 -1936.31 -1685.72 -1562.10 -1532.64 -1488.97 -1308.14 -1073.77 -744.65 -644.71 -558.08 -360.20 -291.47 -132.60 72.91 73.05
-14177.81 -14177.74 -14173.19 -14157.15 -14157.55 -14172.05 -14241.59 -14300.25 -14220.38 -14060.11 -14009.40 -13900.62 -13758.65 -13362.97 -13278.61 -12993.70 -12846.64 -12836.96 -12729.68 -12675.75 -12606.83 -12543.18 -12457.80 -12373.09 -12354.64 -12428.77 -12452.57 -12432.60 -12397.57 -12393.03 -12403.79 -12386.75 -12390.30 -12396.89 -12436.85 -12481.32 -12510.13 -12504.63 -12485.09 -12501.53 -12623.25 -12654.76 -12793.15 -12882.68 -12983.15 -12943.35 -12921.50 -12877.72 -12850.65 -12833.29 -12829.34 -12827.65 -12770.09 -12658.78 -12632.53 -12811.99 -13089.52 -13292.52 -13386.85 -13329.73 -13316.10 -13330.24 -13223.17 -13050.79 -12949.67 -12916.71 -12939.27 -12907.87 -12890.62 -12937.75 -12999.11 -12996.30 -13065.02 -13038.02 -12999.82 -12962.64 -13034.07 -13247.55 -13371.93 -13385.75 -13380.38 -13376.40 -13076.32 -11979.65 -9197.96 -7326.68 -6157.96 -5510.44 -5426.97 -5113.39 -6735.81 -7669.67 -8159.44 -8418.75 -8479.62 -6935.76 -2217.93 -241.75 616.25 2045.67 3843.27 6063.62 5521.79 4776.11 396.10 -4750.27 -10084.01 -10083.81 -9407.44 -9191.74 -9281.08 -9386.93 -9520.65 -9560.17 -9551.00 -9501.08 -9266.09 -8754.34 -7829.37 -7172.30 -6797.59 -6308.62 -5758.90 -4842.07 -3987.94 -2752.17 -1869.28 -1679.33 -1474.75 -1474.11 -1453.34 -1319.99 -1102.04 -982.99 -988.02 -984.99 -881.54 -772.31 -507.29 -260.81 -260.70
-14172.99 -14172.91 -14180.88 -14182.85 -14183.23 -14225.69 -14294.65 -14356.16 -14393.71 -14345.48 -14263.57 -14239.67 -14141.18 -13981.23 -13598.27 -13383.10 -13050.05 -12929.65 -12888.35 -12821.26 -12737.69 -12622.16 -12485.09 -12441.61 -12465.01 -12560.37 -12537.92 -12552.17 -12482.17 -12465.96 -12442.50 -12429.75 -12415.11 -12426.57 -12500.41 -12550.44 -12601.54 -12646.15 -12672.52 -12658.26 -12664.91 -12736.95 -12896.56 -12974.81 -13039.51 -13036.45 -13036.76 -13022.54 -12977.42 -12895.23 -12909.33 -12896.58 -12875.19 -12790.94 -12776.66 -12939.24 -13196.84 -13400.23 -13427.26 -13435.06 -13423.28 -13400.70 -13241.76 -13206.02 -13030.94 -13028.18 -13056.00 -13066.79 -13012.38 -13061.06 -13120.83 -13172.51 -13187.50 -13150.02 -13125.74 -13105.48 -13159.09 -13298.62 -13388.77 -13397.94 -13386.43 -13329.89 -12956.78 -11958.46 -9962.90 -6565.01 -5351.21 -4385.33 -3604.29 -4109.19 -5579.02 -7305.50 -7095.30 -7874.57 -8000.88 -6083.31 -1846.75 267.10 1195.78 3730.53 5380.11 6997.61 4792.94 1951.83 371.76 -8372.60 -10373.57 -10155.66 -9449.41 -9151.59 -9238.48 -9421.76 -9501.80 -9509.30 -9494.64 -9407.75 -9186.26 -8621.82 -7847.50 -6994.79 -6247.40 -6005.73 -5739.78 -4786.41 -4263.90 -2525.74 -2147.57 -1581.00 -1509.81 -1457.42 -1432.02 -1353.19 -1186.95 -1232.86 -1320.77 -1338.53 -1232.39 -1088.06 -854.02 -554.80 -554.69
-14157.02 -14161.43 -14188.83 -14214.66 -14246.13 -14270.38 -14319.75 -14420.63 -14494.86 -14494.58 -14520.48 -14427.95 -14448.99 -14459.75 -14136.76 -13843.03 -13533.18 -13081.23 -12981.32 -12912.29 -12811.38 -12699.57 -12598.19 -12543.76 -12638.37 -12688.14 -12715.82 -12649.28 -12537.62 -12523.74 -12496.96 -12457.42 -12489.32 -12530.27 -12601.13 -12682.97 -12786.20 -12824.84 -12881.77 -12897.21 -12900.66 -12996.71 -13058.31 -13114.48 -13123.63 -13126.29 -13126.23 -13115.91 -13107.12 -13060.53 -13111.93 -13180.88 -13164.62 -13184.01 -13068.85 -13153.49 -13301.16 -13362.17 -13456.57 -13466.91 -13500.77 -13506.63 -13398.95 -13289.28 -13360.07 -13311.70 -13253.96 -13220.20 -13193.94 -13221.87 -13253.48 -13286.45 -13283.68 -13300.29 -13267.91 -13200.23 -13248.23 -13370.59 -13404.72 -13407.09 -13396.76 -13333.19 -12808.37 -11414.78 -9158.75 -6258.21 -4506.49 -2925.40 -2131.72 -2357.71 -4120.77 -5362.63 -5858.51 -7162.48 -6090.92 -4295.36 -2439.47 48.08 1862.15 4688.65 6911.03 7336.38 3913.92 1041.80 221.49 -5358.63 -10520.65 -10325.13 -9466.79 -9212.96 -9320.47 -9442.05 -9441.43 -9422.11 -9384.52 -9321.52 -9068.74 -8295.83 -6966.96 -6133.54 -5601.10 -5523.14 -5327.91 -4894.97 -4164.57 -3148.49 -2148.61 -1765.28 -1573.11 -1576.07 -1544.21 -1589.27 -1423.74 -1399.79 -1475.73 -1556.67 -1499.90 -1199.83 -1074.10 -796.62 -796.60
-14185.17 -14185.17 -14216.80 -14264.48 -14308.58 -14312.84 -14339.09 -14410.34 -14547.80 -14695.61 -14715.80 -14738.16 -14734.76 -14717.77 -14620.69 -14288.87 -13720.23 -13330.99 -13135.76 -13025.32 -12870.52 -12791.83 -12740.87 -12759.89 -12795.39 -12824.88 -12850.75 -12781.31 -12712.98 -12602.39 -12599.20 -12586.13 -12574.33 -12648.25 -12727.33 -12847.59 -13086.44 -13106.69 -13185.19 -13157.08 -13213.39 -13231.29 -13217.81 -13212.93 -13175.65 -13202.29 -13254.92 -13287.51 -13306.81 -13296.35 -13436.67 -13356.58 -13394.82 -13351.60 -13390.90 -13430.88 -13403.51 -13454.25 -13511.58 -13596.49 -13620.16 -13592.55 -13544.27 -13503.06 -13517.50 -13546.85 -13549.75 -13518.68 -13554.97 -13504.81 -13429.89 -13411.31 -13434.30 -13431.21 -13422.30 -13418.83 -13424.02 -13429.32 -13413.17 -13408.72 -13387.35 -13333.37 -12742.03 -10487.81 -7998.00 -5051.44 -3492.80 -1261.26 -1178.56 -1832.19 -3080.88 -3747.18 -4606.59 -4472.58 -4581.72 -3593.27 -1163.93 1540.61 4775.46 5892.09 6642.58 4582.06 1719.61 493.86 -563.36 -1283.75 -9410.20 -10251.91 -9733.34 -9421.83 -9399.78 -9444.11 -9412.22 -9338.48 -9312.09 -9249.16 -8973.70 -7708.52 -6738.61 -5738.10 -5180.62 -4832.14 -4931.24 -4645.45 -3978.06 -3079.67 -2399.67 -1927.28 -1803.32 -1753.85 -1793.46 -1824.73 -1733.33 -1673.13 -1675.79 -1687.08 -1618.53 -1441.31 -1203.61 -931.59 -887.53
-14294.07 -14305.85 -14323.69 -14338.51 -14338.72 -14322.47 -14342.19 -14463.85 -14592.35 -14779.72 -14838.94 -14875.06 -14948.79 -14878.80 -14730.70 -14649.42 -14330.58 -13915.53 -13427.84 -13069.27 -12926.50 -12887.00 -12890.52 -12877.47 -12878.90 -12896.15 -12905.48 -12890.65 -12800.37 -12704.03 -12656.64 -12651.31 -12695.02 -12762.35 -12853.29 -13041.93 -13203.61 -13355.04 -13388.70 -13381.69 -13364.12 -13326.17 -13319.18 -13251.35 -13245.67 -13272.39 -13313.99 -13350.52 -13406.05 -13494.26 -13601.37 -13687.71 -13647.59 -13652.82 -13633.26 -13584.73 -13618.94 -13629.30 -13655.58 -13694.43 -13728.28 -13709.03 -13706.51 -13726.32 -13749.11 -13763.95 -13761.22 -13749.33 -13711.77 -13662.84 -13614.71 -13557.88 -13506.80 -13525.77 -13554.92 -13503.03 -13486.50 -13448.13 -13413.36 -13379.13 -13366.23 -13181.62 -12743.04 -10392.58 -7195.82 -4521.00 -2122.16 -1101.68 -285.05 -983.29 -2850.83 -3000.41 -3046.87 -3065.80 -3074.62 -1528.06 -47.30 805.75 2707.58 5363.34 6267.80 4849.60 3384.40 561.39 -285.61 -1478.37 -6815.06 -10107.01 -9726.66 -9524.06 -9509.70 -9440.08 -9330.63 -9278.12 -9278.34 -9170.91 -8906.27 -7706.86 -6735.67 -5397.64 -4841.41 -4540.46 -4484.54 -4477.39 -3924.53 -3228.57 -2635.21 -2012.80 -1962.21 -2017.15 -2144.00 -2140.67 -1901.73 -1835.46 -1774.02 -1757.49 -1653.42 -1420.34 -1137.54 -817.71 -817.89
-14396.57 -14400.22 -14392.63 -14396.02 -14379.91 -14349.51 -14363.95 -14449.51 -14650.40 -14805.08 -14903.88 -14972.33 -15005.11 -14969.45 -14884.21 -14746.73 -14598.14 -14308.36 -13833.35 -13340.64 -13014.33 -12938.62 -12957.49 -12969.61 -12938.38 -12919.89 -12909.46 -12887.55 -12816.26 -12757.09 -12719.82 -12734.32 -12771.06 -12847.32 -12896.39 -13112.93 -13349.03 -13467.42 -13465.93 -13462.78 -13432.25 -13413.33 -13393.41 -13322.19 -13299.20 -13324.97 -13369.70 -13387.98 -13482.08 -13596.10 -13751.88 -13796.16 -13798.94 -13785.03 -13793.81 -13759.79 -13739.43 -13687.72 -13709.24 -13791.62 -13822.01 -13809.13 -13822.89 -13831.69 -13911.38 -13882.01 -13919.25 -13897.98 -13858.13 -13778.31 -13710.48 -13636.73 -13650.37 -13644.73 -13593.99 -13525.62 -13504.13 -13407.79 -13314.36 -13242.27 -12926.26 -12293.03 -12086.28 -9635.12 -6042.85 -3539.97 -1688.71 -447.11 -105.09 -1052.35 -2042.23 -2539.71 -2548.10 -2342.61 -1525.24 -844.94 95.47 993.86 3218.78 5833.25 5886.43 3467.74 2869.03 328.99 -490.67 -3379.37 -7306.52 -10537.28 -10001.12 -9631.33 -9554.43 -9495.86 -9340.79 -9282.52 -9299.02 -9243.08 -8938.13 -8291.67 -6847.17 -5703.73 -4734.35 -4360.02 -4263.28 -4119.37 -3760.35 -3241.82 -2640.88 -2283.33 -2198.84 -2436.36 -2467.14 -2489.01 -2263.25 -2014.01 -1868.62 -1786.19 -1603.07 -1293.73 -1030.26 -637.47 -637.67
-14437.64 -14437.58 -14437.87 -14440.64 -14438.25 -14408.35 -14405.28 -14444.96 -14657.99 -14764.32 -14942.19 -15010.57 -15036.70 -15010.37 -14976.33 -14868.82 -14771.51 -14604.96 -14306.66 -13738.70 -13187.47 -13048.20 -13069.73 -13017.93 -12978.56 -12948.19 -12939.81 -12921.28 -12874.82 -12850.45 -12833.74 -12802.11 -12838.06 -12872.76 -12992.33 -13123.32 -13445.84 -13538.06 -13606.89 -13553.98 -13477.43 -13463.20 -13436.88 -13426.16 -13430.78 -13422.77 -13410.91 -13447.71 -13521.67 -13651.08 -13796.43 -13919.46 -13927.52 -13903.75 -13877.54 -13863.44 -13805.55 -13763.06 -13782.45 -13874.18 -13893.64 -13928.68 -13938.34 -13949.01 -13961.09 -13990.37 -13972.23 -13947.19 -13896.32 -13814.23 -13844.27 -13793.52 -13768.18 -13734.26 -13662.04 -13612.28 -13355.68 -13289.71 -12781.63 -12307.96 -11998.31 -11507.43 -10955.42 -8542.32 -6432.79 -3927.31 -1596.56 -374.74 -308.69 -685.49 -2251.89 -2283.21 -2114.51 -1852.78 -1310.35 -639.41 -37.71 2319.26 3448.91 7664.76 8379.37 5574.34 812.63 269.12 -492.78 -3932.52 -8926.57 -11330.75 -9834.59 -9581.39 -9546.73 -9448.41 -9380.28 -9331.31 -9321.12 -9279.69 -9114.81 -8430.87 -7011.53 -5685.93 -4875.03 -4094.43 -3974.73 -3903.62 -3688.81 -3150.27 -2636.95 -2449.86 -2581.74 -2627.73 -2905.68 -2853.87 -2452.01 -2161.18 -1855.66 -1777.25 -1540.45 -1374.40 -782.46 -503.96 -451.11
-14379.35 -14379.14 -14402.16 -14449.16 -14436.00 -14397.64 -14369.74 -14455.49 -14682.44 -14866.06 -15029.83 -15065.67 -15104.09 -15109.31 -15027.63 -15029.16 -14894.30 -14795.45 -14663.53 -14191.07 -13642.51 -13328.50 -13153.85 -13069.72 -13009.52 -13000.97 -13013.87 -13013.97 -13024.58 -12977.94 -12933.94 -12940.81 -12978.53 -13019.42 -13090.35 -13325.60 -13506.12 -13661.44 -13662.32 -13648.70 -13613.21 -13566.54 -13576.13 -13575.12 -13558.25 -13517.65 -13506.12 -13502.05 -13561.39 -13685.68 -13845.64 -13914.40 -13939.73 -13945.03 -13941.45 -13941.84 -13935.78 -13933.81 -13940.95 -13995.03 -13972.79 -13979.35 -13957.98 -13980.09 -13973.37 -13985.58 -13963.91 -13959.85 -13928.59 -13878.85 -13915.44 -13842.80 -13821.97 -13769.50 -13710.30 -13591.40 -13070.00 -12442.92 -12053.98 -11471.86 -10808.76 -10293.05 -8803.36 -7559.55 -5661.52 -2713.48 -1411.37 -682.92 -992.06 -1428.75 -2062.72 -1889.77 -1821.89 -1386.29 -954.03 -339.02 980.74 4220.27 5825.88 8521.18 8305.74 5131.73 1522.84 -240.86 -942.55 -2911.03 -9680.94 -11222.18 -9856.09 -9428.97 -9420.58 -9414.16 -9336.22 -9262.48 -9284.29 -9211.68 -8920.48 -8286.78 -7090.51 -5777.98 -4597.67 -3897.58 -3657.78 -3570.85 -3514.79 -3130.58 -2794.22 -2718.13 -2810.01 -3248.75 -3353.99 -3131.14 -2527.09 -2147.18 -1814.35 -1763.31 -1536.25 -1162.94 -839.10 -324.67 -324.79
-14158.36 -14139.45 -14248.27 -14306.53 -14312.90 -14245.90 -14264.41 -14395.93 -14650.54 -15031.50 -15130.64 -15183.90 -15228.63 -15277.99 -15287.35 -15233.21 -15183.86 -15126.66 -15070.17 -14819.32 -14273.15 -13606.61 -13384.83 -13198.02 -13058.61 -13063.24 -13096.40 -13100.93 -13158.08 -13161.83 -13307.26 -13280.82 -13228.66 -13249.92 -13430.23 -13532.08 -13651.13 -13726.13 -13737.08 -13741.14 -13747.44 -13695.14 -13718.01 -13694.98 -13674.79 -13631.08 -13628.34 -13618.13 -13678.00 -13779.14 -13860.49 -13897.74 -13946.95 -14002.58 -14020.40 -14026.79 -14036.29 -14035.99 -14045.28 -14036.71 -13979.47 -13971.33 -14010.91 -14004.65 -13983.48 -13971.82 -13967.79 -13969.44 -13956.61 -13938.20 -13938.68 -13924.24 -13863.69 -13828.21 -13703.29 -13443.70 -12135.64 -11077.48 -10163.70 -9563.22 -8823.40 -8771.97 -7472.43 -5656.38 -4009.78 -2832.35 -1401.01 -887.79 -1321.39 -1653.03 -1664.17 -1634.89 -1346.28 -855.66 -503.48 -9.64 622.67 1757.53 4539.80 7983.45 6597.79 3909.94 1413.25 -58.53 -779.52 -5372.55 -9526.61 -10663.90 -9531.13 -9171.36 -9132.93 -9140.68 -9146.75 -9128.10 -9105.98 -8995.65 -8836.12 -7807.66 -6865.66 -5699.71 -4539.56 -3720.66 -3484.50 -3297.01 -3270.90 -3233.86 -3206.22 -3315.13 -3473.40 -3667.75 -3760.23 -3512.37 -2437.44 -2049.25 -1751.35 -1687.80 -1431.10 -1142.15 -691.52 -326.35 -259.18
-13961.96 -13992.01 -14084.24 -14145.24 -14083.35 -14060.33 -14085.79 -14258.72 -14859.40 -15082.30 -15222.47 -15255.25 -15283.15 -15338.94 -15403.40 -15461.56 -15383.29 -15356.10 -15353.86 -15297.66 -14949.15 -14112.53 -13647.13 -13395.97 -13199.46 -13202.58 -13189.12 -13176.09 -13379.24 -13489.19 -13526.25 -13504.10 -13543.67 -13587.34 -13583.04 -13747.33 -13804.02 -13829.72 -13848.52 -13829.14 -13862.81 -13825.92 -13828.21 -13778.71 -13724.17 -13732.63 -13733.86 -13714.38 -13741.52 -13820.92 -13877.49 -13922.90 -13989.76 -14044.94 -14042.58 -14047.64 -14057.94 -14038.33 -14028.07 -14015.38 -14000.48 -13979.99 -13999.39 -13985.18 -13980.11 -13971.83 -13971.01 -13975.02 -13968.81 -13967.36 -13918.03 -13914.36 -13901.11 -13853.93 -13798.23 -13053.62 -11284.12 -9246.95 -7466.43 -7197.23 -7417.70 -7039.44 -6015.60 -4537.47 -3039.91 -1903.35 -1342.19 -1300.27 -1419.96 -1460.45 -1498.99 -1218.30 -910.37 -756.47 -172.63 126.71 752.85 1744.29 4487.01 7260.83 6622.30 4241.49 2996.59 -93.36 -1601.12 -5433.51 -8429.16 -10211.10 -9240.75 -8897.96 -8922.27 -8961.28 -8978.23 -8888.72 -8878.77 -8821.56 -8592.90 -7611.09 -6390.08 -4844.30 -4351.93 -3677.82 -3344.89 -3135.65 -3158.60 -3245.66 -3488.80 -3764.18 -3915.68 -4243.04 -4096.02 -3710.97 -2361.45 -1778.18 -1661.41 -1599.94 -1487.25 -1105.96 -646.71 -252.12 -252.13
-13958.52 -13975.76 -14031.49 -13998.91 -13940.75 -13929.59 -14052.09 -14355.94 -14771.46 -15062.37 -15248.53 -15352.78 -15406.93 -15410.58 -15482.04 -15594.21 -15656.51 -15743.84 -15738.63 -15637.85 -15434.22 -14694.82 -14108.44 -13598.94 -13452.88 -13455.32 -13393.80 -13436.77 -13623.28 -13706.59 -13731.92 -13680.62 -13713.17 -13752.00 -13792.39 -13837.92 -13847.85 -13876.75 -13941.70 -13985.14 -14036.24 -14050.66 -13888.42 -13784.34 -13747.51 -13784.52 -13823.95 -13800.82 -13803.28 -13851.17 -13903.65 -13985.55 -14010.45 -14026.20 -14068.19 -14058.62 -14059.57 -14025.82 -14018.38 -14017.50 -13992.59 -13964.27 -13988.61 -13983.52 -13976.94 -13978.36 -13980.94 -13971.66 -13948.95 -13938.13 -13927.37 -13913.20 -13910.83 -13878.78 -13282.94 -11421.50 -9611.75 -6661.73 -5424.93 -4933.59 -5154.30 -5215.83 -4581.60 -3841.95 -2645.43 -1795.41 -1510.64 -1417.89 -1394.18 -1347.05 -846.07 -713.76 -494.29 -167.30 17.13 208.34 792.56 3066.74 4231.67 8789.73 7878.35 6433.23 3707.34 473.74 -1369.99 -3649.96 -8403.60 -10534.23 -9190.31 -8782.48 -8836.93 -8884.50 -8876.48 -8802.29 -8776.07 -8687.90 -8227.35 -7300.18 -5752.43 -4875.67 -4206.81 -3761.17 -3306.95 -2997.52 -2994.22 -3268.60 -3581.95 -4099.38 -4397.40 -4454.13 -4365.24 -3339.66 -2657.86 -1806.77 -1662.68 -1651.10 -1421.47 -1152.82 -727.17 -429.58 -429.33
-13973.13 -13973.02 -13991.46 -13957.01 -13910.21 -13906.11 -14020.11 -14300.42 -14814.70 -15108.38 -15409.57 -15537.67 -15563.47 -15582.52 -15695.58 -15801.20 -15810.27 -15961.38 -15964.50 -15965.70 -15804.96 -15300.66 -14887.63 -14097.33 -13871.92 -13879.81 -13744.68 -13664.34 -13872.57 -13924.88 -13884.88 -13851.65 -13853.87 -13835.71 -13893.79 -13896.94 -13864.31 -13941.89 -14032.96 -14115.39 -14121.69 -14117.64 -13985.45 -13791.45 -13752.52 -13800.05 -13823.20 -13819.18 -13805.05 -13886.42 -13954.99 -14020.89 -14051.17 -14035.78 -14058.13 -14037.81 -14041.42 -14017.98 -14023.91 -14028.99 -14010.41 -13998.30 -13990.85 -13985.40 -13977.43 -13979.38 -13968.25 -13945.66 -13938.51 -13938.44 -13938.86 -13924.21 -13746.06 -13843.00 -11941.10 -8867.01 -7597.50 -5794.50 -3766.11 -2842.29 -2933.98 -3322.84 -3196.27 -2888.36 -2142.19 -1712.18 -1383.76 -1352.49 -1205.46 -1059.65 -638.14 -278.98 -138.68 -42.08 120.11 262.52 797.75 3132.23 5480.44 8443.49 7589.08 4922.47 2280.18 635.98 -1021.45 -3078.14 -6883.23 -10531.96 -9212.18 -8784.51 -8837.29 -8879.04 -8850.85 -8781.07 -8714.16 -8547.73 -8004.23 -6861.87 -5725.68 -4799.79 -4241.10 -3869.75 -3302.86 -3004.26 -2948.26 -3292.06 -3708.51 -4349.00 -4612.35 -4566.95 -4105.13 -3463.93 -2394.10 -1891.94 -1727.54 -1642.04 -1472.39 -1292.70 -1131.48 -930.65 -930.17
-13868.32 -13868.11 -13915.92 -13907.20 -13937.00 -13946.36 -14019.98 -14302.09 -14836.95 -15361.60 -15541.11 -15698.87 -15799.77 -15834.66 -15919.56 -16010.61 -16015.88 -16039.44 -16111.71 -16097.76 -15947.88 -15667.01 -15059.37 -14823.19 -14203.33 -14057.98 -13959.34 -13917.86 -13976.21 -14112.81 -14092.44 -13987.50 -13933.25 -13906.04 -13858.22 -13871.30 -13806.74 -13797.10 -13889.75 -13941.44 -14062.11 -14015.36 -13936.00 -13770.29 -13767.12 -13732.06 -13748.21 -13772.52 -13788.88 -13909.51 -13973.79 -14059.64 -14061.57 -14031.04 -14037.12 -14038.09 -14042.18 -14026.28 -14023.74 -14025.46 -14022.36 -14003.77 -13987.56 -13986.00 -13979.72 -13981.31 -13974.89 -13948.51 -13949.87 -13935.81 -13917.33 -13773.30 -13333.07 -12105.50 -11337.41 -7156.81 -4812.88 -3951.30 -2658.75 -2329.29 -2175.86 -1995.98 -1742.67 -1887.65 -1565.13 -1407.75 -1192.16 -1006.05 -808.44 -636.07 -437.86 -122.38 -0.18 53.24 175.19 256.95 636.89 3384.48 4892.71 7903.45 6644.23 4135.98 3307.32 441.55 -985.52 -3453.12 -6847.83 -10859.52 -9799.28 -9216.12 -8827.67 -8780.73 -8782.48 -8728.55 -8622.00 -8260.52 -7821.84 -6858.45 -5579.42 -4740.80 -4153.83 -3571.07 -3363.48 -2911.07 -3040.41 -3323.57 -3829.25 -4534.67 -4637.96 -4435.95 -3842.70 -3378.81 -2261.58 -2052.68 -1802.94 -1706.50 -1591.16 -1411.43 -1475.57 -1615.73 -1593.88
-13676.04 -13675.81 -13713.70 -13783.67 -13913.52 -13966.73 -14115.07 -14386.22 -15040.77 -15272.61 -15515.91 -15661.71 -15874.30 -15958.03 -16034.36 -16131.12 -16130.64 -16179.62 -16153.34 -16173.66 -16102.62 -15773.97 -15355.49 -14589.62 -14045.23 -13869.37 -13774.12 -13796.97 -13761.28 -13621.74 -13715.94 -13801.21 -13623.55 -13588.37 -13534.45 -13162.08 -12716.53 -13127.82 -13072.69 -13096.99 -13353.31 -13433.19 -13521.96 -13506.44 -13456.54 -13519.97 -13558.33 -13543.72 -13703.61 -13869.52 -13976.90 -14033.23 -14044.03 -14036.23 -14043.14 -14041.99 -14042.82 -14040.99 -14028.44 -14025.08 -14022.39 -14017.35 -13992.42 -13979.63 -13978.50 -13977.53 -13974.67 -13929.23 -13934.21 -13918.55 -13681.19 -13367.99 -12979.17 -10707.24 -7735.59 -5050.77 -3135.53 -1845.75 -1394.85 -1335.36 -1233.09 -1251.57 -817.94 -848.75 -968.70 -1053.42 -858.85 -717.35 -771.33 -371.85 -180.60 15.59 130.56 151.10 207.00 257.95 742.40 2384.97 4830.69 7533.13 8307.11 6708.77 4053.91 2100.64 246.23 -563.95 -4818.29 -9515.60 -11451.89 -9569.84 -8990.45 -8651.51 -8587.01 -8402.70 -8196.47 -7913.57 -7294.80 -6762.28 -5180.97 -4457.23 -3722.81 -3390.04 -3156.91 -2952.78 -3098.99 -3594.91 -4067.72 -4565.45 -4562.38 -4253.66 -3681.14 -3213.15 -2412.05 -2047.12 -1856.75 -1847.47 -1915.97 -1903.76 -1832.33 -2175.90 -2175.55
-13367.10 -13339.14 -13422.32 -13539.01 -13820.33 -13826.00 -14145.84 -14442.53 -14927.79 -15214.72 -15396.66 -15594.31 -15857.37 -16050.45 -16073.41 -16315.27 -16340.23 -16326.49 -16292.67 -16232.98 -16121.74 -15700.89 -14983.19 -14386.80 -13587.86 -13260.84 -13305.72 -13216.23 -13262.44 -13057.23 -12942.59 -13200.99 -12393.92 -12262.82 -11999.64 -11576.28 -10736.20 -10533.39 -10785.68 -10968.26 -11240.61 -11136.91 -12300.63 -13018.23 -12768.28 -13166.57 -13053.04 -13120.78 -13292.29 -13766.16 -13968.75 -14031.35 -14037.46 -14034.37 -14053.12 -14038.74 -14038.58 -14040.37 -14039.67 -14035.13 -14026.95 -14026.36 -14024.61 -14013.29 -13986.81 -13960.30 -13915.17 -13876.04 -13883.24 -13599.13 -12977.72 -12610.86 -11759.57 -8037.53 -7093.72 -2984.16 -1882.47 -1215.09 -781.11 -777.41 -628.90 -425.44 -237.69 -332.10 -427.76 -548.92 -411.27 -218.18 -350.00 -186.20 46.23 94.15 156.20 205.09 235.71 269.92 585.36 1760.74 4394.35 7385.91 8568.17 7407.24 4105.82 1389.92 568.89 103.50 -1168.05 -4205.52 -9149.60 -10487.72 -9591.38 -8683.20 -8162.03 -7942.76 -7955.23 -7585.55 -6807.35 -6006.63 -5125.89 -4037.41 -3578.09 -3078.75 -2930.71 -2958.87 -3112.70 -3889.92 -4362.95 -4733.15 -4530.01 -3995.89 -3557.07 -3189.12 -2493.55 -2158.41 -2002.21 -2023.32 -2360.86 -2627.87 -2436.17 -2665.09 -2664.82
-12723.33 -12722.55 -12706.31 -13000.19 -13069.59 -13164.73 -13720.49 -14178.77 -14745.19 -15194.66 -15367.35 -15663.23 -15936.88 -16048.19 -16185.93 -16384.68 -16452.32 -16433.61 -16386.53 -16336.47 -16137.13 -15595.97 -14914.53 -13536.04 -12519.44 -11861.27 -12327.11 -12175.65 -11814.99 -12127.89 -11862.19 -11410.97 -11268.19 -10835.67 -10076.90 -9380.20 -8858.97 -8791.19 -8920.24 -8686.69 -9154.41 -10065.88 -10239.95 -11425.64 -11751.05 -12147.89 -12768.84 -12704.18 -12972.90 -13483.66 -14008.44 -14049.74 -14041.06 -14050.39 -14057.79 -14042.83 -14039.89 -14036.22 -14033.01 -14035.15 -14030.59 -14028.38 -14029.72 -14004.48 -13914.33 -13896.69 -13835.28 -13857.94 -13595.57 -12805.75 -11683.47 -9622.22 -8625.29 -6021.50 -3754.48 -2183.99 -1174.24 -369.35 -197.49 -375.19 -148.48 -59.42 -28.84 -52.86 -172.76 -247.03 158.58 149.83 37.64 134.14 164.67 175.44 206.38 234.77 249.15 279.52 523.99 1232.07 3796.21 6218.77 9379.08 9462.43 5016.27 2155.18 525.39 214.43 -141.19 -977.80 -3405.63 -10784.00 -10060.31 -9077.52 -8023.73 -7724.09 -7439.75 -6872.02 -6196.46 -5655.66 -4406.61 -3915.75 -3172.38 -2942.58 -2818.41 -2964.85 -3341.79 -4199.28 -4693.86 -4814.91 -4590.78 -4003.70 -3454.71 -3096.20 -2382.99 -2233.17 -2261.42 -2500.95 -2846.45 -2950.20 -3063.28 -3014.79 -3014.66
-11969.74 -11925.22 -11913.70 -11893.95 -12143.66 -12602.90 -12969.00 -14098.32 -14691.90 -15295.41 -15571.18 -15738.92 -15934.45 -16017.54 -16177.60 -16310.39 -16439.06 -16424.17 -16377.93 -16319.44 -16142.85 -15284.24 -13827.29 -12353.16 -10706.46 -10479.91 -10242.66 -10902.11 -10776.90 -10708.47 -10398.84 -9821.40 -9254.67 -8912.68 -8334.46 -7866.03 -7334.23 -7236.29 -7525.97 -7615.64 -8066.87 -8488.45 -9211.08 -10179.64 -11071.54 -11467.92 -12012.94 -12402.50 -12756.82 -13203.83 -13869.70 -14009.62 -14033.96 -14056.29 -14058.37 -14056.23 -14049.41 -14039.70 -14027.08 -14032.61 -14021.81 -14029.07 -14035.85 -13917.46 -13649.09 -13498.74 -13458.73 -13411.50 -13268.03 -12247.81 -10188.37 -7906.95 -6333.14 -5072.87 -2521.67 -1595.39 -463.69 -121.06 7.55 -62.36 76.86 134.63 106.15 115.75 129.72 160.97 227.59 301.84 315.86 331.42 311.31 256.44 276.96 268.56 283.78 304.74 366.46 1471.69 4058.31 7118.39 8943.45 9911.38 6576.79 3466.76 918.65 385.59 -212.69 -306.12 -1510.28 -9127.40 -11010.08 -9138.07 -8260.22 -7596.20 -7210.67 -6610.56 -5932.98 -5167.24 -4209.06 -3548.25 -2978.76 -2686.34 -2716.11 -3092.00 -3578.34 -4329.71 -4895.07 -4893.99 -4592.39 -4057.19 -3450.53 -2725.49 -2292.12 -2134.41 -2459.40 -2914.51 -3265.06 -3341.86 -3328.83 -3211.45 -3235.27
-11637.86 -11643.58 -11673.21 -11653.65 -11733.44 -11990.11 -12502.88 -13702.24 -14456.47 -15341.78 -15598.90 -15759.76 -15834.98 -15830.04 -15988.56 -16223.03 -16339.71 -16382.96 -16315.28 -16254.40 -16011.19 -15154.35 -13201.65 -10845.12 -9345.31 -8860.33 -9240.75 -9435.31 -8898.06 -9140.13 -9328.99 -8736.46 -7631.15 -6924.80 -6854.28 -6420.24 -5435.30 -5587.95 -5722.24 -6861.27 -5241.98 -8154.91 -8975.26 -9828.04 -10367.70 -10669.37 -11483.17 -11932.54 -12173.20 -12863.80 -13397.99 -13855.59 -13857.12 -14056.67 -14061.10 -14058.67 -14040.16 -14046.74 -14025.56 -14036.29 -14021.23 -14019.56 -14032.95 -13730.14 -13390.21 -13277.77 -12979.78 -13001.24 -12744.71 -11645.81 -9704.92 -6948.82 -4855.22 -2898.18 -1955.32 -594.51 -131.56 15.17 93.41 136.42 187.23 201.77 202.09 216.89 221.80 225.09 296.64 311.84 349.61 377.98 383.53 417.20 358.26 341.55 322.38 311.40 354.97 700.95 1005.80 4333.96 5356.23 8033.87 7228.95 4245.06 3261.61 2430.24 105.33 -459.18 -1240.36 -5466.20 -10524.58 -9549.49 -8647.84 -7756.11 -7152.56 -6481.84 -5683.29 -5097.18 -4083.96 -3702.60 -2774.79 -2648.03 -2685.60 -2974.95 -3937.41 -4654.33 -5005.41 -4967.12 -4549.20 -3860.90 -3095.41 -2599.71 -2397.18 -2180.88 -2613.89 -3194.48 -3468.86 -3551.64 -3534.50 -3380.01 -3380.19
-11765.64 -11765.39 -11797.95 -11797.65 -11790.42 -11981.74 -12606.39 -13632.18 -14827.79 -15376.50 -15586.37 -15720.92 -15704.60 -15706.18 -15836.56 -16069.00 -16274.04 -16285.54 -16222.83 -16093.29 -15776.42 -14929.76 -12764.05 -11008.73 -8540.78 -8120.09 -7968.36 -8085.95 -7859.52 -7859.91 -7429.72 -7055.64 -6398.24 -5621.85 -4852.45 -3727.22 -3928.91 -3713.82 -3954.64 -2848.75 -1514.54 -6842.48 -8582.50 -8920.35 -9406.98 -9865.02 -10354.81 -10731.19 -11492.40 -11497.44 -12128.01 -12715.35 -13104.76 -13434.62 -13836.38 -13837.41 -14011.11 -13999.57 -13693.78 -13934.97 -13977.12 -14016.18 -13786.41 -13199.86 -12871.27 -12496.22 -12520.39 -11755.41 -11312.74 -10191.00 -8912.11 -6696.38 -4767.99 -2883.30 -2005.55 -780.19 -159.59 154.46 181.71 201.82 215.86 220.31 225.20 229.71 241.85 258.79 282.71 313.90 345.46 367.92 419.94 480.46 453.75 395.32 354.94 317.74 363.31 476.86 709.89 2198.49 4059.66 7293.68 8303.51 7089.95 4943.79 3903.53 2233.23 -55.21 -644.17 -2431.77 -6705.14 -8286.16 -8281.84 -7789.41 -6906.16 -6314.09 -5685.04 -4587.51 -3877.10 -3390.87 -2895.34 -2623.80 -2632.08 -3196.10 -3951.98 -4724.44 -5122.17 -5078.65 -4585.84 -4018.05 -3114.85 -2695.36 -2171.20 -2128.15 -2548.34 -3438.64 -3600.32 -3662.10 -3566.16 -3459.95 -3431.74
-12182.51 -12182.03 -12487.69 -12209.69 -12124.01 -12466.59 -12780.34 -14036.13 -14766.50 -15425.89 -15606.04 -15676.18 -15648.63 -15615.11 -15734.37 -15954.32 -16082.91 -16109.46 -16169.05 -16072.77 -15877.19 -14753.42 -12417.95 -10434.64 -8657.03 -8360.69 -8267.90 -7987.83 -7438.18 -6936.56 -6383.90 -5766.33 -4842.31 -3595.64 -2880.19 -2416.24 -1845.41 -1529.69 -1387.15 -442.68 176.68 -240.19 -7206.90 -7487.89 -6303.78 -8627.79 -8864.91 -8692.03 -9348.26 -9702.03 -10470.37 -10952.59 -11440.49 -11893.57 -12283.39 -12991.63 -12874.03 -13203.88 -13112.11 -13343.82 -13229.93 -12137.14 -12639.24 -12346.88 -11440.21 -10869.13 -11383.49 -10038.40 -10222.55 -8590.40 -7296.03 -5867.04 -3565.83 -2234.79 -1485.37 -669.12 -49.81 160.26 214.37 222.54 226.27 230.57 232.95 234.86 238.17 257.17 274.06 277.18 323.04 358.02 378.17 462.75 466.71 440.52 344.03 316.13 379.12 404.11 649.41 1864.92 6161.00 6742.68 8688.64 7889.28 5839.19 4521.81 2723.27 459.31 -150.68 -1339.05 -3337.51 -6820.14 -8291.40 -7549.91 -6611.17 -5943.68 -5121.09 -4298.42 -3642.01 -3203.21 -2668.71 -2545.43 -2567.75 -3141.38 -3829.19 -4739.21 -5160.64 -5221.57 -4832.32 -4365.15 -3518.17 -3019.89 -2463.27 -2236.12 -2705.40 -3262.43 -3522.44 -3578.05 -3437.61 -3239.57 -3239.40
-12823.58 -12822.97 -13077.78 -12864.79 -13047.81 -13296.39 -13696.25 -14404.67 -14983.76 -15356.62 -15518.44 -15532.75 -15537.14 -15546.26 -15650.91 -15881.88 -15966.63 -16040.85 -16074.10 -16026.87 -15807.23 -14995.53 -12735.01 -11326.85 -9489.30 -9377.99 -9483.88 -9073.06 -7737.77 -6807.57 -5499.29 -4402.44 -3903.90 -1962.80 -1070.27 -242.10 -295.44 111.00 265.39 233.66 194.22 138.67 -3660.16 -2728.33 -2349.96 -4652.82 -4555.53 -5761.32 -5921.44 -7575.47 -8514.69 -8167.86 -7991.73 -10119.85 -9436.17 -9602.60 -10167.27 -10692.06 -10540.37 -10835.71 -9990.08 -10604.70 -9887.64 -9665.97 -7898.03 -6712.45 -5894.23 -6127.95 -5719.72 -3559.35 -4177.98 -3006.15 -2097.78 -1721.06 -809.71 -347.96 99.48 199.80 220.81 230.96 231.74 232.49 233.30 234.05 236.04 241.06 261.61 271.38 293.43 326.30 361.52 411.18 464.48 399.30 343.76 316.63 343.10 389.79 574.31 1016.01 4014.89 5265.01 7032.51 7804.47 7293.74 5108.75 2798.86 524.28 158.79 -679.68 -2969.77 -7335.41 -7566.25 -6810.68 -6173.36 -5476.17 -4634.99 -4067.61 -3434.68 -2933.79 -2653.12 -2500.25 -2584.22 -3168.30 -3779.98 -4764.54 -5257.84 -5412.10 -5159.17 -4591.60 -4330.73 -3678.02 -2873.65 -2478.53 -2702.33 -3125.22 -3314.84 -3202.41 -3088.75 -2953.80 -2953.65
-13395.44 -13369.35 -13491.57 -13619.64 -13718.66 -13810.38 -14173.67 -14665.49 -14985.77 -15297.00 -15381.34 -15399.53 -15330.41 -15398.47 -15527.43 -15722.10 -15817.88 -15851.49 -15917.89 -15930.51 -15774.37 -15380.33 -13900.79 -12221.59 -12080.51 -11222.19 -11555.08 -11224.04 -8595.49 -7227.36 -4960.49 -3569.81 -2673.00 -1282.02 -224.57 287.22 375.20 384.49 317.82 290.41 272.96 223.38 -660.79 -852.66 -46.37 -1002.88 -1685.74 -2856.16 -3461.69 -4202.93 -4599.22 -5170.91 -6676.84 -4724.53 -6714.39 -7167.05 -7365.38 -7343.29 -7427.00 -7086.61 -6907.34 -7392.99 -5755.46 -5634.02 -3316.13 -1148.59 -2944.79 -1100.69 -2263.49 -2245.90 -1926.91 -1164.85 -680.64 -301.89 73.52 165.87 247.48 243.14 234.42 233.13 233.03 233.24 233.73 234.34 234.56 243.32 254.27 267.97 275.87 301.14 338.24 386.32 444.62 432.24 364.14 304.76 322.24 387.30 431.93 915.25 1630.29 3202.87 4099.16 6568.22 8605.50 7334.85 4901.29 2071.79 1049.59 -37.62 -1980.39 -6408.01 -7009.00 -6220.55 -5760.77 -5262.34 -4496.58 -3757.22 -3296.84 -2820.88 -2563.63 -2479.97 -2539.63 -2915.74 -3633.62 -4340.97 -5179.11 -5608.83 -5719.98 -5395.89 -4869.15 -4188.19 -2916.43 -2467.44 -2480.43 -2889.33 -3072.98 -2970.16 -2870.81 -2828.08 -2828.11
-13752.90 -13758.85 -13890.24 -14102.77 -14100.13 -14300.95 -14516.39 -14732.44 -15012.42 -15190.51 -15260.90 -15191.21 -15192.86 -15267.70 -15483.47 -15649.57 -15721.74 -15767.66 -15793.57 -15847.47 -15780.37 -15516.76 -14809.19 -14221.02 -13985.73 -14244.52 -13849.18 -12703.63 -9631.15 -6767.54 -5041.73 -3567.12 -2510.65 -999.59 102.65 260.09 456.69 613.71 594.61 351.60 300.42 399.26 348.43 260.79 254.51 253.43 246.12 44.87 0.01 -594.66 -773.81 -145.81 -3390.97 -3426.69 -4652.78 -5547.57 -5732.96 -5942.06 -5578.86 -5560.67 -5382.42 -4333.52 -3055.84 -2043.82 -1340.06 -769.18 -802.45 -784.89 -751.40 -715.26 -590.95 -127.69 73.28 309.86 388.96 414.51 335.62 267.30 257.82 236.41 233.50 233.54 233.96 234.71 234.97 238.38 251.85 264.54 272.46 291.11 332.04 364.99 434.91 462.68 378.56 336.80 357.40 392.47 404.24 769.41 1682.48 2258.54 4023.84 6460.11 7696.52 8524.90 5137.74 2842.75 1948.88 91.44 -2502.82 -7175.83 -7093.88 -6496.08 -5467.76 -4999.77 -4149.99 -3655.38 -3242.19 -2803.41 -2601.65 -2531.71 -2512.43 -2827.06 -3303.02 -4381.14 -5092.28 -5703.13 -5846.06 -5765.84 -5441.38 -4614.94 -3101.86 -2204.23 -2174.69 -2572.86 -2782.41 -2784.12 -2757.51 -2770.67 -2767.79
-13980.53 -13991.74 -14131.69 -14256.46 -14381.80 -14460.94 -14578.75 -14801.92 -15043.58 -15100.35 -15114.84 -15051.10 -15047.36 -15254.46 -15459.60 -15622.04 -15662.16 -15711.37 -15732.77 -15757.36 -15767.74 -15677.26 -15459.78 -15238.36 -15181.01 -15143.73 -14648.62 -13779.05 -11711.51 -8289.18 -5773.06 -4153.00 -1651.20 -345.23 227.06 275.62 496.03 670.91 723.75 489.37 538.73 734.28 706.25 365.13 423.72 478.54 310.14 375.73 213.82 192.88 250.98 230.47 198.54 -412.97 -322.70 -1245.29 -3379.71 -3788.14 -4560.43 -4498.96 -3922.82 -2671.74 -1391.35 -624.52 -470.15 -465.08 -518.84 -608.30 -579.08 -486.89 -267.59 190.77 326.03 418.56 479.58 479.41 440.02 277.98 255.92 240.18 233.91 233.89 234.38 235.10 235.35 236.81 246.00 252.48 262.57 279.15 309.35 335.24 372.73 447.84 414.16 373.54 384.31 392.01 395.29 397.69 1143.14 1723.36 3354.06 5046.40 6178.01 8265.14 6471.21 4536.21 4626.35 117.46 -10.26 -2176.15 -5559.04 -6315.12 -5568.20 -4760.91 -4010.14 -3515.65 -3067.26 -2739.65 -2632.85 -2550.56 -2517.91 -2624.04 -3218.21 -4129.91 -5155.81 -5604.64 -5926.70 -5863.60 -5576.38 -4606.03 -3158.87 -2288.33 -1780.83 -2094.55 -2350.38 -2647.93 -2668.87 -2701.59 -2704.07
-14142.38 -14142.21 -14297.62 -14400.60 -14471.19 -14590.05 -14672.05 -14811.76 -14976.70 -14989.18 -15044.32 -15014.67 -15080.99 -15252.20 -15500.63 -15587.85 -15634.49 -15663.74 -15688.85 -15741.05 -15751.47 -15695.12 -15518.62 -15450.54 -15373.91 -15277.64 -15173.52 -14141.27 -12441.20 -10299.25 -7344.44 -4816.07 -906.73 -23.63 258.36 278.04 423.20 701.03 804.96 625.82 852.83 851.90 1054.03 502.26 508.73 699.54 813.39 837.26 487.18 320.27 305.31 249.07 234.97 220.19 199.30 176.40 -409.93 -1331.85 -2270.01 -2603.04 -1559.37 -241.00 -404.95 -402.59 -270.09 -302.14 -382.39 -414.66 -281.10 -139.14 128.22 340.22 549.77 571.53 528.99 505.48 472.79 315.20 249.40 234.08 233.96 234.13 234.67 235.74 236.00 235.87 236.51 239.42 248.20 273.30 296.28 325.05 346.71 377.47 416.34 438.86 387.63 389.98 392.51 395.84 511.65 1100.44 2035.96 3582.29 5214.06 7653.02 9041.27 5807.88 4698.26 1854.74 220.50 -207.75 -3975.88 -6835.82 -5715.14 -4700.14 -3779.24 -3414.31 -3077.99 -2770.51 -2669.36 -2546.44 -2515.47 -2683.84 -3039.40 -4085.06 -4903.98 -5646.48 -5975.00 -5938.30 -5727.89 -4956.22 -3509.76 -2414.93 -1595.27 -1752.27 -2246.95 -2532.70 -2751.93 -2752.86 -2753.00
-14344.45 -14338.78 -14422.75 -14534.93 -14642.97 -14656.08 -14731.36 -14794.06 -14857.08 -14888.71 -14922.04 -15011.61 -15169.18 -15323.85 -15484.68 -15581.77 -15647.61 -15670.70 -15693.08 -15719.64 -15716.00 -15651.60 -15413.79 -15227.50 -15099.26 -15096.20 -14942.19 -14354.44 -12733.22 -10751.22 -6907.27 -3150.84 -1119.41 234.79 256.58 264.85 367.58 657.48 899.13 913.30 841.80 1192.40 1143.76 871.97 1045.96 1101.65 1464.02 1256.04 861.21 377.89 328.95 281.19 253.17 245.94 241.38 222.13 105.83 -467.82 -871.45 -425.94 -184.91 25.80 6.15 -169.31 -11.72 -176.40 -157.27 -147.75 -223.47 30.33 277.09 482.26 499.58 473.64 345.54 353.31 374.34 319.30 274.86 234.29 234.91 234.71 235.65 236.29 236.27 236.28 236.15 237.18 243.49 266.04 293.10 319.03 336.39 351.17 363.02 404.24 388.61 389.23 390.82 394.47 400.47 479.75 778.88 2640.66 3861.05 7695.79 8800.62 7922.15 6018.90 2594.89 279.45 -65.03 -2618.26 -6616.07 -6071.82 -5418.08 -4193.53 -3647.93 -3216.13 -2937.55 -2719.11 -2601.35 -2556.29 -2707.77 -3129.28 -3976.77 -5074.41 -5778.24 -6031.69 -5964.52 -5632.27 -5078.23 -3621.68 -2634.45 -1630.27 -1519.52 -2077.23 -2725.95 -2844.39 -2899.18 -2924.10
-14655.97 -14655.66 -14725.73 -14713.81 -14741.46 -14753.04 -14771.21 -14794.60 -14829.47 -14893.35 -14939.43 -15046.62 -15156.50 -15388.32 -15501.40 -15624.71 -15665.05 -15697.34 -15717.44 -15746.28 -15698.36 -15455.90 -15024.03 -14778.54 -14703.52 -14792.55 -14458.28 -13824.17 -12131.47 -10618.84 -7507.81 -3121.49 -650.21 240.81 268.07 310.57 503.38 763.99 1069.53 851.25 1060.16 1478.20 1502.26 1329.32 1359.05 1334.03 1700.48 1385.96 1054.30 665.06 505.66 307.54 310.55 291.72 266.95 252.02 250.72 251.37 111.85 28.43 193.24 203.05 184.14 115.51 167.28 111.32 66.14 18.39 46.45 202.60 308.72 417.31 367.65 345.37 275.29 276.98 289.90 322.04 281.42 259.00 243.41 235.79 236.50 236.66 236.89 236.90 236.92 237.60 241.94 260.22 296.75 322.17 336.73 363.09 373.90 383.71 386.74 387.97 389.61 398.61 402.95 416.95 706.41 1421.11 3536.62 6154.04 6767.77 7772.62 6969.92 5859.04 1378.35 98.11 -2285.00 -5444.46 -5965.99 -5697.41 -4824.64 -4158.26 -3535.04 -2983.67 -2803.64 -2658.91 -2632.34 -2734.07 -3234.49 -4116.74 -4831.08 -5677.01 -5999.42 -5946.98 -5773.15 -4976.85 -3826.55 -2386.79 -1794.24 -1691.50 -2310.82 -2698.23 -3037.23 -3149.85 -3150.08
-14905.74 -14905.53 -14887.17 -14857.78 -14850.60 -14796.43 -14769.05 -14807.21 -14926.60 -14954.02 -15033.43 -15163.99 -15255.10 -15404.63 -15508.02 -15604.62 -15680.29 -15725.99 -15775.50 -15807.45 -15687.34 -15258.75 -14733.37 -14448.90 -14302.20 -14224.68 -13930.95 -13618.80 -12449.11 -10455.34 -6712.46 -1824.78 230.23 243.84 286.21 414.58 742.04 1260.99 1361.95 1049.77 949.38 1279.38 1648.95 1705.54 1679.42 1736.16 1743.47 1408.34 998.77 761.04 704.10 412.97 338.83 322.63 354.81 291.24 259.33 264.04 255.32 242.07 249.59 246.22 250.25 248.50 250.11 277.62 276.15 201.10 256.38 279.09 275.63 315.16 308.71 264.35 259.43 260.40 287.93 337.92 342.30 283.83 279.89 247.67 236.95 237.02 237.20 237.17 237.23 237.87 240.68 255.06 300.45 318.14 329.40 367.07 373.60 381.28 385.47 387.31 390.06 394.64 412.02 410.74 457.08 793.05 3304.02 4240.46 5123.89 7030.55 7004.50 6166.83 2509.76 253.23 -454.99 -1666.35 -5595.49 -6211.04 -5390.05 -4665.84 -3798.42 -3223.83 -2924.64 -2766.93 -2767.90 -2844.79 -3199.39 -3834.82 -4856.25 -5488.08 -5923.80 -5948.30 -5722.80 -5077.38 -3633.42 -2714.52 -1982.79 -1871.15 -2267.32 -2807.32 -3108.07 -3250.21 -3250.31
-14967.25 -14967.18 -14943.33 -14898.63 -14824.90 -14776.98 -14739.72 -14793.94 -14971.29 -15055.14 -15121.66 -15178.70 -15318.47 -15424.83 -15494.01 -15607.53 -15680.83 -15769.28 -15853.63 -15887.08 -15763.44 -15212.29 -14758.15 -14356.54 -14171.48 -14073.74 -13907.64 -13065.53 -12264.70 -5003.36 -2261.00 179.04 229.45 264.23 314.14 646.38 968.05 1362.18 1572.21 1358.03 1097.92 1353.76 1659.35 1803.45 1831.35 1766.46 1720.84 1389.07 1045.66 1080.82 663.60 517.02 360.83 487.51 464.49 424.70 351.04 287.41 323.71 453.69 363.38 354.65 284.74 277.69 289.78 295.86 299.87 295.63 272.47 259.39 250.08 261.23 254.52 257.48 258.51 258.23 259.45 276.66 346.39 378.93 349.62 280.82 237.64 237.75 237.63 237.67 237.82 238.39 240.90 243.31 292.32 327.09 341.58 364.29 372.51 380.11 384.86 391.84 394.86 405.49 425.56 444.21 472.44 537.73 2382.00 4344.04 5548.56 6965.36 6678.52 3880.11 1695.11 273.92 66.17 -1555.82 -3211.45 -6126.28 -5861.26 -4865.72 -3978.16 -3416.76 -3125.52 -2883.40 -2828.20 -2862.14 -3256.10 -3756.04 -4631.91 -5341.52 -5824.87 -5939.83 -5763.91 -5022.34 -3969.33 -2880.30 -2158.03 -2045.78 -2394.85 -2885.21 -2984.40 -3065.12 -3065.00
-14958.98 -14959.64 -14960.76 -14916.91 -14838.97 -14779.67 -14770.35 -14863.08 -14981.78 -15072.08 -15144.71 -15223.77 -15337.73 -15416.75 -15522.37 -15608.39 -15700.92 -15777.44 -15898.24 -15974.39 -15803.74 -15263.00 -14836.56 -14278.60 -14148.81 -13884.21 -13522.54 -10234.37 -6717.16 -3271.21 136.38 185.30 233.48 258.73 434.39 556.05 781.52 1117.35 1438.16 1596.28 1311.97 1559.66 1722.66 1794.55 1817.43 1765.97 1605.29 1478.24 1123.49 923.85 781.81 661.78 434.04 592.54 697.35 719.05 638.29 430.16 505.20 640.97 663.41 371.13 351.57 326.19 323.73 323.38 311.91 304.16 281.24 258.54 249.30 245.65 247.68 252.36 255.23 254.52 256.73 259.31 308.41 348.11 362.87 272.27 244.81 238.05 238.03 237.96 238.02 238.61 239.38 243.62 259.40 306.19 334.61 358.53 368.40 377.70 390.48 396.17 411.74 428.94 444.39 488.56 517.51 575.00 742.75 3292.54 4657.43 7525.87 6926.61 3456.74 1874.72 560.14 121.85 -662.38 -2617.00 -6639.81 -6193.59 -5358.30 -4477.17 -3632.66 -3230.08 -2975.66 -2930.82 -2915.68 -3139.63 -3792.64 -4330.95 -5193.34 -5621.35 -5899.00 -5826.45 -5465.72 -4296.08 -2927.73 -2340.02 -1988.22 -2204.42 -2712.94 -2827.40 -2757.74 -2711.89
-14969.74 -14969.66 -15024.62 -15026.41 -14922.68 -14889.98 -14934.16 -14938.95 -15013.98 -15093.14 -15159.87 -15231.20 -15378.10 -15466.09 -15574.77 -15626.07 -15660.97 -15735.41 -15830.13 -15926.02 -15768.94 -15277.34 -14598.88 -14235.82 -13704.25 -13535.98 -12873.75 -9404.23 -5416.68 -847.51 121.92 238.70 300.47 336.60 485.65 816.97 888.39 1341.29 1417.14 1656.63 1548.30 1541.46 1632.75 1716.46 1778.56 1760.91 1655.29 1446.93 1378.47 1229.46 991.30 854.87 567.95 866.23 931.02 904.36 891.96 735.64 700.23 793.74 797.50 618.97 490.66 387.85 363.47 352.51 329.35 299.33 279.11 261.30 249.86 245.64 245.75 247.11 248.21 246.18 248.99 251.49 258.67 265.81 263.55 254.38 241.74 238.42 238.30 238.30 238.23 238.74 242.58 248.21 250.99 310.26 342.48 357.90 368.04 385.93 394.89 402.84 431.78 451.49 473.06 515.59 537.56 572.74 744.94 2566.87 4331.24 6527.84 6270.36 3591.78 2875.61 945.78 165.45 -440.77 -1258.42 -4060.61 -5915.99 -5641.56 -4492.35 -4107.16 -3345.45 -3114.98 -2968.89 -2985.08 -3095.57 -3821.44 -4289.58 -4922.65 -5507.77 -5760.08 -5800.13 -5405.89 -4273.75 -3213.28 -2445.66 -1982.07 -2057.20 -2349.39 -2457.58 -2420.66 -2420.55
-14987.16 -14987.09 -15099.28 -15146.03 -15135.48 -15045.89 -15072.85 -15025.63 -15044.11 -15127.41 -15171.42 -15291.90 -15413.34 -15489.77 -15483.82 -15447.01 -15506.87 -15426.27 -15443.67 -15508.87 -15280.21 -14700.78 -13820.86 -13575.25 -12737.12 -11297.45 -10366.16 -8255.39 -3391.42 26.99 133.07 255.98 313.47 367.01 553.27 758.20 1061.05 1219.68 1463.89 1639.57 1686.59 1634.00 1587.74 1606.20 1717.18 1741.88 1628.44 1542.46 1355.54 1167.15 1064.37 712.91 680.53 915.27 973.24 934.38 875.52 825.74 735.05 713.03 683.99 612.20 492.12 451.89 401.51 357.89 344.36 290.99 276.20 255.65 250.12 246.44 246.55 246.02 245.96 246.13 246.29 245.59 250.57 253.94 251.08 242.06 239.47 238.88 238.75 238.58 238.69 239.26 243.11 249.61 253.41 300.99 328.85 355.35 377.30 397.34 405.04 432.40 461.20 465.07 483.02 523.95 537.77 652.49 852.57 1832.86 5839.25 8408.32 10359.49 5880.77 3221.43 2176.16 125.31 -212.96 -1406.92 -2786.82 -5563.13 -5991.76 -5206.77 -4025.11 -3511.40 -3179.42 -3011.65 -2938.21 -3142.96 -3554.46 -4191.24 -4640.05 -5134.29 -5693.61 -5783.37 -5248.99 -4291.98 -3388.85 -2448.79 -1959.09 -1878.35 -2090.61 -2223.22 -2190.24 -2190.17
-15015.27 -15015.18 -15193.07 -15269.93 -15310.24 -15271.66 -15189.64 -15179.44 -15159.14 -15168.75 -15215.11 -15385.13 -15513.62 -15570.25 -15317.09 -15153.96 -14898.16 -14689.40 -14944.17 -14807.80 -14499.25 -13783.13 -13054.42 -11976.57 -9999.95 -9607.71 -6320.45 -4370.31 47.86 155.19 220.30 263.73 315.79 419.62 482.17 517.96 579.06 917.36 1336.29 1179.02 1189.32 1418.66 1334.80 1505.41 1631.04 1789.16 1675.74 1583.13 1450.34 1257.11 1132.65 933.80 953.39 944.65 857.55 749.87 728.36 666.94 640.41 651.82 630.38 631.79 678.37 565.14 456.29 407.88 395.03 321.30 279.64 260.64 249.06 246.86 245.99 245.28 245.97 245.37 244.82 244.87 244.66 245.96 243.20 241.86 240.65 239.50 239.14 239.11 239.96 240.39 244.74 251.76 252.54 274.27 319.01 359.61 387.26 398.88 425.72 449.79 466.77 481.62 499.76 528.49 542.46 593.52 863.40 2000.26 4588.42 5594.76 8810.21 6065.13 4529.11 2418.84 151.97 -434.52 -2100.38 -3821.44 -6342.33 -6055.46 -5347.13 -4041.68 -3553.77 -3128.91 -2945.80 -2823.85 -2923.02 -3336.36 -3805.28 -4500.93 -4774.02 -5103.93 -5460.92 -5158.47 -4399.30 -3341.20 -2632.31 -1993.74 -1763.46 -1894.09 -1894.83 -1955.19 -1955.11
-15039.83 -15060.70 -15182.49 -15397.82 -15417.02 -15422.71 -15393.29 -15272.07 -15238.17 -15243.98 -15319.98 -15475.35 -15591.31 -15537.61 -15175.92 -14742.92 -14489.29 -14420.28 -14523.36 -14267.13 -13782.31 -12770.86 -10946.94 -9278.53 -8006.96 -6155.35 -4439.55 -1091.05 101.69 191.39 209.42 363.07 559.52 730.13 580.13 716.84 849.12 795.35 664.55 728.34 867.03 1022.00 1434.72 1627.56 1732.78 1792.84 1662.52 1503.32 1355.70 1189.71 1063.96 933.76 876.00 862.74 824.62 775.97 698.76 674.63 773.03 942.13 842.07 862.09 805.57 564.74 584.73 511.51 469.40 388.16 264.73 257.63 251.31 247.44 246.06 245.63 245.33 244.97 244.88 244.59 244.39 244.19 242.81 241.79 241.46 239.73 239.48 239.82 241.02 241.85 247.18 251.53 254.15 256.33 296.18 332.98 369.38 406.83 431.23 465.40 482.89 495.91 508.33 521.25 547.64 611.29 661.18 1449.65 3117.72 5225.16 7258.75 6487.97 3938.63 2170.53 394.78 -156.12 -1243.56 -4902.98 -6372.36 -6472.05 -5347.49 -4021.30 -3472.13 -3084.67 -2837.27 -2731.26 -2844.82 -3228.42 -3589.60 -4078.15 -4815.80 -5035.41 -5266.61 -4884.40 -4071.55 -3553.52 -2664.37 -2072.13 -1722.20 -1701.91 -1726.83 -1775.10 -1775.07
-15056.53 -15056.45 -15256.37 -15424.94 -15505.48 -15514.97 -15494.85 -15410.90 -15324.29 -15309.95 -15334.17 -15450.50 -15518.55 -15461.30 -15016.35 -14513.37 -14259.70 -14143.73 -13814.38 -13719.91 -12836.73 -11162.82 -9337.86 -6980.48 -5673.09 -4442.16 -3080.45 -852.91 167.55 242.37 286.56 477.02 747.86 886.12 926.97 827.53 1187.85 1280.18 1070.83 1029.50 1206.05 1151.48 1396.56 1638.27 1776.99 1769.54 1623.53 1488.12 1152.68 1107.53 1013.08 913.23 877.29 872.60 777.98 777.80 826.88 769.02 961.70 1108.07 1073.95 952.73 735.38 553.00 678.97 713.49 604.26 416.26 288.41 258.02 255.24 248.60 247.85 247.54 246.00 245.43 244.89 244.63 244.43 243.89 243.34 242.27 241.10 240.19 239.82 240.31 240.50 242.01 245.68 250.47 254.91 272.03 301.36 329.08 355.50 387.62 419.34 453.90 481.80 503.62 513.40 513.26 529.23 584.37 659.59 2037.10 3755.08 5882.53 6823.88 5269.81 3304.46 1359.51 352.03 -161.37 -1502.61 -4432.52 -6775.96 -6406.36 -5033.13 -3823.15 -3245.79 -3084.81 -2780.73 -2633.73 -2668.91 -3093.82 -3566.08 -3923.96 -4494.49 -4813.41 -5130.63 -4881.93 -4077.17 -3554.37 -2690.34 -2111.25 -1654.53 -1557.15 -1544.09 -1654.16 -1654.17
-15081.98 -15081.89 -15279.66 -15451.16 -15554.94 -15568.20 -15552.49 -15433.90 -15373.22 -15331.35 -15358.77 -15372.09 -15403.36 -15263.49 -14856.49 -14312.59 -13886.80 -13583.38 -13098.24 -12251.97 -11065.31 -9675.56 -7096.28 -5309.91 -4899.95 -3118.71 -1148.18 125.69 239.47 264.79 342.96 491.24 628.70 755.92 1101.54 1261.66 1221.40 1397.55 1306.31 1468.88 1610.46 1506.59 1427.94 1638.69 1750.65 1719.39 1688.92 1471.57 1295.16 1211.18 1155.33 1017.72 941.56 957.94 868.88 983.36 938.46 854.72 1045.31 1132.25 966.04 759.06 683.06 672.45 727.66 663.33 520.44 383.73 402.76 277.51 256.46 252.87 249.46 249.20 247.74 246.50 245.91 245.30 244.57 243.75 243.23 242.60 241.43 240.42 240.45 240.72 240.65 242.97 247.15 251.64 254.31 307.17 321.72 340.46 359.67 376.10 403.63 412.10 458.30 478.21 494.42 508.94 529.78 560.19 649.71 1265.42 2378.83 5226.39 7122.24 6643.18 4275.26 2962.51 232.94 -223.61 -1771.13 -4188.42 -6115.51 -6021.21 -4684.72 -3735.68 -3136.59 -2946.30 -2704.26 -2570.29 -2658.45 -3044.35 -3592.78 -3912.52 -4419.25 -4816.89 -5127.27 -4932.86 -4162.43 -3417.99 -2796.19 -2166.97 -1710.28 -1429.25 -1421.50 -1546.22 -1546.22
-15127.51 -15148.54 -15290.89 -15483.16 -15555.34 -15547.52 -15513.66 -15461.64 -15405.74 -15360.46 -15364.83 -15329.20 -15196.47 -15046.18 -14656.26 -13880.73 -13061.51 -12088.50 -11407.80 -10947.75 -10669.94 -8049.57 -5365.12 -4503.67 -3426.86 -1725.22 -110.47 204.42 256.02 283.99 335.76 455.46 453.74 454.50 694.64 867.24 896.19 1121.13 1351.34 1576.72 1724.35 1632.93 1580.97 1610.19 1672.52 1610.20 1667.29 1512.30 1362.50 1270.90 1112.20 1041.37 1072.05 1063.87 961.19 1038.99 972.08 976.01 1215.42 1124.97 810.15 860.08 979.47 823.51 680.41 558.18 479.20 477.47 441.04 314.86 256.01 252.49 252.06 252.07 250.62 248.89 247.27 246.17 244.54 243.48 242.96 242.09 241.26 240.99 241.34 242.02 243.46 246.16 249.94 252.95 285.30 314.15 323.71 328.49 336.22 349.36 370.52 384.93 401.82 410.68 470.23 477.81 499.05 531.45 574.75 2478.41 4255.45 6415.80 7779.39 6352.11 3757.07 1075.03 229.08 -181.19 -1419.96 -3609.44 -5057.74 -5346.38 -4779.97 -3548.72 -3086.26 -2864.85 -2734.93 -2596.51 -2716.85 -3076.98 -3463.88 -3981.35 -4403.39 -4810.81 -5092.59 -4879.32 -4128.99 -3476.18 -2929.68 -2447.32 -1655.17 -1388.89 -1339.41 -1480.58 -1480.62
-15142.71 -15142.63 -15308.41 -15461.47 -15515.99 -15473.46 -15421.86 -15387.38 -15314.03 -15290.46 -15253.74 -15177.45 -14997.43 -14417.89 -13462.22 -12428.82 -11402.49 -10914.08 -10335.54 -9851.77 -8724.02 -7263.92 -5095.97 -4018.74 -3088.45 -2059.18 -373.67 225.97 260.07 286.24 395.21 633.07 610.59 743.38 867.46 992.17 1273.64 1388.12 1516.35 1639.29 1724.71 1578.38 1539.60 1473.93 1410.50 1421.01 1489.81 1446.32 1399.82 1281.45 1127.83 1135.64 1167.45 1083.03 924.66 1015.15 1011.71 1096.25 1223.28 1135.23 871.02 1119.94 1056.30 705.64 597.49 625.24 625.43 680.53 491.21 313.81 267.34 260.87 265.74 254.31 252.87 251.67 250.35 249.21 244.44 244.14 243.40 242.50 241.66 241.56 242.05 242.56 244.13 246.23 249.37 265.78 299.67 319.98 324.62 327.37 329.11 332.72 332.34 342.81 393.89 406.08 445.34 453.07 475.02 513.04 552.78 2350.10 3963.28 6020.40 8089.02 5773.64 3772.42 2381.82 506.50 56.85 -1490.83 -2930.11 -4699.90 -5038.26 -4658.89 -3489.08 -3133.11 -2851.27 -2760.46 -2704.92 -2780.12 -3089.13 -3534.02 -4064.00 -4424.15 -4844.76 -5097.27 -4962.99 -4104.05 -3492.21 -3019.63 -2511.72 -1815.00 -1288.35 -1234.48 -1355.61 -1364.76
-15097.19 -15097.15 -15244.02 -15396.04 -15422.09 -15351.19 -15224.71 -15167.89 -15194.10 -15228.55 -15145.78 -14817.72 -13990.99 -13596.79 -12591.53 -11288.54 -10559.07 -10096.39 -9926.67 -9614.80 -8661.94 -7004.68 -4879.02 -3794.37 -3155.06 -2377.17 -816.53 103.88 273.67 283.37 414.00 624.91 858.98 773.35 1226.23 1230.92 1461.56 1727.59 1720.90 1723.11 1738.29 1565.50 1347.72 1205.58 1220.34 1205.66 1237.98 1338.94 1361.86 1277.36 1210.49 1209.47 1188.91 1010.61 1036.72 1070.29 1112.29 1210.06 1224.50 1048.31 1023.35 1284.87 1088.25 769.32 787.26 846.35 683.87 693.80 515.30 317.40 289.96 285.55 286.96 271.76 266.21 255.83 253.79 249.94 244.80 244.64 244.51 243.49 242.80 243.37 242.92 242.40 242.90 247.64 250.19 282.94 306.58 318.16 325.61 331.21 343.71 342.42 342.25 337.49 347.42 357.20 406.53 429.43 454.79 490.06 952.25 2550.64 3794.34 6035.29 7756.14 6458.71 5762.60 4434.45 178.77 -10.16 -1324.02 -3173.72 -4843.27 -4776.41 -4271.24 -3479.02 -2929.69 -2911.32 -2903.65 -2845.56 -2917.90 -3190.17 -3589.22 -3994.45 -4548.87 -4832.15 -5007.17 -4726.54 -4140.13 -3481.52 -3046.60 -2568.62 -1640.90 -1322.27 -1034.75 -1112.39 -1112.30
-15041.44 -15041.39 -15216.10 -15348.63 -15296.19 -15137.15 -14965.78 -14902.95 -15037.20 -15077.24 -14986.98 -14368.83 -13032.33 -11657.28 -10212.24 -9936.27 -9516.16 -9752.78 -10003.19 -9829.86 -8759.11 -6904.76 -5120.42 -3462.95 -2986.28 -2127.25 -898.43 122.74 269.08 323.54 513.66 704.60 1028.60 1100.32 894.47 1224.85 1519.56 1800.59 1893.18 1870.47 1751.15 1556.50 1479.45 1309.42 1079.21 1133.19 1090.07 1200.29 1250.80 1244.09 1274.27 1270.07 1205.56 1136.78 1168.07 1172.72 1189.15 1274.55 1255.27 1103.52 1227.57 1289.49 1125.99 876.15 958.86 1076.95 947.53 822.62 656.31 439.08 313.43 359.29 329.15 290.74 280.29 258.41 257.78 253.04 246.57 245.78 245.92 245.97 244.78 245.48 245.22 244.86 246.64 256.16 273.87 293.76 308.41 323.86 338.76 347.93 351.65 353.50 363.85 375.21 355.57 335.28 387.80 409.96 398.72 407.97 1604.70 2612.84 4912.57 6764.97 6594.62 4948.36 4535.62 1514.61 205.06 16.32 -664.60 -2583.53 -3500.56 -4510.82 -4238.34 -3576.49 -3062.27 -3032.05 -3026.83 -2944.38 -2957.33 -3195.71 -3598.32 -3979.87 -4519.30 -4818.03 -4897.30 -4657.56 -3931.89 -3388.97 -2941.12 -2248.97 -1459.53 -1075.29 -844.57 -924.52 -924.48
-14900.69 -14923.95 -15107.79 -15264.28 -15109.30 -14909.78 -14477.99 -14531.35 -14635.35 -14819.96 -14516.44 -13697.73 -11615.71 -10416.94 -9437.59 -8861.17 -8973.82 -9589.06 -10057.85 -9968.89 -8880.19 -6776.19 -5406.18 -3563.86 -2897.15 -1710.90 -426.73 259.29 266.29 345.31 511.29 750.32 898.44 1209.43 1221.06 1214.41 1456.84 1622.07 1947.42 1947.14 1807.78 1719.33 1492.18 1263.51 1100.12 913.46 959.31 1095.46 1118.08 1127.87 1188.74 1282.68 1231.67 1236.48 1290.15 1314.87 1336.63 1368.06 1364.62 1241.57 1394.82 1469.38 1136.42 1160.53 1213.35 1303.19 1137.85 1156.40 890.82 562.89 417.74 369.83 356.26 327.72 287.84 273.51 262.18 255.13 250.01 246.84 247.91 247.11 247.90 247.76 249.60 252.89 252.49 266.98 271.66 286.10 305.84 333.71 352.59 367.75 375.81 373.41 383.91 385.45 371.52 342.44 349.40 348.14 348.70 690.09 1503.15 3245.35 5890.75 7914.48 6341.53 3673.53 1202.17 616.94 270.92 -106.62 -585.43 -2039.22 -3630.42 -4489.02 -4023.21 -3512.94 -3299.05 -3215.73 -3172.75 -3027.99 -3049.00 -3283.59 -3801.41 -4157.85 -4499.73 -4710.11 -4791.84 -4594.13 -4050.01 -3430.39 -2780.89 -2014.91 -1403.07 -726.07 -777.97 -996.79 -996.95
-14702.94 -14703.02 -14826.98 -14850.10 -14638.97 -14239.94 -13834.10 -13837.14 -14082.41 -13615.41 -13030.48 -12109.33 -10810.60 -9120.63 -8585.37 -8278.38 -8614.24 -9280.94 -10045.26 -9966.80 -9176.53 -6858.10 -5114.63 -3569.36 -3022.03 -2204.18 -871.88 102.60 265.33 326.91 415.04 586.19 829.30 991.62 1324.50 1381.26 1641.43 1738.12 1898.05 1920.46 1789.50 1460.05 1315.91 1188.93 1217.93 967.69 906.67 917.41 905.53 1014.58 1150.99 1275.77 1271.89 1282.68 1296.52 1320.34 1374.39 1431.60 1460.60 1441.67 1494.48 1475.57 1357.74 1417.30 1404.21 1381.39 1176.23 911.26 844.71 718.43 575.29 376.91 390.95 374.22 321.18 288.03 273.56 257.39 254.64 250.87 250.32 249.79 250.08 249.53 249.16 250.17 261.40 284.37 299.09 299.07 316.67 341.86 369.25 391.54 398.01 398.31 402.63 403.06 394.01 359.31 357.30 348.15 504.67 911.90 2208.42 2910.36 4943.08 7353.08 5407.93 4006.67 2791.96 629.78 -97.45 -571.57 -1560.65 -2304.56 -3789.30 -4484.16 -4130.77 -3588.33 -3422.84 -3372.64 -3242.26 -3134.22 -3077.61 -3442.02 -3740.52 -4221.53 -4508.75 -4670.88 -4752.31 -4519.32 -3979.26 -3337.28 -2584.36 -2006.39 -788.10 -531.38 -877.82 -1232.69 -1232.97
-14597.04 -14589.35 -14331.62 -13776.56 -13249.38 -12959.90 -12494.62 -12072.75 -12149.06 -12112.68 -11203.57 -9924.63 -9607.94 -8858.80 -8423.09 -8252.26 -8496.44 -9199.14 -9880.36 -9899.57 -9089.71 -7119.40 -5256.92 -3510.35 -3129.02 -2478.96 -765.43 141.55 267.34 335.91 538.09 771.96 1047.33 1344.65 1422.88 1444.81 1545.68 1698.13 1801.08 1787.63 1725.94 1572.40 1424.99 1195.68 984.01 977.17 835.91 852.02 984.98 1153.19 1169.58 1179.82 1160.01 1224.93 1182.71 1176.12 1271.80 1353.99 1494.46 1524.73 1506.61 1520.39 1495.76 1428.25 1360.04 1242.82 1047.57 721.54 584.49 581.00 513.89 475.89 455.16 426.77 379.00 286.21 285.24 266.99 256.97 256.26 254.44 251.93 250.91 250.36 251.00 251.93 273.46 296.82 313.09 316.33 325.21 355.85 387.09 410.37 412.47 423.05 431.99 427.85 433.64 384.73 372.08 450.33 658.15 2358.92 3586.28 4323.86 6158.27 7194.35 7494.87 4680.70 2665.99 478.33 -131.44 -878.42 -2041.00 -2925.36 -3844.80 -4404.65 -4092.72 -3737.99 -3507.89 -3449.45 -3393.25 -3240.54 -3279.54 -3533.09 -3917.62 -4200.78 -4446.78 -4651.49 -4825.15 -4622.29 -4086.08 -3367.71 -2337.28 -1492.66 -745.69 -522.75 -919.56 -1428.51 -1428.77
-14071.58 -14072.10 -13250.00 -12521.49 -11804.46 -11078.74 -10725.48 -10388.88 -10188.37 -10164.75 -10005.31 -9414.95 -9006.23 -8832.72 -8677.30 -8528.93 -8716.98 -9131.78 -9613.81 -9651.23 -8867.52 -7889.34 -5274.31 -3689.68 -2854.99 -2200.46 -1051.24 -40.72 278.55 344.23 428.54 710.13 1025.04 1221.72 1258.21 1179.95 1351.11 1471.22 1563.99 1518.17 1427.87 1378.51 1364.57 1210.72 1030.62 840.70 805.36 881.12 1055.05 1119.74 1136.24 1098.99 1047.09 1150.97 1081.95 1077.94 1124.32 1233.93 1408.44 1475.70 1383.44 1400.68 1475.94 1431.54 1263.33 1022.07 988.67 871.75 786.77 738.15 645.18 527.75 445.27 525.27 403.67 319.91 286.82 264.65 257.95 257.74 256.45 254.20 252.63 252.06 253.12 252.91 278.53 311.10 322.54 324.51 328.73 362.77 398.17 422.55 427.61 434.12 462.22 464.78 461.81 446.00 467.77 593.82 1370.21 2134.62 3275.79 5336.10 6438.05 7348.51 6646.79 5533.60 1582.65 479.73 152.88 -597.15 -2096.45 -3755.27 -4307.01 -4411.59 -4191.09 -3863.47 -3558.13 -3521.33 -3496.65 -3326.95 -3354.60 -3504.84 -3892.15 -4032.51 -4337.84 -4650.78 -4847.60 -4671.12 -3952.47 -2793.34 -1891.86 -1142.02 -554.45 -685.73 -1178.35 -1331.07 -1331.02
-12657.54 -12659.47 -12085.88 -11026.54 -10550.61 -9667.27 -9537.16 -9598.43 -9690.56 -9801.51 -9634.57 -9235.44 -9195.42 -9136.91 -8937.70 -8825.55 -8709.90 -8896.03 -9186.95 -9157.91 -8699.91 -7457.02 -5718.25 -3725.28 -2747.43 -1870.15 -1108.18 220.14 297.29 298.53 320.39 670.37 803.04 1069.41 875.92 959.77 1270.70 1245.78 1323.54 1298.38 1169.64 1101.65 1069.22 1025.42 910.36 782.48 761.63 839.60 892.34 995.18 1036.21 972.51 952.32 1044.70 1009.58 1005.54 1070.03 1270.06 1271.67 1325.17 1246.24 1368.97 1465.73 1441.82 1314.99 1208.22 1269.19 1090.61 1022.93 882.85 754.87 608.53 520.14 649.59 551.73 438.00 332.29 273.12 260.89 258.16 258.13 256.60 255.80 256.18 254.33 263.49 293.27 313.42 317.76 349.30 347.59 377.87 427.43 446.55 456.44 466.58 487.70 493.64 492.91 475.01 529.86 1155.31 2172.73 2094.68 3425.96 5834.21 6513.10 4823.05 4265.95 3143.06 848.96 333.31 165.24 -283.87 -1917.10 -4313.75 -4452.17 -4478.06 -4294.87 -3885.43 -3677.77 -3642.12 -3658.06 -3513.99 -3443.27 -3566.71 -3822.96 -3920.28 -4241.76 -4640.89 -4896.75 -4633.98 -3636.74 -2344.65 -1243.11 -771.92 -675.18 -1022.94 -1173.37 -1059.54 -1059.24
-11522.12 -11524.09 -11068.97 -10481.94 -10008.75 -9497.37 -9562.47 -9822.89 -10047.62 -10166.50 -9911.84 -9769.38 -9499.43 -9548.31 -9329.55 -9012.44 -8783.26 -8750.25 -8781.43 -8859.11 -8351.13 -7336.76 -5599.14 -4092.07 -2884.86 -2073.36 -805.76 198.50 297.70 309.15 325.72 583.56 656.81 597.59 718.95 1153.98 1351.45 1110.55 1007.09 1187.06 1006.23 949.46 899.74 840.32 809.22 743.93 723.50 776.82 833.46 864.29 835.36 837.24 896.38 959.97 973.34 996.13 1133.18 1184.64 1205.25 1161.52 1253.28 1325.96 1403.27 1544.71 1541.80 1544.14 1487.59 1336.63 1198.67 994.67 925.78 749.30 638.49 753.16 639.50 442.54 306.90 284.95 268.46 258.16 258.82 258.74 258.78 257.70 256.83 267.50 292.72 311.42 326.74 363.68 384.97 408.12 447.24 466.76 478.87 481.03 501.93 508.63 527.06 536.57 562.94 2488.01 3679.49 3642.90 5055.05 6244.59 5177.80 3254.71 3951.87 2064.20 609.42 259.64 142.05 -559.70 -2037.20 -3793.81 -4488.72 -4479.66 -4223.23 -3963.45 -3684.74 -3692.17 -3710.83 -3555.93 -3470.02 -3522.09 -3632.07 -3721.50 -4110.59 -4621.84 -4978.00 -4220.99 -2950.24 -1645.69 -863.61 -827.66 -1017.76 -1135.82 -1304.70 -1285.30 -1285.87
-11354.62 -11354.87 -11042.42 -10716.66 -10396.72 -10221.93 -10250.97 -10417.52 -10530.79 -10523.45 -10384.53 -10265.83 -10180.26 -10004.86 -9651.85 -9044.40 -8782.20 -8718.77 -8726.76 -8676.72 -8540.93 -7465.41 -5798.11 -4556.32 -3357.04 -1614.07 -346.17 294.01 312.58 330.29 382.33 395.53 507.83 730.25 902.66 1125.36 1213.41 1148.40 821.94 857.55 960.56 977.00 843.20 708.60 703.14 671.94 694.55 737.16 747.78 788.75 822.13 871.92 904.31 919.16 917.48 992.46 1023.16 1046.84 1107.61 1154.92 1327.43 1408.25 1511.00 1613.24 1711.30 1726.35 1666.89 1572.61 1337.81 1111.20 1001.79 904.77 853.40 802.85 622.72 387.97 350.73 291.75 260.00 258.28 259.24 260.01 261.24 259.64 262.79 272.07 298.98 317.14 345.32 402.81 408.68 439.07 452.11 477.13 489.92 501.01 501.68 513.28 547.47 591.11 970.80 3289.28 4599.81 5554.35 7414.08 6474.50 4604.39 2698.46 3298.30 2780.10 319.31 203.28 95.28 -975.62 -2103.61 -4168.56 -4474.75 -4299.30 -3900.82 -3713.63 -3541.04 -3590.11 -3657.75 -3531.71 -3386.43 -3370.05 -3427.66 -3608.65 -4408.26 -4813.37 -4929.81 -4050.42 -2644.67 -1260.46 -998.84 -1062.64 -1264.27 -1435.25 -1650.91 -2162.06 -2164.69
-11446.95 -11446.35 -11243.66 -10984.87 -10893.07 -10832.48 -10840.92 -10881.46 -10981.96 -10923.83 -10741.09 -10578.35 -10478.79 -10204.88 -9782.82 -9147.05 -8806.59 -8691.56 -8703.22 -8614.07 -8093.68 -7185.74 -6011.69 -4079.60 -3228.74 -1822.95 24.57 298.06 328.65 338.44 342.94 428.54 599.27 813.67 873.43 740.90 901.44 1009.78 794.52 577.52 728.13 866.76 770.61 733.59 636.97 645.87 696.23 731.49 748.08 792.38 844.37 876.82 939.53 935.23 959.92 988.29 1056.47 1151.86 1234.45 1290.64 1302.57 1429.23 1560.75 1621.06 1617.05 1656.77 1698.08 1683.07 1500.31 1365.64 1252.69 1034.48 942.43 830.12 619.65 489.07 456.08 295.40 266.66 258.53 259.54 260.66 262.22 271.08 284.89 294.37 318.78 334.79 364.66 397.35 423.94 445.04 463.81 489.21 501.52 510.54 521.80 543.10 566.56 1050.08 2186.15 2603.60 3228.17 5475.88 8270.69 6995.69 4927.05 2068.35 1891.46 866.47 285.65 184.41 -361.92 -1438.02 -2909.98 -3618.04 -4453.47 -4016.72 -3748.72 -3374.02 -3234.59 -3371.53 -3585.64 -3376.83 -3162.34 -3183.69 -3504.52 -3678.29 -4491.96 -5147.03 -4911.14 -3610.00 -2117.17 -1222.72 -1221.15 -1497.93 -1647.64 -1955.29 -2435.99 -3092.92 -3097.84
-11509.77 -11510.53 -11382.17 -11228.62 -11107.14 -11070.27 -11102.34 -11231.47 -11167.62 -11096.46 -11008.66 -10818.84 -10683.00 -10483.67 -9832.75 -9379.95 -9029.23 -8782.79 -8703.87 -8496.49 -7858.35 -6602.79 -5461.30 -3696.06 -3304.85 -2142.03 -791.80 161.73 319.00 331.07 351.80 448.83 518.85 610.07 700.63 619.68 501.17 578.61 605.08 532.13 694.15 719.54 680.10 617.63 598.31 623.47 676.58 724.19 743.60 820.04 861.58 878.93 949.40 975.38 1025.44 1005.94 1015.78 1107.09 1124.83 1287.88 1326.00 1377.61 1528.69 1367.71 1303.04 1400.28 1446.05 1484.03 1490.48 1263.40 1187.98 895.86 910.44 769.19 721.83 609.22 401.44 294.18 289.78 272.32 261.23 262.34 263.85 273.08 293.83 306.66 324.40 343.99 372.56 407.55 433.50 460.05 480.31 494.15 511.50 514.50 572.22 595.76 623.03 1559.98 3226.58 3651.45 4742.24 6917.04 7750.39 5734.92 2969.12 2332.11 745.89 331.23 241.62 53.09 -271.92 -1203.69 -2301.23 -3931.16 -4326.54 -3738.86 -3380.95 -3134.45 -3074.41 -3283.33 -3523.60 -3484.01 -3212.62 -3353.98 -3557.45 -4387.92 -5218.99 -5248.60 -4950.58 -3265.60 -2051.91 -1803.93 -1967.18 -2007.00 -2172.87 -2551.05 -3018.20 -3700.58 -3704.05
-11635.70 -11636.99 -11569.57 -11440.43 -11433.80 -11360.21 -11313.66 -11319.03 -11232.61 -11148.18 -11098.65 -11028.09 -10850.74 -10602.94 -10038.83 -9489.38 -9133.82 -8985.13 -8851.63 -8434.53 -6998.75 -5716.59 -4540.22 -3336.57 -3141.73 -2949.55 -1826.66 -147.05 57.29 229.00 347.61 333.76 368.72 412.54 490.43 489.89 389.13 434.51 395.95 445.71 606.97 526.88 529.38 562.42 661.80 673.51 705.61 768.45 792.85 865.36 966.46 942.16 934.20 1009.76 1061.96 1098.10 1105.06 1111.61 1227.14 1245.66 1351.08 1435.42 1516.01 1306.02 998.26 1144.29 1157.94 1175.03 1261.19 993.19 893.51 745.33 783.96 643.23 591.63 605.82 390.75 334.02 302.38 289.38 279.63 272.12 266.35 270.32 280.83 310.45 335.45 358.21 382.71 409.44 439.09 467.04 485.89 503.37 511.19 527.94 568.16 690.84 1019.15 1772.58 2237.36 5004.16 6539.39 8197.19 7301.31 4619.22 3127.77 1391.21 477.78 272.37 226.20 66.88 -251.07 -1216.91 -2565.91 -4079.00 -4324.57 -4206.33 -3627.07 -3341.45 -3322.51 -3654.20 -3990.55 -3972.46 -3927.37 -4228.21 -5111.07 -5737.09 -5997.77 -5870.52 -5089.13 -3469.11 -2504.47 -2144.19 -2238.55 -2345.01 -2624.20 -3294.06 -3582.48 -4057.04 -4056.25
-11804.09 -11804.34 -11756.69 -11668.92 -11676.59 -11687.57 -11618.48 -11506.05 -11375.97 -11242.92 -11135.91 -11044.64 -10870.26 -10736.22 -10417.31 -9826.80 -9629.02 -9297.40 -8824.46 -8069.65 -7150.23 -5554.14 -4350.55 -3535.08 -3290.25 -3278.89 -2496.34 -1569.83 -1299.65 -278.56 111.90 218.09 277.54 291.81 338.12 357.51 372.63 377.27 372.24 426.33 454.18 465.60 476.24 565.88 740.60 842.39 817.85 890.21 938.43 1019.49 1116.59 1114.76 1100.52 1198.45 1196.37 1232.04 1235.43 1234.80 1303.63 1445.26 1473.79 1403.11 1299.18 1179.20 884.88 858.32 972.09 987.71 1000.06 906.36 644.75 545.47 583.72 570.92 527.06 481.92 391.82 365.39 330.17 291.83 329.48 284.15 270.56 275.43 288.43 308.58 334.71 362.69 383.90 418.73 439.24 461.75 488.28 501.64 528.81 581.50 607.87 641.81 2459.28 2842.32 3354.70 5290.43 7528.77 7306.52 4818.22 3381.43 2308.41 1002.16 419.23 255.20 193.66 -61.66 -266.29 -1710.19 -3040.59 -4380.11 -4941.17 -4619.83 -4355.49 -4041.77 -4018.93 -4245.70 -4556.40 -4763.46 -4776.98 -5435.72 -6142.53 -6620.48 -6867.47 -6325.83 -5056.15 -3996.98 -3141.76 -2613.39 -2571.10 -2658.99 -3110.25 -3581.54 -3885.25 -4225.46 -4225.33
-11924.49 -11924.51 -11871.87 -11850.24 -11840.29 -11841.39 -11679.28 -11528.11 -11392.55 -11285.86 -11216.63 -11127.90 -11055.10 -10873.21 -10473.82 -10070.80 -9863.82 -9486.00 -8729.46 -8194.47 -7212.04 -6090.33 -4231.59 -3746.74 -3470.13 -3473.37 -3316.13 -3003.68 -2151.51 -487.16 -171.74 80.80 263.58 289.32 313.18 335.08 336.97 363.21 368.33 368.04 383.75 397.85 443.03 589.43 896.53 985.65 991.63 1018.71 1065.32 1201.03 1291.32 1188.38 1148.18 1370.23 1374.54 1345.29 1358.75 1419.83 1439.30 1501.65 1507.84 1321.46 1151.81 969.22 792.04 642.59 858.24 961.58 734.15 701.64 650.96 535.62 436.67 421.98 455.49 452.59 439.71 452.00 421.74 471.94 422.60 388.89 351.89 346.67 348.09 323.81 337.89 365.62 388.44 409.98 422.44 456.29 475.60 495.27 533.35 586.71 624.97 1762.36 3182.82 4397.41 5576.90 7448.16 7771.19 5514.92 4352.24 3327.72 1287.89 528.99 313.82 157.76 51.30 -136.28 -1291.61 -2300.33 -3785.49 -4942.74 -5195.60 -5099.98 -4959.50 -4178.94 -4360.82 -4674.33 -5176.24 -5406.68 -5531.28 -6284.11 -7023.76 -7268.33 -7216.52 -6654.63 -5403.44 -4560.82 -3734.95 -2989.06 -2946.81 -3178.03 -3554.92 -3894.51 -4115.35 -4303.49 -4303.51
-11980.48 -11980.42 -11943.09 -11934.50 -11916.46 -11887.16 -11757.23 -11639.14 -11510.62 -11353.17 -11268.01 -11234.90 -11136.58 -10943.99 -10786.16 -10343.53 -9934.38 -9691.15 -8955.72 -8364.33 -7581.61 -6147.19 -4569.18 -3858.55 -3658.73 -3566.92 -3550.46 -2807.69 -2099.25 -858.26 -468.11 -222.49 170.47 264.79 279.14 296.09 318.46 351.86 362.20 363.48 372.55 378.29 384.37 449.41 874.43 910.29 941.03 789.66 873.14 1192.64 1288.31 1407.69 1401.37 1479.81 1506.83 1445.38 1428.76 1462.96 1374.08 1477.16 1356.35 1183.57 1198.28 1109.32 944.23 745.69 696.94 667.48 687.51 500.73 552.93 544.77 395.49 378.93 439.25 342.41 405.94 485.39 540.82 501.02 463.50 429.97 394.00 392.70 400.76 354.30 378.90 391.42 369.76 376.64 389.22 428.69 461.56 485.04 533.72 576.98 931.16 2341.41 3038.22 4789.89 7097.34 7840.96 6474.36 4593.31 4476.71 3406.88 976.25 288.25 232.72 -27.86 -178.88 -277.48 -1701.96 -2846.73 -3923.67 -4965.46 -5368.07 -5231.96 -5056.19 -4683.85 -4531.04 -4985.64 -5334.23 -5792.01 -6217.68 -6875.19 -7286.99 -7323.11 -7008.96 -6539.29 -5562.25 -5004.47 -4120.47 -3391.89 -3309.72 -3514.35 -3762.76 -4007.33 -4222.35 -4343.05 -4343.15
-11999.60 -11999.49 -11981.23 -11964.49 -11949.69 -11914.80 -11850.71 -11708.18 -11547.85 -11394.94 -11326.05 -11274.42 -11220.91 -11125.24 -10880.75 -10567.79 -10206.34 -9909.14 -9426.16 -9022.25 -7936.87 -6360.19 -5121.48 -4181.70 -3855.77 -3720.11 -3653.50 -3122.02 -2268.19 -1171.96 -680.64 -416.88 -68.66 244.23 261.16 270.76 290.78 311.51 342.30 316.56 332.06 357.59 349.78 402.97 606.08 680.53 746.39 577.97 897.06 971.77 1120.07 1338.44 1316.50 1384.99 1421.07 1314.86 1227.34 1058.86 981.20 1129.52 1123.60 1022.73 815.78 813.10 745.89 712.03 458.04 577.92 654.74 460.48 438.53 447.74 375.86 359.15 344.69 267.47 330.93 410.27 452.28 489.39 400.18 338.85 305.01 350.41 370.73 403.38 411.46 373.54 325.88 348.21 369.72 411.84 439.65 463.83 520.07 1147.50 1893.16 2313.30 3716.47 6238.53 6562.48 6402.79 5085.61 3455.90 2625.06 1748.34 311.32 221.31 196.01 -50.31 -627.22 -1572.75 -2308.57 -4281.06 -5023.93 -5443.59 -5420.56 -5382.09 -5308.11 -5085.00 -5020.62 -5574.45 -5875.13 -5953.92 -6516.10 -6982.25 -7237.67 -7270.47 -7032.99 -6513.26 -6182.99 -5256.37 -4317.75 -3874.62 -3625.72 -3767.24 -4001.52 -4179.24 -4298.09 -4340.06 -4340.11
-11975.13 -11972.81 -11967.04 -11946.59 -11936.91 -11914.22 -11880.01 -11746.85 -11553.52 -11416.45 -11280.66 -11257.40 -11192.77 -11120.47 -10913.38 -10742.60 -10336.40 -10003.57 -9657.90 -9366.87 -8926.15 -7316.21 -5975.90 -4616.95 -4063.66 -4179.99 -4079.14 -3796.10 -3142.19 -1781.37 -1158.99 -1360.97 -492.85 100.46 224.48 246.44 263.30 253.73 252.00 271.38 295.71 314.84 315.42 343.65 367.61 467.32 470.92 463.86 730.00 770.58 1053.82 1175.88 1164.35 1124.89 1273.69 1191.49 869.49 815.67 691.82 1052.54 788.56 785.98 575.99 574.90 593.04 557.98 416.96 531.91 540.45 445.93 329.38 344.36 291.46 274.86 272.90 259.22 278.80 330.25 300.14 266.92 264.29 264.41 268.22 269.75 301.12 364.90 397.97 357.17 305.59 335.37 362.10 413.78 430.31 459.91 697.15 1552.32 3122.97 2637.28 3643.70 7328.44 6901.35 4620.98 3018.16 2988.20 1945.70 683.24 269.37 153.55 52.59 -224.58 -1085.76 -2065.38 -4630.37 -6333.81 -5618.87 -5375.88 -5428.46 -5607.29 -5572.81 -5730.61 -5687.27 -6165.25 -6399.38 -6586.44 -6644.30 -6998.01 -7222.35 -7363.48 -7304.69 -6870.58 -6443.52 -5804.51 -4540.52 -4084.94 -3901.80 -4124.46 -4284.22 -4321.21 -4366.27 -4376.68 -4376.70
-11883.49 -11883.30 -11870.21 -11872.80 -11851.31 -11848.39 -11790.00 -11686.12 -11522.87 -11263.11 -11115.26 -11076.62 -11092.60 -11060.74 -10952.49 -10869.12 -10625.79 -10375.54 -10130.80 -10042.53 -9494.51 -8054.50 -6970.21 -5955.59 -5148.51 -4894.55 -5139.47 -5025.40 -4059.05 -3354.30 -3050.64 -2451.12 -3221.91 -2560.37 -732.12 214.89 240.26 250.29 247.72 248.83 265.80 281.46 282.38 271.87 287.70 372.62 362.85 508.82 535.23 515.84 704.44 785.16 833.90 845.31 920.36 847.87 726.54 634.66 512.17 705.01 573.75 470.40 460.70 413.01 384.81 415.02 387.85 421.36 375.57 352.81 305.39 271.85 260.39 256.43 255.75 253.47 255.03 213.69 218.62 197.87 187.12 195.93 211.40 221.34 242.48 276.69 274.99 293.52 294.56 335.92 363.94 398.84 431.73 498.15 795.24 2750.70 4642.95 4048.50 5345.26 6883.97 6441.12 3681.00 2468.22 1656.64 909.90 362.98 209.59 82.53 -108.06 -314.88 -1934.66 -3611.63 -6595.99 -5629.33 -5207.91 -5294.65 -5515.58 -5774.17 -6052.89 -6157.64 -6171.60 -6537.43 -6838.90 -6919.19 -6958.40 -7118.73 -7503.27 -7566.07 -7562.95 -7305.59 -7015.33 -6498.83 -4755.52 -4386.88 -4242.75 -4287.29 -4332.88 -4394.71 -4421.70 -4435.51 -4435.69
-11756.79 -11750.95 -11749.97 -11759.18 -11769.28 -11762.42 -11696.09 -11593.38 -11382.27 -11100.71 -10944.44 -10896.47 -10840.94 -10827.20 -10856.64 -10887.34 -10760.86 -10641.38 -10446.86 -10236.70 -10096.50 -9235.38 -7402.75 -6824.64 -6533.17 -6449.66 -6057.89 -6200.56 -5974.89 -5263.66 -4468.61 -4760.26 -4565.73 -4340.85 -3051.91 141.22 217.12 227.03 220.36 225.03 227.29 239.52 253.39 256.73 259.62 284.52 320.03 315.18 338.39 432.10 460.04 642.65 640.23 736.82 786.70 585.16 496.60 589.75 474.41 363.78 381.46 355.37 339.21 344.82 340.83 324.46 323.72 326.06 340.11 319.27 301.83 258.62 254.72 251.27 243.69 234.13 213.64 153.72 156.33 156.22 159.02 174.39 183.76 204.63 222.20 247.55 261.63 265.89 265.08 319.92 354.04 378.65 445.39 549.86 1733.97 3070.96 5031.97 6332.71 7002.58 6580.76 5405.74 2533.14 1703.66 983.05 556.60 312.04 99.02 11.16 -145.41 -684.67 -3389.60 -5270.07 -6676.74 -5404.13 -5171.39 -5400.65 -5727.82 -5959.52 -6237.38 -6351.83 -6449.23 -6774.13 -6973.92 -7110.91 -7209.64 -7307.62 -7526.52 -7884.33 -7918.60 -7822.51 -7501.05 -6692.60 -5383.98 -4625.00 -4271.80 -4275.02 -4278.64 -4226.05 -4234.11 -4272.01 -4272.43
-11715.90 -11715.84 -11698.26 -11694.93 -11684.90 -11669.05 -11630.64 -11525.55 -11247.43 -11043.55 -10875.29 -10750.36 -10700.14 -10743.78 -10797.76 -10944.31 -10971.07 -10940.78 -10745.56 -10543.69 -10313.56 -9571.95 -8700.10 -7916.50 -7287.63 -7049.94 -7260.19 -7245.70 -6957.88 -7041.37 -6727.41 -6552.66 -6678.31 -6387.69 -5650.31 -1848.52 22.67 155.83 170.61 199.52 188.99 206.69 226.90 245.05 253.72 256.90 270.59 296.37 319.58 331.64 362.52 424.21 683.44 826.23 626.83 466.87 383.50 381.17 375.31 349.01 330.05 321.16 319.05 319.11 321.99 322.95 322.57 323.47 322.20 314.75 281.48 254.37 251.05 244.51 239.24 222.50 194.45 149.22 146.91 150.44 155.78 171.21 188.10 206.62 224.17 241.92 251.35 259.64 274.34 297.03 346.97 378.08 466.86 1227.65 1821.24 2799.76 5411.39 6990.98 7241.57 5302.83 3424.64 3152.53 819.18 560.91 279.30 231.26 64.55 22.57 -587.38 -1067.30 -2841.51 -6462.57 -6435.12 -5643.44 -5312.59 -5562.45 -5816.84 -6062.72 -6214.66 -6294.88 -6471.86 -6674.34 -6950.79 -7178.94 -7306.59 -7599.40 -7968.03 -8069.42 -8138.35 -8008.22 -7657.45 -6926.80 -5839.27 -4607.35 -4244.65 -4020.59 -3976.12 -3901.55 -3905.80 -3804.03 -3804.42
-11744.62 -11744.54 -11697.43 -11681.00 -11677.76 -11669.53 -11636.47 -11482.56 -11254.96 -10969.66 -10844.43 -10700.76 -10660.94 -10657.66 -10759.25 -10950.76 -11053.34 -11024.85 -10772.20 -10641.48 -10199.38 -9649.67 -8768.63 -8025.01 -7598.88 -7546.18 -7502.31 -7607.21 -7690.09 -7652.14 -7580.67 -7368.80 -7456.01 -7006.68 -5037.06 -1064.43 -265.24 -149.99 20.37 32.59 102.92 148.51 195.55 227.87 242.36 254.97 260.21 272.58 300.30 316.55 408.72 550.69 637.33 859.17 625.65 429.27 332.13 331.85 325.95 311.59 283.11 299.61 295.62 298.21 317.06 320.39 319.89 317.80 318.43 305.94 272.84 255.22 239.10 226.99 219.83 205.98 172.89 149.50 147.46 148.40 156.31 175.37 198.61 211.84 227.59 237.74 243.01 276.24 292.81 325.10 355.22 395.04 938.21 2688.03 3053.90 5458.72 7323.16 7690.96 6408.19 3800.00 2603.23 3672.75 658.60 333.40 242.52 161.86 51.78 -338.18 -892.74 -1575.26 -3260.07 -5833.16 -6352.61 -6053.06 -5541.95 -5706.03 -5947.59 -6057.88 -6112.43 -6132.62 -6348.34 -6506.51 -6720.81 -7137.67 -7368.45 -7766.45 -8077.22 -8291.20 -8254.29 -8117.32 -7937.90 -6630.87 -5483.28 -4782.18 -3890.80 -3696.72 -3518.85 -3439.47 -3399.47 -3397.99 -3409.40
-11735.69 -11735.57 -11669.92 -11623.10 -11617.26 -11638.57 -11614.03 -11472.96 -11243.83 -11015.44 -10854.63 -10747.01 -10675.03 -10648.98 -10808.52 -10974.60 -11122.56 -11049.68 -10795.71 -10509.86 -9959.09 -9606.02 -8753.11 -8098.35 -7868.93 -8056.72 -8351.50 -8048.69 -8100.31 -8228.97 -8006.09 -7885.95 -8125.17 -7388.04 -7128.95 -4204.74 -2131.19 -592.44 -301.91 -175.36 -26.53 48.56 94.66 164.31 222.09 230.52 247.03 262.57 274.36 296.50 402.90 676.18 780.37 827.64 618.02 400.06 331.26 326.88 315.51 284.32 264.57 279.62 283.73 268.36 292.22 303.30 309.69 302.38 301.11 273.96 252.56 235.46 227.73 202.36 187.94 183.90 156.76 148.16 147.60 154.31 165.56 185.02 203.16 210.51 224.61 230.05 240.32 247.77 302.90 323.30 367.37 404.19 1045.57 3004.95 4183.11 5659.79 8144.11 8079.69 7013.94 4261.95 4492.86 2087.25 943.80 264.69 224.96 40.73 -98.63 -625.88 -1663.58 -2896.46 -4197.35 -7033.61 -6730.71 -6236.79 -5905.10 -5895.68 -5951.73 -6004.77 -5993.48 -6079.03 -6243.43 -6361.85 -6555.03 -6794.08 -7265.21 -7661.12 -8077.39 -8309.97 -8348.63 -8243.63 -8031.46 -6985.55 -5161.35 -4487.66 -3759.47 -3455.93 -3318.79 -3376.89 -3393.68 -3515.29 -3515.19
-11639.35 -11623.92 -11556.63 -11532.67 -11525.82 -11554.41 -11484.91 -11433.23 -11218.39 -11032.20 -10912.92 -10791.34 -10674.74 -10686.45 -10800.74 -10926.20 -10989.87 -10920.95 -10596.10 -10369.36 -9827.08 -9318.68 -8799.85 -8536.03 -8722.95 -8872.41 -8898.70 -8941.02 -9202.73 -9038.24 -9071.76 -9123.61 -9167.71 -8621.07 -7761.30 -5593.39 -3041.97 -1556.65 -1055.07 -428.67 -219.28 -122.91 -81.26 -97.70 106.11 201.31 240.60 247.40 256.21 254.84 383.61 515.49 652.33 598.77 456.64 337.90 325.63 283.84 280.07 268.91 263.68 263.93 265.11 265.54 276.94 278.09 278.62 275.40 270.97 253.49 243.98 207.89 186.51 172.73 156.59 139.84 140.27 143.51 146.50 155.68 172.14 189.98 199.28 212.69 221.85 225.10 238.83 261.52 326.31 352.20 382.68 390.25 2140.37 3700.81 3983.78 5868.09 7379.37 7273.97 4861.34 4084.31 3130.08 633.73 316.45 256.55 193.35 -14.36 -152.40 -727.07 -1513.23 -3422.01 -5743.14 -7911.67 -6640.38 -6304.35 -6190.39 -6084.26 -5985.07 -5927.76 -5792.40 -5945.97 -6069.04 -6153.59 -6198.27 -6551.86 -6828.78 -7369.51 -7803.30 -8216.52 -8319.31 -8291.14 -7865.85 -7076.67 -5748.40 -4171.80 -3635.12 -3421.11 -3381.70 -3477.02 -3600.95 -3767.49 -3767.52
-11432.39 -11432.14 -11451.05 -11419.13 -11318.55 -11106.35 -11173.59 -11210.26 -11076.78 -10928.26 -10850.68 -10683.66 -10523.48 -10601.50 -10599.52 -10659.28 -10594.61 -10515.33 -10341.90 -9918.58 -9381.82 -9258.49 -9128.62 -9174.51 -9362.33 -9766.85 -9865.38 -10004.77 -9999.88 -10281.18 -10174.01 -9978.79 -10289.21 -9737.20 -8203.12 -6283.42 -4633.25 -3427.48 -2667.14 -1635.36 -1510.35 -650.10 -540.81 -265.74 -38.28 89.86 203.44 232.22 235.26 252.48 320.08 379.57 392.51 427.12 397.09 312.57 287.02 258.19 257.96 259.15 262.27 262.53 262.81 263.16 262.81 262.20 266.81 265.81 251.94 238.08 222.80 184.32 135.87 126.58 129.31 121.03 132.03 136.56 134.37 144.29 171.32 184.24 201.23 210.72 220.52 225.50 232.53 249.34 320.71 343.58 366.54 717.92 2057.97 4291.32 5385.44 7361.23 6853.92 5398.91 2598.76 3389.90 1551.88 525.08 286.04 229.71 120.73 -124.98 -583.47 -1196.02 -1941.56 -3754.15 -6888.19 -7883.44 -6696.26 -6383.69 -6181.43 -5983.21 -5778.43 -5694.72 -5625.78 -5808.60 -5907.08 -5887.97 -5951.21 -6097.82 -6387.46 -7114.41 -7455.70 -7877.87 -8041.94 -8078.43 -7829.74 -7071.45 -5075.25 -4254.72 -3684.49 -3549.69 -3434.53 -3349.79 -3585.34 -3807.60 -3807.75
-11160.08 -11159.89 -11211.79 -11139.53 -11000.22 -10904.56 -10757.19 -10826.10 -10870.95 -10743.20 -10679.66 -10468.99 -10247.07 -10308.78 -10279.20 -10318.96 -10275.20 -9957.59 -9838.94 -9343.14 -9123.78 -9257.86 -9431.08 -9783.30 -9901.24 -10400.21 -10637.11 -10742.90 -10961.29 -10882.48 -10873.79 -10918.93 -10959.19 -10194.94 -8859.91 -7181.04 -5269.47 -4686.11 -3732.65 -3357.36 -3003.31 -1948.76 -882.30 -251.89 -130.31 -54.25 59.60 142.94 120.62 220.09 196.15 266.34 310.04 276.30 275.72 246.49 255.30 255.44 255.09 255.76 254.93 253.52 258.36 261.51 260.90 261.72 278.28 261.43 227.29 204.13 158.42 139.35 102.35 109.88 108.89 116.14 125.53 128.64 132.94 144.81 167.96 185.33 203.69 210.60 221.91 223.97 229.57 232.90 290.60 318.73 347.25 774.39 2001.23 3221.05 5562.84 8824.96 7802.26 3989.35 2296.63 1278.65 774.73 374.11 207.07 135.54 -12.94 -342.38 -887.28 -1738.11 -3774.71 -5327.04 -7702.45 -7652.55 -6602.21 -6222.99 -5827.53 -5637.36 -5566.23 -5475.59 -5485.14 -5521.83 -5497.60 -5526.50 -5545.70 -5561.46 -6040.60 -6474.22 -6986.91 -7321.10 -7599.50 -7660.46 -7495.23 -6656.47 -5158.20 -4320.48 -3653.88 -3356.61 -3208.01 -2959.99 -3159.76 -3716.41 -3716.47
-10974.01 -10973.88 -11016.95 -10921.71 -10851.90 -10686.24 -10616.35 -10651.91 -10637.16 -10566.20 -10435.43 -10101.65 -9780.21 -9803.42 -10106.62 -10046.36 -9966.46 -9818.45 -9502.24 -9157.89 -9086.51 -9127.17 -9426.02 -9789.28 -10054.80 -10324.15 -10662.33 -10963.09 -11089.45 -11162.80 -11194.05 -11191.69 -11162.30 -10992.88 -9925.83 -8261.96 -5957.51 -4969.91 -4209.56 -3783.75 -3315.97 -2672.81 -910.32 -346.45 -182.75 -130.06 -53.93 -2.19 -120.83 15.72 92.21 193.11 279.81 243.21 210.60 160.63 247.69 243.46 248.28 246.58 244.65 245.64 250.17 255.05 259.16 311.13 329.53 279.26 196.52 139.21 114.12 109.53 100.34 104.38 106.00 113.86 117.54 122.12 128.95 141.97 157.71 183.22 202.13 211.02 224.07 226.91 227.83 234.37 239.46 266.61 327.45 2658.19 3330.46 4230.56 7048.72 8515.07 6584.30 4695.01 3313.26 1686.85 458.41 116.58 64.15 -120.30 -280.40 -552.54 -1715.56 -2217.58 -4319.58 -7752.64 -8430.03 -7380.53 -6541.69 -6107.96 -5716.15 -5342.77 -5348.64 -5425.87 -5468.87 -5505.43 -5373.79 -5274.71 -5299.24 -5378.58 -5625.81 -6210.51 -6722.04 -6832.58 -7169.42 -7296.35 -7249.86 -6184.50 -4948.05 -4108.45 -3141.92 -2910.38 -2552.42 -2408.41 -2873.43 -3816.84 -3816.68
-10880.07 -10879.97 -10858.90 -10778.03 -10689.68 -10565.08 -10469.60 -10372.08 -10433.06 -10448.19 -10152.09 -9579.32 -9456.12 -9619.45 -9931.81 -9880.77 -9787.82 -9673.52 -9515.15 -9185.86 -9029.20 -9102.61 -9400.87 -9698.17 -10012.83 -10437.08 -10737.11 -11047.50 -11149.85 -11225.24 -11234.45 -11241.30 -11241.40 -11055.55 -10043.75 -8582.16 -6428.62 -5392.60 -4542.56 -4105.41 -3436.24 -2714.38 -1983.35 -1065.95 -365.70 -208.16 -173.43 -257.30 -295.31 -114.83 -14.86 37.88 98.55 84.73 112.59 58.01 151.37 200.97 220.23 222.15 228.76 229.35 243.40 244.32 254.58 310.60 325.05 264.64 165.57 113.92 93.38 93.83 96.88 99.07 101.66 104.33 107.76 114.61 130.58 145.82 161.19 186.88 200.39 213.43 221.70 229.27 237.39 237.82 250.12 310.00 706.43 2079.19 3587.87 5473.94 8417.83 9212.37 7129.06 3751.05 2576.72 1690.19 226.42 15.31 -99.73 -225.80 -564.64 -1097.16 -2492.94 -4156.30 -5965.10 -9006.94 -8205.13 -7219.65 -6444.13 -6026.10 -5360.91 -5173.58 -5203.40 -5493.33 -5622.44 -5599.36 -5489.08 -5337.14 -5280.97 -5323.42 -5649.73 -5946.00 -6353.31 -6639.46 -6809.83 -6784.99 -6683.84 -6068.92 -4622.67 -3688.77 -2967.89 -2478.76 -2159.55 -2369.19 -2934.33 -4234.28 -4234.00
