-13929.01 -13928.92 -13934.84 -13930.89 -13930.47 -13966.98 -14034.32 -14097.60 -14142.02 -14137.22 -14069.65 -14040.12 -14090.65 -14206.73 -14374.28 -14459.62 -14473.33 -14478.06 -14488.93 -14455.41 -14383.15 -14272.70 -14141.84 -14102.51 -14129.62 -14229.80 -14212.99 -14229.52 -14164.61 -14152.17 -14131.80 -14121.51 -14109.98 -14123.23 -14198.43 -14248.47 -14298.89 -14342.16 -14365.99 -14348.34 -14351.04 -14419.81 -14575.54 -14651.34 -14714.59 -14710.73 -14711.24 -14699.51 -14659.05 -14584.28 -14607.59 -14600.57 -14590.65 -14515.20 -14511.40 -14701.33 -14961.33 -15114.70 -15109.68 -15098.44 -15088.46 -15087.99 -15006.94 -14970.05 -14745.30 -14793.86 -14818.02 -14764.31 -14722.86 -14717.82 -14794.78 -14820.04 -14825.69 -14764.24 -14770.91 -14793.08 -14800.22 -14813.53 -14818.34 -14813.72 -14769.11 -14456.45 -13241.14 -11962.99 -10192.00 -8099.31 -5244.79 -2986.61 -1378.50 -1835.19 -1056.25 -1113.55 -1131.07 -1256.14 -1243.55 -1306.24 -1262.66 -1269.54 -1286.86 -1036.27 -726.21 -489.42 -762.81 -1078.94 -1830.97 -6107.69 -10164.03 -21731.51 -22105.86 -18972.13 -17925.98 -17930.94 -18068.66 -18197.68 -18236.17 -18178.17 -17856.34 -16870.42 -14576.09 -9733.40 -7107.91 -6450.98 -6095.44 -5148.34 -4634.37 -2915.73 -2538.96 -1966.33 -1887.24 -1820.57 -1777.24 -1669.87 -1469.29 -1495.28 -1546.77 -1540.79 -1405.49 -1236.93 -988.73 -669.43 -669.33
-13903.24 -13906.46 -13931.14 -13955.84 -13983.86 -14005.42 -14052.61 -14150.71 -14225.96 -14230.16 -14261.16 -14191.02 -14262.62 -14348.32 -14463.11 -14478.16 -14509.84 -14517.40 -14537.04 -14534.27 -14451.70 -14345.33 -14248.51 -14199.72 -14298.63 -14352.34 -14384.81 -14323.88 -14218.65 -14206.98 -14184.03 -14149.40 -14183.81 -14227.15 -14299.47 -14381.61 -14484.52 -14521.52 -14576.52 -14588.03 -14587.20 -14678.80 -14736.75 -14789.86 -14796.65 -14797.71 -14798.40 -14790.56 -14793.41 -14756.52 -14840.16 -14941.63 -14949.34 -14994.48 -14867.64 -14929.55 -15083.50 -15084.80 -15099.09 -15096.06 -15075.26 -15062.41 -15040.00 -14975.74 -14980.99 -15012.59 -14963.28 -14871.32 -14897.02 -14840.50 -14822.93 -14826.72 -14820.88 -14804.80 -14808.05 -14810.88 -14816.24 -14817.19 -14786.75 -14573.74 -14457.49 -14091.45 -11662.55 -10338.68 -8052.28 -6037.72 -3772.65 -1487.90 -991.48 -654.90 -699.03 -900.54 -1039.05 -1131.00 -1124.56 -1196.48 -1214.74 -1232.42 -1194.70 -1018.97 -587.59 -508.18 -943.85 -1679.25 -2340.57 -4183.93 -10282.04 -19348.97 -21725.34 -19666.56 -18900.00 -18176.64 -18056.83 -18106.69 -18140.55 -18094.88 -17774.22 -16303.77 -13305.58 -9606.12 -6739.44 -5958.76 -5685.70 -5246.31 -4531.59 -3526.85 -2529.71 -2143.85 -1937.13 -1926.19 -1878.95 -1894.75 -1701.28 -1648.91 -1701.42 -1752.59 -1668.53 -1342.27 -1204.07 -909.26 -909.24
-13921.56 -13921.55 -13952.88 -13997.20 -14036.48 -14038.88 -14063.94 -14133.51 -14270.97 -14417.56 -14441.27 -14467.07 -14482.27 -14507.51 -14518.45 -14502.88 -14516.70 -14545.99 -14582.77 -14590.32 -14499.96 -14430.52 -14389.43 -14411.95 -14452.14 -14487.07 -14517.29 -14453.74 -14389.81 -14285.27 -14284.84 -14276.16 -14268.44 -14344.87 -14425.85 -14546.81 -14786.20 -14806.00 -14883.67 -14849.12 -14901.47 -14914.84 -14895.94 -14888.45 -14846.81 -14871.59 -14927.89 -14974.21 -15013.26 -15011.82 -15130.58 -15098.79 -15158.65 -15138.42 -15054.82 -15082.91 -15084.88 -15087.52 -15091.73 -15074.13 -15066.53 -15064.17 -15047.47 -15012.52 -15015.73 -14999.54 -14991.28 -14944.03 -14910.38 -14852.60 -14834.05 -14828.49 -14807.90 -14806.83 -14810.79 -14806.84 -14808.76 -14761.38 -14453.90 -13985.20 -12356.61 -11597.38 -9609.05 -6819.74 -5753.32 -4037.60 -2604.47 -1316.22 -928.87 -545.06 -586.78 -737.53 -906.92 -954.22 -1064.55 -1110.25 -1151.78 -1190.78 -1155.00 -1009.00 -722.76 -863.80 -1137.86 -1678.91 -2867.93 -3312.15 -6357.78 -10376.86 -13778.14 -19393.93 -18985.87 -18265.73 -18046.03 -18028.97 -18086.40 -18035.31 -17691.85 -15758.65 -13502.47 -9693.96 -6550.59 -5349.50 -5287.96 -4991.89 -4342.95 -3450.92 -2771.90 -2295.11 -2157.09 -2093.01 -2110.10 -2121.85 -1999.55 -1911.44 -1890.42 -1870.42 -1780.31 -1583.47 -1330.99 -1045.23 -999.14
-14020.32 -14031.02 -14047.57 -14060.86 -14059.01 -14040.43 -14059.97 -14180.40 -14308.83 -14497.73 -14558.65 -14599.32 -14676.35 -14625.46 -14561.23 -14525.28 -14526.54 -14565.03 -14601.69 -14587.56 -14528.40 -14510.12 -14534.41 -14527.28 -14533.93 -14554.54 -14570.26 -14559.40 -14475.24 -14384.84 -14340.71 -14341.69 -14387.91 -14458.57 -14551.32 -14742.04 -14908.57 -15068.86 -15099.42 -15087.58 -15062.39 -15015.11 -15008.76 -14933.00 -14923.87 -14945.68 -14992.60 -15060.64 -15128.80 -15174.74 -15164.61 -15165.28 -15160.05 -15096.87 -15096.56 -15094.53 -15085.76 -15087.70 -15085.81 -15069.70 -15066.34 -15062.74 -15041.94 -15027.14 -15012.92 -14994.81 -14981.47 -14963.42 -14921.02 -14875.24 -14855.01 -14832.83 -14810.14 -14800.94 -14799.40 -14787.69 -14758.92 -14722.30 -14147.19 -12164.90 -11399.56 -9709.62 -7374.23 -4717.94 -4201.86 -3044.67 -1680.99 -1196.66 -663.09 -493.75 -543.83 -633.09 -715.24 -823.51 -909.46 -1015.83 -1103.58 -1151.40 -1177.26 -900.55 -789.08 -1035.50 -1319.29 -1759.55 -2443.80 -3332.64 -4385.45 -5252.12 -10822.07 -21334.52 -19249.77 -18119.17 -17944.94 -17952.23 -18057.45 -17966.19 -17673.55 -16028.92 -14302.13 -9282.68 -6310.63 -5075.19 -4844.89 -4819.81 -4281.16 -3591.57 -3001.63 -2369.24 -2308.36 -2342.63 -2451.07 -2422.30 -2156.15 -2070.05 -1980.38 -1937.14 -1814.35 -1560.49 -1261.64 -929.41 -929.59
-14111.97 -14114.49 -14106.26 -14108.62 -14091.06 -14061.70 -14077.66 -14162.18 -14361.55 -14519.00 -14619.98 -14690.92 -14727.48 -14699.97 -14632.17 -14554.63 -14547.75 -14573.62 -14605.22 -14587.76 -14537.62 -14538.23 -14593.57 -14618.14 -14592.18 -14577.47 -14573.25 -14556.07 -14490.54 -14435.55 -14402.98 -14422.88 -14462.51 -14542.60 -14595.45 -14818.02 -15072.24 -15204.91 -15198.59 -15203.99 -15162.94 -15156.87 -15127.36 -15037.79 -15000.08 -15019.01 -15079.44 -15119.37 -15154.17 -15156.15 -15158.91 -15150.82 -15130.34 -15122.65 -15122.66 -15116.90 -15101.25 -15086.69 -15085.44 -15072.78 -15067.17 -15056.71 -15039.61 -15018.24 -15006.84 -14994.29 -14974.64 -14949.82 -14934.29 -14898.49 -14871.15 -14840.69 -14825.64 -14801.31 -14751.27 -14729.05 -14678.18 -13899.28 -13162.74 -11960.91 -10459.01 -7674.00 -5819.02 -3446.63 -2791.54 -2125.03 -1638.43 -875.70 -589.03 -479.08 -506.77 -591.08 -649.45 -748.10 -867.85 -890.30 -993.45 -1100.73 -1006.84 -820.13 -724.51 -790.14 -1068.14 -1748.71 -2372.51 -3615.59 -4284.20 -8388.81 -18964.48 -21948.04 -19008.77 -18120.32 -17901.96 -17952.56 -18082.62 -18063.44 -17726.72 -16951.68 -14404.99 -11014.40 -6323.89 -4934.36 -4618.74 -4463.83 -4112.14 -3600.78 -2998.35 -2633.74 -2529.75 -2748.54 -2760.25 -2754.52 -2509.80 -2238.58 -2068.21 -1966.48 -1759.23 -1430.97 -1155.94 -750.69 -750.90
-14141.12 -14141.05 -14142.20 -14144.16 -14138.90 -14109.39 -14108.33 -14146.50 -14361.15 -14472.13 -14653.31 -14725.83 -14755.60 -14738.22 -14709.16 -14624.78 -14582.65 -14583.75 -14633.24 -14619.14 -14603.13 -14626.29 -14675.58 -14662.11 -14631.16 -14605.22 -14601.99 -14587.60 -14548.29 -14528.50 -14517.55 -14489.39 -14529.36 -14568.07 -14701.25 -14853.67 -15216.68 -15266.66 -15247.55 -15243.01 -15199.92 -15204.81 -15183.51 -15128.37 -15119.92 -15134.85 -15153.45 -15173.01 -15169.24 -15167.00 -15159.17 -15141.11 -15135.13 -15129.39 -15119.89 -15109.63 -15104.00 -15094.62 -15086.32 -15073.45 -15059.70 -15049.07 -15035.16 -15017.50 -14999.82 -14988.42 -14971.14 -14954.14 -14935.12 -14904.01 -14877.92 -14856.22 -14847.83 -14817.89 -14669.02 -14618.24 -13445.72 -12964.79 -11365.75 -9485.81 -8841.12 -7486.96 -4969.31 -2564.71 -1991.74 -1715.76 -1290.90 -740.53 -582.51 -541.01 -581.59 -581.62 -530.03 -513.07 -725.44 -752.79 -887.71 -1087.07 -1009.93 -333.52 -172.24 -412.23 -1254.01 -1659.52 -2454.99 -3623.29 -4605.47 -11045.30 -23903.36 -21742.51 -18882.32 -17848.35 -17870.08 -18013.09 -18119.69 -18118.58 -17955.50 -17141.67 -14608.44 -10706.89 -7371.65 -4715.42 -4384.43 -4246.98 -4035.51 -3502.07 -2986.63 -2789.63 -2902.97 -2935.24 -3187.74 -3117.49 -2698.26 -2386.14 -2048.04 -1957.01 -1695.21 -1520.75 -907.81 -622.41 -567.44
-14069.55 -14069.33 -14091.40 -14139.04 -14127.32 -14089.81 -14064.04 -14149.47 -14380.01 -14564.43 -14734.34 -14772.78 -14817.56 -14827.31 -14757.61 -14763.42 -14674.92 -14670.94 -14691.88 -14726.42 -14730.50 -14731.87 -14740.56 -14701.39 -14657.94 -14656.63 -14673.02 -14678.06 -14699.95 -14659.90 -14619.34 -14633.09 -14676.78 -14729.04 -14820.29 -15080.35 -15231.96 -15288.66 -15263.46 -15250.00 -15228.08 -15204.37 -15182.71 -15175.36 -15183.71 -15181.97 -15180.05 -15176.62 -15171.38 -15167.38 -15160.53 -15154.07 -15145.74 -15127.74 -15122.03 -15103.84 -15100.18 -15089.63 -15078.23 -15064.96 -15051.98 -15042.43 -15031.00 -15012.88 -14993.34 -14980.22 -14965.19 -14952.43 -14919.95 -14886.40 -14784.42 -14805.79 -14766.31 -14767.12 -14021.96 -13897.12 -12824.69 -11768.77 -10574.55 -8431.80 -6391.11 -4562.86 -3401.67 -2140.60 -1611.46 -1137.81 -1030.31 -766.18 -567.26 -601.92 -545.19 -323.07 -227.54 -158.29 -383.44 -666.63 -846.73 -965.06 -706.58 -170.71 -80.65 -518.85 -1094.54 -2188.33 -2887.67 -3179.16 -5071.24 -12766.76 -19705.03 -21208.10 -18415.29 -17733.96 -17781.75 -17887.77 -18080.30 -18068.79 -17762.03 -16954.68 -14865.89 -11121.57 -6621.37 -4517.08 -4068.37 -3914.95 -3858.94 -3480.80 -3141.37 -3052.92 -3131.34 -3552.69 -3635.58 -3389.21 -2763.15 -2366.31 -2007.48 -1944.38 -1694.37 -1305.32 -972.09 -445.64 -445.75
-13833.73 -13812.59 -13923.05 -13982.37 -13991.02 -13922.22 -13944.21 -14077.16 -14334.60 -14719.48 -14825.56 -14883.17 -14932.76 -14988.46 -15005.93 -14959.20 -14922.99 -14902.68 -14928.53 -14980.52 -14947.60 -14894.80 -14859.79 -14778.74 -14704.98 -14722.38 -14760.21 -14771.06 -14845.51 -14860.54 -15027.71 -15008.31 -14952.56 -14996.39 -15171.99 -15225.28 -15284.26 -15278.33 -15266.90 -15259.71 -15239.67 -15228.29 -15219.18 -15213.98 -15212.70 -15199.03 -15193.59 -15182.30 -15170.56 -15163.54 -15157.05 -15150.61 -15137.58 -15127.24 -15114.63 -15103.37 -15097.10 -15087.23 -15076.10 -15066.02 -15049.62 -15037.57 -15022.60 -15003.30 -14979.06 -14963.97 -14958.03 -14950.99 -14886.20 -14801.05 -14644.74 -14641.93 -14299.87 -13943.52 -13151.07 -11104.22 -11517.69 -10396.00 -8830.65 -6479.61 -4545.16 -3681.28 -2743.58 -1887.01 -1314.73 -1071.05 -863.84 -695.20 -366.84 -298.66 -133.79 -118.77 38.89 80.09 -49.16 -345.47 -397.53 -266.39 -300.14 -47.49 -197.35 -539.89 -1180.39 -1822.30 -2619.00 -3138.34 -4807.88 -7061.84 -11266.98 -21866.40 -19296.51 -17602.06 -17565.97 -17711.53 -17869.03 -17843.78 -17699.15 -16316.65 -14648.04 -11251.85 -6899.22 -4340.94 -3896.87 -3645.33 -3618.34 -3583.04 -3553.29 -3645.75 -3790.54 -3963.92 -4039.83 -3775.63 -2670.87 -2267.45 -1948.25 -1872.17 -1590.34 -1290.23 -828.85 -455.60 -386.19
-13620.72 -13651.46 -13746.74 -13808.04 -13744.18 -13723.58 -13749.94 -13926.86 -14534.07 -14759.97 -14906.49 -14947.23 -14981.99 -15047.30 -15116.70 -15182.82 -15114.11 -15115.39 -15153.96 -15234.03 -15201.17 -15056.75 -14978.56 -14924.30 -14840.38 -14867.77 -14866.01 -14865.12 -15088.61 -15223.13 -15238.98 -15229.63 -15302.65 -15325.92 -15296.41 -15282.28 -15287.16 -15277.88 -15272.97 -15262.75 -15250.62 -15240.83 -15239.37 -15237.64 -15227.15 -15220.77 -15202.88 -15184.13 -15175.71 -15165.24 -15155.77 -15144.98 -15136.88 -15130.31 -15116.64 -15104.54 -15098.44 -15081.91 -15075.91 -15064.43 -15046.33 -15021.76 -15013.30 -14996.84 -14951.80 -14940.57 -14948.21 -14946.03 -14915.95 -14747.49 -13606.82 -13736.56 -13338.85 -12139.77 -10869.61 -9077.93 -8623.44 -8115.13 -7642.68 -5686.35 -3881.75 -3026.18 -2183.46 -1556.00 -1120.66 -955.44 -759.73 -443.23 76.97 66.82 58.77 119.13 132.75 135.92 136.54 19.81 104.04 103.93 -48.61 -64.65 -141.92 -700.79 -1177.04 -1992.50 -2827.78 -3080.06 -3344.09 -5162.96 -7662.84 -18105.17 -19925.60 -17846.58 -17426.20 -17416.53 -17575.06 -17650.65 -17434.71 -16133.91 -14106.76 -8332.42 -6434.41 -4278.72 -3734.88 -3484.96 -3508.93 -3596.95 -3833.60 -4096.12 -4228.78 -4538.65 -4372.09 -3973.95 -2593.71 -1994.36 -1863.56 -1781.65 -1656.97 -1259.89 -788.53 -386.59 -386.60
-13598.64 -13614.34 -13671.70 -13640.84 -13585.74 -13575.76 -13705.78 -14012.42 -14432.49 -14727.54 -14919.60 -15029.22 -15093.23 -15106.91 -15188.88 -15308.89 -15378.12 -15485.84 -15503.55 -15483.80 -15427.81 -15264.21 -15149.43 -15090.19 -15107.01 -15132.05 -15110.00 -15188.30 -15320.66 -15352.43 -15336.55 -15335.05 -15347.25 -15344.45 -15330.02 -15306.49 -15292.79 -15279.35 -15275.15 -15263.65 -15255.49 -15250.76 -15249.58 -15249.80 -15243.91 -15237.70 -15214.43 -15199.17 -15176.96 -15165.43 -15155.50 -15146.26 -15142.85 -15133.20 -15121.97 -15108.95 -15102.91 -15090.33 -15079.26 -15061.84 -15041.00 -15024.93 -14996.09 -14994.60 -14945.02 -14935.66 -14934.42 -14935.51 -14644.67 -14135.58 -13054.38 -13353.11 -12300.60 -9881.69 -7697.54 -5999.50 -5510.75 -5295.31 -5855.11 -4439.38 -3174.41 -2474.15 -1986.70 -1544.58 -1212.75 -916.10 -758.66 -58.63 104.74 117.47 134.20 144.99 148.81 158.88 148.15 149.10 142.57 140.66 135.58 131.85 16.81 -455.91 -1191.41 -1399.04 -1617.05 -3103.98 -3353.34 -4244.44 -7691.34 -16309.93 -21701.12 -19992.48 -17573.59 -17319.72 -17395.65 -17421.71 -17035.11 -15925.91 -12843.75 -9125.21 -5897.07 -4358.10 -3696.66 -3350.83 -3351.48 -3623.10 -3928.30 -4432.97 -4714.00 -4748.57 -4647.98 -3599.13 -2903.68 -2028.88 -1867.25 -1840.92 -1593.12 -1315.91 -878.93 -572.66 -572.41
-13592.53 -13592.40 -13618.12 -13583.62 -13541.80 -13533.70 -13652.97 -13938.39 -14462.06 -14760.19 -15069.39 -15207.08 -15241.65 -15269.27 -15393.27 -15509.22 -15530.93 -15696.55 -15724.32 -15766.05 -15711.84 -15524.39 -15410.20 -15387.64 -15347.12 -15431.23 -15430.16 -15364.15 -15344.19 -15346.15 -15347.96 -15349.20 -15348.74 -15332.77 -15322.77 -15307.40 -15297.94 -15277.24 -15268.56 -15258.09 -15254.35 -15252.61 -15251.99 -15250.19 -15246.01 -15245.60 -15228.00 -15199.59 -15191.49 -15168.94 -15162.84 -15156.76 -15149.18 -15137.46 -15129.93 -15116.22 -15104.92 -15086.70 -15077.97 -15059.15 -15038.71 -15020.85 -14995.17 -14980.00 -14955.62 -14951.36 -14926.36 -14935.88 -14459.81 -13382.25 -10870.52 -10454.30 -8780.28 -9330.32 -5341.89 -4016.92 -4114.68 -3828.03 -3356.96 -3393.28 -2633.97 -2472.97 -1922.58 -1742.82 -1268.33 -934.71 -224.90 67.56 135.27 136.53 147.85 186.50 197.80 192.61 174.75 176.65 172.33 143.48 133.44 126.43 125.10 -36.04 -711.45 -576.50 -285.52 -2312.05 -2697.76 -4503.40 -6886.35 -15391.79 -20093.89 -20890.10 -19024.64 -17725.18 -17327.09 -17247.60 -16779.76 -15301.99 -12696.60 -8734.14 -5852.59 -4573.44 -3698.26 -3371.66 -3313.99 -3653.35 -4059.78 -4684.43 -4927.47 -4870.27 -4386.13 -3730.82 -2637.95 -2122.69 -1940.79 -1836.09 -1655.83 -1468.00 -1296.58 -1083.16 -1082.68
-13464.94 -13464.71 -13517.92 -13501.58 -13538.99 -13552.77 -13637.28 -13924.42 -14467.26 -14999.95 -15189.47 -15355.25 -15465.79 -15515.00 -15608.06 -15720.47 -15740.52 -15782.00 -15848.52 -15837.68 -15708.91 -15509.57 -15402.28 -15388.04 -15408.52 -15421.86 -15420.56 -15397.78 -15348.29 -15337.38 -15341.89 -15344.61 -15344.44 -15314.45 -15321.01 -15337.09 -15301.50 -15263.85 -15259.91 -15250.92 -15255.70 -15252.24 -15251.39 -15239.87 -15244.89 -15242.15 -15213.54 -15199.74 -15192.06 -15181.15 -15174.01 -15159.05 -15161.51 -15146.93 -15134.12 -15123.00 -15113.68 -15088.36 -15076.41 -15051.81 -15034.23 -15012.01 -15002.08 -14985.48 -14975.20 -14943.47 -14778.26 -14644.54 -13714.07 -11516.81 -9633.92 -7783.99 -6501.65 -5301.20 -4717.07 -2964.93 -2505.21 -2529.80 -2290.93 -2461.53 -2280.70 -2202.25 -1450.95 -1252.79 -1090.25 -660.43 32.91 132.95 180.35 167.69 171.84 214.18 234.53 232.84 220.68 201.70 183.83 144.08 126.70 54.13 92.41 125.66 38.24 -35.93 -64.71 -322.42 -453.30 -2074.01 -3475.96 -9083.96 -11273.00 -19455.93 -20492.94 -18504.37 -17469.96 -16916.97 -16529.44 -15218.60 -12268.48 -8447.20 -5770.62 -4107.40 -3799.50 -3292.48 -3416.96 -3695.05 -4189.13 -4872.03 -4962.94 -4742.16 -4126.54 -3652.60 -2512.95 -2296.15 -2024.72 -1911.23 -1785.17 -1591.64 -1647.22 -1780.52 -1756.24
-13247.88 -13247.63 -13285.12 -13355.47 -13493.20 -13554.72 -13711.51 -13989.39 -14653.30 -14897.36 -15150.99 -15306.66 -15533.64 -15629.76 -15722.81 -15849.27 -15871.87 -15938.10 -15903.57 -15860.74 -15782.15 -15566.54 -15385.19 -15318.59 -15376.87 -15404.87 -15338.14 -15384.73 -15355.63 -15142.71 -15207.02 -15340.62 -15216.48 -15343.07 -15304.60 -14764.31 -14285.59 -14688.66 -14692.67 -14696.17 -14895.59 -15161.04 -15152.85 -15159.74 -15130.20 -15140.37 -15132.62 -15185.67 -15205.90 -15193.96 -15186.95 -15181.78 -15170.94 -15157.35 -15144.23 -15129.80 -15113.47 -15093.14 -15074.28 -15057.01 -15038.44 -15025.30 -15016.63 -15017.56 -15009.76 -14669.29 -14235.66 -13650.05 -12344.52 -10794.29 -8757.80 -6637.81 -5454.44 -3920.39 -2702.87 -1836.47 -1403.73 -1120.50 -1233.49 -1398.80 -1676.17 -1914.73 -902.90 -371.78 -379.61 -183.20 164.38 174.50 195.93 200.79 222.60 262.24 275.03 247.55 251.72 228.36 169.97 121.05 97.02 -121.71 -324.48 -137.51 20.84 61.96 -31.15 -94.28 -316.66 -444.10 -788.40 -3772.20 -6436.94 -12688.82 -19449.55 -19287.58 -17442.42 -16578.13 -15928.02 -15274.84 -11179.84 -7853.00 -4756.17 -3931.90 -3587.77 -3351.23 -3489.09 -3970.37 -4432.03 -4912.15 -4883.76 -4564.26 -3972.37 -3489.45 -2668.64 -2291.63 -2083.92 -2064.91 -2120.43 -2093.16 -2010.51 -2348.29 -2347.93
-12912.03 -12882.10 -12968.98 -13089.83 -13383.98 -13391.49 -13723.85 -14030.67 -14529.58 -14827.16 -15018.44 -15229.18 -15505.94 -15724.96 -15759.96 -15981.06 -15962.26 -15994.07 -15983.32 -15909.03 -15825.16 -15531.78 -15067.47 -14795.31 -14779.77 -14833.92 -14976.63 -14882.75 -14975.48 -14797.10 -14697.48 -14895.70 -14040.03 -13830.27 -13480.30 -12939.82 -11909.11 -11688.84 -12106.43 -12421.32 -12867.41 -12731.41 -13919.60 -14717.98 -14448.14 -14923.41 -14867.67 -14966.66 -15096.36 -15199.05 -15196.63 -15187.13 -15173.50 -15165.20 -15151.51 -15132.73 -15116.33 -15092.93 -15078.43 -15060.15 -15051.57 -15042.36 -15040.12 -14807.15 -14722.04 -14388.55 -12243.29 -11808.47 -10493.89 -9606.39 -8839.88 -6918.20 -5072.04 -2868.03 -2485.27 -1254.84 -859.45 -752.50 -579.76 -669.65 -577.93 -462.65 -267.54 49.87 140.99 174.65 207.81 236.04 252.22 263.50 287.81 301.30 335.13 349.34 275.30 247.86 189.68 154.15 21.74 -757.18 -1617.61 -1758.46 -1385.13 -259.89 -590.83 -497.82 -315.22 -311.68 -409.18 -658.92 -1260.71 -5567.94 -10226.42 -18237.47 -17872.76 -16427.62 -15343.23 -13976.19 -11541.68 -6513.20 -4921.16 -3558.01 -3365.34 -3366.51 -3514.23 -4274.94 -4736.49 -5088.24 -4862.56 -4308.36 -3852.81 -3471.16 -2756.95 -2410.55 -2238.06 -2246.18 -2570.66 -2831.26 -2626.35 -2847.86 -2847.58
-12239.14 -12238.33 -12224.13 -12530.03 -12602.55 -12702.38 -13275.99 -13745.49 -14327.42 -14791.22 -14977.22 -15288.90 -15581.54 -15711.31 -15848.59 -15974.64 -15982.15 -15982.06 -15982.90 -15962.28 -15868.83 -15457.54 -14921.26 -14018.82 -13363.55 -13090.33 -13810.80 -13738.75 -13370.91 -13788.73 -13497.32 -12939.31 -12719.78 -12146.13 -11205.46 -10352.85 -9738.63 -9745.32 -10074.16 -9968.21 -10556.45 -11626.08 -11735.98 -12923.15 -13222.69 -13730.21 -14549.33 -14523.10 -14833.40 -15201.57 -15200.64 -15195.48 -15172.88 -15152.17 -15151.16 -15133.22 -15113.53 -15095.00 -15082.11 -15072.87 -15064.33 -15056.23 -15051.93 -14688.48 -13102.62 -12560.40 -11843.41 -10239.03 -7653.92 -6108.15 -6650.08 -4795.25 -3579.60 -2343.66 -1423.69 -833.34 -422.12 -17.88 132.08 -33.23 69.94 54.94 33.25 155.78 162.31 241.71 333.87 341.21 439.51 488.09 474.73 473.25 506.35 445.16 401.62 390.33 248.58 123.27 -615.00 -2616.73 -3011.70 -3041.30 -2868.26 -1810.27 -1795.26 -1509.60 -1699.68 -616.97 -533.32 -477.16 -995.11 -2358.16 -8836.99 -17601.02 -18297.64 -15747.40 -14629.77 -13634.14 -9604.93 -7175.32 -4088.85 -3479.49 -3256.44 -3393.24 -3761.18 -4602.57 -5075.13 -5172.88 -4932.63 -4326.32 -3756.31 -3384.69 -2654.35 -2492.65 -2506.92 -2735.91 -3066.22 -3161.19 -3270.46 -3208.08 -3207.94
-11454.50 -11408.10 -11397.76 -11383.67 -11647.49 -12124.29 -12500.51 -13655.18 -14257.12 -14876.20 -15172.47 -15350.25 -15568.49 -15675.82 -15864.85 -15978.62 -15986.43 -15979.01 -15980.00 -15974.26 -15900.92 -15166.38 -13996.30 -12779.59 -11404.06 -11405.46 -11230.45 -12180.95 -12100.29 -12165.75 -11796.98 -11031.60 -10291.56 -9863.64 -9190.72 -8628.39 -8094.33 -8057.33 -8719.44 -8138.03 -7239.27 -9436.99 -10899.12 -11678.08 -12459.79 -12955.35 -13604.96 -14113.43 -14544.20 -14992.81 -15206.77 -15198.04 -15176.74 -15155.00 -15135.97 -15127.55 -15112.49 -15095.85 -15082.74 -15078.35 -15073.97 -15072.43 -14834.91 -14273.38 -12355.07 -9967.96 -10351.10 -8621.50 -6943.17 -4878.72 -4039.28 -3463.26 -2902.54 -2006.69 -1043.60 -465.40 57.48 145.41 150.43 150.01 175.60 179.03 172.16 184.77 195.95 282.74 410.36 603.78 804.81 839.17 838.62 814.81 921.76 696.14 779.79 659.76 332.57 -86.15 -505.23 -1386.07 -2277.39 -3055.21 -3807.58 -3482.51 -3250.20 -3088.66 -2407.11 -1720.32 -933.72 -837.23 -1135.81 -3298.12 -8111.47 -16437.23 -19164.13 -16037.36 -14821.44 -12934.60 -9148.53 -6170.84 -3819.59 -3157.55 -3162.82 -3528.37 -4012.38 -4744.67 -5286.47 -5260.88 -4940.96 -4386.48 -3759.25 -3014.99 -2567.75 -2400.73 -2712.99 -3153.72 -3496.63 -3560.40 -3539.52 -3414.69 -3440.22
-11084.43 -11094.08 -11130.16 -11117.93 -11213.00 -11484.31 -12010.59 -13233.42 -14008.23 -14913.06 -15187.73 -15367.82 -15463.98 -15480.84 -15678.47 -15936.36 -15967.37 -15976.46 -15969.90 -15972.99 -15798.67 -15030.02 -13333.12 -11245.55 -9843.22 -9410.17 -9985.53 -10319.79 -9769.08 -10199.26 -10499.31 -9749.00 -8408.41 -7641.31 -7556.25 -7099.24 -6118.10 -6464.75 -6754.11 -5415.82 -3521.53 -7276.93 -10950.36 -11618.55 -11941.14 -12150.26 -12978.17 -13518.29 -13761.26 -14506.11 -14980.32 -15209.25 -15225.52 -15181.00 -15132.81 -15113.56 -15091.56 -15086.89 -15080.58 -15081.11 -15092.71 -15062.33 -14735.60 -12609.15 -10829.97 -9211.18 -7254.51 -5868.87 -5204.53 -4117.85 -3388.16 -2807.75 -2456.20 -1212.49 -613.42 147.05 162.61 167.50 177.65 194.91 211.23 220.64 224.43 219.47 209.74 263.20 318.08 574.24 808.65 820.65 967.03 991.04 1043.47 959.60 864.98 580.66 430.61 189.15 142.27 109.93 -215.66 -1463.23 -3899.29 -4056.47 -3962.50 -3929.92 -3568.49 -2901.15 -2252.55 -1832.75 -1376.60 -2099.94 -7379.24 -15716.97 -20294.28 -18020.74 -15482.58 -13849.84 -9307.19 -7339.30 -3443.46 -3156.83 -3122.63 -3417.70 -4379.97 -5079.52 -5408.05 -5343.48 -4903.41 -4193.46 -3404.48 -2893.98 -2683.32 -2449.41 -2872.97 -3443.89 -3710.69 -3780.09 -3758.64 -3594.15 -3594.34
-11179.25 -11179.04 -11226.11 -11236.24 -11241.92 -11445.54 -12086.63 -13139.33 -14360.86 -14934.65 -15161.02 -15324.90 -15327.83 -15352.20 -15510.95 -15779.49 -15919.85 -15954.96 -15952.61 -15857.32 -15567.07 -14777.97 -12802.50 -11209.08 -8902.25 -8514.16 -8392.52 -8582.09 -8434.60 -8569.09 -8185.10 -7798.65 -7067.60 -6196.96 -5337.95 -4120.58 -4390.03 -4042.17 -4198.04 -656.18 -689.29 -4933.44 -6281.95 -7713.47 -10414.99 -11265.77 -11827.58 -12108.28 -12870.95 -12871.68 -13687.96 -14399.51 -14906.98 -15132.56 -15181.33 -15053.73 -15070.44 -15069.47 -15011.54 -15056.35 -14973.06 -14889.06 -14063.76 -11829.23 -9890.11 -8007.27 -7773.60 -4520.75 -3467.48 -2989.72 -2681.76 -2588.90 -2308.44 -1044.93 -405.02 153.78 179.40 209.42 216.17 232.50 243.64 248.92 262.93 270.45 264.41 292.47 346.78 445.61 485.96 581.41 672.80 812.45 908.29 993.52 981.68 606.81 493.86 206.85 184.09 143.23 109.66 -522.66 -2778.65 -4403.93 -4411.21 -4255.76 -4398.25 -4463.52 -3943.58 -2881.76 -2204.50 -1538.30 -4674.22 -9452.77 -13077.05 -15143.32 -15968.09 -14103.26 -9473.64 -6132.92 -4052.51 -3194.41 -3056.28 -3634.03 -4404.29 -5163.79 -5535.88 -5471.05 -4954.11 -4364.69 -3429.66 -2995.20 -2454.12 -2404.48 -2814.91 -3690.26 -3847.44 -3898.92 -3796.09 -3683.31 -3654.39
-11563.36 -11562.90 -11869.40 -11619.59 -11550.20 -11917.71 -12243.90 -13536.29 -14281.24 -14973.23 -15173.91 -15274.68 -15268.16 -15251.80 -15400.40 -15654.25 -15804.73 -15847.34 -15916.10 -15841.04 -15653.43 -14595.41 -12443.08 -10614.73 -8974.89 -8696.58 -8627.26 -8345.78 -7828.90 -7394.13 -6907.17 -6309.13 -5339.86 -3838.87 -2856.00 -2575.47 -1749.19 -1464.14 -1579.56 124.68 149.06 -141.81 -4732.85 -4898.05 -4131.88 -8139.08 -9548.63 -10061.73 -10596.34 -11026.26 -12054.42 -12647.71 -13274.40 -13743.83 -14210.87 -14737.59 -14634.93 -14828.16 -14879.12 -14915.42 -14385.33 -12475.34 -12009.70 -10611.72 -7078.14 -5690.91 -6243.65 -3925.38 -2741.35 -2013.40 -2205.28 -1974.01 -1114.34 -458.71 -55.93 160.62 190.62 221.77 246.41 256.05 266.15 274.07 288.12 300.99 283.99 303.07 354.51 389.82 439.02 492.06 517.51 592.94 700.15 858.32 899.57 741.26 465.02 269.42 202.39 163.78 111.58 -188.08 -2540.75 -4308.21 -4343.40 -4237.08 -4505.47 -4919.66 -4830.37 -4062.26 -3309.89 -2730.41 -2035.23 -2503.08 -2949.71 -2949.49 -9432.07 -9469.68 -10513.52 -6866.32 -3560.09 -3079.08 -2993.07 -3570.72 -4274.01 -5186.82 -5599.96 -5643.41 -5226.78 -4744.00 -3846.61 -3325.81 -2750.10 -2513.72 -2973.32 -3522.42 -3774.90 -3819.92 -3675.91 -3469.92 -3469.75
-12173.12 -12172.53 -12429.30 -12242.68 -12440.25 -12705.58 -13139.76 -13884.91 -14487.85 -14887.00 -15077.36 -15122.40 -15155.24 -15190.73 -15316.72 -15577.01 -15675.78 -15777.52 -15821.12 -15785.62 -15582.85 -14824.05 -12750.04 -11466.29 -9767.45 -9654.48 -9742.47 -9332.61 -8053.02 -7157.34 -5928.04 -4837.75 -4335.55 -2124.94 -949.25 -149.48 -166.36 55.02 173.63 161.91 164.75 150.84 -3029.23 -2224.49 -1302.77 -3182.51 -4896.19 -6880.44 -7023.34 -8047.95 -8893.62 -7570.66 -7335.18 -12105.70 -11486.11 -11549.97 -11949.56 -12399.58 -12221.65 -12609.17 -11880.62 -11164.20 -8284.74 -6730.52 -4022.75 -2957.28 -2220.14 -2196.29 -1562.09 -387.29 -1068.99 -1268.51 -930.13 -291.84 146.25 200.47 215.41 252.18 277.71 288.79 294.61 283.50 310.34 328.73 334.79 332.73 387.86 393.85 413.96 469.80 477.92 496.07 572.26 719.16 745.47 712.16 552.36 374.70 289.02 214.12 162.91 90.26 -1724.12 -3894.37 -4311.62 -4184.82 -4333.37 -4637.00 -4694.87 -4638.09 -4284.68 -3627.83 -2979.07 -2496.90 -2315.10 -2260.03 -2746.83 -3502.23 -7925.39 -6722.11 -4470.55 -3202.41 -3056.31 -3599.40 -4222.54 -5221.00 -5711.04 -5833.18 -5556.81 -5000.83 -4712.85 -4007.47 -3168.89 -2757.59 -2973.20 -3388.57 -3572.44 -3452.74 -3333.90 -3191.04 -3190.89
-12716.24 -12694.34 -12819.07 -12964.10 -13085.02 -13205.54 -13597.70 -14120.55 -14475.16 -14821.88 -14937.60 -14986.99 -14939.21 -15035.99 -15189.76 -15410.57 -15528.11 -15577.67 -15663.70 -15686.00 -15553.19 -15186.04 -13833.72 -12306.47 -12177.93 -11371.60 -11652.20 -11307.06 -8811.98 -7535.93 -5384.23 -4068.52 -3086.57 -1355.88 -225.05 221.67 289.14 246.24 244.09 214.71 192.47 150.11 -717.83 -904.38 124.21 117.97 -1016.48 -3275.45 -4168.19 -3239.28 -2586.48 -3826.41 -4764.69 -1992.40 -6971.74 -7820.83 -9281.62 -9030.94 -9125.96 -8777.29 -9213.69 -8134.88 -4850.64 -4059.74 -2893.66 -1968.05 -986.59 -104.85 -455.99 -36.93 -7.15 -29.76 -225.11 90.25 176.24 213.04 228.17 277.36 297.33 326.41 331.05 332.06 340.20 357.92 354.10 368.39 383.41 398.24 420.09 462.80 471.71 474.91 485.86 528.42 596.29 611.03 610.25 515.52 515.47 226.13 208.25 143.78 -1216.29 -2864.73 -3602.82 -4183.31 -4198.35 -4222.12 -4393.99 -4624.80 -4936.29 -5077.19 -4023.18 -3797.41 -3041.15 -2107.28 -1916.34 -2349.29 -2745.70 -4921.61 -4300.71 -3596.34 -3143.02 -3340.86 -4074.92 -4804.09 -5622.26 -5877.07 -5857.02 -5658.83 -5257.43 -4547.56 -3214.46 -2752.19 -2753.81 -3155.94 -3334.59 -3226.09 -3121.45 -3071.38 -3071.42
-13047.98 -13057.51 -13193.09 -13425.93 -13440.79 -13686.86 -13924.47 -14170.49 -14487.46 -14696.82 -14818.59 -14770.04 -14804.11 -14906.80 -15149.85 -15334.65 -15432.19 -15496.97 -15540.60 -15606.10 -15559.13 -15321.89 -14676.79 -14143.36 -13924.17 -14138.00 -13740.94 -12660.99 -9791.52 -7169.62 -5616.67 -4117.12 -2618.22 -830.14 191.59 272.11 332.72 359.16 349.92 262.01 222.64 188.84 176.64 162.84 159.20 162.04 144.06 149.40 136.71 117.86 110.68 111.53 -972.32 -636.37 -2979.80 -3752.87 -4641.83 -5184.73 -5295.11 -7587.30 -7580.56 -4430.93 -2997.59 -2333.95 -1793.51 -355.15 -51.55 89.41 129.18 126.52 130.41 145.53 153.47 179.62 217.25 287.07 303.99 294.67 324.16 340.88 341.57 357.97 359.65 384.91 380.96 394.32 393.73 402.99 427.76 458.41 462.09 462.20 483.16 495.05 515.05 573.84 665.73 760.68 659.62 355.19 197.19 163.14 -139.38 -1351.73 -2811.72 -4042.13 -4108.68 -4105.37 -4323.79 -4603.52 -5225.83 -5482.07 -5370.05 -4928.87 -3852.49 -3210.84 -2794.47 -2088.90 -2507.27 -3349.79 -3952.33 -3548.30 -3239.75 -3290.20 -3736.63 -4866.41 -5602.34 -5887.50 -5857.07 -5836.35 -5799.70 -5041.80 -3424.12 -2488.28 -2449.01 -2842.14 -3045.87 -3043.01 -3011.30 -3019.81 -3016.36
-13253.74 -13268.04 -13415.22 -13555.66 -13705.70 -13818.40 -13969.77 -14238.82 -14519.30 -14601.11 -14661.83 -14627.40 -14655.62 -14897.02 -15125.61 -15316.53 -15373.00 -15454.91 -15482.92 -15522.13 -15549.61 -15471.79 -15272.93 -15068.60 -15004.49 -14948.79 -14462.86 -13627.20 -11741.70 -8912.59 -5824.38 -3664.77 -1396.60 58.65 210.73 272.20 373.54 411.36 407.85 331.09 413.91 336.77 305.57 228.44 230.71 211.20 177.56 171.47 163.78 144.36 135.79 125.82 116.01 99.62 99.46 -153.54 -489.13 -1238.60 -2256.47 -4224.64 -2369.00 -1025.17 -1287.07 -601.92 -266.29 98.91 130.03 145.19 154.61 156.55 164.59 183.95 186.20 187.55 222.84 323.91 389.69 337.25 345.72 351.46 368.79 404.04 400.23 404.35 402.67 405.79 413.30 422.25 433.89 447.94 448.85 450.50 454.03 458.21 506.46 547.47 698.74 848.32 793.13 650.99 273.39 204.19 167.58 -711.54 -1864.20 -3531.77 -4198.72 -4177.50 -4289.12 -4612.65 -4840.29 -5296.97 -5487.25 -5369.80 -5067.93 -4481.61 -4029.30 -3474.20 -2884.89 -2764.65 -3069.49 -3331.37 -3356.34 -3145.11 -3672.93 -4642.00 -5631.82 -5899.00 -5859.80 -5840.72 -5803.61 -5048.81 -3490.13 -2581.66 -2054.23 -2365.25 -2617.92 -2910.47 -2926.06 -2955.12 -2957.06
-13398.17 -13398.01 -13560.55 -13682.65 -13785.13 -13936.34 -14049.35 -14232.90 -14445.58 -14493.50 -14581.14 -14593.92 -14694.76 -14890.39 -15174.05 -15285.51 -15350.15 -15405.33 -15441.07 -15512.91 -15537.11 -15490.53 -15325.83 -15259.63 -15177.46 -15058.34 -14939.46 -14042.48 -12605.54 -11117.26 -5779.74 -2571.30 -177.08 174.04 199.28 242.87 342.60 421.97 454.71 400.58 482.77 487.59 470.62 270.36 276.14 277.83 277.55 238.00 190.76 194.36 181.48 174.28 140.42 127.17 116.44 117.11 130.83 127.52 116.48 4.63 -69.10 120.98 126.11 128.16 139.08 158.34 164.57 175.49 198.41 200.43 201.99 200.38 246.58 251.19 295.08 373.61 423.68 366.66 371.27 387.84 397.61 408.05 409.74 422.87 431.39 431.26 447.53 446.23 447.36 446.80 453.90 450.26 451.20 451.55 491.28 518.96 595.66 740.38 834.77 638.44 413.71 264.24 197.75 149.25 108.59 -1212.53 -4006.22 -4186.07 -4303.88 -4466.98 -4844.68 -5192.55 -5366.94 -5593.95 -5668.80 -5533.37 -5466.34 -5106.49 -4166.35 -3478.88 -3252.58 -3543.77 -3317.04 -3226.56 -3521.03 -4645.41 -5530.71 -5869.64 -5871.20 -5848.40 -5822.89 -5360.45 -3870.92 -2713.81 -1869.92 -2022.94 -2516.26 -2798.80 -3013.31 -3009.55 -3009.69
-13587.54 -13584.28 -13677.74 -13806.03 -13938.24 -13989.63 -14096.41 -14209.82 -14317.46 -14394.35 -14458.40 -14593.06 -14792.93 -14970.40 -15156.47 -15277.83 -15369.54 -15412.43 -15455.05 -15493.84 -15508.32 -15450.11 -15219.45 -15027.96 -14883.70 -14865.43 -14718.28 -14257.77 -13184.51 -11546.48 -4986.89 -919.81 130.31 185.52 200.52 224.83 297.63 422.29 504.11 519.27 499.71 627.83 514.70 408.10 484.00 491.19 551.41 364.48 296.46 228.81 195.69 205.04 204.86 169.70 149.52 150.89 183.13 160.39 143.78 148.39 141.64 155.78 165.50 160.74 187.77 179.14 182.64 202.33 211.48 212.74 227.07 260.75 293.81 337.56 375.03 394.61 407.51 381.10 383.55 399.30 414.02 413.13 431.78 436.18 439.30 448.41 456.75 458.95 468.02 464.24 468.75 463.23 455.42 451.21 452.36 506.83 523.86 564.77 712.66 770.85 674.16 379.81 273.97 182.03 153.80 -614.19 -2732.17 -3516.11 -4035.59 -4487.99 -4876.39 -4958.42 -5324.33 -5576.06 -5644.98 -5723.52 -5778.77 -5599.92 -5009.03 -4186.01 -3618.55 -3605.01 -3520.07 -3380.90 -3739.54 -4590.98 -5581.43 -5895.06 -5873.70 -5776.62 -5795.88 -5669.26 -4020.45 -2948.55 -1901.95 -1789.28 -2347.29 -2993.76 -3108.58 -3159.49 -3183.93
-13891.70 -13891.39 -13973.97 -13985.62 -14034.61 -14092.70 -14130.65 -14212.17 -14284.21 -14407.66 -14486.70 -14634.75 -14770.91 -15043.20 -15178.02 -15331.11 -15386.70 -15439.99 -15481.38 -15525.47 -15491.92 -15257.63 -14824.31 -14569.13 -14469.71 -14550.84 -14319.66 -13903.67 -12606.34 -10813.22 -1126.06 82.47 140.85 198.02 239.97 299.90 371.79 453.54 595.83 516.75 628.20 819.89 724.38 586.15 634.35 593.60 725.44 451.22 385.51 309.73 248.87 241.15 232.33 220.56 202.97 195.16 209.47 211.51 192.76 186.17 193.78 197.63 196.45 199.70 220.50 212.26 206.38 235.05 241.77 242.73 246.68 284.19 335.22 352.76 375.73 391.01 390.77 394.70 401.92 415.81 423.53 431.17 447.72 453.46 464.03 466.60 476.52 483.39 488.78 483.80 483.37 473.94 462.71 454.83 454.00 484.13 524.69 553.10 622.95 779.97 734.17 583.02 337.98 209.14 165.53 117.47 -308.76 -2328.61 -3177.42 -4106.04 -4463.12 -4652.07 -5288.34 -5449.96 -5589.64 -5758.66 -5901.06 -5799.64 -5287.31 -3836.23 -3193.01 -3489.29 -3552.56 -3526.74 -3795.42 -4326.46 -5030.71 -5825.58 -5808.35 -5691.29 -5642.37 -5468.07 -4297.15 -2687.61 -2065.37 -1960.37 -2580.92 -2967.41 -3303.96 -3412.30 -3412.53
-14140.63 -14140.41 -14135.75 -14130.29 -14145.48 -14133.75 -14139.13 -14236.51 -14410.98 -14462.64 -14586.05 -14762.83 -14875.20 -15060.86 -15190.08 -15308.87 -15409.78 -15475.18 -15544.84 -15589.93 -15483.84 -15060.67 -14527.08 -14225.22 -14061.41 -13999.37 -13932.41 -13904.50 -13347.81 -10885.59 -2442.19 119.48 190.49 213.14 268.99 346.47 451.40 609.70 696.28 631.90 582.60 788.93 877.40 808.09 886.77 1028.08 900.03 602.99 398.75 346.41 316.20 255.52 264.48 258.00 223.59 223.21 231.01 234.85 225.50 224.68 226.65 223.07 241.25 249.80 254.28 253.80 252.61 263.54 268.87 268.94 276.02 290.49 331.82 344.64 374.99 383.70 394.58 402.68 409.80 424.87 434.03 446.24 457.90 468.45 481.99 480.80 500.92 503.66 511.67 512.58 501.50 484.95 475.65 465.61 470.60 485.33 515.38 536.64 562.91 688.06 856.56 829.88 542.33 282.04 152.94 131.87 -36.72 -1653.57 -3323.30 -4066.13 -4424.58 -4551.65 -5070.92 -5172.26 -5496.72 -5711.33 -5913.93 -5908.47 -5341.88 -3820.77 -2829.31 -2646.51 -2827.92 -3423.80 -3692.23 -3921.47 -4558.91 -5351.96 -5524.83 -5421.60 -5411.32 -5225.12 -4109.91 -3062.85 -2262.09 -2139.10 -2537.05 -3077.66 -3376.46 -3514.89 -3514.99
-14208.93 -14208.86 -14200.21 -14174.88 -14132.31 -14112.75 -14129.03 -14218.42 -14453.98 -14569.01 -14685.73 -14767.02 -14948.77 -15087.77 -15178.51 -15319.57 -15413.26 -15524.27 -15628.06 -15679.37 -15561.05 -15010.05 -14546.33 -14128.02 -13938.54 -13936.48 -14092.38 -13718.48 -13263.23 -1256.62 71.61 159.40 185.65 229.59 272.26 418.29 533.01 685.69 874.68 797.79 647.17 856.41 1114.77 1182.09 1317.75 1057.48 969.92 615.10 421.45 443.39 351.00 309.38 307.51 302.87 268.78 273.47 255.64 238.01 254.02 287.61 254.71 262.98 265.89 270.16 271.95 279.54 284.56 303.55 302.07 290.63 293.31 302.09 316.90 344.90 371.42 379.82 391.81 401.00 410.97 430.48 441.59 457.91 470.82 489.80 496.89 504.28 525.68 529.37 535.25 542.45 527.53 507.85 504.36 491.03 492.12 495.64 497.31 536.79 577.89 673.33 852.69 827.39 696.76 399.53 178.38 142.84 125.14 -1247.69 -3824.10 -4366.83 -4443.69 -4651.43 -4738.96 -5118.47 -5367.67 -5645.10 -5857.40 -5904.23 -5361.12 -4242.36 -2789.32 -1715.97 -2810.20 -3417.10 -3740.47 -3828.60 -4056.65 -4493.49 -5086.63 -5231.41 -5240.00 -5022.69 -4505.42 -3284.49 -2447.85 -2315.88 -2665.47 -3156.85 -3254.40 -3331.76 -3331.65
-14215.96 -14216.83 -14231.42 -14207.77 -14158.48 -14133.00 -14171.49 -14312.08 -14465.73 -14593.73 -14710.35 -14822.97 -14974.46 -15079.33 -15217.33 -15323.99 -15439.95 -15536.34 -15676.42 -15765.10 -15599.92 -15053.27 -14621.70 -14083.85 -13998.71 -14250.99 -14231.17 -10136.47 -3986.85 -60.66 150.47 170.94 193.65 220.24 335.57 386.96 471.41 641.44 833.81 983.03 770.33 1005.27 1362.18 1654.69 1555.57 1222.14 879.89 788.04 549.81 415.24 381.81 375.37 344.71 337.26 314.32 318.91 316.66 287.90 303.05 317.81 305.84 304.88 312.45 287.70 308.04 333.30 322.52 321.09 329.16 319.22 315.07 315.65 322.55 348.15 362.04 385.09 395.74 407.88 419.62 439.62 447.80 464.74 476.60 498.62 509.62 518.64 533.48 546.65 553.87 558.58 549.63 543.94 534.38 505.79 497.54 497.39 499.00 514.71 565.44 592.38 811.83 913.77 850.84 501.19 272.58 163.81 125.94 -2745.92 -3976.53 -4276.14 -4434.32 -4606.90 -4737.80 -5080.79 -5444.19 -5773.33 -5869.91 -5889.36 -5666.01 -4426.64 -2601.61 -2184.71 -2117.33 -3279.05 -3531.17 -3781.22 -3904.93 -4312.52 -4684.54 -5007.42 -4994.27 -4999.81 -4729.99 -3373.40 -2659.92 -2262.97 -2476.49 -2986.25 -3099.10 -3026.52 -2980.28
-14250.43 -14250.34 -14326.46 -14332.44 -14275.03 -14269.41 -14377.11 -14404.72 -14520.14 -14643.71 -14749.31 -14846.87 -15032.63 -15143.45 -15286.27 -15348.14 -15410.32 -15499.43 -15611.93 -15719.25 -15562.44 -15063.27 -14384.94 -14094.89 -13973.77 -14275.79 -14215.22 -7768.54 -1280.02 92.62 175.79 216.62 258.80 286.92 339.69 461.42 511.09 747.49 810.49 1010.48 970.88 967.94 1188.40 1240.33 1415.99 1205.20 988.88 754.68 627.22 510.96 491.94 443.40 386.44 391.45 377.44 369.57 388.64 342.32 324.05 345.29 363.48 376.49 359.00 366.25 379.54 355.03 355.83 369.90 356.95 349.63 339.86 338.49 342.41 353.36 377.54 387.13 400.87 418.23 427.56 442.54 451.42 469.88 490.15 511.48 521.73 535.38 550.07 567.43 584.04 583.27 573.61 556.91 544.53 540.43 518.41 505.88 499.25 523.51 566.92 575.53 752.05 913.76 963.88 645.44 297.96 164.40 123.78 -784.55 -3260.63 -4345.92 -4466.05 -4618.61 -4998.73 -5392.85 -5592.40 -5764.08 -5839.48 -5854.89 -5517.82 -5071.22 -2529.11 -1924.42 -2296.33 -2840.39 -3082.02 -3707.23 -3912.64 -4339.25 -4751.60 -4765.94 -4905.61 -4898.94 -4773.00 -3720.93 -2782.35 -2260.98 -2330.63 -2623.44 -2730.72 -2690.65 -2690.55
-14298.93 -14298.83 -14435.05 -14491.57 -14512.55 -14460.01 -14524.36 -14512.41 -14563.35 -14705.13 -14771.86 -14927.20 -15072.82 -15173.22 -15196.37 -15182.95 -15254.70 -15197.04 -15226.77 -15303.50 -15073.29 -14490.36 -13663.99 -13516.88 -13427.03 -10287.01 -7752.94 -4531.72 -1249.00 171.03 206.33 239.43 268.60 345.72 341.15 399.26 604.62 707.49 880.07 1024.87 1075.52 1026.27 1008.16 991.84 1190.99 1283.98 1018.26 842.04 686.61 609.77 571.72 456.05 423.31 425.11 463.09 445.46 416.32 367.85 391.91 423.50 427.15 415.73 414.27 384.62 390.11 376.34 396.95 391.35 383.97 385.91 374.88 367.02 363.14 372.75 379.78 389.37 405.86 421.70 433.73 448.53 466.94 496.07 506.37 537.93 547.17 560.19 569.05 585.91 596.31 603.20 605.91 588.81 575.66 558.89 532.40 516.22 504.58 517.52 565.66 572.00 637.60 827.85 951.26 736.83 363.57 235.40 125.77 -497.39 -3004.58 -4236.98 -4543.46 -4663.21 -5132.32 -5467.51 -5635.94 -5708.23 -5797.92 -5805.19 -5629.85 -4141.38 -2683.11 -1852.20 -1889.13 -2439.87 -3140.97 -3519.15 -3932.86 -4097.53 -4252.94 -4615.95 -4898.92 -4881.20 -4701.37 -3862.52 -2778.74 -2239.98 -2153.92 -2366.68 -2498.00 -2461.82 -2461.75
-14362.93 -14362.82 -14561.12 -14652.80 -14728.10 -14712.31 -14668.34 -14694.23 -14716.65 -14754.23 -14828.52 -15035.54 -15188.29 -15266.44 -15039.24 -14893.20 -14654.58 -14467.81 -14730.11 -14606.69 -14298.88 -13588.88 -12911.92 -12076.58 -10135.32 -8263.87 -1384.41 -802.95 147.33 205.67 239.05 242.96 270.26 361.74 404.12 397.36 453.67 613.45 804.77 735.31 755.62 880.15 840.30 921.20 1066.76 1396.32 1184.69 971.27 900.45 716.45 605.12 487.46 539.23 509.52 553.50 481.19 442.43 449.02 446.67 534.92 512.48 461.10 454.82 439.11 432.22 422.91 432.19 416.34 406.50 411.60 393.72 391.19 374.36 382.15 380.72 404.39 420.98 429.31 441.79 452.36 482.11 503.08 515.85 552.05 559.04 574.96 592.89 599.83 618.18 637.07 632.39 622.13 593.82 581.14 537.90 524.44 514.26 502.04 520.25 556.13 577.03 658.12 947.15 917.22 471.20 202.17 126.54 116.61 -2402.64 -4030.22 -4423.69 -4695.49 -5069.66 -5218.43 -5525.31 -5605.38 -5746.92 -5758.23 -5537.58 -4134.57 -2616.94 -1561.40 -1766.19 -2342.46 -2884.93 -3403.52 -3704.64 -4113.54 -4439.91 -4787.51 -4889.71 -4858.58 -4723.30 -3805.25 -2955.51 -2276.80 -2041.25 -2172.55 -2171.79 -2228.45 -2228.37
-14425.97 -14445.77 -14581.40 -14824.38 -14860.67 -14890.22 -14908.73 -14815.38 -14808.29 -14857.76 -14962.11 -15146.38 -15280.35 -15243.51 -14904.84 -14490.86 -14254.13 -14198.31 -14313.49 -14078.64 -13605.66 -12631.78 -10959.83 -9732.82 -8399.31 -5031.56 -1541.43 122.89 132.32 179.51 232.57 286.42 360.66 419.14 462.86 517.76 553.68 554.63 542.49 569.40 628.40 688.46 866.78 1044.69 1212.19 1354.25 1206.91 1113.87 996.80 747.88 569.28 516.90 595.41 598.67 568.51 506.95 476.73 473.44 528.53 622.16 553.56 536.18 529.83 488.68 462.87 442.60 458.22 453.88 436.97 443.73 414.59 407.95 399.68 395.83 407.65 415.18 421.99 437.44 447.63 468.33 497.74 505.31 517.93 555.33 567.16 586.18 614.13 626.01 637.39 651.93 648.57 648.11 618.54 598.63 579.71 547.45 521.11 504.72 510.81 531.73 553.02 645.37 877.71 879.41 621.15 232.03 138.69 117.90 -1489.90 -3275.02 -4247.62 -4486.78 -4740.81 -5043.83 -5282.64 -5610.62 -5704.51 -5786.82 -5488.78 -4159.96 -2559.72 -1484.37 -1976.89 -2147.56 -2802.35 -3310.71 -3687.85 -3991.82 -4592.46 -4758.44 -4868.74 -4837.95 -4476.07 -4064.53 -2971.33 -2356.24 -2002.93 -1981.89 -2005.68 -2050.20 -2050.17
-14482.00 -14481.90 -14701.06 -14890.51 -14992.52 -15038.24 -15031.91 -14985.93 -14933.02 -14953.11 -14993.60 -15130.00 -15216.90 -15177.48 -14755.28 -14272.24 -14033.97 -13935.47 -13645.83 -13564.55 -12734.48 -11133.09 -9464.41 -7469.86 -6646.20 -4449.85 -1140.43 129.41 158.10 186.25 243.51 324.94 408.52 486.35 574.61 578.37 699.17 740.51 690.73 715.56 764.90 728.45 844.76 1071.19 1297.44 1311.25 1083.06 964.27 673.99 657.30 599.44 551.74 654.03 663.13 555.56 509.39 527.87 522.80 618.66 702.10 696.08 618.56 553.06 526.80 501.02 493.24 496.58 473.99 466.89 461.23 455.91 430.69 421.64 422.71 419.68 423.20 430.66 440.58 460.82 496.83 503.84 512.93 542.54 555.39 573.33 599.63 616.38 639.02 650.48 660.23 664.37 659.95 640.10 610.40 591.68 538.66 523.68 512.05 507.54 515.17 536.24 565.71 753.97 842.42 496.29 222.09 171.77 125.56 114.57 -2063.96 -3699.38 -4532.29 -4558.18 -4913.52 -5183.64 -5525.06 -5730.21 -5738.73 -5383.54 -4244.65 -2235.10 -1571.20 -1619.46 -2212.05 -2578.79 -3445.18 -3832.70 -3928.60 -4267.69 -4603.49 -4853.38 -4831.66 -4442.96 -4026.86 -2998.34 -2397.58 -1938.20 -1840.05 -1825.41 -1931.33 -1931.34
-14545.55 -14545.44 -14764.88 -14948.21 -15076.27 -15126.39 -15132.88 -15039.31 -15001.57 -14986.66 -15033.67 -15068.79 -15117.85 -14997.40 -14609.38 -14084.64 -13693.53 -13428.51 -13001.97 -12245.21 -11123.01 -9781.98 -7371.18 -5903.08 -5688.13 -1135.78 136.78 163.98 200.53 216.90 279.96 358.37 393.52 467.61 635.41 705.99 695.59 776.16 749.58 865.45 1037.39 928.35 846.16 1032.99 1275.63 1300.75 1152.87 889.69 774.99 714.94 714.83 643.75 717.52 664.77 591.56 660.10 612.19 577.44 685.67 743.00 691.21 633.01 580.78 543.09 546.77 513.38 514.17 508.89 496.52 486.92 469.62 465.04 448.29 440.86 433.58 432.08 444.32 449.25 478.42 497.76 508.57 519.33 542.90 560.75 581.06 602.38 615.60 645.33 660.24 671.57 672.82 660.78 635.10 591.24 578.24 545.38 514.51 492.15 488.35 491.21 502.38 494.77 659.47 773.08 424.47 228.37 188.83 136.13 115.84 -2286.38 -4412.39 -4527.49 -4687.16 -5054.62 -5258.79 -5503.64 -5701.94 -5715.33 -5179.68 -4225.91 -2157.83 -1501.06 -1694.78 -2481.08 -2867.15 -3289.22 -3653.15 -3779.72 -4172.22 -4700.92 -4849.09 -4830.56 -4608.31 -3834.40 -3114.00 -2455.96 -1996.39 -1714.49 -1705.32 -1825.80 -1825.81
-14626.57 -14647.37 -14804.18 -15021.45 -15118.64 -15138.61 -15121.77 -15096.99 -15054.84 -15032.98 -15055.55 -15043.03 -14929.78 -14796.81 -14427.03 -13705.00 -12952.51 -12101.68 -11503.65 -11079.80 -10815.76 -8329.09 -5820.59 -5122.77 -3205.26 134.21 161.48 185.98 210.44 256.79 278.30 322.02 358.15 381.65 489.88 554.30 556.41 653.58 740.19 949.33 1323.52 1137.68 964.87 1075.46 1315.91 1213.22 1158.78 987.38 928.61 887.74 726.82 709.94 800.63 740.47 663.81 707.50 662.34 678.23 843.61 804.74 688.31 667.09 644.28 587.63 574.70 557.23 553.89 530.67 521.02 530.95 498.92 481.01 471.60 467.74 455.18 449.18 449.14 461.02 487.77 496.46 514.99 532.30 542.07 563.02 585.44 607.41 624.61 656.81 669.87 675.79 674.14 664.11 631.66 579.22 557.21 528.53 511.25 476.22 467.76 473.14 462.79 443.19 540.76 582.76 410.19 221.28 188.85 137.79 114.72 -1543.70 -4192.09 -4671.10 -4829.15 -5088.44 -5317.94 -5570.67 -5712.55 -5693.87 -5197.98 -3682.16 -2122.07 -1755.14 -1883.58 -2734.54 -3183.95 -3367.49 -3473.20 -3776.84 -4109.67 -4639.51 -4825.60 -4819.37 -4639.69 -3871.37 -3244.79 -2740.26 -1945.52 -1678.77 -1626.02 -1763.11 -1763.15
-14674.64 -14674.54 -14861.71 -15030.28 -15098.92 -15088.36 -15060.19 -15042.61 -14995.31 -14990.52 -14967.38 -14911.04 -14750.98 -14221.03 -13348.12 -12402.46 -11497.63 -11076.11 -10580.69 -10141.09 -9047.48 -7610.92 -5543.28 -4589.40 -3517.44 -1691.64 173.42 199.75 233.36 251.21 331.77 404.01 423.28 505.55 550.20 600.42 764.69 845.08 885.83 1049.46 1308.90 1245.99 1167.01 1117.41 1134.00 1088.00 1155.71 1130.32 1074.56 973.29 776.76 825.73 840.96 764.94 645.10 701.83 695.14 770.98 865.98 811.20 716.33 757.64 690.44 634.28 598.94 586.82 564.83 555.00 562.74 555.81 535.47 524.52 505.08 478.51 461.01 454.45 459.41 477.16 488.80 493.48 525.31 532.67 543.37 565.93 583.16 609.33 629.32 649.99 670.11 675.14 670.48 650.50 625.74 588.68 542.50 525.00 480.06 464.25 460.05 449.79 424.48 413.20 441.89 461.72 348.36 214.66 167.47 114.86 29.60 -2256.20 -4542.48 -4718.18 -4810.97 -5068.28 -5432.84 -5586.20 -5678.12 -5490.55 -5106.66 -3334.69 -2371.66 -1814.18 -2327.04 -2840.54 -3249.43 -3346.47 -3441.79 -3698.25 -3986.39 -4475.02 -4814.86 -4821.90 -4663.89 -3886.84 -3331.65 -2806.53 -2108.58 -1581.68 -1525.03 -1641.98 -1650.90
-14659.01 -14658.95 -14824.02 -14995.09 -15036.26 -14988.92 -14887.43 -14848.61 -14890.45 -14942.83 -14878.05 -14584.68 -13832.85 -13474.14 -12560.89 -11382.33 -10746.72 -10384.95 -10257.82 -9956.91 -9015.52 -7367.95 -5311.71 -4323.13 -3671.89 -2226.99 -386.52 187.52 229.11 272.83 343.17 401.88 509.35 513.52 697.07 695.91 890.84 1153.12 1155.82 1149.06 1296.84 1286.91 1088.20 1022.84 1002.49 961.62 992.11 1050.86 1037.73 930.44 868.58 913.23 865.36 716.63 701.34 733.19 771.68 852.71 865.98 787.80 800.66 833.14 735.49 660.95 645.08 621.26 603.91 591.04 597.00 589.66 575.26 540.92 506.82 485.46 477.05 466.61 466.93 477.71 489.56 499.18 518.29 530.16 545.64 566.53 581.04 608.56 620.80 651.24 671.28 675.91 670.83 640.26 605.85 593.50 531.16 522.18 497.54 476.65 461.86 446.00 379.43 369.05 382.24 376.26 301.40 190.93 162.79 110.25 56.17 -2793.83 -4584.82 -4600.89 -4866.77 -5230.02 -5533.21 -5611.30 -5617.20 -5216.89 -4548.54 -3056.84 -1668.19 -2074.20 -2324.12 -2908.05 -3214.98 -3381.71 -3480.67 -3690.76 -4030.08 -4474.67 -4809.67 -4824.36 -4563.45 -3863.01 -3360.59 -2866.42 -1938.36 -1619.39 -1329.92 -1403.04 -1402.95
-14629.93 -14629.88 -14824.01 -14968.69 -14945.32 -14806.35 -14650.15 -14598.91 -14746.94 -14807.50 -14738.41 -14177.33 -12932.14 -11672.10 -10349.41 -10117.80 -9771.09 -10054.57 -10341.61 -10179.71 -9117.18 -7271.19 -5545.69 -4037.57 -3325.30 -1942.05 -444.18 180.92 223.08 257.12 336.33 407.68 512.92 579.91 572.51 714.18 916.06 1205.46 1351.64 1405.00 1395.87 1226.32 1126.97 1005.34 932.28 937.65 916.03 940.01 981.24 969.40 969.35 957.87 875.15 797.93 808.75 802.47 834.24 950.94 890.31 819.81 918.02 847.34 758.18 683.04 676.58 687.65 634.74 608.04 605.79 604.42 579.98 553.95 519.01 489.08 482.80 478.48 476.72 479.28 488.71 501.60 523.54 534.57 551.50 563.21 593.85 608.73 625.41 652.47 665.92 672.67 664.23 649.02 626.70 599.76 550.95 530.42 514.99 486.00 468.32 428.73 392.85 360.01 341.65 288.70 218.18 197.05 140.10 113.18 56.26 -1254.73 -3072.06 -4421.33 -4779.30 -5125.26 -5520.11 -5540.33 -5484.70 -4908.85 -3820.10 -2333.60 -1490.97 -2208.45 -2868.73 -3064.64 -3201.88 -3382.43 -3534.78 -3754.27 -4082.24 -4568.69 -4813.13 -4822.93 -4379.37 -3743.52 -3252.05 -2551.86 -1763.63 -1378.46 -1145.16 -1220.76 -1220.73
-14512.84 -14537.49 -14738.03 -14914.19 -14779.28 -14592.83 -14186.60 -14247.94 -14362.96 -14562.50 -14288.24 -13511.50 -11524.10 -10423.67 -9510.32 -8966.20 -9147.97 -9846.00 -10371.32 -10310.05 -9229.63 -7150.40 -5817.77 -4199.99 -3135.96 -1323.42 146.54 184.41 194.35 297.44 353.66 415.17 485.25 638.81 708.44 706.38 859.68 984.49 1347.32 1394.07 1355.22 1243.45 1064.28 902.54 873.11 843.01 838.35 854.98 909.97 924.84 958.21 975.75 886.94 846.30 927.70 985.94 1045.12 1068.66 903.89 856.73 970.15 893.56 746.44 779.31 800.98 805.46 676.16 641.46 606.21 606.98 579.01 548.07 533.61 512.98 492.85 486.69 484.33 487.08 490.13 500.43 516.97 532.42 553.88 571.56 587.29 605.00 621.71 648.88 657.66 659.27 657.30 639.98 623.55 606.21 565.56 540.83 515.03 470.78 451.08 408.21 386.19 366.49 332.57 266.19 228.85 178.38 124.32 118.89 102.99 42.79 -2150.49 -4511.34 -4628.37 -5013.53 -5407.58 -5405.14 -5131.10 -4454.44 -2535.97 -1157.64 -1025.91 -1321.83 -2117.98 -2875.00 -3225.58 -3502.90 -3812.96 -3995.38 -4250.49 -4576.40 -4810.65 -4825.54 -4459.81 -3787.02 -3094.74 -2325.01 -1711.39 -1035.91 -1085.74 -1299.85 -1300.01
-14336.01 -14336.07 -14477.12 -14515.15 -14321.61 -13941.89 -13552.38 -13566.11 -13820.75 -13367.27 -12792.81 -11909.78 -10639.35 -8998.54 -8503.16 -8229.06 -8635.82 -9395.98 -10296.08 -10249.52 -9481.91 -7217.90 -5547.73 -4195.40 -2558.57 -394.10 121.89 164.19 184.41 250.73 294.15 372.07 485.15 550.07 745.36 824.46 1033.92 1145.88 1307.71 1358.71 1284.32 980.97 934.11 854.36 851.12 800.79 800.03 797.95 832.18 875.58 942.67 972.22 956.37 938.80 989.47 1033.52 1142.14 1149.97 1009.71 1001.03 988.82 843.14 824.84 920.47 916.74 858.36 748.80 650.33 620.17 611.22 597.97 566.93 536.00 522.62 503.51 493.11 489.57 490.98 493.82 504.54 513.21 529.83 550.82 567.31 579.33 607.73 622.72 641.04 644.70 647.55 641.56 633.29 618.65 598.29 571.14 540.09 493.77 450.18 436.61 364.80 359.54 354.50 319.46 262.61 219.26 185.03 140.14 113.60 82.01 -609.62 -2770.55 -4539.41 -4525.40 -4891.00 -5280.98 -5264.84 -4699.27 -3956.52 -1798.79 -680.92 -590.50 -946.80 -2178.59 -2945.54 -3200.70 -3601.80 -3774.05 -4058.28 -4288.23 -4617.60 -4838.58 -4778.16 -4424.80 -3678.79 -2901.06 -2321.49 -1106.06 -850.87 -1192.34 -1543.85 -1544.14
-14248.56 -14241.83 -14001.36 -13463.50 -12954.39 -12678.74 -12228.13 -11817.46 -11899.74 -11873.83 -10975.20 -9713.04 -9401.79 -8681.72 -8239.00 -8118.77 -8394.34 -9156.13 -9935.36 -9997.83 -9326.08 -7393.07 -5618.68 -4002.33 -3500.31 -583.85 136.37 171.49 178.26 231.11 345.19 446.24 572.90 748.75 843.75 892.70 979.35 1153.50 1247.48 1227.41 1153.83 974.07 962.99 868.27 772.59 783.75 755.73 759.04 796.13 793.09 863.86 916.97 940.68 986.43 1008.14 1004.28 1085.70 1113.50 1182.65 1234.52 1016.55 917.05 987.66 967.86 922.15 800.83 734.75 665.78 652.74 613.60 605.79 577.19 545.17 528.18 510.65 499.60 494.51 495.10 501.35 512.75 520.15 530.68 545.64 561.94 576.59 606.84 614.77 619.88 631.17 628.81 623.07 618.15 607.06 587.68 565.97 541.66 488.32 443.07 410.00 374.39 341.99 329.64 304.91 233.22 202.51 172.65 144.98 117.90 -76.79 -730.20 -2749.29 -4507.14 -4466.60 -4716.21 -5274.84 -5297.31 -4002.17 -2866.96 -1023.24 -574.20 -474.45 -1048.40 -1800.46 -2517.25 -3213.35 -3698.00 -3823.67 -4005.81 -4255.26 -4618.23 -4844.65 -4773.68 -4507.74 -3739.02 -2667.64 -1818.41 -1072.01 -850.20 -1242.35 -1749.36 -1749.63
-13739.31 -13739.82 -12934.49 -12222.51 -11522.26 -10810.03 -10470.82 -10144.99 -9952.84 -9938.16 -9783.73 -9199.28 -8796.06 -8628.19 -8474.84 -8334.54 -8543.81 -9003.31 -9546.37 -9608.59 -8892.37 -7919.17 -5460.09 -4139.53 -3168.62 -604.19 143.92 172.00 182.51 236.68 304.38 420.25 548.45 672.96 761.82 739.28 803.33 894.31 980.04 926.22 886.87 849.05 853.04 797.65 732.47 696.60 726.37 731.37 754.01 779.68 804.50 815.43 884.96 910.60 947.70 965.57 995.82 1050.63 1166.44 1201.47 1138.56 1137.76 1057.46 951.95 868.90 763.71 720.11 700.57 677.16 633.68 612.62 582.97 558.05 537.33 516.02 504.03 498.41 499.38 504.07 512.59 524.92 533.79 547.42 556.24 581.19 606.75 609.42 609.54 608.88 608.52 604.44 605.60 596.22 579.19 567.36 544.11 494.85 461.65 404.14 412.29 394.90 292.94 252.55 220.07 195.48 162.42 149.21 -26.27 -464.59 -1354.20 -3436.53 -4200.09 -4367.70 -4614.78 -4910.63 -5035.96 -3903.81 -2053.14 -734.11 -441.24 -466.34 -901.66 -1426.52 -2531.10 -3153.27 -3622.68 -3809.03 -3953.99 -4250.47 -4697.51 -4843.88 -4843.29 -4418.83 -3167.09 -2230.10 -1478.70 -894.20 -1024.95 -1518.86 -1663.25 -1663.22
-12339.80 -12341.71 -11781.94 -10742.06 -10276.41 -9413.83 -9294.02 -9366.81 -9462.80 -9582.61 -9422.27 -9025.95 -8990.87 -8934.90 -8735.65 -8628.59 -8520.17 -8717.19 -9033.76 -9011.72 -8566.03 -7390.29 -5723.07 -3973.10 -3011.23 -1040.78 147.12 177.36 196.57 223.81 275.12 386.98 448.72 617.97 561.56 579.78 751.95 746.71 800.21 760.56 684.19 677.02 693.59 692.29 673.09 673.24 685.58 695.67 701.82 748.24 775.24 796.47 833.64 866.02 889.60 936.62 940.59 998.14 1030.11 1131.74 1186.35 1149.11 1037.38 861.91 839.04 827.91 817.60 772.66 696.45 682.07 637.88 602.46 570.04 552.50 522.87 509.03 503.39 503.60 506.64 513.78 525.37 540.08 554.93 567.23 589.48 600.61 605.09 603.59 597.50 589.66 580.63 576.45 562.55 550.84 538.59 518.35 493.23 439.27 380.83 363.97 342.42 256.86 199.96 204.44 172.97 141.54 136.33 -249.92 -778.01 -2075.04 -3487.22 -3891.37 -4600.73 -4807.53 -4771.06 -4511.01 -3562.80 -1757.77 -676.53 -377.33 -518.75 -768.50 -1118.94 -2396.53 -3408.89 -3787.16 -3897.03 -4019.57 -4226.78 -4649.83 -4848.48 -4686.87 -4094.97 -2729.77 -1595.94 -1121.06 -1026.19 -1374.41 -1520.62 -1404.44 -1404.16
-11216.99 -11218.94 -10780.38 -10208.97 -9748.23 -9253.41 -9327.63 -9598.47 -9833.08 -9957.90 -9705.80 -9567.70 -9301.42 -9353.14 -9134.68 -8820.79 -8593.13 -8566.03 -8601.11 -8685.51 -8185.92 -7178.30 -5505.54 -4153.37 -2929.27 -1423.64 -139.26 175.44 203.56 251.41 298.08 364.29 418.26 433.08 492.46 643.28 767.32 693.10 645.59 713.89 633.53 615.89 625.59 644.19 658.33 664.65 666.79 679.49 694.86 718.68 754.11 768.91 802.26 849.12 867.12 904.71 923.20 963.93 1008.03 1048.33 1152.49 1184.85 1150.43 981.11 946.34 987.19 1006.01 849.29 741.60 709.51 648.99 613.61 588.02 544.46 524.19 507.07 500.73 502.98 506.60 517.40 530.82 542.17 554.41 566.18 592.18 594.78 598.22 593.22 582.20 578.96 555.80 545.69 535.86 513.76 501.55 504.21 484.21 469.84 444.56 376.09 270.82 242.69 156.97 162.37 134.98 114.54 -1.36 -313.11 -759.14 -1577.19 -2528.93 -4170.03 -5097.72 -5415.83 -5309.58 -4830.74 -3010.05 -1152.72 -503.14 -460.12 -546.25 -969.99 -1849.39 -3230.00 -3551.71 -3846.53 -3920.87 -4036.09 -4234.52 -4506.83 -4830.76 -4516.07 -3381.06 -2024.10 -1226.13 -1190.97 -1382.28 -1497.00 -1667.29 -1644.28 -1644.88
-11060.64 -11060.86 -10763.76 -10448.94 -10147.20 -9987.15 -10025.99 -10201.86 -10323.82 -10321.62 -10189.44 -10075.28 -9995.27 -9820.95 -9470.05 -8867.01 -8603.13 -8541.96 -8552.32 -8507.65 -8372.34 -7306.44 -5694.34 -4563.08 -3021.01 -739.94 158.08 186.49 216.54 230.11 289.37 314.49 361.43 422.06 514.92 630.26 678.23 637.11 542.27 591.49 604.15 597.52 610.60 599.36 613.66 632.64 650.13 667.83 690.12 699.03 750.17 773.90 793.89 844.17 858.19 896.38 928.81 977.19 992.24 1062.01 1165.66 1194.33 1144.53 1211.74 1141.14 1083.71 1105.70 1017.09 870.01 745.22 667.04 626.76 581.75 532.09 518.57 506.28 501.31 505.34 509.06 522.69 538.10 544.90 566.40 577.51 587.36 596.99 593.14 582.88 573.53 559.40 546.40 533.87 524.68 497.58 475.28 471.35 472.53 466.93 446.08 362.73 248.95 194.77 155.57 126.17 96.22 4.92 -126.49 -603.87 -1148.24 -1531.83 -3565.45 -4762.35 -5404.27 -5625.69 -5414.36 -4309.69 -1984.53 -1003.26 -660.96 -756.47 -1055.86 -1178.44 -2546.84 -3830.46 -4005.82 -3820.58 -3838.07 -4045.83 -4515.01 -4740.75 -5088.18 -4564.29 -3073.11 -1642.94 -1372.79 -1439.60 -1640.28 -1813.00 -2026.07 -2536.16 -2538.83
-11163.48 -11162.82 -10974.03 -10730.11 -10650.63 -10607.90 -10624.53 -10674.55 -10783.85 -10734.67 -10555.81 -10396.22 -10302.77 -10030.48 -9608.88 -8978.41 -8636.07 -8527.46 -8543.04 -8454.01 -7936.20 -7037.81 -5890.80 -3980.52 -2719.45 -934.55 162.82 183.86 215.38 243.52 269.47 301.72 351.93 413.47 419.68 429.34 525.64 545.28 502.71 475.60 507.17 532.65 546.21 554.62 584.18 597.94 642.56 659.45 678.94 701.16 730.74 762.61 794.86 831.83 865.78 887.28 933.24 965.21 1020.85 1094.34 1052.86 1045.54 974.50 1067.74 1029.31 992.80 1073.42 1093.39 936.66 839.72 765.26 646.17 570.19 534.96 512.16 503.20 501.45 507.27 514.21 529.84 539.30 554.36 574.30 587.66 591.07 593.61 580.85 573.99 563.10 543.79 533.65 523.11 503.20 485.82 448.78 439.86 439.80 457.91 394.88 291.70 201.74 172.75 122.58 106.43 85.29 -107.49 -642.68 -1322.84 -1292.26 -1961.22 -3543.40 -4402.77 -5515.34 -5575.06 -5130.29 -3885.99 -2197.66 -916.44 -689.34 -828.37 -1368.34 -1815.57 -3864.95 -4113.41 -3734.85 -3613.63 -3868.91 -4093.47 -4788.43 -5255.62 -5161.90 -4073.12 -2527.82 -1610.53 -1607.11 -1888.07 -2039.28 -2349.58 -2829.43 -3482.81 -3487.82
-11235.81 -11236.57 -11120.12 -10983.09 -10872.03 -10850.82 -10894.11 -11037.21 -10977.79 -10915.84 -10834.48 -10647.11 -10515.71 -10318.23 -9671.85 -9224.24 -8874.42 -8630.95 -8554.82 -8351.59 -7713.64 -6465.54 -5341.78 -3720.37 -3417.47 -1252.48 -195.45 181.64 212.39 226.44 268.48 280.16 300.39 334.46 344.83 387.92 408.99 412.97 437.38 447.54 477.14 501.53 510.48 537.70 567.90 577.53 617.44 651.35 670.99 700.31 730.91 776.56 797.69 828.18 881.97 904.78 950.77 1002.71 1046.79 1120.23 1071.12 936.41 786.28 836.05 780.88 815.45 849.91 837.46 900.04 759.01 727.18 578.81 547.37 522.76 507.16 500.57 502.07 508.51 520.50 533.67 548.11 561.92 580.23 586.85 588.00 583.56 573.60 568.61 552.76 528.45 523.85 511.59 490.33 465.85 427.76 407.45 394.43 463.71 365.98 226.18 177.60 146.94 117.35 90.62 -107.13 -772.27 -1512.06 -1524.11 -1622.28 -2091.77 -3454.30 -4783.06 -5334.74 -5524.49 -5030.99 -3453.66 -1862.76 -732.83 -701.25 -829.39 -1388.48 -3091.90 -4347.69 -4135.34 -3757.47 -3794.85 -3922.06 -4758.59 -5586.69 -5589.00 -5293.87 -3702.10 -2457.13 -2204.01 -2371.19 -2412.76 -2580.45 -2957.01 -3425.11 -4106.42 -4109.90
-11370.85 -11372.51 -11316.94 -11202.35 -11210.92 -11145.11 -11112.40 -11128.42 -11047.49 -10972.53 -10935.84 -10871.29 -10697.77 -10453.35 -9889.49 -9343.79 -8990.79 -8846.58 -8717.10 -8302.35 -6871.81 -5592.10 -4443.85 -3308.72 -3230.73 -2459.59 -869.28 165.08 179.57 203.45 234.02 230.43 250.72 280.58 323.43 372.54 362.06 366.83 383.12 395.42 431.23 450.33 471.38 519.24 524.80 553.98 587.05 631.71 655.56 696.79 745.78 807.47 821.76 858.26 903.22 926.55 974.69 1034.28 1140.78 1124.65 1101.05 1050.18 902.63 734.18 633.94 695.77 688.30 648.00 714.47 585.74 582.47 556.41 519.01 503.50 500.15 500.21 499.87 506.84 520.30 532.40 554.89 570.18 584.85 590.03 589.76 580.32 566.88 551.69 536.87 524.20 507.39 486.26 480.64 451.47 417.55 374.94 374.44 367.21 256.57 208.02 179.63 121.35 117.02 89.80 -320.10 -1195.41 -1387.81 -1296.49 -1442.00 -2162.62 -3425.80 -4979.08 -5433.51 -5479.51 -5288.46 -4255.55 -1347.43 -938.29 -692.26 -895.90 -1370.64 -3160.66 -4207.36 -4176.61 -4232.53 -4703.23 -5597.83 -6158.17 -6390.97 -6251.36 -5481.58 -3875.51 -2908.73 -2551.83 -2649.89 -2762.35 -3042.06 -3717.88 -4004.76 -4478.01 -4477.15
-11548.49 -11548.77 -11510.73 -11441.57 -11460.42 -11485.55 -11431.25 -11327.60 -11209.54 -11084.63 -10981.79 -10896.92 -10727.30 -10600.51 -10285.67 -9700.54 -9503.76 -9172.30 -8708.53 -7959.59 -7043.21 -5445.86 -4262.89 -3500.23 -3359.81 -3350.09 -1664.68 -639.98 143.85 169.37 175.83 203.50 218.56 224.49 264.52 297.47 303.34 327.79 351.86 374.75 393.74 429.48 437.54 473.00 522.36 552.31 579.73 603.63 628.87 696.36 777.71 795.73 897.28 952.81 959.19 865.13 907.55 1083.27 1120.15 996.96 901.08 898.61 793.71 752.28 635.61 605.06 606.46 562.72 565.50 532.72 501.65 496.71 484.11 481.36 486.96 493.51 495.70 505.36 519.01 546.54 567.70 585.09 588.88 593.93 592.56 581.05 551.24 534.16 526.16 505.81 484.28 480.51 468.08 446.49 418.19 394.00 348.79 303.60 227.80 205.44 169.59 133.42 109.48 -24.13 -800.96 -1322.97 -1272.19 -1303.09 -1439.04 -2355.66 -3266.06 -5307.01 -5453.01 -5621.93 -5474.60 -4338.93 -2542.70 -1452.77 -951.55 -1121.13 -1709.42 -2836.32 -4213.61 -4221.93 -4456.78 -5106.26 -6584.78 -7184.50 -7300.81 -6722.73 -5452.60 -4398.90 -3550.53 -3029.12 -2992.77 -3085.88 -3543.20 -4015.07 -4318.67 -4659.46 -4659.30
-11678.93 -11678.96 -11637.08 -11630.37 -11632.30 -11644.04 -11499.25 -11358.68 -11233.13 -11133.27 -11073.38 -10994.55 -10927.56 -10749.90 -10354.33 -9957.09 -9757.64 -9379.85 -8632.58 -8100.62 -7114.85 -5999.50 -4152.73 -3687.75 -3482.73 -3675.78 -3290.63 -2626.26 -485.32 158.61 157.75 181.18 208.03 223.85 251.59 284.76 286.31 293.13 329.93 351.56 367.98 388.97 432.85 461.89 515.41 527.11 554.09 572.70 589.18 684.02 707.38 748.56 844.14 1067.70 989.31 835.26 787.83 956.56 982.90 884.68 732.36 742.31 669.64 585.69 550.19 528.12 540.98 528.96 508.15 465.09 443.28 469.79 470.02 469.06 472.28 477.88 485.56 501.78 520.37 535.21 565.75 580.41 593.47 596.38 585.48 573.60 550.57 531.88 517.97 500.18 473.39 459.30 442.48 429.71 405.86 389.55 343.66 250.63 229.32 202.05 164.84 124.22 112.36 -270.80 -909.85 -1428.93 -1378.69 -1348.22 -1655.36 -2609.16 -3777.00 -5222.71 -5600.43 -5652.06 -5587.10 -4924.35 -3699.74 -2373.94 -2035.76 -1322.93 -2082.10 -3252.99 -4373.22 -4355.70 -4504.07 -5445.90 -7079.63 -7701.47 -7674.26 -7050.29 -5798.73 -4965.42 -4148.55 -3412.17 -3376.37 -3616.80 -3997.61 -4338.57 -4560.67 -4747.78 -4747.78
-11745.84 -11745.80 -11721.30 -11727.43 -11716.67 -11699.03 -11585.57 -11478.96 -11358.70 -11213.55 -11139.44 -11114.11 -11020.26 -10838.91 -10684.33 -10250.96 -9842.14 -9606.73 -8877.25 -8283.01 -7512.65 -6076.69 -4503.57 -3796.07 -3644.34 -3681.14 -3711.87 -3196.36 -2384.13 -654.18 51.15 157.10 188.49 201.84 211.20 237.58 262.99 283.15 296.63 332.83 353.12 359.34 407.98 435.96 484.85 491.92 510.86 515.57 553.14 646.36 623.43 736.45 826.44 982.86 874.88 742.89 656.12 781.81 710.52 646.88 559.32 517.36 581.15 540.21 526.95 497.08 510.74 468.90 469.90 441.31 429.38 442.59 440.95 452.91 464.39 465.57 474.75 491.96 510.32 542.62 566.62 586.28 592.70 593.40 584.70 563.06 541.69 530.74 509.53 480.74 465.90 433.39 416.38 402.66 376.46 344.83 282.69 234.31 215.93 189.99 150.54 122.95 110.65 -341.52 -999.74 -1407.79 -1373.86 -1425.56 -1599.25 -2860.48 -4216.88 -5088.17 -5650.78 -5700.37 -5724.71 -5548.90 -5079.63 -3475.18 -2680.49 -2231.84 -2571.66 -4191.16 -4606.50 -4788.85 -5125.61 -6173.85 -7566.84 -7791.35 -7433.87 -6928.54 -5957.02 -5408.49 -4536.39 -3819.82 -3746.79 -3958.25 -4210.04 -4457.62 -4673.07 -4794.06 -4794.15
-11777.24 -11777.15 -11771.75 -11761.04 -11763.21 -11739.99 -11686.93 -11557.27 -11408.01 -11264.61 -11210.85 -11167.26 -11120.02 -11031.62 -10795.70 -10489.49 -10132.57 -9843.88 -9365.50 -8962.23 -7885.12 -6311.85 -5075.83 -4140.68 -3827.68 -3719.25 -3700.08 -3263.97 -2521.62 -1175.98 -453.63 142.37 156.02 168.71 180.57 196.15 219.81 244.58 272.16 281.47 322.44 364.75 396.80 413.42 446.84 472.72 477.92 481.49 548.71 553.00 569.28 697.59 701.41 753.87 752.66 686.96 590.74 588.22 531.81 484.96 479.78 447.90 470.76 476.19 458.84 460.61 464.00 462.08 448.12 431.18 425.38 427.42 429.55 439.83 439.56 445.74 465.55 484.24 499.17 537.26 573.61 584.94 589.67 588.62 578.59 564.29 537.72 524.50 508.07 470.02 455.36 412.22 375.65 351.66 343.14 291.50 249.00 223.01 203.46 176.66 153.41 119.14 -59.68 -504.05 -1213.17 -1341.62 -1294.64 -1455.07 -1600.65 -2721.31 -4239.23 -5468.61 -5677.65 -5762.21 -5818.25 -5841.85 -5715.31 -5130.42 -3657.43 -2859.40 -3357.74 -4597.09 -5124.86 -5061.55 -6108.41 -7431.73 -7569.55 -7772.24 -7473.80 -6907.64 -6572.46 -5663.34 -4737.91 -4302.04 -4063.50 -4212.07 -4451.57 -4631.97 -4752.12 -4794.00 -4794.05
-11766.66 -11765.54 -11768.26 -11759.49 -11761.79 -11749.90 -11724.69 -11604.68 -11429.09 -11296.09 -11176.07 -11159.35 -11106.44 -11042.96 -10836.74 -10679.42 -10275.40 -9951.57 -9610.57 -9324.39 -8893.38 -7290.63 -5953.76 -4592.90 -4040.49 -4166.97 -4082.10 -3832.91 -3240.15 -2050.30 -1337.22 -461.31 110.31 122.88 139.67 171.97 198.81 223.35 265.79 286.66 322.91 359.39 383.38 401.90 403.42 419.13 457.96 453.14 489.11 498.36 547.84 620.18 607.33 609.05 673.18 588.50 504.88 510.19 468.49 419.05 377.47 415.53 442.23 454.37 456.22 455.34 455.47 433.94 435.46 426.15 424.59 419.59 418.83 420.60 422.34 437.22 460.24 479.37 505.28 529.90 557.33 576.74 584.56 579.64 572.51 564.73 541.53 522.40 513.49 464.84 443.18 393.70 346.66 329.51 304.35 276.02 233.92 204.68 193.73 149.12 132.69 114.76 23.58 -625.52 -1187.00 -1295.84 -1303.16 -1473.70 -1726.21 -2635.41 -4441.09 -5410.83 -5750.10 -5839.36 -5895.23 -5931.87 -5826.43 -5575.26 -4305.32 -3485.70 -4822.46 -6207.04 -6226.95 -6374.40 -6601.66 -7212.34 -7666.26 -7851.39 -7752.42 -7268.05 -6838.40 -6208.51 -4959.23 -4511.41 -4337.10 -4566.64 -4733.10 -4772.93 -4819.48 -4829.61 -4829.62
-11690.31 -11690.14 -11684.19 -11698.92 -11688.66 -11695.99 -11652.89 -11557.35 -11405.04 -11161.56 -11026.29 -10993.97 -11017.70 -10992.35 -10897.89 -10821.19 -10588.61 -10339.59 -10102.01 -10017.13 -9475.45 -8036.35 -6964.84 -5953.92 -5145.72 -4892.35 -5136.87 -5028.20 -4102.21 -3579.72 -3631.08 -2029.15 67.38 114.33 120.97 145.72 187.59 225.08 243.51 271.59 306.90 335.23 346.67 374.64 383.88 377.21 414.69 422.27 416.73 447.73 484.07 509.89 518.84 504.89 505.39 489.92 462.57 449.26 444.04 420.96 383.77 403.06 426.31 438.53 437.48 441.34 434.74 392.47 389.96 403.41 418.75 398.01 401.12 390.90 411.05 431.16 447.96 476.27 496.44 526.35 549.81 568.82 576.58 573.66 569.31 556.62 531.76 519.37 499.40 453.83 430.46 391.97 348.12 318.26 291.26 258.52 227.43 199.98 176.50 143.60 115.84 -68.94 -520.37 -1026.38 -1184.06 -1237.57 -1343.32 -1590.35 -2173.65 -2927.80 -4773.43 -5499.69 -5808.44 -5860.27 -5889.40 -5927.28 -5912.39 -5734.42 -4448.30 -4680.21 -6626.03 -7132.59 -6812.59 -6780.67 -7126.22 -7518.06 -7908.15 -8035.70 -8017.23 -7731.60 -7429.99 -6905.84 -5173.44 -4810.70 -4675.32 -4726.86 -4778.38 -4843.06 -4870.86 -4883.79 -4883.97
-11580.80 -11576.54 -11579.80 -11602.48 -11617.70 -11621.06 -11569.83 -11478.34 -11277.30 -11011.19 -10867.54 -10825.63 -10781.74 -10778.15 -10813.80 -10851.43 -10730.73 -10616.05 -10429.34 -10224.19 -10091.74 -9235.22 -7408.14 -6834.59 -6552.16 -6468.14 -6068.26 -6203.76 -6007.47 -5492.23 -5181.03 -4010.60 67.50 100.06 109.57 134.02 185.68 206.33 210.26 255.66 267.72 302.38 326.93 343.90 358.30 357.71 377.26 397.59 406.48 425.57 438.68 471.17 489.22 467.03 447.21 451.40 452.84 436.90 418.40 403.05 378.03 377.95 403.35 403.18 405.00 406.35 386.42 376.41 372.07 368.60 382.18 369.85 381.64 382.68 397.01 423.82 440.77 471.27 490.10 518.21 540.12 566.39 571.04 571.29 562.99 551.45 528.17 506.97 490.14 436.51 390.11 361.01 331.66 303.99 264.43 226.31 184.53 174.05 149.12 130.95 57.91 -329.95 -755.12 -1066.93 -1130.69 -1200.38 -1372.18 -1588.75 -1929.50 -2966.21 -4860.10 -5531.07 -5848.94 -5836.15 -5861.45 -5904.88 -5912.84 -5791.87 -4586.93 -5827.28 -7677.49 -7142.65 -6823.78 -6796.00 -7126.08 -7582.70 -7759.39 -8109.87 -8294.90 -8241.68 -7947.48 -7114.45 -5797.21 -5045.49 -4698.78 -4711.08 -4716.59 -4666.10 -4674.91 -4712.85 -4713.27
-11559.88 -11559.84 -11546.41 -11555.33 -11559.86 -11552.16 -11516.71 -11425.10 -11160.64 -10965.65 -10809.02 -10697.28 -10653.82 -10706.26 -10771.14 -10924.43 -10959.40 -10933.02 -10744.46 -10548.15 -10322.24 -9584.69 -8721.51 -7942.20 -7318.96 -7078.81 -7289.03 -7265.51 -6978.95 -7225.61 -7214.20 -7020.69 -4820.93 -3017.72 -548.50 105.72 148.68 186.62 211.52 240.02 253.54 264.97 283.95 306.08 308.38 322.60 335.83 351.27 368.44 389.48 390.96 398.72 440.31 434.59 408.85 406.33 410.92 407.23 396.03 380.86 375.08 373.12 381.18 371.20 364.34 356.33 353.63 365.36 345.37 348.63 348.30 353.02 360.75 370.76 384.96 410.41 429.53 464.47 481.27 512.58 534.32 560.70 569.94 567.51 558.66 540.02 515.41 509.77 459.44 432.86 394.93 357.99 299.12 266.34 235.16 210.98 178.67 149.16 131.32 46.25 -241.02 -531.47 -917.87 -1124.49 -1191.56 -1232.39 -1372.22 -1464.09 -2365.86 -3147.16 -4613.79 -5845.32 -5883.29 -5850.48 -5851.52 -5892.52 -5897.20 -5659.30 -4299.48 -5120.92 -7409.01 -6954.52 -6724.57 -6810.81 -6942.37 -7349.56 -7986.52 -8182.33 -8321.72 -8320.58 -8110.67 -7358.38 -6256.74 -5024.07 -4666.65 -4446.38 -4406.48 -4334.14 -4339.59 -4235.25 -4235.65
-11609.76 -11609.70 -11568.63 -11561.68 -11563.99 -11565.69 -11542.80 -11398.83 -11181.62 -10912.09 -10797.00 -10658.64 -10627.21 -10636.19 -10740.53 -10940.54 -11049.74 -11027.00 -10784.41 -10653.58 -10217.84 -9676.53 -8799.69 -8063.47 -7643.00 -7589.52 -7537.94 -7638.73 -7718.60 -7724.38 -7866.04 -7849.51 -7826.08 -7141.63 -3837.62 -681.91 123.17 155.49 191.93 206.76 223.43 241.95 260.98 264.28 265.40 291.98 303.92 314.29 330.29 350.70 357.58 377.19 401.01 416.58 388.41 385.55 380.93 383.97 370.49 369.06 353.42 362.09 362.83 357.56 344.80 341.06 337.71 324.16 317.31 322.76 333.58 334.63 336.66 352.97 373.58 391.78 420.91 443.86 460.50 497.40 526.85 547.99 563.00 556.67 544.59 524.07 498.82 442.18 429.33 393.16 390.65 344.06 306.99 242.03 220.11 168.03 144.47 132.98 120.41 -169.91 -693.67 -959.96 -1027.89 -1119.25 -1225.90 -1278.98 -1375.45 -1724.17 -2542.82 -3459.91 -4691.34 -5581.19 -5842.67 -5835.58 -5850.93 -5865.32 -5754.60 -5420.29 -4021.43 -5005.20 -7396.45 -6696.42 -6518.25 -6833.95 -7052.48 -7311.80 -7884.06 -8210.55 -8324.36 -8320.05 -8317.30 -7072.97 -5900.10 -5194.17 -4305.19 -4115.83 -3939.89 -3861.76 -3821.02 -3817.85 -3829.63
-11621.57 -11621.46 -11560.57 -11526.33 -11527.15 -11558.71 -11540.08 -11407.67 -11189.97 -10968.19 -10820.11 -10722.04 -10656.56 -10639.16 -10806.96 -10981.99 -11135.00 -11066.10 -10818.76 -10537.03 -9993.22 -9644.22 -8795.06 -8145.70 -7919.49 -8111.04 -8410.18 -8099.09 -8135.47 -8267.07 -8135.89 -8306.52 -8773.25 -8186.21 -7675.71 -3938.48 -1738.05 -116.30 155.41 176.68 194.24 207.76 228.84 237.00 220.20 235.63 252.45 283.61 297.37 308.47 328.11 356.57 363.41 355.31 339.50 342.64 352.73 341.66 341.71 335.05 314.94 323.16 347.77 314.28 306.73 306.11 305.67 300.94 300.49 294.88 309.67 315.26 319.88 330.95 361.59 380.77 412.84 423.58 443.85 487.83 519.30 531.75 538.80 540.50 529.96 507.84 482.91 453.99 417.70 385.64 350.26 347.93 275.11 210.79 194.21 144.59 120.97 114.76 -50.46 -546.63 -929.33 -1013.23 -1000.36 -1135.58 -1190.39 -1319.12 -1466.97 -1992.50 -3013.74 -4126.31 -4880.95 -5647.38 -5795.80 -5822.07 -5841.96 -5855.34 -5789.36 -5075.32 -3925.91 -6712.83 -7409.58 -6394.19 -6499.89 -6728.52 -7228.21 -7622.59 -8161.18 -8306.24 -8321.94 -8318.45 -8314.86 -7426.70 -5575.46 -4895.66 -4166.88 -3865.34 -3728.08 -3789.35 -3806.37 -3923.89 -3923.80
-11546.71 -11533.51 -11474.04 -11451.76 -11453.68 -11488.23 -11428.81 -11381.52 -11179.73 -11004.50 -10892.89 -10779.54 -10673.13 -10687.12 -10809.35 -10943.85 -11011.61 -10947.61 -10629.84 -10403.76 -9868.55 -9364.00 -8850.61 -8591.73 -8783.62 -8935.98 -8963.97 -9005.17 -9258.94 -9080.69 -9133.25 -9206.52 -9308.68 -8932.07 -8190.16 -5622.95 -3019.08 -1171.10 -542.98 145.55 168.74 177.86 197.61 201.62 206.06 214.06 231.41 247.43 273.46 271.23 299.34 305.75 323.06 317.78 303.31 316.14 322.49 318.18 323.91 320.44 307.22 300.66 303.11 304.62 298.46 293.43 289.50 286.06 288.35 280.95 288.77 301.82 305.61 316.53 352.82 362.44 396.71 411.88 433.18 460.67 498.97 522.79 526.32 526.37 514.31 479.09 455.76 438.45 389.14 342.56 325.59 344.36 252.79 208.32 183.80 122.40 112.91 42.72 -409.85 -767.75 -958.38 -986.52 -1052.84 -1050.10 -1184.96 -1353.53 -1488.98 -2171.27 -2960.21 -4546.96 -5383.08 -5728.31 -5811.51 -5836.04 -5842.88 -5837.94 -5580.86 -5277.32 -4863.68 -7618.29 -6778.45 -6169.00 -6231.54 -6615.09 -7178.68 -7885.03 -8144.17 -8313.96 -8317.14 -8316.94 -8169.33 -7518.64 -6177.51 -4575.63 -4036.71 -3822.91 -3784.88 -3878.51 -4001.11 -4164.08 -4164.12
-11362.29 -11362.06 -11383.12 -11355.33 -11263.15 -11067.84 -11135.18 -11176.73 -11053.40 -10913.77 -10845.42 -10686.23 -10533.24 -10614.89 -10619.85 -10687.77 -10628.51 -10553.22 -10382.07 -9963.24 -9433.97 -9311.20 -9185.63 -9235.67 -9428.16 -9837.49 -9937.66 -10078.89 -10067.28 -10343.38 -10225.18 -10029.80 -10343.21 -9830.17 -8390.46 -6518.53 -4806.75 -3438.61 -2533.85 -1269.67 -1059.12 111.16 127.16 155.39 149.55 165.34 202.32 227.95 233.39 256.17 253.66 257.12 258.68 278.23 282.16 294.35 297.48 295.37 292.97 303.63 300.92 300.02 300.82 294.36 280.13 278.44 271.92 277.23 265.61 262.19 280.10 285.25 289.64 304.63 335.64 351.21 376.75 395.54 416.93 446.24 484.17 507.78 505.81 497.91 461.07 440.45 427.73 406.69 371.00 342.77 313.91 254.95 213.44 178.32 162.43 119.88 98.56 -102.47 -727.31 -872.87 -1002.65 -1027.70 -1123.41 -1116.34 -1255.49 -1564.21 -1992.60 -2776.05 -3674.60 -4788.76 -5523.98 -5696.44 -5806.99 -5838.96 -5849.59 -5795.09 -5568.93 -4472.61 -6172.60 -7038.41 -6625.77 -6051.54 -6171.92 -6412.33 -6882.31 -7672.09 -8013.78 -8275.21 -8289.37 -8289.84 -8189.87 -7485.66 -5480.78 -4651.12 -4076.87 -3942.30 -3826.28 -3740.44 -3976.59 -4192.25 -4192.40
-11112.67 -11112.49 -11167.04 -11102.56 -10970.32 -10877.03 -10741.17 -10813.08 -10861.62 -10747.69 -10689.32 -10483.86 -10267.28 -10335.40 -10315.66 -10356.98 -10316.10 -10006.22 -9888.70 -9398.09 -9180.93 -9318.31 -9494.28 -9852.14 -9972.33 -10477.84 -10717.31 -10825.49 -11045.60 -10963.64 -10945.45 -10987.47 -11022.69 -10260.05 -8956.72 -7315.70 -5478.05 -4911.05 -3930.70 -3529.14 -2696.22 -169.80 32.87 116.76 120.53 140.64 182.58 190.29 201.66 232.14 209.94 196.66 234.40 245.56 255.00 251.94 257.97 262.12 262.23 285.18 297.96 298.60 296.14 281.20 263.45 258.33 255.95 243.80 245.58 248.76 255.25 263.67 277.30 296.96 307.66 336.83 357.80 382.17 414.37 447.77 467.65 482.26 487.93 469.04 428.82 420.52 379.86 367.14 352.78 331.52 333.47 250.59 197.43 141.70 118.92 110.70 61.97 -311.74 -879.08 -1028.01 -1066.64 -1138.41 -1231.78 -1272.19 -1526.25 -2086.41 -2427.43 -3555.38 -4703.86 -5280.99 -5626.42 -5761.72 -5836.33 -5853.23 -5872.68 -5811.39 -5498.56 -4672.27 -6861.80 -7005.68 -6014.15 -5826.08 -5878.43 -5928.46 -6451.90 -6890.13 -7414.51 -7792.85 -8042.96 -8126.29 -7939.20 -7069.25 -5553.93 -4712.47 -4041.66 -3740.67 -3593.22 -3341.10 -3538.29 -4089.58 -4089.64
-10947.89 -10947.77 -10992.21 -10906.05 -10836.32 -10680.54 -10614.98 -10653.24 -10644.57 -10583.13 -10457.24 -10127.32 -9812.84 -9842.21 -10149.12 -10094.18 -10015.60 -9872.51 -9560.03 -9219.24 -9148.43 -9194.53 -9495.86 -9862.56 -10131.59 -10403.93 -10745.37 -11049.82 -11179.67 -11254.45 -11285.56 -11278.66 -11243.19 -11073.81 -10008.26 -8348.89 -6068.87 -5121.07 -4416.64 -4175.97 -3787.46 -1256.38 -18.62 3.32 107.99 141.28 174.94 188.54 182.99 189.19 170.48 166.78 212.67 217.74 222.89 215.54 233.62 236.89 250.12 255.06 279.49 290.93 286.45 276.34 251.17 238.46 235.16 232.05 230.79 234.88 245.71 251.77 267.05 275.16 286.77 326.37 338.78 374.95 407.93 438.98 453.11 455.89 453.26 436.55 399.20 372.25 367.45 327.31 304.08 286.54 273.97 193.40 186.00 131.45 107.73 95.90 -13.84 -465.14 -1071.11 -1104.68 -1174.81 -1429.79 -1459.98 -1930.71 -2273.87 -2606.70 -4025.53 -4521.37 -5250.45 -5617.20 -5801.03 -5839.09 -5868.19 -5880.92 -5887.13 -5830.16 -5580.80 -6790.32 -8027.45 -6865.59 -5719.00 -5599.02 -5606.07 -5722.29 -5995.65 -6601.08 -7133.03 -7238.04 -7543.48 -7727.68 -7669.13 -6577.12 -5335.18 -4493.07 -3521.97 -3289.12 -2928.27 -2779.05 -3242.81 -4179.35 -4179.20
-10873.85 -10873.76 -10855.20 -10779.74 -10692.19 -10576.70 -10485.60 -10395.25 -10457.70 -10475.67 -10186.47 -9620.37 -9499.55 -9667.86 -9984.72 -9938.87 -9847.79 -9736.56 -9580.65 -9252.58 -9100.50 -9176.93 -9476.06 -9775.36 -10092.83 -10520.73 -10823.07 -11137.86 -11242.52 -11321.49 -11332.71 -11339.17 -11341.04 -11152.51 -10134.33 -8673.94 -6518.04 -5487.00 -4651.33 -4250.02 -3824.08 -2082.25 -1155.04 -747.63 -78.88 9.92 81.79 169.80 162.10 145.99 128.24 127.84 151.09 168.31 200.39 197.84 206.03 219.40 232.62 221.81 241.14 247.99 268.78 244.21 237.23 226.62 224.84 218.81 219.27 220.42 233.28 233.10 256.25 268.82 278.45 311.46 331.25 348.16 388.04 419.63 438.54 443.83 440.53 426.78 402.56 357.76 331.60 312.61 268.79 257.80 233.73 177.91 177.65 117.92 32.63 -61.48 -312.30 -795.28 -1142.36 -1176.89 -1681.54 -1811.71 -1991.98 -2565.82 -3258.83 -4101.41 -4805.32 -5434.18 -5673.27 -5829.87 -5841.07 -5861.99 -5891.55 -5923.55 -5970.78 -5924.44 -5747.40 -8066.04 -8144.95 -6067.79 -5678.98 -5600.03 -5621.28 -5700.50 -6034.13 -6345.28 -6727.23 -7034.34 -7183.89 -7187.93 -7078.29 -6456.67 -5005.41 -4068.36 -3345.25 -2851.82 -2525.89 -2731.38 -3293.87 -4587.13 -4586.85
-10805.06 -10804.89 -10713.75 -10582.50 -10477.89 -10447.97 -10346.80 -10192.24 -10208.80 -10162.47 -9635.86 -9156.12 -9099.52 -9438.64 -9697.32 -9741.72 -9689.97 -9609.94 -9478.67 -9330.19 -9124.84 -9245.54 -9544.11 -9984.27 -10190.51 -10535.06 -10880.03 -11101.11 -11206.06 -11274.33 -11288.10 -11258.75 -11291.79 -11069.35 -9975.50 -8841.84 -7191.48 -5695.52 -4850.93 -4478.61 -3867.83 -3269.28 -2159.31 -1413.63 -1006.56 -445.05 -410.23 -293.07 -72.89 115.91 115.25 110.98 129.18 149.62 155.42 163.25 185.86 196.37 209.75 213.00 214.41 216.99 239.41 226.22 211.71 211.20 202.76 206.17 205.20 210.88 217.05 226.14 235.55 257.68 273.81 287.68 323.42 345.12 389.76 404.00 416.58 425.19 427.97 406.13 384.17 342.35 320.61 289.36 259.93 217.55 193.43 164.55 145.60 106.30 -164.05 -919.04 -1137.08 -1365.19 -1374.83 -1787.34 -3181.74 -2984.49 -3600.98 -4459.41 -4835.45 -5340.78 -5496.20 -5746.46 -5758.02 -5828.09 -5835.89 -5819.78 -5835.74 -5915.30 -5908.81 -5877.02 -6314.96 -6596.50 -6915.99 -5972.02 -5665.76 -5672.62 -5706.10 -5762.14 -5941.80 -6160.87 -6606.42 -6841.60 -7036.15 -7082.19 -7009.74 -6102.54 -5223.99 -4071.55 -3296.02 -2831.77 -2754.43 -3026.43 -3704.39 -5171.87 -5171.52
-10587.87 -10587.54 -10417.51 -10340.51 -10277.93 -10332.72 -10217.97 -10040.91 -9947.69 -9784.85 -9437.39 -9023.97 -9021.87 -9147.35 -9143.89 -9143.31 -9160.70 -9129.03 -9066.30 -9191.74 -9012.82 -9173.89 -9585.01 -9918.71 -10250.99 -10498.01 -10499.29 -10691.49 -10765.94 -10936.75 -10850.47 -10980.61 -10787.72 -10726.99 -9888.89 -8633.44 -6702.64 -5936.79 -5117.79 -4540.83 -4103.72 -3418.28 -2153.73 -1577.37 -1190.74 -1033.23 -797.15 -858.24 -597.79 -132.60 -36.91 -77.55 -138.09 86.84 134.48 132.30 156.69 167.87 190.60 190.32 195.32 197.66 200.46 196.04 188.88 191.39 191.12 192.62 198.83 201.27 205.46 217.78 225.57 246.83 269.02 285.21 315.02 341.73 360.94 397.01 406.19 409.34 405.74 373.47 343.77 334.72 305.30 272.33 251.86 208.99 191.59 140.44 114.63 -39.83 -754.40 -1326.17 -1513.61 -1844.92 -2235.99 -2950.51 -3950.58 -4839.21 -5179.37 -5423.94 -5452.19 -5603.38 -5709.99 -5745.52 -5734.27 -5702.87 -5688.60 -5516.47 -5431.94 -5326.29 -5275.90 -5664.95 -7278.59 -7048.98 -6250.48 -5785.43 -5672.47 -5703.95 -5756.40 -5779.85 -5818.75 -6074.15 -6275.35 -6540.97 -6843.91 -6872.45 -6915.58 -6363.58 -5445.10 -4386.74 -3789.82 -3690.78 -3656.47 -3894.68 -4621.83 -5813.78 -5813.48
-10146.73 -10146.30 -10098.05 -9994.59 -10114.50 -10155.64 -9970.66 -9599.28 -9440.37 -9193.56 -8988.05 -8751.46 -8589.65 -8739.07 -8387.94 -8317.94 -8221.58 -8057.42 -8339.08 -8357.94 -8248.42 -8620.65 -8826.45 -8935.27 -9423.78 -9060.04 -9521.35 -9680.94 -9625.84 -9564.92 -9477.15 -9422.26 -9764.75 -9556.78 -9076.53 -7928.04 -6833.97 -5475.65 -4962.43 -4320.21 -3982.63 -3209.90 -2069.31 -1653.21 -1391.20 -1265.80 -1256.00 -1308.58 -1055.33 -771.92 -582.67 -541.95 -423.75 -66.78 89.51 112.98 117.63 143.87 155.33 163.96 170.55 170.34 173.33 178.16 178.45 184.56 185.84 184.67 183.94 189.03 194.18 205.20 224.36 241.36 255.53 279.11 297.78 332.87 353.81 396.29 398.89 395.11 391.90 355.26 326.62 312.22 274.69 251.49 222.58 188.43 169.60 133.20 117.70 107.35 -275.15 -1537.95 -2040.99 -2955.40 -3769.33 -4975.95 -5126.64 -5377.70 -5588.54 -5626.72 -5651.99 -5644.03 -5657.49 -5631.25 -5497.67 -5240.04 -4833.34 -4540.97 -4362.67 -3618.25 -4662.92 -5215.46 -7042.32 -6467.08 -5705.97 -5306.43 -5444.16 -5695.83 -5735.21 -5678.79 -5637.59 -5609.37 -5523.84 -5917.46 -6462.49 -6625.68 -6833.43 -6482.09 -5533.36 -4690.23 -4307.30 -4140.96 -4403.62 -4621.61 -5255.65 -6239.38 -6239.48
-9524.17 -9440.13 -9392.41 -9617.78 -9970.78 -10062.01 -9796.74 -9532.45 -8664.64 -8363.43 -8455.47 -8277.27 -8115.64 -7684.12 -7375.67 -7060.49 -6912.69 -6420.75 -6715.39 -6844.36 -7096.69 -7593.91 -7828.08 -8154.69 -8090.53 -8339.87 -8121.21 -8488.96 -8325.94 -8181.77 -8503.92 -8436.52 -8474.86 -8229.32 -7970.30 -7544.69 -6027.26 -5149.52 -4418.70 -4197.28 -3767.81 -2989.63 -2265.53 -2004.39 -1680.82 -1581.04 -1495.89 -1355.20 -1068.78 -842.21 -641.82 -574.44 -486.19 -310.23 -98.54 -100.34 11.38 115.10 136.82 152.74 152.02 157.53 160.61 162.87 162.58 169.49 173.74 173.81 178.45 186.53 190.38 199.52 218.65 230.01 251.53 279.30 298.22 324.09 354.30 377.72 389.09 389.21 377.60 341.53 302.45 266.84 246.76 234.52 192.83 176.89 164.85 134.10 114.23 -266.21 -791.32 -1569.17 -2839.82 -3738.69 -4880.49 -5132.37 -5425.49 -5510.49 -5609.30 -5584.69 -5499.87 -5471.87 -5079.58 -5054.48 -4610.25 -4347.27 -3445.69 -2640.95 -1418.68 -2500.81 -4379.44 -6050.52 -6400.24 -5656.40 -5222.89 -4972.35 -5049.03 -5321.15 -5461.20 -5453.09 -5368.84 -5216.38 -4919.71 -5451.08 -5961.76 -6351.83 -6501.73 -6361.60 -5465.69 -4973.03 -4632.11 -4584.18 -4682.86 -4955.18 -5353.94 -5890.43 -6021.77
-8616.99 -8616.20 -8924.65 -9099.19 -9599.56 -9890.54 -9658.84 -9087.58 -8415.59 -8142.83 -8022.40 -7892.53 -7641.36 -7358.29 -6899.35 -6522.14 -6465.65 -5930.95 -5902.79 -6143.96 -6266.34 -6505.52 -6832.30 -7159.45 -7323.87 -7447.16 -7419.19 -7597.34 -7737.36 -7496.80 -7538.47 -7565.78 -7567.14 -7648.15 -7403.42 -6622.47 -5881.55 -4961.27 -4367.13 -4008.22 -3722.19 -3072.77 -2658.25 -2149.71 -1901.33 -1769.49 -1588.41 -1350.10 -1040.44 -892.37 -750.53 -589.05 -497.51 -349.26 -287.81 -175.97 -55.74 68.65 84.91 122.11 130.18 140.80 149.25 155.11 153.48 151.44 160.13 168.39 172.91 179.82 188.08 193.90 213.60 227.08 237.96 274.55 291.31 311.39 337.25 357.00 379.22 376.76 360.54 338.19 299.79 268.37 255.43 257.41 183.85 157.49 149.50 131.10 -109.18 -633.34 -1562.85 -2067.27 -3613.78 -4241.62 -4929.56 -5328.83 -5446.99 -5523.74 -5583.71 -5424.47 -5207.29 -4470.98 -3755.02 -3447.77 -2181.67 -1547.55 -1976.51 -1550.90 -1563.07 -2190.45 -4283.87 -5570.48 -5667.73 -5422.52 -4933.01 -4631.92 -4764.72 -4972.45 -5298.93 -5314.74 -4975.47 -4357.49 -4347.17 -5196.99 -5836.92 -6356.29 -6515.16 -6348.30 -5539.65 -5137.16 -4759.82 -4770.04 -4867.20 -4924.94 -5213.24 -5103.80 -5104.85
-7799.14 -7798.93 -8218.59 -8870.41 -9481.20 -9863.71 -9687.05 -9082.11 -8497.24 -8092.51 -7959.59 -7867.53 -7685.56 -7333.43 -7000.16 -6562.40 -6276.14 -5848.89 -5837.63 -5995.79 -6029.12 -6218.51 -6518.04 -6804.12 -6943.92 -7053.71 -7264.81 -7347.19 -7320.74 -7288.90 -7308.54 -7426.01 -7463.85 -7341.57 -7111.47 -6422.54 -5709.59 -5155.81 -4521.10 -4329.71 -3954.68 -3302.60 -2899.06 -2322.40 -1986.89 -1798.81 -1668.86 -1433.91 -1259.14 -1091.49 -877.71 -662.53 -522.53 -371.76 -258.85 -129.93 -73.72 -31.97 40.99 100.66 120.30 134.11 138.21 140.40 144.78 145.07 156.03 162.69 163.82 174.73 188.96 192.74 213.45 221.70 243.65 270.47 288.88 319.20 335.55 348.36 360.64 365.98 356.22 343.95 310.16 280.03 287.30 328.87 170.84 148.34 131.34 114.65 -408.90 -1083.68 -1721.70 -2787.82 -3915.08 -4631.06 -4845.60 -5124.84 -5272.31 -5139.78 -4877.76 -4332.18 -3395.34 -1575.54 -971.41 -406.43 -393.42 -317.52 -810.84 -1216.07 -1870.87 -2669.23 -4654.94 -5354.99 -5290.19 -5270.84 -5143.46 -4693.85 -4702.72 -5065.07 -5323.87 -5327.72 -4903.92 -4313.81 -4512.34 -5165.39 -6074.29 -6491.26 -6539.48 -6140.74 -5634.52 -5222.09 -4863.94 -4800.31 -4779.77 -4606.76 -4518.12 -3643.77 -3644.94
-7771.95 -7772.19 -8129.84 -8760.47 -9287.11 -9643.92 -9728.09 -9367.53 -8653.83 -8216.71 -7986.33 -7836.60 -7751.70 -7579.41 -7355.11 -6881.30 -6690.33 -6358.86 -6148.78 -6030.30 -6042.73 -6163.75 -6465.11 -6679.02 -6772.96 -6900.97 -7100.00 -7284.37 -7294.36 -7284.62 -7237.81 -7354.07 -7379.58 -7352.75 -6926.97 -6627.01 -5730.06 -5231.73 -4737.35 -4482.27 -4229.30 -3614.63 -3222.71 -2466.52 -2074.39 -1957.09 -1818.90 -1689.68 -1515.79 -1252.10 -944.49 -757.91 -562.46 -345.37 -237.78 -133.72 -87.88 -51.61 -3.25 8.49 89.24 124.71 128.70 132.80 138.47 140.56 146.16 152.91 163.00 169.19 184.16 193.88 204.64 219.47 248.28 264.67 275.85 313.88 335.40 339.11 351.05 353.77 352.27 342.48 327.24 303.60 292.98 423.98 224.56 136.54 117.39 106.70 -607.55 -1277.14 -2117.07 -2830.88 -3869.93 -3980.89 -4180.23 -3776.02 -4162.83 -3578.15 -2309.14 -1352.05 -902.02 -362.61 -61.87 7.27 29.65 -128.60 -820.19 -2029.45 -2263.72 -3307.30 -4554.08 -5168.82 -5267.38 -5291.09 -5021.08 -4736.81 -4800.11 -5079.98 -5344.49 -5238.62 -5093.85 -4645.72 -5112.27 -5535.52 -5915.29 -5749.41 -5380.49 -5599.18 -5217.76 -4951.61 -4643.31 -4510.59 -4425.60 -3861.99 -2932.70 -2311.33 -2311.94
-7927.02 -7904.46 -8007.30 -8239.11 -8747.47 -9282.62 -9412.48 -9028.19 -8585.93 -8115.40 -7921.64 -7724.33 -7634.76 -7631.55 -7404.30 -7105.82 -6747.33 -6466.04 -6186.39 -5948.67 -5825.43 -5979.03 -6343.52 -6366.56 -6290.11 -6396.36 -6618.01 -6796.44 -6948.14 -6673.55 -6950.01 -6952.76 -7156.34 -7228.92 -6897.15 -6583.63 -6029.16 -4972.16 -4806.64 -4348.67 -4167.38 -3675.20 -3144.57 -2852.56 -2367.72 -2258.46 -2068.99 -1910.47 -1629.52 -1415.58 -1252.62 -877.43 -711.17 -513.64 -323.28 -175.40 -97.24 -46.21 -20.36 11.04 48.18 77.54 112.19 125.95 126.98 130.50 137.41 144.76 155.81 167.58 181.92 193.21 207.02 217.82 238.00 265.78 282.95 300.38 316.87 331.09 343.42 345.07 344.79 340.68 292.25 259.00 283.58 270.77 147.98 13.79 -250.40 -64.59 -754.64 -1693.83 -2179.31 -2777.56 -2942.30 -3062.88 -2833.45 -2669.72 -1447.20 -969.93 -875.64 -450.52 89.22 148.25 148.43 139.40 -144.19 -292.14 -1977.68 -3359.51 -3687.60 -4557.81 -4964.60 -5174.82 -5268.90 -5306.17 -5048.78 -4664.85 -4659.21 -4969.84 -5195.75 -5256.90 -5115.81 -5077.56 -5429.74 -5447.90 -5387.42 -4917.57 -4457.77 -4537.44 -4520.12 -4122.04 -4065.43 -3891.85 -3786.14 -3394.84 -2818.26 -1829.28 -1829.24
-7180.66 -7179.58 -6784.08 -7333.26 -7283.27 -7847.69 -7957.44 -8084.83 -7739.58 -7448.51 -7000.09 -6742.87 -6772.59 -6663.08 -6589.34 -6524.03 -6054.46 -5860.82 -5639.25 -5508.31 -5228.39 -5002.55 -5232.73 -5472.49 -5880.79 -5729.67 -5832.94 -5742.11 -5839.57 -5943.67 -5825.32 -5994.45 -6084.91 -6548.51 -6159.40 -5960.64 -5640.08 -4963.55 -4487.54 -4151.18 -3746.88 -3579.29 -3539.29 -3240.14 -3187.65 -2549.02 -2695.63 -2430.20 -1977.72 -1824.29 -1389.59 -1058.87 -785.60 -614.37 -379.74 -247.66 -103.75 -30.46 -3.71 16.98 23.69 43.98 67.84 104.68 125.07 126.29 132.67 143.80 155.02 161.54 173.60 192.20 203.77 221.76 237.36 258.41 276.22 286.15 305.10 312.64 323.79 337.36 333.69 314.89 272.29 237.34 234.10 217.31 147.97 14.22 -881.81 -1464.47 -987.36 -1522.22 -1753.79 -1806.99 -1965.19 -1919.43 -1472.84 -563.88 164.40 -11.62 172.22 171.76 163.46 158.84 151.12 137.46 -400.15 -1801.06 -3930.00 -4213.87 -4552.08 -4841.55 -5027.07 -5254.38 -5295.63 -5304.68 -5142.25 -4807.43 -4644.16 -4927.96 -5179.37 -5274.02 -5335.70 -5292.33 -5326.45 -5069.37 -4745.46 -4269.76 -4252.07 -4756.07 -4491.23 -4053.40 -3642.21 -3527.33 -3541.46 -3170.61 -2772.83 -2165.66 -2165.15
-6062.24 -6002.78 -5969.07 -6043.05 -6198.81 -6431.54 -6888.77 -6516.05 -6326.19 -6006.00 -5342.65 -5637.56 -5247.42 -5251.15 -4830.53 -5103.16 -5102.31 -4957.20 -4481.42 -4055.31 -3982.80 -3779.82 -3920.77 -4099.93 -4119.58 -4518.90 -4754.44 -4889.52 -4994.45 -5085.53 -5020.41 -4998.48 -5134.66 -5081.60 -5322.45 -4630.83 -4557.64 -3957.70 -3693.45 -3569.24 -3596.16 -3581.15 -3737.66 -3565.81 -3225.37 -3064.00 -2966.35 -2665.82 -2287.66 -1817.47 -1437.15 -1253.84 -896.51 -667.40 -475.43 -287.98 -177.38 -80.62 -28.51 10.06 25.67 27.54 32.72 92.68 121.26 124.90 129.36 135.81 149.88 158.40 174.96 189.61 201.89 220.34 234.70 251.95 260.39 277.41 293.21 310.13 316.00 320.67 319.74 302.07 260.75 222.10 207.77 151.94 132.82 56.32 -528.57 -1590.33 -1671.28 -1586.89 -1568.00 -1624.77 -1663.76 -1452.25 -690.46 159.19 187.91 201.24 212.21 200.94 170.23 161.19 -3.12 -282.12 -1256.79 -3243.25 -5039.70 -5416.10 -5190.95 -5072.95 -5161.03 -5261.67 -5311.67 -5338.70 -5324.24 -5083.18 -5026.85 -5245.44 -5360.89 -5264.09 -5185.32 -5024.31 -4657.54 -4429.89 -3941.22 -4027.70 -4319.50 -5037.03 -4707.84 -4275.05 -3692.00 -3604.93 -3557.18 -3305.75 -3045.04 -2902.01 -2901.54
-5713.26 -5726.42 -5731.84 -5650.97 -5575.10 -5286.87 -5087.70 -4860.30 -4533.21 -4263.98 -4223.24 -3977.52 -4106.06 -3769.05 -3831.59 -3667.91 -3795.92 -3772.83 -3815.60 -3741.12 -3435.39 -3025.14 -3061.68 -3597.76 -3690.80 -3920.88 -4232.76 -4260.45 -4606.74 -4620.31 -4502.92 -4396.69 -4155.04 -3945.58 -3441.00 -3783.38 -3599.52 -3618.66 -3161.65 -3332.97 -3653.50 -4048.80 -4219.88 -3987.56 -3566.41 -3245.91 -3196.19 -2890.47 -2544.93 -2087.01 -1703.52 -1374.45 -1064.18 -941.90 -587.30 -316.29 -230.28 -118.45 -24.91 -0.16 11.31 24.39 31.02 62.34 101.96 100.54 127.53 135.14 148.94 152.66 165.54 181.93 197.84 209.30 225.42 251.00 253.57 268.96 287.52 299.53 302.21 305.55 308.53 284.90 251.21 215.28 182.10 164.61 123.08 104.41 -332.96 -810.48 -1475.80 -1551.68 -1524.46 -1537.01 -1440.35 -994.48 -422.61 178.54 197.25 230.79 229.94 201.60 31.02 -55.73 -800.19 -1299.94 -2580.53 -3954.63 -5621.78 -5852.07 -5376.03 -5211.35 -5239.18 -5282.37 -5310.62 -5344.02 -5368.93 -5381.95 -5336.84 -5384.46 -5393.90 -5003.79 -4566.08 -4102.82 -3801.81 -3623.63 -3618.65 -4040.13 -4799.02 -5138.46 -4589.21 -4134.97 -3781.82 -3699.06 -3634.29 -3471.61 -3450.85 -3487.89 -3487.68
-5868.52 -5868.51 -5479.32 -5407.10 -5099.50 -4816.23 -4100.29 -3827.65 -3574.27 -3514.68 -3431.01 -3245.65 -3056.25 -2991.89 -2670.59 -2798.69 -2965.89 -3178.00 -2980.51 -3071.69 -2883.31 -2759.08 -2801.14 -3008.24 -3384.38 -3431.35 -3582.54 -3584.61 -3858.54 -3604.50 -3800.89 -3472.31 -3549.04 -3187.30 -2981.60 -2898.39 -2848.40 -2562.52 -2864.52 -3480.85 -3949.31 -4376.41 -4519.74 -4331.01 -3915.98 -3805.39 -3617.39 -3259.69 -2601.40 -2304.32 -1879.62 -1723.77 -1452.39 -1062.38 -670.37 -386.23 -294.08 -143.78 -69.80 -31.81 -1.73 19.07 26.34 39.12 42.83 43.65 69.00 108.05 141.25 153.80 160.54 176.13 189.94 201.24 219.24 239.34 251.32 262.62 276.40 285.24 293.17 296.68 291.47 275.62 246.40 219.41 178.16 155.72 123.40 102.62 69.28 -1003.51 -1631.17 -1617.45 -1564.91 -1476.15 -1211.31 -736.47 -319.18 72.47 208.12 236.98 212.27 180.95 -488.48 -389.42 -1483.26 -2932.86 -3801.28 -5326.70 -6102.84 -5890.82 -5167.03 -5139.77 -5255.66 -5278.55 -5309.41 -5339.41 -5368.13 -5382.97 -5164.86 -4772.04 -4476.45 -4429.38 -4049.99 -3563.16 -3442.08 -3441.59 -3738.90 -4431.91 -5156.77 -4998.95 -4469.73 -3753.57 -3530.26 -3525.86 -3584.21 -3619.17 -3658.07 -3750.47 -3750.47
-5674.22 -5673.64 -5271.11 -4784.89 -4074.69 -3516.60 -3280.43 -3152.71 -3211.45 -3165.93 -3018.51 -2828.44 -2891.98 -2649.50 -2263.05 -2208.77 -2305.22 -2239.67 -2309.73 -2023.58 -1882.83 -1879.85 -2107.99 -2489.78 -2270.40 -2634.40 -2442.42 -2558.56 -2570.92 -2650.09 -2553.94 -2617.79 -2319.80 -2270.23 -2215.18 -2332.54 -2354.27 -2511.21 -2795.12 -3308.52 -4161.55 -4517.67 -4525.27 -4523.84 -4403.01 -4120.53 -3851.76 -3511.84 -2869.31 -2643.70 -2481.57 -2197.84 -1679.63 -1277.91 -972.23 -675.06 -398.25 -264.91 -108.91 -69.14 -2.35 11.90 18.56 23.65 35.42 34.71 43.50 100.01 132.90 150.11 161.59 175.25 187.92 201.64 212.59 225.23 242.62 258.09 263.76 275.14 282.50 282.54 277.46 257.04 240.49 214.44 186.09 152.42 122.73 107.51 18.23 -719.63 -1638.53 -1636.73 -1578.03 -1320.08 -931.54 -327.66 -256.91 37.21 118.37 28.01 6.17 -152.74 -812.14 -1964.66 -2924.02 -3281.94 -4324.52 -5654.90 -6313.36 -5859.54 -5121.06 -5086.40 -5249.51 -5274.64 -5310.63 -5333.87 -5184.68 -4655.94 -4068.32 -4113.05 -3916.16 -3720.76 -3467.21 -3386.36 -3498.66 -3747.08 -4347.44 -4788.92 -5137.69 -4532.31 -3924.02 -3367.28 -3220.60 -3262.21 -3373.18 -3545.21 -3668.94 -3713.96 -3737.65
-4799.98 -4798.93 -3984.87 -3350.91 -3009.56 -2872.91 -2534.94 -2501.26 -2593.32 -2395.07 -2359.67 -2219.14 -1913.49 -1506.11 -1261.31 -1215.91 -1047.43 -1100.34 -938.19 -1194.65 -1236.22 -1228.92 -1329.84 -1378.82 -1531.10 -1580.91 -1175.07 -1159.75 -1429.26 -1481.54 -1420.75 -1479.37 -1650.70 -1666.44 -1685.70 -2021.83 -2143.14 -2243.50 -2305.51 -2718.57 -3201.01 -3847.35 -4358.06 -4572.50 -4578.78 -4411.18 -4236.60 -3823.63 -3141.00 -2935.38 -2690.58 -2188.09 -1929.46 -1324.48 -1056.59 -811.81 -525.18 -383.41 -288.16 -107.17 -34.83 -1.62 2.11 16.50 32.49 37.79 44.69 94.84 136.77 141.36 155.08 170.00 177.99 193.78 207.66 219.12 230.57 249.69 260.34 266.76 269.35 266.57 259.29 241.65 223.94 210.33 173.03 150.81 127.72 111.67 -46.27 -475.58 -1268.49 -1510.41 -1429.09 -1060.20 -629.85 -279.38 -137.59 -83.61 -83.42 -96.91 -197.68 -902.58 -1810.09 -2789.39 -3360.72 -4266.76 -5075.43 -6055.07 -6514.99 -5934.11 -5199.35 -5117.86 -5247.13 -5267.84 -5296.57 -4906.96 -4451.81 -3894.79 -3322.48 -3321.78 -3488.68 -3420.36 -3372.23 -3454.43 -3808.57 -4057.85 -4597.33 -4935.19 -4799.44 -4210.24 -3452.35 -3208.06 -3239.47 -3339.36 -3444.89 -3497.44 -3606.55 -3612.24 -3612.34
