-13755.65 -13755.44 -13803.58 -13790.71 -13819.91 -13827.93 -13900.60 -14180.67 -14714.32 -15237.25 -15416.87 -15574.48 -15676.24 -15714.96 -15803.93 -15907.52 -15919.63 -15953.25 -16017.45 -15997.28 -15863.26 -15659.57 -15547.97 -15533.01 -15548.98 -15559.44 -15557.30 -15532.68 -15481.33 -15469.12 -15472.76 -15474.49 -15473.08 -15441.48 -15446.67 -15461.27 -15425.03 -15386.59 -15381.00 -15369.58 -15368.41 -15361.24 -15355.75 -15334.42 -15334.08 -15317.98 -15277.34 -15262.10 -15244.73 -15228.27 -15221.44 -15213.99 -15207.21 -15202.60 -15195.26 -15190.83 -15183.99 -15172.38 -15169.58 -15152.41 -15137.27 -15120.78 -15115.85 -15103.08 -15096.88 -15064.39 -14900.11 -14770.47 -13838.90 -11642.33 -9759.57 -7915.42 -6635.48 -5436.49 -4855.23 -3099.23 -2634.95 -2664.85 -2408.58 -2559.13 -2309.10 -2309.45 -2055.83 -1624.73 -1345.13 -977.50 -707.75 -308.73 55.19 152.80 186.55 199.19 189.11 201.06 210.97 219.26 225.93 198.00 187.23 93.91 200.91 226.59 64.90 -91.63 -86.21 -330.29 -448.67 -2062.58 -3455.27 -9057.55 -11237.22 -19412.73 -20442.84 -18445.29 -17398.80 -16829.64 -16427.33 -15095.34 -12120.82 -8280.03 -5583.77 -3897.40 -3581.51 -3055.86 -3175.00 -3451.01 -3946.38 -4636.26 -4732.64 -4521.46 -3919.82 -3451.44 -2326.02 -2114.60 -1855.84 -1753.87 -1634.62 -1449.11 -1509.54 -1646.45 -1623.80
-13556.58 -13556.35 -13593.81 -13662.67 -13792.22 -13844.82 -13992.07 -14262.18 -14915.47 -15147.12 -15390.49 -15537.08 -15751.99 -15840.34 -15926.43 -16044.40 -16057.33 -16119.36 -16076.24 -16030.07 -15946.70 -15724.81 -15538.84 -15468.38 -15523.20 -15548.46 -15480.18 -15523.19 -15492.40 -15278.69 -15339.89 -15471.60 -15345.15 -15469.93 -15429.72 -14888.42 -14409.05 -14811.64 -14806.25 -14806.78 -14991.63 -15261.53 -15251.42 -15250.90 -15209.09 -15212.44 -15190.88 -15230.40 -15246.27 -15224.63 -15218.78 -15209.70 -15205.56 -15198.53 -15194.23 -15185.35 -15178.30 -15168.17 -15156.10 -15145.11 -15134.64 -15126.72 -15122.08 -15125.77 -15118.83 -14781.75 -14350.13 -13764.27 -12459.25 -10912.12 -8878.75 -6761.43 -5580.73 -4044.18 -2821.47 -1941.46 -1497.84 -1206.33 -1302.81 -1452.71 -1671.50 -2017.63 -1694.97 -1510.24 -1148.31 -963.35 -646.11 -174.55 114.15 208.77 226.49 229.91 233.44 233.12 236.23 233.17 216.91 18.69 -163.02 -165.76 -296.14 -110.05 9.75 30.02 -56.25 -106.67 -308.27 -429.52 -766.69 -3741.20 -6395.00 -12639.62 -19395.37 -19217.00 -17359.31 -16483.02 -15815.74 -15148.81 -11022.02 -7677.84 -4556.81 -3717.81 -3362.07 -3112.35 -3243.10 -3723.76 -4186.87 -4671.41 -4653.08 -4338.61 -3757.59 -3284.47 -2475.45 -2105.86 -1908.96 -1894.90 -1957.81 -1940.89 -1866.42 -2206.67 -2206.31
-13242.46 -13214.26 -13298.17 -13415.11 -13696.80 -13702.16 -14021.34 -14317.79 -14802.70 -15090.38 -15274.04 -15472.77 -15739.51 -15948.28 -15973.64 -16185.37 -16160.08 -16183.41 -16166.91 -16083.82 -15995.89 -15696.38 -15229.52 -14954.36 -14932.75 -14982.67 -15122.27 -15026.57 -15115.31 -14934.65 -14833.32 -15027.82 -14170.34 -13956.93 -13605.55 -13064.32 -12030.83 -11797.67 -12183.81 -12471.83 -12881.22 -12741.31 -13977.24 -14802.05 -14519.58 -14988.81 -14913.77 -15002.57 -15122.55 -15220.14 -15215.14 -15205.92 -15202.29 -15196.32 -15189.72 -15178.84 -15170.37 -15157.24 -15150.20 -15141.04 -15138.33 -15136.12 -15136.73 -14907.10 -14824.98 -14492.96 -12348.07 -11914.69 -10600.89 -9716.55 -8953.38 -7034.57 -5188.84 -2965.10 -2582.83 -1341.03 -973.04 -853.96 -758.40 -874.38 -945.01 -1009.99 -988.40 -1054.95 -473.50 -533.00 -375.39 0.83 205.28 234.36 246.36 238.98 246.82 250.89 263.97 253.68 201.45 -222.10 -1114.05 -1255.37 -1350.95 -1544.25 -1297.93 -290.59 -601.82 -499.61 -305.43 -294.09 -379.16 -620.65 -1214.93 -5513.80 -10159.44 -18157.87 -17785.88 -16327.41 -15222.60 -13835.75 -11382.39 -6328.30 -4724.16 -3335.26 -3131.84 -3123.66 -3265.98 -4024.59 -4486.94 -4842.00 -4623.96 -4078.89 -3632.04 -3258.57 -2555.35 -2215.64 -2053.35 -2069.52 -2400.91 -2664.52 -2470.48 -2696.18 -2695.91
-12595.15 -12594.36 -12579.87 -12874.70 -12944.65 -13040.59 -13596.76 -14055.83 -14622.89 -15075.16 -15247.81 -15546.10 -15825.76 -15945.93 -16075.01 -16188.86 -16188.81 -16183.26 -16175.75 -16148.97 -16049.99 -15632.73 -15089.85 -14183.34 -13525.36 -13247.10 -13961.31 -13886.26 -13517.44 -13929.42 -13634.95 -13073.09 -12850.64 -12273.61 -11330.52 -10474.06 -9849.42 -9809.56 -10057.57 -9884.99 -10462.97 -11532.42 -11651.04 -12917.88 -13259.18 -13769.10 -14586.78 -14546.14 -14853.18 -15215.69 -15212.18 -15207.47 -15187.42 -15174.57 -15181.07 -15170.65 -15161.20 -15153.90 -15147.43 -15145.76 -15144.99 -15142.89 -15141.59 -14781.78 -13196.71 -12658.52 -11941.87 -10340.84 -7755.18 -6212.53 -6759.97 -4901.40 -3679.46 -2421.18 -1537.00 -1068.67 -697.85 -443.19 -329.14 -535.50 -366.03 -321.70 -227.36 -17.60 -28.40 21.25 237.32 231.32 233.90 256.53 262.00 272.49 277.50 272.52 273.91 257.83 -53.01 -597.52 -2061.61 -2533.23 -2574.66 -2549.43 -2614.04 -1730.27 -1759.93 -1478.84 -1645.47 -584.02 -493.31 -432.09 -942.77 -2296.78 -8762.03 -17514.73 -18199.26 -15633.02 -14497.54 -13488.43 -9431.27 -6990.32 -3881.48 -3258.65 -3019.02 -3144.70 -3509.21 -4346.95 -4821.73 -4924.15 -4689.23 -4089.06 -3528.89 -3164.35 -2442.48 -2289.23 -2310.93 -2546.28 -2886.27 -2987.06 -3098.05 -3045.32 -3045.19
-11839.50 -11795.28 -11785.43 -11767.65 -12019.25 -12479.58 -12847.22 -13977.75 -14574.48 -15182.48 -15458.69 -15629.97 -15831.71 -15925.82 -16099.63 -16205.44 -16204.16 -16189.34 -16184.93 -16172.76 -16093.02 -15351.39 -14174.43 -12953.13 -11572.81 -11567.61 -11390.75 -12333.79 -12250.33 -12310.95 -11939.91 -11168.56 -10423.30 -9990.29 -9310.55 -8742.90 -8169.61 -8090.13 -8578.12 -8333.89 -8114.70 -9457.80 -10600.03 -11500.94 -12423.62 -12905.82 -13592.78 -14119.61 -14549.69 -14990.73 -15202.02 -15198.77 -15189.15 -15172.12 -15165.05 -15164.35 -15157.70 -15151.06 -15146.20 -15148.71 -15150.41 -15154.25 -14920.31 -14361.69 -12446.07 -10059.74 -10444.13 -8715.57 -7041.75 -4979.31 -4137.38 -3551.26 -2973.77 -2089.96 -1171.99 -829.91 -425.83 -278.19 21.76 -111.74 114.25 191.56 158.54 253.87 260.97 261.45 257.75 260.97 262.49 260.02 283.90 279.46 282.18 284.65 283.07 263.20 130.66 -727.52 -2014.11 -1947.83 -2376.02 -2759.95 -3266.16 -3193.06 -3122.19 -2999.82 -2327.63 -1650.01 -875.78 -777.39 -1074.22 -3228.03 -8031.34 -16343.15 -19054.59 -15913.42 -14681.09 -12776.33 -8969.47 -5976.69 -3607.05 -2927.08 -2924.47 -3277.43 -3756.71 -4487.07 -5029.95 -5008.46 -4693.24 -4145.25 -3526.45 -2789.85 -2350.33 -2188.61 -2507.89 -2957.94 -3304.76 -3377.72 -3361.03 -3241.20 -3265.05
-11506.72 -11513.00 -11544.81 -11527.90 -11610.05 -11869.44 -12384.03 -13586.57 -14341.24 -15233.29 -15493.52 -15657.87 -15738.52 -15744.56 -15933.64 -16177.23 -16202.54 -16196.73 -16181.59 -16178.52 -15997.41 -15222.14 -13517.91 -11424.33 -10016.10 -9579.57 -10149.62 -10478.30 -9924.91 -10350.53 -10645.84 -9888.27 -8538.35 -7761.73 -7669.08 -7193.94 -6173.27 -6423.61 -6655.59 -7106.26 -4622.49 -8161.02 -10535.62 -11246.91 -11676.95 -11941.78 -12893.87 -13471.87 -13730.91 -14477.01 -14950.53 -15187.03 -15198.46 -15187.93 -15158.70 -15154.49 -15141.85 -15146.76 -15148.26 -15156.86 -15172.11 -15145.02 -14820.60 -12696.41 -10917.65 -9299.24 -7334.36 -5951.97 -5292.21 -4198.01 -3471.82 -2865.28 -2472.75 -1311.41 -916.84 -396.79 -117.82 -28.45 128.12 192.63 247.09 257.81 261.62 271.47 275.97 286.45 295.59 286.14 288.30 303.83 307.68 300.98 304.95 314.04 301.98 266.39 222.02 -255.38 -541.69 -932.76 -1532.75 -2484.79 -3335.01 -3610.73 -3713.53 -3788.38 -3447.77 -2781.87 -2147.06 -1732.89 -1299.06 -2018.19 -7290.93 -15616.47 -20176.96 -17887.98 -15333.68 -13686.19 -9121.33 -7145.59 -3223.35 -2926.45 -2877.46 -3165.50 -4121.91 -4820.09 -5149.84 -5088.95 -4653.84 -3949.57 -3168.36 -2663.72 -2457.67 -2232.53 -2661.26 -3237.20 -3508.60 -3586.64 -3567.96 -3410.06 -3410.25
-11634.61 -11634.36 -11670.01 -11672.78 -11668.74 -11864.09 -12492.28 -13521.38 -14722.09 -15274.73 -15487.34 -15627.52 -15620.57 -15629.91 -15776.04 -16032.40 -16159.72 -16187.24 -16174.81 -16072.87 -15774.58 -14979.36 -12996.85 -11398.65 -9083.30 -8689.98 -8563.45 -8748.47 -8597.04 -8727.83 -8339.22 -7940.44 -7197.96 -6340.35 -5479.16 -4220.11 -4464.31 -4208.59 -4444.27 -1862.10 -1129.85 -6329.52 -7503.80 -8517.84 -10353.82 -11078.40 -11558.14 -11948.40 -12788.21 -12738.01 -13464.41 -14187.27 -14755.95 -15048.28 -15171.23 -15077.51 -15127.90 -15136.06 -15081.05 -15141.57 -15061.27 -14976.47 -14150.67 -11917.08 -9973.76 -8074.87 -7839.30 -4549.88 -3500.13 -3024.85 -2686.84 -2594.40 -2296.78 -1243.98 -748.54 -172.24 147.22 206.78 240.77 253.14 260.53 267.44 280.36 290.12 310.69 315.17 319.41 310.25 314.79 318.27 332.60 325.70 341.90 345.95 339.15 289.64 257.15 22.52 -79.23 -449.04 -939.85 -1862.86 -2980.56 -3873.29 -4041.22 -4068.53 -4238.52 -4294.31 -3780.29 -2739.42 -2083.32 -1437.31 -4572.40 -9343.29 -12948.71 -15004.44 -15816.99 -13926.76 -9281.44 -5929.00 -3834.20 -2963.25 -2810.41 -3379.74 -4145.67 -4904.05 -5277.70 -5216.03 -4704.15 -4118.89 -3192.54 -2761.48 -2227.21 -2180.44 -2595.85 -3479.50 -3638.85 -3696.78 -3598.48 -3490.43 -3461.78
-12051.97 -12051.49 -12361.55 -12086.33 -12003.24 -12351.96 -12667.53 -13929.84 -14665.00 -15331.70 -15516.45 -15592.80 -15571.23 -15543.74 -15674.88 -15917.37 -16058.29 -16092.88 -16146.34 -16064.17 -15870.50 -14802.46 -12642.48 -10808.51 -9161.50 -8878.84 -8804.71 -8521.78 -8002.39 -7563.52 -7069.05 -6458.06 -5481.50 -4056.67 -3158.35 -2691.18 -1959.13 -1631.03 -1625.10 -96.09 198.13 -158.80 -6107.66 -6585.73 -5552.35 -9154.27 -9954.67 -9737.08 -10334.27 -10687.94 -11585.90 -12168.05 -12910.24 -13480.46 -14054.54 -14709.55 -14636.35 -14872.96 -14945.53 -15005.56 -14465.89 -12534.02 -12085.14 -10688.82 -7137.39 -5729.19 -6269.35 -3889.68 -2728.77 -1953.13 -2119.73 -1823.57 -1493.50 -1012.30 -441.39 73.29 245.48 255.44 263.12 266.46 269.01 276.77 296.45 314.93 318.68 321.54 332.72 344.96 348.28 366.65 374.29 371.95 386.46 376.80 346.50 306.80 270.98 195.55 150.79 -16.14 -862.92 -1505.49 -3125.33 -3767.51 -3909.14 -4001.15 -4345.01 -4744.21 -4643.28 -3875.08 -3137.32 -2574.97 -1905.24 -2377.94 -2812.78 -2801.39 -9269.07 -9288.56 -10317.52 -6657.71 -3332.38 -2843.51 -2748.36 -3317.09 -4017.57 -4928.77 -5343.28 -5389.00 -4977.63 -4499.29 -3607.47 -3091.51 -2520.27 -2287.53 -2751.74 -3304.39 -3561.06 -3612.89 -3470.48 -3269.37 -3269.20
-12693.53 -12692.92 -12951.65 -12742.04 -12929.56 -13182.38 -13588.09 -14302.52 -14887.75 -15266.70 -15434.12 -15458.25 -15469.01 -15488.57 -15602.70 -15844.69 -15937.52 -16024.64 -16061.84 -16017.06 -15805.47 -15039.03 -12956.37 -11666.94 -9958.84 -9841.44 -9929.11 -9520.86 -8238.02 -7337.93 -6082.65 -4971.85 -4465.66 -2284.79 -1134.26 -209.34 -269.39 87.66 218.09 212.40 203.72 176.01 -3368.85 -2513.62 -1958.16 -4392.02 -4993.33 -6681.09 -6824.50 -8539.88 -9557.71 -9134.33 -8746.46 -11695.18 -11061.97 -11246.15 -11759.73 -12306.56 -12176.52 -12590.30 -11828.03 -11160.35 -8268.17 -6755.92 -4010.22 -2891.33 -2388.92 -2276.03 -1643.19 -1095.80 -1269.98 -1357.46 -1460.71 -961.75 -91.94 242.48 253.57 265.34 274.38 282.02 287.43 293.71 306.78 325.42 345.26 358.22 371.91 364.91 373.11 402.28 403.95 415.12 410.88 393.55 372.23 320.96 276.68 267.97 194.40 79.27 -592.33 -1231.52 -2976.56 -3542.67 -3676.83 -3822.69 -4148.45 -4463.24 -4504.62 -4426.17 -4072.05 -3431.18 -2800.92 -2339.39 -2167.70 -2102.82 -2574.91 -3318.19 -7727.81 -6508.82 -4245.43 -2966.06 -2810.90 -3348.02 -3968.88 -4966.32 -5458.94 -5583.46 -5309.87 -4758.70 -4475.87 -3772.90 -2938.14 -2530.37 -2748.98 -3167.46 -3353.90 -3237.38 -3121.30 -2983.48 -2983.33
-13265.64 -13240.26 -13364.98 -13497.55 -13601.02 -13697.56 -14066.78 -14565.71 -14891.44 -15211.12 -15303.47 -15330.44 -15269.20 -15346.02 -15484.57 -15690.46 -15794.38 -15834.55 -15908.56 -15924.59 -15778.62 -15406.61 -14044.95 -12509.70 -12379.08 -11565.83 -11850.14 -11509.14 -9000.54 -7685.67 -5476.76 -4139.19 -3180.67 -1600.38 -213.67 257.16 301.71 292.91 264.80 269.51 257.95 210.85 -654.79 -840.08 36.78 -537.48 -1516.01 -3215.38 -4041.08 -4704.69 -5025.94 -5662.22 -6846.73 -3501.22 -7453.51 -8064.98 -8752.91 -8567.45 -8663.23 -8389.15 -8851.71 -7891.85 -4835.33 -3925.91 -2765.51 -1792.36 -1571.51 -766.31 -985.34 -715.70 -686.55 -921.67 -1064.30 -246.11 165.05 264.34 274.52 281.98 285.76 299.78 304.83 313.71 333.86 350.56 358.51 377.38 384.39 390.03 401.87 414.23 426.91 447.88 452.30 410.91 388.45 348.26 331.90 341.36 368.08 55.23 -74.44 -1114.78 -2711.09 -3148.55 -3277.40 -3660.59 -3885.39 -4031.70 -4215.81 -4423.68 -4707.40 -4831.61 -3805.03 -3583.52 -2849.99 -1933.85 -1734.83 -2159.31 -2545.23 -4708.27 -4075.29 -3361.61 -2901.57 -3093.39 -3825.87 -4555.48 -5373.96 -5632.25 -5615.75 -5421.81 -5021.91 -4315.10 -2985.13 -2524.67 -2528.72 -2932.99 -3113.28 -3006.53 -2903.72 -2857.87 -2857.91
-13622.83 -13629.54 -13763.63 -13981.47 -13981.51 -14190.73 -14410.82 -14632.38 -14919.71 -15103.38 -15187.29 -15124.91 -15136.09 -15221.38 -15447.48 -15620.25 -15703.33 -15756.18 -15790.87 -15848.16 -15789.83 -15544.83 -14891.72 -14352.26 -14129.97 -14347.30 -13953.33 -12872.75 -9954.18 -7210.33 -5576.49 -4160.84 -3044.97 -1168.11 226.43 235.23 307.23 403.77 392.94 285.03 264.74 288.04 263.46 233.39 219.05 188.21 140.66 164.06 123.36 -494.67 -535.53 208.20 -2510.09 -1446.33 -3829.99 -5386.85 -5914.58 -7001.18 -6793.36 -6881.91 -6882.33 -5171.88 -3305.75 -2342.62 -1862.51 -1179.50 -829.54 -297.57 -62.45 -44.80 -73.41 -281.63 -238.27 217.65 302.93 355.76 318.83 301.19 301.52 309.81 309.76 331.96 343.48 364.79 378.78 400.29 409.16 413.53 433.34 431.67 446.78 483.29 464.73 444.75 422.85 400.53 366.05 362.89 472.04 258.36 -78.80 -523.90 -1766.85 -2196.92 -2967.01 -3479.04 -3766.42 -3886.79 -4141.95 -4408.11 -4996.91 -5229.26 -5105.43 -4668.97 -3611.84 -2982.80 -2565.89 -1881.96 -2296.95 -3132.99 -3729.63 -3319.35 -3004.63 -3049.40 -3493.95 -4625.00 -5363.29 -5650.10 -5622.76 -5603.62 -5570.73 -4814.24 -3197.80 -2263.23 -2224.41 -2618.56 -2823.22 -2821.43 -2791.03 -2801.37 -2797.93
-13849.44 -13861.43 -14004.52 -14132.95 -14263.07 -14347.82 -14471.36 -14702.72 -14952.69 -15015.65 -15041.83 -14986.71 -14993.65 -15212.63 -15426.38 -15600.20 -15647.09 -15710.34 -15734.61 -15765.37 -15781.45 -15696.15 -15488.90 -15280.02 -15216.91 -15166.89 -14682.85 -13832.00 -11861.59 -8631.89 -6260.42 -4709.78 -1697.60 52.55 225.16 238.13 328.87 406.24 475.70 360.42 457.07 492.18 426.43 307.78 297.69 296.11 229.67 246.26 195.74 191.06 231.42 223.73 217.15 199.07 180.78 -988.12 -2476.04 -3206.53 -5254.07 -5765.55 -4455.78 -2793.34 -1887.02 -1241.70 -964.06 -564.88 -140.57 85.82 207.28 214.04 143.98 149.17 223.53 268.06 346.39 419.00 402.81 313.83 317.89 321.24 331.13 354.39 360.89 386.72 401.52 410.69 429.72 449.02 458.01 467.72 505.26 518.02 516.47 469.74 472.62 439.12 429.73 409.88 496.90 606.52 274.48 101.78 -335.30 -1895.48 -2469.01 -3139.49 -3610.95 -3727.84 -4007.67 -4408.80 -4620.26 -5043.21 -5218.45 -5087.50 -4783.50 -4205.64 -3756.66 -3211.64 -2641.35 -2538.26 -2844.63 -3107.21 -3126.78 -2913.46 -3439.20 -4410.95 -5398.70 -5667.50 -5630.63 -5613.88 -5580.10 -4825.30 -3266.99 -2359.25 -1831.57 -2142.34 -2394.84 -2687.38 -2703.15 -2732.92 -2734.73
-14009.47 -14009.30 -14167.52 -14274.68 -14351.09 -14474.97 -14562.15 -14709.88 -14884.44 -14904.75 -14968.78 -14951.20 -15029.10 -15209.16 -15470.87 -15568.04 -15622.56 -15663.10 -15692.81 -15752.60 -15767.95 -15714.90 -15542.30 -15472.68 -15391.63 -15281.35 -15165.47 -14146.03 -12496.82 -10504.06 -7753.10 -5174.69 -548.94 197.12 236.75 268.15 315.20 445.56 536.49 453.11 607.51 726.19 660.27 337.02 344.50 393.79 458.39 423.35 315.42 255.98 268.74 262.20 233.41 220.91 207.02 182.93 172.92 158.26 -477.91 -1745.76 -1816.89 -384.90 -342.27 -355.13 -316.38 61.61 155.06 224.46 244.66 239.56 224.46 227.09 373.06 406.37 430.99 412.09 391.83 340.71 334.70 344.56 348.57 356.61 368.34 397.27 413.88 432.23 465.41 473.74 478.25 496.22 522.00 525.02 537.88 522.78 506.63 479.27 472.40 452.74 484.08 585.97 580.32 336.70 96.05 -829.34 -1838.53 -2548.92 -3409.21 -3663.20 -3955.80 -4193.36 -4611.74 -4951.97 -5104.59 -5310.73 -5364.18 -5221.55 -5141.97 -4787.17 -3877.19 -3225.41 -3021.19 -3322.10 -3094.42 -2999.99 -3294.57 -4422.36 -5309.56 -5650.06 -5656.62 -5631.55 -5607.53 -5144.50 -3653.12 -2495.55 -1649.69 -1801.50 -2293.50 -2575.37 -2788.01 -2784.26 -2784.40
-14208.75 -14203.90 -14290.66 -14405.79 -14516.88 -14537.42 -14616.34 -14689.02 -14761.29 -14803.35 -14843.63 -14946.19 -15117.93 -15281.46 -15452.21 -15559.78 -15635.92 -15668.87 -15700.13 -15731.41 -15734.39 -15672.10 -15434.75 -15242.60 -15102.41 -15086.77 -14917.85 -14336.36 -12806.63 -11068.45 -7152.64 -2836.31 -549.61 218.41 227.49 266.67 295.52 441.33 586.79 621.00 569.25 875.31 706.70 528.25 659.59 713.44 945.24 721.09 545.72 286.08 270.06 272.90 272.05 243.97 234.62 207.71 209.97 186.83 163.60 -44.88 -341.80 -76.77 27.95 58.03 223.17 219.77 231.83 243.54 253.72 256.60 267.44 345.97 388.16 431.39 389.11 373.22 364.47 347.18 343.66 356.18 373.15 373.10 403.14 412.63 428.49 453.92 475.39 489.12 510.70 526.45 536.01 557.24 566.06 564.76 568.17 529.82 525.70 532.04 534.90 544.65 598.19 523.45 338.42 -49.93 -671.06 -2610.12 -3080.19 -3306.70 -3623.13 -4144.91 -4630.69 -4717.27 -5070.00 -5299.00 -5341.66 -5408.13 -5444.48 -5263.35 -4688.41 -3902.19 -3386.20 -3389.16 -3305.68 -3163.65 -3523.34 -4376.95 -5370.56 -5684.41 -5664.10 -5569.32 -5584.87 -5458.92 -3808.38 -2735.23 -1686.02 -1570.70 -2126.01 -2769.85 -2882.89 -2932.33 -2956.35
-14516.20 -14515.89 -14587.94 -14580.83 -14612.37 -14630.74 -14652.32 -14685.53 -14726.73 -14803.62 -14859.85 -14979.46 -15096.86 -15344.01 -15466.71 -15602.53 -15650.67 -15691.86 -15722.54 -15757.34 -15715.71 -15475.64 -15039.04 -14784.94 -14692.02 -14773.98 -14467.20 -13888.82 -12446.27 -11140.17 -7987.24 -2579.04 -335.64 218.81 223.80 274.12 341.24 447.72 722.06 587.85 752.30 1097.53 1022.94 825.44 889.69 875.38 1195.30 843.24 618.32 407.34 320.43 291.89 273.95 281.58 262.28 228.96 218.15 216.15 202.89 187.54 183.29 194.03 210.99 224.22 239.70 241.17 244.55 258.65 271.25 272.45 290.25 347.15 385.16 393.64 358.21 351.04 351.79 353.40 357.54 371.82 379.70 391.01 418.79 430.23 460.16 480.36 500.73 517.03 539.71 552.77 581.26 608.18 614.93 621.88 585.86 578.44 576.12 576.47 581.21 595.25 597.64 710.77 436.55 146.73 -335.31 -1983.01 -2594.33 -3273.56 -3580.17 -3810.33 -4168.89 -4413.65 -5034.23 -5173.48 -5284.17 -5439.41 -5565.44 -5456.46 -4955.24 -3560.04 -2957.82 -3278.19 -3343.15 -3318.58 -3587.03 -4123.51 -4826.70 -5624.93 -5608.90 -5488.29 -5443.56 -5264.22 -4091.53 -2476.56 -1852.86 -1743.00 -2360.87 -2744.44 -3077.38 -3182.93 -3183.17
-14760.38 -14760.17 -14743.65 -14717.89 -14713.47 -14666.03 -14642.21 -14691.77 -14821.86 -14857.27 -14946.34 -15091.54 -15190.89 -15353.54 -15468.05 -15575.03 -15663.12 -15718.32 -15775.84 -15814.36 -15700.68 -15274.01 -14740.52 -14442.42 -14281.99 -14214.09 -14063.66 -13918.52 -13039.20 -11224.20 -5963.48 -322.89 213.83 218.55 229.45 284.56 487.76 749.15 864.18 747.85 658.40 936.33 1245.39 1225.32 1263.88 1424.29 1348.84 917.05 567.53 462.35 435.69 339.73 313.63 305.56 281.42 254.56 237.20 236.47 219.21 217.99 219.80 248.28 265.23 258.14 263.94 279.28 281.28 279.27 287.29 295.53 313.03 344.27 359.32 353.46 349.90 350.27 360.30 365.28 373.17 381.12 392.82 409.31 427.73 450.93 477.77 488.64 527.55 546.50 562.36 578.15 602.82 618.64 621.34 653.09 652.09 627.78 605.27 589.98 602.90 640.23 645.20 704.11 669.60 294.90 -376.34 -1340.52 -2440.60 -3220.35 -3563.57 -3849.14 -4121.33 -4320.07 -4823.96 -4899.75 -5196.99 -5394.76 -5578.73 -5564.31 -5007.74 -3536.06 -2591.05 -2442.55 -2625.59 -3224.48 -3492.60 -3723.56 -4365.42 -5160.16 -5336.05 -5232.24 -5217.61 -5028.50 -3908.96 -2858.31 -2053.41 -1924.98 -2318.63 -2855.32 -3149.60 -3284.10 -3284.20
-14814.47 -14814.41 -14790.69 -14750.00 -14683.41 -14640.06 -14609.16 -14671.93 -14860.15 -14949.31 -15030.19 -15095.17 -15248.15 -15367.43 -15445.55 -15571.94 -15654.67 -15751.29 -15848.57 -15891.69 -15772.10 -15221.04 -14758.99 -14339.47 -14147.50 -14113.43 -14190.44 -13769.35 -13233.35 -1724.61 -743.86 199.48 213.77 226.06 243.69 409.29 629.02 881.04 1128.76 996.34 748.15 987.00 1365.72 1546.83 1652.15 1486.38 1408.74 927.68 604.44 673.00 446.50 384.03 348.69 330.14 317.67 305.51 270.71 267.89 239.35 257.89 231.81 272.39 281.73 283.41 303.81 296.51 304.90 309.78 303.91 310.10 311.83 339.65 349.45 351.35 352.15 356.85 368.16 378.10 382.98 394.56 405.18 427.25 448.66 480.29 497.17 515.86 546.60 563.14 585.62 602.46 613.70 632.53 659.76 690.17 693.64 649.58 645.77 640.77 648.26 700.52 683.18 750.26 777.70 629.86 62.21 -355.67 -1997.76 -2946.75 -3384.41 -3817.26 -4152.03 -4424.29 -4506.31 -4844.37 -5071.98 -5326.34 -5522.56 -5558.78 -5026.73 -3943.04 -2539.95 -1511.72 -2612.60 -3220.73 -3547.03 -3639.09 -3871.72 -4312.10 -4905.39 -5047.88 -5052.63 -4832.68 -4310.65 -3083.60 -2242.40 -2104.74 -2449.39 -2934.17 -3026.69 -3099.73 -3099.62
-14796.55 -14798.35 -14801.15 -14759.71 -14685.53 -14632.03 -14632.33 -14730.02 -14856.91 -14959.05 -15043.75 -15132.06 -15259.87 -15351.42 -15471.09 -15566.69 -15673.11 -15757.23 -15887.74 -15970.17 -15804.19 -15260.07 -14824.89 -14258.90 -14151.25 -14209.38 -14218.09 -10349.73 -4368.21 -314.48 187.45 202.36 220.26 232.97 255.15 353.59 479.01 724.38 1027.31 1247.25 941.06 1225.66 1579.95 1824.77 1821.78 1564.48 1229.34 1083.28 713.51 574.94 489.33 441.99 383.50 337.03 343.37 339.73 307.19 285.58 269.12 290.58 301.55 284.71 284.94 295.13 339.26 338.50 326.28 324.26 327.11 327.68 331.91 337.05 349.40 360.57 361.60 370.53 377.39 391.21 400.16 417.38 422.49 441.18 459.33 489.94 512.80 535.54 558.06 580.38 597.89 615.99 641.47 665.35 679.63 703.11 720.06 692.33 692.40 687.47 698.89 742.92 701.71 753.55 762.60 584.66 267.30 -112.62 -1528.26 -2990.14 -3287.05 -3802.79 -4162.02 -4393.63 -4505.11 -4806.95 -5146.95 -5452.59 -5533.78 -5544.94 -5321.88 -4120.84 -2359.89 -1983.67 -1921.67 -3087.18 -3342.79 -3597.58 -3727.40 -4138.34 -4511.56 -4832.31 -4817.01 -4817.62 -4540.96 -3178.04 -2459.05 -2054.24 -2261.49 -2764.11 -2872.12 -2794.20 -2747.05
-14794.86 -14794.79 -14850.39 -14855.86 -14759.05 -14730.00 -14780.06 -14793.94 -14878.08 -14972.06 -15050.37 -15133.30 -15293.06 -15389.26 -15518.22 -15574.76 -15622.90 -15707.54 -15812.10 -15917.05 -15760.44 -15264.88 -14575.45 -14230.83 -13875.88 -14091.51 -13978.27 -8279.79 -1881.61 8.42 197.76 223.35 260.06 262.78 264.69 442.26 534.03 904.07 987.32 1277.45 1217.36 1200.90 1435.30 1471.62 1649.38 1535.79 1302.08 1018.05 904.22 773.85 580.12 540.54 463.73 494.29 500.65 450.69 468.09 374.12 311.79 349.74 424.38 415.79 347.10 360.53 374.22 369.00 359.40 363.06 353.26 353.02 348.11 350.03 358.71 368.34 376.86 380.81 386.58 406.16 414.96 432.72 437.13 451.33 480.37 501.42 526.60 554.55 575.16 595.26 627.82 643.35 655.75 679.08 697.36 722.89 743.62 750.35 714.69 706.30 737.22 775.50 754.57 813.07 840.14 755.93 664.08 -8.53 -476.49 -2044.04 -3085.16 -3910.09 -4162.84 -4400.58 -4764.66 -5119.95 -5295.49 -5444.90 -5506.34 -5508.45 -5176.60 -4743.73 -2289.38 -1721.53 -2106.44 -2653.73 -2899.00 -3531.16 -3739.54 -4171.97 -4584.52 -4597.93 -4733.37 -4723.20 -4590.38 -3529.43 -2583.98 -2052.34 -2116.60 -2402.63 -2502.36 -2456.07 -2455.97
-14796.46 -14796.39 -14905.69 -14958.94 -14951.79 -14871.85 -14899.59 -14869.31 -14896.02 -14989.09 -15043.43 -15183.41 -15316.60 -15405.04 -15413.03 -15389.87 -15459.27 -15390.15 -15414.81 -15490.75 -15262.08 -14678.25 -13804.42 -13582.97 -13093.45 -12101.51 -10450.24 -5520.25 -1601.28 190.18 213.59 232.71 266.85 281.82 337.37 445.16 684.65 832.24 1050.82 1239.15 1332.20 1230.17 1194.97 1160.48 1395.84 1599.77 1349.90 1182.44 948.11 749.23 670.93 494.25 457.30 534.68 675.09 629.07 503.08 412.33 421.59 508.67 508.34 454.02 393.18 411.25 394.94 373.49 378.86 377.78 374.07 374.61 365.57 377.00 378.76 385.75 387.62 392.94 400.50 412.22 423.27 440.73 457.25 489.21 502.57 523.99 549.28 576.14 591.34 613.63 639.99 664.22 684.07 709.92 718.24 739.34 763.59 775.96 759.17 766.54 783.29 808.48 827.36 819.99 879.42 976.81 897.64 384.44 -233.19 -1643.55 -2824.23 -3643.91 -4225.69 -4412.78 -4888.85 -5201.61 -5331.36 -5388.66 -5457.99 -5456.87 -5283.31 -3842.87 -2437.94 -1650.19 -1701.07 -2258.62 -2963.82 -3345.33 -3767.84 -3934.71 -4090.27 -4450.94 -4731.24 -4710.46 -4522.61 -3676.14 -2581.01 -2034.99 -1938.77 -2144.21 -2269.35 -2225.62 -2225.55
-14805.03 -14804.95 -14982.48 -15063.00 -15107.26 -15075.93 -15004.81 -15000.81 -14993.58 -15015.26 -15073.87 -15266.86 -15404.06 -15478.11 -15239.01 -15087.30 -14838.93 -14642.44 -14908.27 -14781.15 -14477.25 -13761.85 -13042.04 -12053.74 -10649.49 -10588.74 -4180.99 -1071.54 181.70 221.27 230.74 262.49 276.59 324.65 370.16 373.34 448.42 655.95 936.67 789.93 810.70 997.91 920.32 1062.47 1255.18 1647.89 1512.86 1327.44 1189.41 919.84 740.96 521.60 628.57 621.07 680.91 576.19 471.62 514.49 540.99 589.39 551.36 490.72 485.80 481.82 461.94 431.70 417.14 395.07 387.00 393.20 381.68 390.99 392.62 392.94 392.35 406.21 416.46 422.28 433.92 442.96 476.67 499.84 511.84 544.10 563.36 591.58 622.19 632.49 661.76 695.74 701.22 719.58 728.29 749.27 776.44 782.74 798.12 809.89 819.19 837.83 865.84 837.03 923.10 1018.73 775.90 172.36 -76.61 -988.64 -2576.17 -3455.67 -3896.86 -4401.76 -4812.80 -4943.64 -5214.01 -5277.57 -5405.06 -5409.30 -5193.23 -3836.65 -2372.12 -1367.65 -1583.63 -2165.06 -2711.45 -3238.54 -3541.89 -3957.41 -4284.60 -4632.35 -4727.45 -4690.61 -4548.43 -3620.15 -2760.53 -2070.18 -1826.83 -1948.90 -1941.60 -1990.22 -1990.15
-14805.69 -14828.60 -14948.10 -15171.97 -15193.77 -15202.58 -15179.32 -15080.77 -15056.13 -15077.26 -15158.55 -15335.06 -15470.44 -15426.71 -15080.44 -14664.56 -14424.11 -14365.66 -14481.77 -14243.25 -13774.14 -12794.26 -11047.74 -9563.47 -8610.43 -6576.54 -3477.88 151.31 204.94 238.88 263.45 280.19 323.19 399.30 404.72 497.33 593.42 575.04 501.77 537.50 598.68 694.70 998.71 1260.41 1464.23 1608.60 1483.30 1367.12 1223.73 969.97 654.27 708.12 736.26 721.91 695.20 592.75 423.83 491.74 626.42 725.82 657.98 629.83 598.14 533.49 498.13 461.75 445.51 430.45 412.66 414.45 394.36 396.36 403.17 405.44 409.77 415.81 422.45 433.25 443.50 463.29 494.67 500.78 516.96 554.73 572.11 602.47 649.74 668.10 682.79 705.10 716.71 727.78 744.78 754.65 775.93 793.49 805.40 839.21 856.24 870.71 891.50 913.59 961.67 1033.60 1025.66 388.29 25.88 -955.60 -2370.38 -3156.53 -3704.98 -4093.90 -4469.75 -4763.68 -4979.58 -5274.72 -5361.28 -5435.90 -5146.16 -3864.43 -2322.70 -1296.13 -1799.57 -1976.18 -2636.33 -3149.16 -3531.51 -3840.33 -4440.46 -4605.46 -4713.66 -4673.38 -4301.14 -3883.48 -2776.15 -2151.02 -1786.32 -1755.98 -1773.35 -1809.44 -1809.41
-14793.52 -14793.46 -14991.31 -15163.80 -15239.20 -15272.75 -15256.80 -15187.27 -15110.33 -15114.50 -15156.73 -15293.76 -15375.34 -15338.87 -14908.68 -14419.95 -14189.00 -14088.84 -13793.41 -13715.86 -12891.05 -11283.05 -9548.98 -7404.75 -6459.92 -5125.03 -2997.75 -622.20 220.57 272.51 283.79 302.71 377.12 518.71 627.46 571.54 787.96 864.73 730.66 699.02 803.27 758.90 963.29 1302.77 1595.08 1558.42 1339.79 1221.21 838.05 798.15 668.58 655.68 777.79 783.06 603.50 544.41 579.94 562.83 721.54 845.02 795.08 708.27 589.31 521.46 513.47 474.84 457.19 450.94 445.06 434.35 435.32 423.93 426.72 428.50 428.17 428.08 431.37 439.39 457.84 490.86 498.13 511.32 548.29 564.95 586.58 624.05 651.75 676.27 696.26 711.27 726.81 740.25 750.40 759.52 771.42 792.49 808.96 837.27 864.00 898.50 926.26 954.30 964.97 1015.65 1056.26 466.08 148.62 -152.03 -1489.69 -2913.46 -3668.79 -4130.02 -4246.42 -4624.24 -4873.61 -5191.66 -5384.88 -5389.35 -5046.16 -3950.90 -2019.88 -1381.44 -1448.07 -2046.67 -2418.37 -3289.60 -3682.88 -3780.96 -4120.33 -4455.04 -4700.89 -4669.10 -4269.14 -3845.52 -2802.00 -2190.60 -1718.89 -1614.01 -1589.85 -1687.45 -1687.45
-14785.10 -14785.04 -14975.58 -15155.41 -15263.85 -15280.98 -15266.76 -15182.17 -15133.56 -15115.11 -15160.80 -15190.08 -15247.64 -15128.04 -14739.90 -14220.75 -13828.49 -13565.33 -13138.87 -12383.36 -11268.36 -9921.91 -7478.36 -5837.99 -5550.89 -2923.06 -878.20 207.30 259.16 281.10 312.26 357.77 409.75 494.94 747.23 886.61 840.67 932.51 903.14 1093.77 1237.65 1085.80 985.79 1270.51 1529.09 1496.16 1445.72 1187.45 1039.16 927.75 908.41 799.90 854.33 778.37 589.75 763.90 735.53 653.44 819.81 862.57 745.80 635.73 587.53 535.01 535.11 512.33 496.63 479.29 457.94 454.38 455.70 454.69 445.75 441.51 441.84 441.35 445.02 446.24 472.46 491.51 503.73 522.22 552.15 574.45 602.68 627.32 650.65 678.92 702.43 718.56 728.42 744.92 756.71 771.63 779.83 787.78 807.16 816.57 851.80 895.73 922.01 932.42 915.67 917.40 846.96 270.96 189.80 38.97 -1388.38 -3055.43 -3886.11 -4059.98 -4379.15 -4764.97 -4946.63 -5171.89 -5357.72 -5368.39 -4852.91 -3936.18 -1951.38 -1325.45 -1533.25 -2324.91 -2713.36 -3139.19 -3508.28 -3637.44 -4028.87 -4553.95 -4696.30 -4669.35 -4434.29 -3648.66 -2916.40 -2244.40 -1775.98 -1482.23 -1465.60 -1578.08 -1578.08
-14791.46 -14814.76 -14952.36 -15140.34 -15218.70 -15212.26 -15199.72 -15164.35 -15142.49 -15111.11 -15135.62 -15133.67 -15023.89 -14894.67 -14538.04 -13819.11 -13068.44 -12221.36 -11623.93 -11208.91 -10949.00 -8455.63 -5849.86 -5074.76 -3838.76 -1291.90 103.52 239.92 271.70 292.71 331.16 361.84 390.09 398.76 535.42 600.50 603.58 730.63 903.34 1199.29 1594.99 1343.83 1189.34 1318.51 1468.06 1342.21 1390.21 1300.69 1212.65 1088.38 929.94 885.82 968.56 885.10 753.71 849.45 793.34 795.29 1003.79 889.24 684.44 687.83 721.08 606.91 541.14 534.67 521.72 492.06 471.07 473.19 468.90 463.88 462.83 456.21 450.38 448.10 448.50 458.52 483.46 492.01 515.94 541.97 555.94 582.36 609.57 639.02 664.28 698.38 712.98 721.56 738.85 748.30 756.60 771.19 778.68 787.59 797.41 812.27 830.54 866.21 907.82 915.76 860.12 779.67 774.30 374.26 124.02 -554.00 -1399.29 -2754.45 -3756.20 -4150.22 -4513.61 -4802.94 -5007.16 -5237.15 -5368.66 -5349.53 -4874.82 -3420.56 -1923.91 -1589.73 -1727.11 -2584.49 -3039.44 -3226.46 -3333.54 -3637.68 -3968.13 -4493.12 -4673.86 -4656.44 -4462.78 -3681.66 -3042.94 -2529.94 -1717.79 -1441.33 -1379.99 -1510.67 -1510.71
-14761.47 -14761.41 -14916.86 -15080.16 -15138.55 -15098.42 -15057.97 -15044.18 -14984.92 -14998.31 -14982.62 -14955.64 -14807.90 -14290.92 -13425.39 -12491.06 -11593.74 -11180.16 -10687.76 -10252.18 -9163.02 -7727.08 -5595.03 -4565.05 -3751.24 -2165.17 25.84 266.09 269.38 278.01 317.78 380.33 439.40 559.12 615.00 664.37 890.56 994.65 1082.84 1303.76 1576.94 1378.79 1286.28 1230.34 1200.55 1146.93 1249.78 1246.12 1257.25 1132.14 966.80 1014.05 1018.95 900.68 722.55 827.12 825.84 905.81 1009.21 886.86 719.21 837.94 729.67 595.72 546.39 550.15 522.66 503.75 498.09 487.49 480.90 481.24 473.04 461.90 451.51 448.98 451.89 465.56 484.40 490.28 534.54 543.57 565.84 598.49 616.91 645.87 677.84 699.96 715.15 727.54 739.13 751.06 758.72 772.04 779.39 788.02 797.99 808.73 839.19 865.00 893.09 929.80 938.99 945.65 879.63 376.28 -77.86 -918.69 -1846.95 -2857.57 -3513.95 -4155.44 -4493.84 -4796.13 -5129.33 -5261.81 -5341.29 -5160.29 -4790.59 -3091.20 -2167.48 -1659.24 -2182.07 -2699.72 -3112.29 -3211.51 -3307.64 -3561.35 -3845.97 -4327.07 -4657.37 -4656.94 -4483.75 -3691.81 -3125.41 -2587.83 -1878.19 -1339.20 -1276.68 -1384.92 -1392.63
-14665.62 -14665.61 -14800.67 -14951.84 -14987.73 -14928.44 -14820.39 -14781.53 -14832.80 -14911.74 -14860.77 -14560.53 -13860.71 -13514.46 -12618.40 -11452.21 -10825.16 -10474.38 -10348.33 -10055.85 -9123.67 -7472.53 -5367.04 -4310.49 -3725.51 -2680.77 -522.59 228.66 268.89 270.74 305.27 385.74 556.95 552.50 836.11 817.08 1078.61 1415.55 1421.55 1425.98 1522.46 1331.07 1127.91 1060.77 1054.85 1017.27 1067.03 1151.32 1191.25 1106.08 1055.35 1086.71 1026.70 815.10 854.23 876.19 905.57 978.76 964.36 815.16 843.35 1009.44 807.20 628.10 625.57 613.67 546.97 512.26 506.12 493.42 485.85 482.56 476.56 467.48 456.21 449.10 454.27 466.50 482.87 498.64 534.32 548.00 577.58 606.61 622.78 652.52 669.33 694.87 715.50 734.18 739.81 749.54 758.42 768.84 780.60 789.37 796.10 804.76 824.97 844.13 891.86 925.94 939.41 968.86 682.46 220.21 81.65 -882.31 -1749.03 -3008.46 -3664.72 -3833.36 -4586.54 -4962.28 -5242.10 -5294.46 -5285.21 -4900.72 -4260.33 -2832.07 -1509.50 -1932.74 -2188.36 -2776.24 -3085.33 -3252.30 -3349.50 -3556.38 -3888.05 -4326.05 -4650.96 -4651.54 -4379.14 -3663.89 -3148.39 -2643.37 -1699.94 -1373.06 -1071.51 -1137.69 -1137.59
-14556.21 -14556.20 -14715.07 -14846.11 -14782.71 -14631.99 -14505.02 -14457.22 -14638.04 -14701.33 -14666.16 -14125.45 -12908.24 -11667.18 -10371.33 -10160.11 -9824.49 -10121.33 -10418.88 -10263.73 -9210.98 -7366.02 -5593.61 -3985.91 -3539.85 -2314.23 -598.55 226.59 268.87 276.70 349.68 446.10 639.42 724.16 613.13 838.47 1122.24 1484.35 1641.51 1622.90 1498.36 1274.03 1191.54 1094.51 990.70 992.16 981.62 1024.60 1091.41 1093.23 1133.28 1131.52 1035.18 940.47 983.94 975.80 985.25 1053.77 975.48 854.96 1017.58 975.10 787.84 647.57 693.62 773.64 645.34 546.55 535.16 519.73 486.26 484.36 479.29 467.26 458.45 450.65 454.30 464.98 478.52 502.86 540.56 558.39 587.47 604.89 639.62 660.92 677.83 703.59 718.39 734.28 741.19 747.10 760.19 766.60 778.68 792.64 797.87 817.57 824.77 848.49 836.39 876.09 886.67 838.69 394.10 229.94 109.44 -679.73 -2244.66 -2991.40 -3292.93 -3733.50 -4412.56 -4849.26 -5238.72 -5233.33 -5170.26 -4612.38 -3565.06 -2138.83 -1344.47 -2078.79 -2742.71 -2940.88 -3078.08 -3257.11 -3405.70 -3621.66 -3939.85 -4415.91 -4647.43 -4646.89 -4182.57 -3533.68 -3030.45 -2315.54 -1514.95 -1122.26 -878.62 -947.09 -947.05
-14359.20 -14381.74 -14550.02 -14702.45 -14544.24 -14354.67 -13939.18 -14025.63 -14172.39 -14399.91 -14172.20 -13420.98 -11458.79 -10398.39 -9507.86 -8981.46 -9181.79 -9898.25 -10435.25 -10385.96 -9312.49 -7228.79 -5867.31 -4094.44 -3460.29 -1714.00 54.18 258.89 268.97 302.26 380.26 483.94 603.24 828.99 842.69 826.17 1034.43 1193.22 1619.78 1647.50 1527.96 1427.45 1212.23 1080.85 979.20 906.82 899.67 920.31 996.79 1014.88 1057.97 1147.34 1059.98 1046.67 1119.18 1149.06 1198.71 1204.36 1079.64 943.86 1136.23 1063.40 746.99 812.42 895.21 1043.48 798.73 751.86 599.94 557.76 519.92 484.02 482.88 476.30 459.50 450.29 452.74 465.00 476.89 498.74 530.11 556.81 591.80 616.21 631.97 655.92 675.21 702.60 717.42 728.55 736.47 750.85 762.87 770.20 789.12 797.54 808.82 829.13 840.56 848.99 832.57 744.67 713.43 617.43 384.48 197.09 86.86 -336.58 -1696.50 -2380.82 -3243.55 -3768.20 -4167.14 -4733.32 -5132.96 -5110.47 -4838.55 -4189.88 -2339.37 -1009.82 -901.31 -1202.53 -2001.91 -2759.47 -3108.64 -3380.80 -3684.82 -3861.02 -4105.49 -4421.28 -4635.59 -4637.19 -4254.75 -3567.12 -2860.69 -2077.71 -1458.19 -767.92 -807.49 -1016.48 -1016.64
-14104.66 -14104.78 -14209.62 -14224.47 -14014.72 -13634.21 -13241.30 -13282.37 -13578.31 -13142.19 -12593.12 -11772.40 -10533.28 -8931.04 -8464.24 -8223.55 -8648.99 -9425.38 -10346.50 -10311.48 -9549.08 -7275.84 -5568.22 -4117.31 -3176.16 -1595.89 -224.14 245.50 267.72 314.44 352.97 440.32 596.38 690.93 954.23 1011.54 1271.50 1383.89 1575.24 1618.02 1488.53 1136.66 1061.49 961.66 962.50 887.71 854.62 852.26 901.92 962.17 1046.70 1127.39 1127.02 1116.25 1142.56 1172.39 1238.50 1287.93 1216.66 1168.30 1219.56 1024.52 923.75 1091.79 1112.11 1071.10 904.56 681.12 622.43 574.58 558.87 526.49 490.72 489.44 471.99 455.24 453.58 466.45 476.92 503.22 521.80 555.17 583.67 610.66 628.51 660.52 680.85 697.13 723.41 730.81 741.33 756.21 765.29 784.92 801.44 814.75 829.92 835.67 847.43 871.65 856.79 855.61 736.22 475.53 242.79 192.56 156.05 -44.26 -1585.50 -2591.74 -3405.79 -3830.48 -4078.52 -4598.97 -4998.42 -4986.21 -4435.53 -3720.30 -1640.63 -560.06 -478.14 -841.43 -2070.24 -2836.70 -3088.72 -3480.98 -3648.39 -3919.77 -4138.04 -4454.98 -4654.94 -4581.82 -4210.68 -3448.81 -2655.73 -2068.41 -834.98 -571.85 -902.36 -1249.47 -1249.75
-13945.41 -13936.99 -13658.50 -13083.69 -12556.32 -12289.93 -11848.41 -11458.64 -11574.14 -11613.11 -10744.50 -9535.81 -9256.64 -8587.55 -8173.54 -8091.91 -8386.99 -9166.36 -9967.40 -10043.81 -9386.75 -7437.91 -5610.73 -4009.84 -3687.20 -1828.85 -149.46 247.82 259.43 295.61 376.30 524.99 724.21 985.82 1095.98 1123.11 1222.15 1407.84 1520.90 1480.55 1386.48 1201.10 1153.24 1002.95 862.42 861.73 802.29 823.56 909.87 953.64 1010.90 1042.91 1033.22 1079.40 1087.71 1078.70 1137.34 1194.68 1299.73 1341.11 1275.23 1184.09 1226.28 1128.95 1051.32 908.67 795.63 636.54 580.90 579.17 566.60 524.45 494.13 492.26 484.66 461.39 453.29 459.14 481.60 504.98 524.72 548.39 571.87 600.19 628.82 663.63 690.07 703.29 723.27 737.81 753.77 763.38 772.57 797.21 812.09 822.66 835.14 840.58 869.46 905.87 873.52 914.85 829.67 371.57 229.67 187.56 128.49 -58.05 -333.85 -2223.94 -3261.85 -3682.44 -3915.68 -4363.73 -4969.36 -4993.31 -3765.57 -2673.80 -901.69 -468.76 -379.32 -950.46 -1701.70 -2414.53 -3104.70 -3580.20 -3695.87 -3866.54 -4101.08 -4444.16 -4654.97 -4563.44 -4283.66 -3504.23 -2409.93 -1549.47 -791.06 -557.61 -944.00 -1442.32 -1442.58
-13372.45 -13373.03 -12524.65 -11783.53 -11067.81 -10348.59 -10035.49 -9735.11 -9566.72 -9608.20 -9528.28 -9001.50 -8626.40 -8509.08 -8386.76 -8274.07 -8516.43 -9002.86 -9567.73 -9641.55 -8940.74 -7969.54 -5458.90 -4006.37 -3318.44 -1842.05 -333.93 232.61 256.14 284.29 333.15 512.19 707.07 885.64 970.06 917.98 1011.38 1093.65 1197.43 1142.10 1078.91 1039.20 1054.25 953.37 845.76 762.22 771.79 811.78 886.22 910.57 981.40 968.14 956.79 1011.39 1021.06 1036.39 1064.97 1103.34 1229.48 1301.43 1277.22 1302.72 1294.34 1112.16 912.52 757.25 755.83 697.93 619.85 594.70 577.62 527.81 494.14 493.50 491.40 466.67 453.21 460.35 476.71 495.71 522.83 547.21 571.12 590.94 633.85 663.59 685.64 712.38 732.70 748.28 758.20 771.55 784.67 806.56 820.00 828.84 839.95 871.30 891.43 932.23 979.49 1016.66 537.65 273.78 219.88 173.05 100.34 -216.41 -686.36 -1716.08 -2804.30 -2897.42 -3345.75 -3920.94 -4389.76 -4558.02 -3583.60 -1884.26 -628.57 -352.62 -383.79 -815.21 -1334.34 -2430.63 -3046.77 -3507.80 -3679.64 -3807.14 -4083.93 -4510.94 -4642.66 -4624.06 -4182.91 -2910.18 -1960.98 -1196.27 -595.98 -719.52 -1196.83 -1341.91 -1341.86
-11919.99 -11921.97 -11327.11 -10244.45 -9771.11 -8892.92 -8795.19 -8911.46 -9044.11 -9223.66 -9113.89 -8786.71 -8793.18 -8799.87 -8633.07 -8550.05 -8477.22 -8700.02 -9042.50 -9032.40 -8603.00 -7432.58 -5731.99 -3878.76 -3022.00 -1714.37 -289.62 224.53 246.36 279.80 301.82 475.02 548.30 778.25 652.50 696.69 947.04 906.53 959.35 927.73 817.85 795.77 805.77 780.23 743.94 721.79 730.10 769.69 787.14 841.42 901.61 883.61 894.09 944.30 969.06 1001.46 1020.66 1069.60 1102.01 1172.40 1161.25 1276.12 1272.64 1017.65 908.73 866.95 923.05 828.51 718.76 656.71 588.90 573.64 523.83 507.14 485.15 457.11 455.50 464.44 472.84 496.06 517.45 550.05 578.42 597.32 624.36 663.05 680.21 724.27 731.13 761.38 773.29 791.90 819.57 831.09 839.78 847.37 868.35 905.02 924.57 944.36 1043.54 849.12 338.08 261.60 212.06 128.01 58.85 -137.85 -709.00 -1216.80 -1658.09 -2291.70 -2672.24 -3093.38 -3789.48 -3464.59 -3032.60 -1540.19 -568.43 -302.11 -446.81 -691.03 -1034.04 -2302.20 -3306.02 -3669.89 -3762.67 -3869.62 -4052.22 -4457.84 -4636.20 -4457.01 -3843.05 -2460.52 -1309.90 -821.76 -713.72 -1049.93 -1189.83 -1067.56 -1067.26
-10760.34 -10762.35 -10281.42 -9680.53 -9203.91 -8715.39 -8805.64 -9109.77 -9405.74 -9569.51 -9378.97 -9284.87 -9101.49 -9189.76 -9009.49 -8726.76 -8525.44 -8531.45 -8584.47 -8693.42 -8213.29 -7211.04 -5516.83 -4101.00 -2905.09 -1736.89 -261.38 214.67 240.61 257.03 276.66 408.08 468.68 445.83 530.68 825.90 979.53 802.50 723.86 867.63 726.89 694.12 692.60 683.92 690.32 709.54 709.84 737.17 753.71 797.43 797.96 841.81 866.25 900.69 961.79 972.98 1008.97 1037.07 1085.24 1126.50 1168.07 1242.87 1305.52 1177.61 1096.23 1167.99 1241.48 987.87 831.64 740.43 698.08 596.86 557.73 527.56 485.07 451.91 451.82 461.35 469.88 497.95 518.45 543.90 568.51 589.68 646.46 658.14 682.79 724.32 739.37 763.36 798.94 820.38 847.10 860.89 873.25 879.50 924.71 941.23 921.39 951.67 1032.18 541.86 308.38 274.72 188.68 112.28 -6.19 -123.83 -303.96 -610.06 -996.78 -1616.51 -1972.65 -2350.13 -2505.08 -2666.71 -2012.84 -784.60 -397.30 -391.83 -483.23 -900.18 -1770.52 -3136.23 -3450.20 -3726.64 -3786.07 -3879.84 -4055.28 -4310.23 -4609.39 -4267.00 -3114.28 -1741.22 -923.28 -872.66 -1051.36 -1162.45 -1319.22 -1290.53 -1291.10
-10584.08 -10584.35 -10246.96 -9908.29 -9582.22 -9425.19 -9485.36 -9691.99 -9870.76 -9913.73 -9849.17 -9781.86 -9763.58 -9629.05 -9328.33 -8764.74 -8532.61 -8495.13 -8524.45 -8510.33 -8381.11 -7328.48 -5698.93 -4527.62 -3283.35 -1058.60 23.41 208.45 240.22 251.71 280.25 291.88 365.42 494.26 622.34 803.02 867.10 772.16 593.35 666.78 690.04 689.39 695.56 646.06 633.29 672.04 690.30 717.09 747.63 776.86 806.06 842.88 864.37 895.45 940.90 976.49 995.55 1026.96 1061.46 1109.40 1166.17 1252.65 1406.16 1467.87 1417.24 1370.90 1390.10 1247.99 1029.75 824.20 743.76 697.81 638.94 531.40 484.86 460.35 455.32 466.13 475.08 501.54 521.08 532.33 573.69 593.00 627.02 655.92 700.04 722.04 743.62 791.07 805.95 832.30 866.85 895.30 866.73 914.96 948.97 944.73 869.31 1036.33 841.76 325.80 260.29 216.40 136.87 81.51 22.57 -52.74 -237.37 -387.09 -1070.21 -1472.09 -1754.51 -2004.86 -2103.73 -1778.40 -944.81 -599.92 -544.43 -700.69 -1001.66 -1114.70 -2471.50 -3740.05 -3901.69 -3702.63 -3696.60 -3887.22 -4322.54 -4530.83 -4848.31 -4304.25 -2793.47 -1341.62 -1052.73 -1105.95 -1295.11 -1456.14 -1663.80 -2164.71 -2167.34
-10682.92 -10682.27 -10458.48 -10180.70 -10090.42 -10053.26 -10083.85 -10170.68 -10321.77 -10335.68 -10212.35 -10097.09 -10061.41 -9841.83 -9456.34 -8863.30 -8555.86 -8467.06 -8508.19 -8441.75 -7943.79 -7051.23 -5898.87 -4069.12 -2972.35 -1178.56 156.36 193.99 235.16 241.82 244.41 290.79 386.43 504.95 521.16 498.25 627.62 646.89 552.40 500.63 545.31 573.55 596.93 592.54 604.91 620.57 667.81 710.79 737.44 759.17 794.03 826.91 867.62 904.40 947.27 970.93 1007.43 1032.69 1062.55 1107.92 1170.07 1289.88 1329.61 1305.70 1239.48 1271.65 1377.21 1389.98 1185.53 1032.58 989.97 816.04 681.51 571.73 478.77 459.50 455.60 468.45 478.64 501.68 515.62 542.94 580.00 612.21 638.17 667.97 709.05 716.56 769.49 797.63 812.25 786.34 838.38 867.12 809.06 872.20 866.46 861.98 869.34 802.18 390.07 342.87 243.51 162.54 126.39 84.54 13.93 -105.82 -214.95 -502.70 -1038.02 -1324.99 -1665.64 -1680.77 -1605.67 -1245.65 -811.19 -549.86 -559.24 -783.98 -1322.77 -1758.16 -3789.93 -4023.51 -3628.29 -3494.49 -3718.19 -3927.35 -4593.34 -5029.44 -4918.52 -3800.40 -2233.95 -1298.14 -1272.55 -1537.95 -1676.41 -1973.24 -2446.25 -3093.07 -3097.98
-10766.77 -10767.69 -10617.43 -10451.89 -10326.95 -10308.26 -10370.76 -10558.95 -10524.90 -10525.89 -10488.34 -10353.77 -10274.73 -10116.18 -9519.71 -9097.62 -8772.61 -8572.08 -8513.65 -8327.50 -7709.51 -6473.07 -5349.39 -3691.93 -3384.37 -1540.63 -288.64 194.61 226.59 234.76 245.02 272.49 310.00 374.64 401.56 426.13 423.38 431.68 469.07 484.48 497.83 528.71 550.14 581.27 601.15 615.57 657.51 699.24 730.67 757.97 783.52 833.27 861.63 907.30 946.49 968.78 1005.55 1056.15 1078.84 1133.53 1212.65 1188.08 1098.04 970.16 895.46 1016.47 1105.00 1140.88 1182.28 967.92 923.47 658.69 655.34 545.47 475.28 452.81 455.07 465.36 482.26 508.04 525.57 557.87 578.98 607.28 648.14 668.66 708.90 715.91 764.21 811.47 805.40 742.63 734.03 811.71 682.66 734.79 676.28 841.75 1167.68 653.95 323.19 293.50 198.02 137.60 84.78 39.22 -46.23 -114.82 -321.25 -568.92 -1029.06 -1435.46 -1578.24 -1636.70 -1507.16 -1089.64 -662.45 -483.35 -611.80 -795.58 -1352.39 -3042.17 -4276.59 -4048.92 -3645.96 -3670.04 -3778.98 -4582.21 -5380.31 -5354.41 -5043.73 -3417.06 -2149.26 -1876.27 -2012.39 -2043.63 -2198.05 -2565.47 -3025.75 -3698.28 -3701.74
-10926.00 -10927.50 -10844.01 -10698.21 -10702.37 -10630.13 -10614.66 -10659.03 -10607.34 -10589.43 -10607.95 -10581.25 -10459.74 -10258.02 -9732.94 -9220.48 -8897.10 -8776.49 -8666.28 -8272.08 -6865.17 -5596.16 -4447.33 -3299.10 -3198.79 -2692.17 -1141.84 187.19 218.50 224.74 238.29 248.51 269.53 300.73 353.47 357.19 399.67 418.88 436.10 441.90 467.18 499.69 523.74 551.84 564.34 597.30 636.49 698.34 746.22 777.39 818.63 862.75 878.89 927.60 956.48 982.36 1030.02 1066.33 1146.43 1171.94 1252.34 1282.90 1139.30 880.97 693.48 833.13 843.30 815.78 943.78 698.56 651.14 579.23 560.90 472.73 458.01 452.00 451.62 461.36 479.80 502.29 537.27 557.92 579.80 608.89 655.17 672.97 708.07 718.25 773.96 818.79 831.47 768.48 663.61 625.46 620.39 626.10 641.69 959.16 1132.13 579.30 397.60 233.72 199.11 130.67 69.31 -1.29 -50.80 -146.14 -262.65 -600.94 -1021.84 -1483.52 -1602.02 -1617.90 -1584.44 -1314.40 -555.50 -487.69 -584.38 -863.82 -1338.22 -3111.82 -4140.36 -4092.72 -4125.05 -4569.98 -5441.93 -5968.13 -6170.58 -6012.08 -5214.94 -3576.24 -2593.67 -2204.22 -2286.15 -2379.87 -2646.05 -3305.15 -3587.37 -4052.41 -4051.63
-11136.02 -11136.40 -11074.83 -10971.53 -10985.73 -11021.01 -10988.91 -10905.38 -10829.06 -10736.95 -10668.93 -10630.06 -10507.46 -10408.50 -10123.10 -9579.69 -9402.01 -9099.37 -8658.92 -7928.39 -7027.17 -5445.33 -4267.01 -3497.27 -3334.58 -3363.53 -1921.26 -864.41 -91.17 210.86 224.62 234.60 245.36 272.19 321.12 345.88 364.97 404.77 408.09 417.97 438.59 488.57 495.39 489.86 572.48 620.56 668.97 711.64 757.39 873.46 915.14 961.23 966.11 998.99 1021.65 1072.54 1112.38 1151.03 1205.18 1317.41 1286.65 1166.04 1017.84 908.96 690.44 676.87 726.40 639.61 701.66 651.69 498.51 481.31 457.79 443.53 440.48 443.82 448.42 462.32 476.72 519.05 541.94 565.65 590.43 618.26 648.99 669.19 717.10 743.75 776.04 834.70 841.24 784.43 684.02 592.80 533.81 586.59 838.65 1227.00 660.29 411.23 249.46 212.47 162.28 94.72 -2.39 -54.16 -128.66 -211.23 -291.73 -632.67 -949.18 -1573.88 -1612.18 -1672.91 -1655.09 -1368.24 -906.04 -624.69 -694.80 -1051.50 -1663.98 -2790.99 -4146.64 -4136.96 -4347.86 -4979.84 -6427.42 -7000.53 -7082.84 -6479.12 -5171.18 -4097.19 -3218.06 -2670.77 -2616.45 -2691.72 -3130.80 -3591.96 -3888.38 -4218.68 -4218.56
-11303.98 -11304.09 -11234.34 -11211.61 -11196.77 -11211.61 -11087.36 -10968.67 -10873.70 -10797.59 -10775.77 -10747.77 -10710.82 -10560.14 -10199.83 -9833.65 -9656.51 -9302.71 -8584.67 -8063.76 -7094.02 -5991.61 -4158.09 -3694.17 -3471.75 -3617.13 -3324.75 -2787.25 -1465.00 168.60 181.89 227.77 238.72 264.74 314.54 325.44 321.25 360.05 376.66 395.99 412.82 441.48 471.14 456.50 526.85 587.03 686.74 692.20 673.19 899.15 1016.10 1005.69 1036.35 1189.97 1193.86 1161.01 1131.82 1207.61 1271.89 1285.00 1122.38 977.86 869.57 732.47 634.07 569.38 662.31 612.94 492.35 498.71 434.30 451.26 444.21 429.25 426.71 433.81 446.53 469.78 481.65 504.66 543.54 558.04 605.74 629.04 660.77 671.45 719.25 746.16 765.63 816.66 856.07 735.28 598.07 598.04 548.24 582.54 944.78 812.80 335.59 307.94 256.13 179.52 106.14 -16.36 -64.18 -149.93 -230.17 -242.68 -390.68 -751.00 -1139.96 -1559.58 -1668.76 -1692.63 -1708.82 -1577.82 -1268.49 -1061.42 -1125.70 -1232.30 -1996.78 -3201.09 -4308.88 -4267.65 -4400.03 -5309.63 -6914.99 -7504.16 -7455.65 -6798.23 -5509.49 -4646.29 -3807.71 -3045.61 -2990.20 -3205.47 -3571.62 -3902.25 -4115.39 -4294.69 -4294.71
-11411.28 -11411.29 -11357.61 -11354.29 -11332.01 -11308.15 -11216.32 -11130.45 -11027.12 -10915.48 -10877.02 -10879.12 -10814.25 -10670.90 -10530.60 -10132.14 -9747.09 -9528.90 -8825.87 -8243.93 -7487.55 -6065.63 -4506.15 -3805.77 -3646.06 -3642.23 -3672.36 -3097.44 -2376.46 -963.41 -102.26 170.01 232.88 240.15 284.98 304.67 317.46 336.80 355.69 383.81 401.08 405.10 415.49 433.49 469.93 512.01 547.58 496.64 554.61 811.90 862.27 1043.96 1110.29 1242.47 1209.67 1054.26 922.00 989.65 901.79 996.53 846.24 686.88 792.41 760.33 697.87 582.79 579.09 517.28 449.32 380.42 393.48 405.35 400.33 409.89 415.30 425.89 437.57 465.09 483.73 518.77 548.99 572.40 602.95 625.40 656.77 691.33 731.27 745.80 763.23 822.05 868.31 809.28 658.82 526.70 470.54 634.77 594.74 325.38 315.00 263.35 222.02 152.45 52.31 -94.14 -132.55 -190.60 -270.05 -334.66 -423.40 -853.94 -1277.68 -1530.36 -1696.97 -1720.69 -1753.66 -1753.14 -1726.83 -1469.40 -1442.57 -1693.77 -2463.38 -4133.63 -4539.82 -4698.47 -5012.54 -6030.85 -7394.54 -7587.33 -7195.80 -6662.69 -5656.67 -5089.82 -4191.54 -3445.67 -3348.60 -3537.93 -3778.19 -4014.76 -4219.98 -4332.36 -4332.45
-11482.96 -11482.91 -11454.02 -11422.16 -11433.34 -11401.97 -11357.09 -11243.77 -11114.53 -10990.49 -10975.25 -10954.19 -10931.83 -10865.19 -10657.32 -10373.66 -10037.86 -9768.40 -9310.06 -8917.83 -7859.83 -6298.73 -5072.83 -4146.79 -3839.96 -3726.46 -3691.64 -3222.89 -2439.97 -1339.24 -593.02 140.52 197.10 238.25 273.87 267.42 298.10 318.84 350.17 355.96 371.33 391.05 398.00 393.51 415.39 428.65 485.48 446.36 615.89 623.70 644.95 938.88 927.26 993.05 1041.10 928.53 774.65 727.87 611.36 712.44 703.33 594.89 511.37 538.93 492.22 498.26 452.73 451.86 413.73 381.93 375.84 380.43 386.77 400.62 406.83 422.50 435.23 458.19 477.83 516.47 557.42 574.18 602.75 626.30 658.18 694.18 734.55 760.36 801.79 838.39 876.19 840.69 692.10 618.44 795.02 920.25 331.69 297.41 289.58 233.26 160.64 102.58 4.81 -109.73 -196.51 -246.57 -328.76 -432.52 -466.86 -841.10 -1282.13 -1653.81 -1719.13 -1769.36 -1822.90 -1917.39 -1934.05 -1864.88 -1650.70 -1694.23 -3106.40 -4497.59 -5052.33 -4974.42 -5989.45 -7285.90 -7400.69 -7561.78 -7238.27 -6641.68 -6280.62 -5333.70 -4380.86 -3928.51 -3663.58 -3791.99 -4014.26 -4183.28 -4292.62 -4327.62 -4327.67
-11510.43 -11509.06 -11496.18 -11468.59 -11462.89 -11459.05 -11427.88 -11321.50 -11179.23 -11047.84 -10960.23 -10959.23 -10935.20 -10893.67 -10705.62 -10570.38 -10185.58 -9882.47 -9556.81 -9281.78 -8863.64 -7274.09 -5945.80 -4596.12 -4052.73 -4183.00 -4098.35 -3842.81 -3225.46 -1936.78 -1199.68 -1175.11 -216.68 197.66 216.77 230.31 278.14 292.44 303.43 335.47 343.16 347.59 359.43 358.16 369.77 378.97 414.36 388.62 463.98 462.71 644.83 784.11 762.29 732.63 899.56 789.11 547.58 554.29 482.34 668.07 466.66 486.19 404.56 424.39 427.75 406.84 406.95 402.42 401.78 389.89 366.75 372.84 379.12 389.62 404.26 421.50 442.31 458.32 488.76 515.88 544.32 572.75 606.31 645.93 667.72 683.45 735.13 760.45 808.71 851.89 858.56 767.08 687.19 806.11 900.23 566.46 309.19 266.67 217.88 138.36 121.34 79.77 16.80 -90.52 -193.87 -260.71 -359.94 -454.76 -544.47 -889.71 -1405.32 -1658.59 -1764.40 -1841.75 -1893.71 -1950.50 -1984.54 -2000.47 -1828.10 -2300.20 -4510.40 -6110.49 -6148.33 -6283.96 -6484.99 -7060.99 -7490.69 -7640.96 -7512.39 -6991.86 -6539.33 -5882.79 -4601.77 -4136.58 -3939.64 -4147.58 -4293.86 -4323.56 -4359.57 -4362.54 -4362.56
-11468.92 -11468.77 -11449.51 -11450.31 -11435.96 -11437.79 -11405.29 -11311.38 -11172.34 -10953.71 -10838.23 -10817.97 -10860.88 -10850.00 -10780.82 -10718.07 -10508.37 -10270.63 -10049.97 -9973.12 -9445.17 -8016.41 -6954.43 -5951.18 -5156.33 -4911.82 -5166.31 -5062.64 -4109.15 -3445.98 -3260.89 -2714.24 -2869.90 -805.48 129.95 224.38 243.03 262.21 276.85 296.49 303.98 317.99 332.03 342.82 343.66 354.07 363.16 365.75 366.61 372.78 475.49 523.62 559.69 541.64 576.55 557.61 460.69 413.77 403.32 487.81 390.27 357.28 369.87 374.70 380.92 391.06 399.59 391.44 386.25 376.90 365.08 367.85 374.45 378.02 399.35 418.67 437.91 471.11 488.99 522.37 549.79 584.68 616.11 657.52 671.79 686.23 743.86 776.73 818.90 853.77 830.58 716.91 556.89 1009.58 932.85 368.94 241.01 219.46 171.00 123.24 80.26 34.22 -4.67 -77.03 -162.84 -228.06 -361.80 -480.04 -709.01 -1005.87 -1519.09 -1715.40 -1793.84 -1858.91 -1885.74 -1931.55 -1978.58 -2027.95 -1939.84 -3130.19 -6267.80 -7012.87 -6729.18 -6681.85 -7007.67 -7364.47 -7711.35 -7824.22 -7774.89 -7451.41 -7129.51 -6583.10 -4809.61 -4432.06 -4275.12 -4308.32 -4343.14 -4395.13 -4415.55 -4419.71 -4419.90
-11390.24 -11386.18 -11378.14 -11383.96 -11389.95 -11390.56 -11348.38 -11265.64 -11072.94 -10824.56 -10698.24 -10665.88 -10641.09 -10653.51 -10702.83 -10756.34 -10652.35 -10547.28 -10376.47 -10185.55 -10059.59 -9213.52 -7398.58 -6830.17 -6556.35 -6482.89 -6092.82 -6244.80 -6024.58 -5338.29 -4667.78 -5113.84 -4697.26 -2996.25 -645.53 165.00 231.06 240.14 240.72 268.78 270.26 283.93 313.38 321.04 321.53 335.33 349.19 346.80 353.38 376.20 389.80 470.88 486.53 506.56 510.92 422.72 383.91 392.25 375.20 370.06 339.10 339.15 338.69 333.87 345.14 366.56 383.28 381.95 374.62 365.42 363.00 362.24 366.66 368.64 388.06 409.86 435.16 477.35 494.90 519.28 545.00 591.95 603.94 647.83 667.11 703.35 748.28 793.76 821.81 838.50 739.70 619.26 573.26 594.77 494.08 307.93 229.40 191.00 161.02 125.49 84.90 31.02 -9.30 -75.13 -133.89 -213.77 -356.93 -474.53 -603.58 -966.52 -1459.09 -1686.95 -1803.76 -1829.22 -1857.58 -1901.45 -1968.55 -2022.04 -1978.46 -4325.79 -7222.81 -7029.70 -6739.17 -6695.58 -6991.36 -7423.29 -7578.96 -7892.89 -8051.71 -7969.37 -7644.22 -6784.56 -5442.57 -4669.39 -4302.05 -4292.13 -4291.08 -4224.00 -4225.31 -4254.64 -4255.05
-11394.92 -11394.89 -11368.37 -11372.84 -11378.09 -11369.79 -11322.32 -11239.48 -10986.35 -10798.39 -10654.63 -10559.43 -10525.61 -10593.36 -10672.81 -10838.90 -10888.69 -10869.02 -10694.34 -10509.12 -10289.79 -9562.75 -8708.36 -7934.54 -7320.19 -7088.82 -7311.05 -7302.56 -7014.48 -7108.27 -6856.10 -6792.51 -7277.85 -6560.88 -3548.95 -1000.53 175.23 225.80 236.35 250.35 248.56 251.31 277.23 287.88 281.40 296.67 304.74 310.52 327.49 348.80 370.85 383.50 462.04 535.15 440.77 379.77 359.04 347.53 343.70 336.81 323.30 323.74 322.61 314.85 310.56 320.58 334.13 370.47 355.93 361.29 361.74 357.02 357.88 372.88 391.36 412.04 433.04 482.83 495.99 523.60 544.58 581.39 603.67 641.40 668.88 714.37 739.15 769.15 808.03 844.70 816.33 718.47 867.76 537.04 312.14 293.40 231.07 183.42 166.22 126.09 82.63 34.08 -31.63 -132.83 -217.59 -264.43 -359.27 -414.95 -743.53 -993.28 -1366.78 -1774.58 -1836.36 -1834.69 -1846.87 -1892.56 -1952.30 -2008.61 -1978.63 -3818.59 -7092.32 -6847.75 -6638.14 -6700.69 -6812.12 -7186.68 -7786.78 -7961.87 -8067.31 -8041.72 -7803.77 -7028.25 -5909.18 -4647.11 -4272.87 -4037.61 -3983.18 -3898.39 -3895.93 -3785.18 -3785.57
-11467.40 -11467.35 -11416.54 -11403.36 -11401.08 -11399.93 -11380.51 -11237.98 -11026.70 -10770.83 -10665.98 -10533.08 -10512.31 -10535.98 -10647.80 -10860.07 -10982.07 -10968.04 -10740.26 -10613.33 -10188.12 -9654.24 -8785.70 -8055.57 -7644.37 -7595.40 -7560.59 -7673.49 -7758.34 -7719.82 -7664.83 -7552.30 -7775.11 -7432.48 -4437.80 -709.89 96.96 152.20 222.41 225.60 228.84 231.08 250.06 257.31 259.14 273.67 284.13 292.11 310.62 336.91 354.25 361.91 433.80 544.10 422.17 344.33 316.76 327.95 311.73 313.03 287.66 287.16 283.74 292.69 294.88 299.52 298.76 309.13 327.54 339.84 354.70 349.03 350.68 369.05 392.88 410.08 444.17 471.01 489.90 525.49 554.42 583.45 622.19 657.03 677.48 715.69 741.45 768.14 762.85 738.24 796.67 869.31 823.80 363.11 313.47 267.70 217.12 177.66 154.15 88.56 17.79 -58.96 -121.68 -158.83 -262.09 -315.10 -375.15 -511.04 -784.92 -1038.19 -1354.02 -1634.01 -1808.89 -1815.12 -1847.37 -1885.55 -1943.13 -1960.09 -1993.74 -3796.02 -7191.07 -6589.69 -6433.43 -6718.03 -6912.87 -7141.12 -7684.73 -7983.52 -8071.57 -8036.56 -8017.24 -6737.49 -5547.38 -4827.42 -3914.50 -3712.28 -3524.25 -3433.32 -3386.44 -3378.49 -3389.13
-11500.07 -11499.98 -11429.11 -11391.77 -11390.62 -11418.39 -11398.93 -11268.97 -11058.59 -10839.43 -10702.56 -10613.93 -10555.56 -10548.75 -10727.05 -10912.48 -11075.13 -11014.09 -10776.20 -10501.26 -9967.18 -9622.04 -8780.94 -8138.07 -7917.60 -8112.75 -8422.54 -8123.05 -8177.95 -8305.93 -8084.06 -8006.22 -8336.51 -7669.41 -7350.89 -4204.98 -1961.86 -200.77 93.93 147.95 219.80 221.96 223.21 222.00 223.03 233.89 254.67 278.36 294.03 302.73 310.94 341.85 464.31 469.29 382.14 310.83 294.44 294.20 294.02 286.49 266.60 262.97 269.00 266.01 267.99 272.27 281.39 286.09 290.42 293.69 319.04 322.48 338.68 359.12 390.84 405.41 452.59 467.95 490.68 531.78 549.55 585.05 616.36 644.45 679.85 711.75 751.02 764.90 721.39 705.59 757.09 953.48 760.73 368.77 282.60 256.68 198.12 149.91 75.80 18.62 -60.34 -111.28 -139.35 -224.86 -268.86 -349.63 -411.98 -582.31 -854.36 -1178.90 -1385.97 -1676.92 -1771.63 -1812.35 -1838.87 -1871.54 -1905.71 -1892.42 -2030.10 -5875.15 -7194.05 -6305.90 -6409.21 -6613.05 -7079.86 -7447.06 -7954.21 -8075.69 -8073.62 -8032.52 -8011.88 -7096.57 -5220.16 -4529.38 -3783.24 -3470.38 -3323.17 -3371.52 -3379.79 -3493.58 -3493.48
-11442.60 -11429.42 -11362.41 -11333.58 -11332.17 -11363.54 -11306.58 -11258.10 -11063.83 -10896.58 -10790.58 -10683.44 -10586.09 -10604.56 -10736.32 -10881.32 -10955.13 -10898.38 -10591.30 -10370.23 -9843.20 -9345.02 -8837.59 -8583.75 -8780.59 -8936.75 -8971.21 -9020.95 -9288.76 -9123.56 -9157.23 -9212.95 -9275.86 -8813.94 -8027.54 -5775.82 -3073.66 -1321.74 -734.78 -24.90 143.39 217.57 220.48 221.84 223.70 229.04 245.81 255.18 275.98 275.60 284.89 291.40 335.90 306.18 288.58 291.46 291.70 290.99 289.80 280.40 262.10 251.37 258.53 256.15 254.14 263.46 263.69 277.16 285.60 288.37 295.60 307.60 326.61 348.12 385.31 411.37 437.64 463.27 475.88 507.56 542.58 583.11 603.61 637.57 682.90 698.88 733.33 731.86 678.52 639.55 794.11 927.18 555.43 322.05 268.09 228.64 158.72 57.95 9.62 -70.28 -128.31 -170.78 -240.80 -237.43 -296.75 -362.82 -412.57 -590.73 -815.12 -1236.99 -1531.22 -1721.74 -1802.73 -1829.61 -1841.13 -1862.42 -1869.40 -1850.47 -3396.06 -7263.87 -6634.73 -6080.08 -6132.58 -6488.78 -7021.72 -7696.90 -7936.11 -8075.29 -8056.46 -8031.36 -7858.41 -7191.24 -5832.90 -4208.76 -3656.26 -3432.40 -3383.29 -3471.53 -3586.22 -3744.30 -3744.34
-11271.09 -11270.86 -11284.43 -11250.01 -11156.71 -10965.28 -11028.71 -11069.71 -10951.18 -10817.53 -10756.33 -10601.79 -10455.23 -10541.14 -10553.70 -10631.68 -10579.00 -10510.93 -10344.22 -9933.08 -9411.07 -9293.62 -9173.20 -9227.43 -9424.79 -9838.58 -9941.08 -10089.69 -10089.74 -10375.55 -10267.70 -10070.29 -10385.94 -9850.33 -8373.96 -6508.51 -4822.57 -3513.20 -2650.32 -1440.54 -1252.50 -131.33 -45.20 165.01 210.34 215.52 234.21 246.65 251.60 267.28 280.86 280.74 278.93 282.78 285.17 289.19 289.64 288.91 279.58 266.11 255.46 242.12 246.23 240.55 240.91 252.11 254.87 266.66 279.19 276.10 286.97 298.99 306.68 332.34 362.51 389.37 416.84 443.25 477.75 500.73 537.94 558.27 601.58 624.60 677.00 683.83 682.61 648.50 641.19 608.07 647.00 964.02 503.40 286.31 264.84 236.24 142.80 59.92 -31.57 -103.46 -197.06 -201.40 -279.34 -277.26 -334.51 -425.32 -525.01 -712.20 -938.22 -1250.35 -1594.24 -1697.55 -1797.39 -1832.09 -1851.32 -1877.58 -1884.44 -1676.31 -5037.48 -6679.02 -6484.49 -5959.26 -6060.38 -6278.19 -6717.14 -7477.38 -7798.25 -8028.04 -8022.64 -8003.01 -7873.67 -7158.47 -5131.75 -4291.17 -3702.20 -3560.96 -3434.53 -3343.41 -3570.02 -3782.99 -3783.13
-11031.44 -11031.26 -11079.90 -11014.56 -10879.40 -10783.74 -10650.85 -10721.39 -10770.44 -10665.89 -10610.96 -10408.76 -10196.77 -10271.37 -10261.01 -10305.89 -10269.33 -9969.07 -9855.20 -9373.19 -9159.88 -9302.46 -9482.30 -9845.68 -9968.49 -10478.31 -10719.89 -10832.37 -11057.76 -10981.55 -10976.18 -11021.88 -11062.18 -10299.16 -8983.12 -7330.21 -5483.83 -4917.82 -3932.90 -3542.31 -3095.07 -1765.88 -619.56 -102.35 -8.97 108.66 208.85 221.32 233.57 251.23 247.06 237.99 247.36 253.07 266.04 267.11 268.31 266.74 262.97 250.50 242.06 234.36 233.98 232.94 233.58 236.01 246.99 244.59 258.93 263.68 262.69 275.41 295.16 327.85 339.73 378.93 409.15 440.72 475.27 509.98 531.94 560.57 602.75 626.07 672.03 677.33 610.86 603.52 595.17 551.32 696.40 623.43 389.25 299.74 268.63 228.48 155.47 50.65 -39.78 -112.55 -172.68 -240.58 -318.06 -350.92 -406.70 -554.31 -627.77 -882.43 -1159.32 -1342.74 -1563.92 -1704.93 -1807.44 -1838.78 -1874.79 -1899.53 -1885.43 -2336.26 -5809.07 -6664.63 -5897.77 -5731.34 -5761.39 -5778.46 -6279.28 -6687.31 -7186.94 -7542.06 -7766.17 -7831.69 -7624.97 -6737.48 -5206.82 -4355.70 -3671.87 -3363.53 -3207.15 -2950.28 -3143.36 -3690.39 -3690.44
-10875.33 -10875.22 -10914.47 -10827.23 -10754.00 -10599.63 -10533.61 -10570.60 -10565.32 -10510.17 -10387.59 -10059.74 -9750.70 -9785.50 -10097.50 -10048.69 -9974.17 -9837.51 -9531.32 -9195.62 -9126.71 -9181.11 -9485.76 -9856.67 -10128.96 -10403.81 -10747.73 -11055.35 -11186.75 -11266.71 -11302.19 -11302.35 -11271.98 -11103.50 -10038.05 -8378.46 -6093.58 -5136.74 -4397.62 -4032.13 -3522.13 -2798.41 -981.69 -606.04 -319.45 -54.66 103.47 201.51 197.28 230.59 215.99 212.24 234.83 236.53 239.53 241.31 241.66 234.95 242.57 236.91 233.29 228.99 225.46 225.64 227.83 226.05 234.16 234.37 240.15 246.78 255.35 261.84 282.36 301.97 317.01 371.09 394.64 432.98 462.67 502.72 524.19 549.28 601.40 620.52 646.93 641.89 604.00 554.43 528.13 568.77 936.22 432.81 372.87 277.34 240.84 192.86 130.26 55.10 -40.08 -117.58 -175.73 -370.37 -429.54 -539.78 -566.69 -670.67 -979.58 -1071.30 -1245.56 -1389.79 -1583.54 -1691.87 -1798.25 -1846.36 -1880.92 -1939.62 -2390.67 -4198.29 -6853.37 -6519.08 -5612.27 -5481.88 -5471.45 -5561.26 -5814.60 -6391.72 -6897.93 -6975.76 -7260.14 -7425.58 -7352.78 -6240.58 -4988.69 -4138.96 -3156.23 -2917.02 -2549.40 -2396.28 -2855.37 -3789.41 -3789.25
-10808.52 -10808.43 -10785.92 -10709.81 -10618.89 -10504.85 -10413.96 -10325.52 -10388.94 -10409.20 -10124.52 -9562.40 -9444.31 -9617.39 -9939.80 -9899.39 -9813.06 -9706.52 -9554.86 -9231.36 -9084.56 -9165.16 -9467.80 -9769.82 -10090.45 -10521.56 -10825.75 -11143.02 -11249.37 -11331.07 -11345.31 -11355.58 -11358.51 -11173.38 -10159.90 -8700.13 -6547.97 -5517.19 -4671.95 -4228.19 -3595.59 -2868.94 -2137.94 -1228.09 -534.39 -289.21 -166.43 14.87 71.01 153.84 5.74 27.28 85.54 147.48 233.06 229.99 225.44 225.08 225.05 222.01 225.95 225.14 223.87 221.44 222.12 220.52 224.03 224.39 229.54 228.22 239.99 242.97 269.10 287.29 309.55 355.15 388.54 399.89 431.15 484.90 509.70 549.35 577.90 607.70 630.32 643.52 559.32 529.74 478.25 645.25 854.94 348.51 329.45 233.41 182.57 154.38 121.15 51.64 -40.87 -115.85 -303.63 -442.44 -551.76 -715.91 -804.34 -984.66 -1152.47 -1281.69 -1325.48 -1426.18 -1465.52 -1605.94 -1760.88 -1852.10 -1974.10 -1989.61 -2321.27 -6222.73 -7132.44 -5851.85 -5559.65 -5478.36 -5476.32 -5521.67 -5834.41 -6123.65 -6474.79 -6761.73 -6890.85 -6877.34 -6753.54 -6120.59 -4657.62 -3714.37 -2983.24 -2483.67 -2153.83 -2355.50 -2914.77 -4205.45 -4205.17
-10745.62 -10745.46 -10650.34 -10518.23 -10413.33 -10383.48 -10281.66 -10128.65 -10147.45 -10103.27 -9581.12 -9105.39 -9051.54 -9395.14 -9657.30 -9706.45 -9657.71 -9582.66 -9456.36 -9312.24 -9111.51 -9235.10 -9536.69 -9980.66 -10188.79 -10536.77 -10883.80 -11106.46 -11213.23 -11283.02 -11298.34 -11270.87 -11306.38 -11085.88 -9995.95 -8864.39 -7217.86 -5727.72 -4880.24 -4486.14 -3781.89 -3130.62 -2012.92 -1327.66 -980.90 -563.85 -553.03 -502.39 -489.36 -255.75 -255.50 -191.88 -57.40 35.47 -8.07 130.95 220.62 222.23 217.79 195.19 197.56 205.56 220.28 218.55 206.23 203.51 210.12 219.59 221.09 221.57 222.91 232.18 239.06 275.22 305.24 324.53 375.10 400.34 436.11 459.99 486.07 545.03 571.89 590.88 588.28 580.00 551.23 501.40 429.86 806.46 497.85 301.44 259.41 192.86 149.63 106.13 76.40 2.54 -100.16 -250.77 -582.51 -632.58 -862.30 -1031.74 -1143.14 -1234.16 -1262.97 -1308.88 -1350.43 -1415.95 -1468.25 -1531.60 -1672.69 -1905.12 -2022.74 -2165.51 -3369.88 -4837.83 -6324.68 -5729.57 -5535.22 -5534.98 -5541.42 -5571.93 -5726.39 -5923.79 -6341.88 -6559.87 -6736.32 -6769.95 -6680.50 -5762.41 -4876.76 -3717.36 -2936.60 -2467.70 -2387.62 -2656.27 -3331.20 -4797.39 -4797.04
-10531.84 -10531.51 -10359.79 -10281.87 -10219.82 -10274.75 -10159.35 -9983.23 -9890.79 -9729.97 -9386.23 -8976.99 -8976.87 -9107.34 -9108.44 -9111.33 -9132.90 -9104.88 -9047.66 -9175.43 -9000.72 -9165.54 -9580.33 -9916.62 -10250.66 -10500.83 -10503.49 -10697.99 -10773.85 -10945.74 -10861.10 -10992.26 -10801.22 -10741.35 -9905.32 -8651.40 -6726.15 -5964.34 -5149.03 -4567.85 -4118.61 -3375.16 -2097.17 -1523.04 -1118.97 -1024.99 -851.37 -958.46 -845.89 -532.27 -364.75 -331.54 -385.50 -323.75 -252.41 -154.44 114.84 166.31 201.91 176.72 173.11 179.82 195.56 188.42 160.37 149.86 170.01 207.10 218.83 220.85 222.34 223.85 226.86 265.20 296.86 318.74 361.19 401.80 419.46 454.76 475.48 518.37 544.70 575.78 577.77 541.29 493.23 445.08 606.96 481.01 342.28 289.55 213.59 153.39 105.36 84.31 -24.70 -170.75 -292.22 -432.41 -694.89 -997.82 -1116.21 -1205.32 -1222.44 -1242.47 -1269.50 -1316.37 -1363.87 -1422.46 -1456.04 -1471.26 -1557.62 -1746.73 -1872.87 -2796.90 -4672.91 -5741.93 -5807.81 -5586.36 -5528.19 -5544.96 -5568.51 -5569.99 -5580.97 -5816.60 -5994.14 -6248.19 -6532.63 -6548.72 -6579.91 -6020.57 -5096.26 -4032.71 -3431.45 -3330.53 -3294.01 -3529.77 -4255.57 -5445.31 -5445.00
-10093.02 -10092.60 -10043.91 -9941.20 -10061.29 -10102.73 -9918.83 -9548.96 -9389.87 -9145.13 -8942.60 -8709.24 -8550.36 -8701.97 -8356.09 -8288.35 -8197.06 -8036.16 -8321.97 -8344.09 -8237.54 -8613.75 -8823.28 -8934.56 -9425.43 -9064.63 -9526.93 -9688.46 -9634.67 -9575.03 -9488.24 -9434.59 -9777.99 -9571.06 -9092.05 -7944.98 -6853.85 -5500.20 -4990.55 -4349.20 -4012.10 -3228.02 -2084.58 -1653.55 -1400.71 -1268.64 -1271.63 -1276.67 -1049.03 -808.26 -545.14 -495.20 -432.47 -330.09 -281.92 -231.49 -103.08 20.00 86.36 118.48 135.38 138.99 151.35 153.51 129.45 130.14 166.93 192.33 208.65 216.36 220.24 222.30 225.32 261.46 280.98 305.99 333.68 382.99 408.90 457.11 482.21 504.39 537.34 564.25 594.38 579.19 526.61 494.88 942.34 359.35 311.97 261.26 178.61 126.86 83.99 -29.51 -251.92 -430.66 -602.26 -922.52 -963.14 -1103.24 -1207.32 -1218.49 -1217.45 -1233.63 -1259.36 -1357.93 -1378.84 -1393.86 -1417.74 -1399.77 -1435.29 -1471.73 -2853.79 -3593.76 -5981.44 -5910.47 -5390.69 -5139.32 -5288.54 -5519.33 -5540.42 -5450.12 -5385.43 -5338.69 -5233.88 -5614.53 -6144.59 -6295.42 -6494.16 -6136.46 -5182.09 -4335.97 -3950.69 -3782.13 -4044.89 -4261.49 -4893.14 -5875.73 -5875.82
-9472.92 -9389.21 -9342.21 -9567.63 -9920.41 -10012.40 -9748.76 -9485.18 -8620.74 -8321.33 -8414.07 -8238.41 -8079.47 -7652.32 -7347.48 -7035.32 -6891.20 -6403.48 -6701.51 -6832.36 -7088.74 -7589.02 -7826.38 -8155.58 -8094.31 -8345.02 -8128.45 -8497.51 -8336.05 -8193.44 -8516.27 -8449.58 -8488.87 -8243.98 -7985.63 -7560.99 -6045.10 -5168.90 -4441.01 -4223.95 -3795.61 -3017.24 -2292.83 -2032.50 -1707.72 -1602.92 -1503.42 -1357.36 -1048.45 -813.71 -596.75 -536.42 -461.87 -304.09 -246.28 -148.45 -92.16 -7.38 27.92 80.07 76.07 105.28 120.82 125.25 117.50 128.14 151.22 172.44 195.99 214.80 215.18 219.41 222.85 242.55 269.81 304.35 332.21 361.28 403.69 423.16 451.04 470.57 523.47 546.08 562.99 558.14 493.77 859.72 691.59 334.98 303.59 208.42 112.79 62.00 -23.20 -125.42 -419.46 -611.72 -879.86 -952.91 -1057.25 -1122.79 -1207.48 -1216.06 -1205.72 -1221.43 -1348.22 -1470.82 -1404.70 -1387.11 -1536.88 -1630.39 -1591.35 -1984.30 -3743.39 -5356.21 -5957.55 -5391.58 -5019.99 -4812.41 -4876.05 -5118.35 -5240.98 -5205.49 -5105.73 -4936.05 -4621.07 -5136.75 -5632.26 -6016.74 -6156.58 -6013.32 -5112.46 -4618.47 -4276.19 -4227.67 -4325.19 -4597.64 -4995.93 -5530.98 -5661.80
-8567.89 -8567.09 -8875.99 -9051.71 -9553.07 -9844.44 -9615.00 -9045.11 -8374.45 -8102.86 -7985.00 -7857.44 -7609.14 -7328.71 -6873.78 -6499.49 -6445.00 -5915.54 -5890.15 -6134.74 -6260.70 -6501.84 -6833.01 -7162.85 -7329.57 -7454.38 -7428.75 -7608.56 -7748.71 -7509.83 -7552.22 -7580.14 -7582.17 -7663.68 -7419.15 -6638.95 -5898.38 -4978.97 -4386.06 -4028.83 -3744.22 -3095.84 -2682.89 -2174.20 -1926.85 -1790.14 -1605.78 -1363.63 -1047.17 -891.07 -746.34 -576.55 -479.63 -314.96 -249.31 -99.59 -59.52 -13.92 17.47 36.91 52.99 70.47 88.70 103.80 106.13 111.90 129.22 159.55 185.73 201.09 208.19 213.40 221.88 235.69 256.44 289.72 323.85 341.54 378.38 396.22 428.37 453.23 498.08 496.15 547.68 532.15 429.83 584.80 305.11 284.62 240.93 154.27 25.79 -3.56 -159.08 -251.67 -487.55 -653.39 -842.97 -1010.84 -1083.13 -1202.14 -1252.66 -1226.97 -1211.84 -1200.14 -1332.29 -1446.66 -1354.49 -1422.68 -1938.06 -2768.00 -2360.85 -3119.69 -4513.61 -5505.90 -5500.35 -5262.53 -4777.12 -4461.20 -4563.59 -4753.73 -5058.77 -5050.73 -4692.57 -4054.80 -4032.49 -4872.34 -5501.35 -6010.04 -6165.96 -5996.03 -5185.08 -4781.73 -4404.07 -4414.81 -4511.99 -4569.52 -4856.72 -4746.52 -4747.56
-7752.20 -7751.99 -8172.24 -8824.92 -9437.53 -9820.57 -9645.55 -9041.24 -8457.10 -8055.85 -7924.01 -7834.10 -7654.47 -7306.15 -6975.74 -6541.60 -6257.96 -5835.40 -5826.74 -5989.78 -6025.05 -6218.42 -6520.64 -6809.35 -6952.12 -7063.20 -7276.41 -7360.46 -7335.68 -7304.07 -7324.11 -7441.91 -7480.09 -7358.41 -7128.02 -6439.18 -5726.22 -5172.55 -4538.37 -4346.99 -3972.38 -3321.42 -2916.93 -2340.75 -2003.45 -1814.14 -1680.18 -1443.53 -1266.28 -1097.04 -880.06 -657.47 -515.26 -351.86 -230.77 -88.90 -30.61 -6.34 21.87 37.03 47.67 69.91 83.98 87.91 93.22 102.36 121.94 145.57 155.75 184.50 196.22 204.42 221.55 223.13 245.69 273.88 308.72 346.89 357.05 382.10 404.34 438.97 463.28 474.04 513.73 513.97 626.54 1202.49 299.10 249.68 177.64 56.86 -39.28 -98.99 -201.27 -377.87 -536.56 -705.16 -821.48 -972.94 -1061.67 -1162.18 -1186.19 -1185.23 -1146.25 -1064.43 -1056.90 -1177.00 -1417.83 -1809.67 -2684.84 -3407.42 -3745.92 -4075.20 -5198.64 -5386.17 -5197.06 -5121.96 -4971.18 -4496.46 -4490.48 -4825.99 -5064.81 -5049.77 -4604.11 -3996.88 -4186.95 -4828.11 -5728.29 -6140.40 -6184.72 -5784.05 -5277.24 -4865.38 -4508.16 -4445.37 -4425.53 -4252.86 -4163.36 -3288.27 -3289.44
-7726.08 -7726.32 -8084.54 -8716.48 -9244.03 -9602.73 -9687.96 -9328.43 -8615.47 -8180.82 -7952.71 -7805.32 -7722.64 -7553.89 -7332.29 -6862.25 -6674.36 -6347.12 -6139.65 -6024.97 -6041.12 -6164.92 -6469.39 -6686.16 -6783.31 -6913.95 -7114.58 -7299.46 -7310.84 -7301.60 -7255.94 -7372.43 -7397.64 -7370.58 -6944.28 -6644.34 -5746.85 -5248.20 -4753.55 -4497.96 -4244.75 -3629.44 -3236.38 -2478.75 -2084.02 -1964.72 -1823.17 -1689.38 -1513.23 -1245.47 -937.92 -746.87 -549.33 -328.33 -219.97 -114.20 -63.46 -18.35 24.78 40.25 54.75 71.86 79.08 83.49 91.04 102.84 115.43 120.17 136.53 149.33 162.99 183.08 209.26 222.22 243.45 262.72 273.92 328.18 341.63 352.29 384.10 410.31 434.29 438.46 461.49 473.26 475.95 1070.74 474.08 207.00 141.21 66.93 -60.38 -141.04 -296.34 -415.30 -585.20 -676.77 -794.30 -863.50 -958.21 -1004.24 -984.40 -1020.51 -991.28 -995.56 -1135.45 -1285.21 -1882.11 -2431.58 -3240.34 -4450.13 -4213.99 -4585.06 -5082.70 -5205.96 -5141.79 -5130.76 -4828.76 -4522.11 -4558.91 -4823.98 -5069.18 -4941.90 -4784.34 -4319.61 -4775.30 -5192.36 -5564.01 -5392.68 -5020.98 -5240.25 -4858.73 -4593.23 -4286.97 -4155.77 -4071.78 -3508.69 -2579.04 -1956.71 -1957.32
-7880.96 -7858.40 -7961.90 -8195.05 -8705.70 -9241.99 -9374.06 -8990.69 -8549.56 -8081.16 -7889.34 -7694.11 -7607.07 -7606.09 -7382.87 -7087.07 -6732.54 -6454.90 -6179.04 -5944.81 -5825.52 -5983.01 -6350.55 -6377.18 -6303.48 -6412.31 -6635.65 -6815.94 -6967.58 -6694.48 -6970.21 -6972.86 -7175.86 -7247.81 -6915.87 -6601.44 -6046.40 -4988.26 -4822.40 -4363.42 -4181.82 -3687.94 -3156.03 -2860.64 -2375.26 -2259.75 -2065.91 -1906.38 -1619.60 -1401.71 -1233.39 -853.71 -685.54 -487.40 -293.59 -149.16 -68.56 -16.71 12.02 46.73 58.70 69.18 77.02 81.07 84.74 99.20 105.11 108.10 117.05 132.11 142.59 159.95 201.94 221.19 233.94 261.68 282.69 308.64 318.46 338.44 367.57 379.20 391.29 417.20 427.78 423.85 437.63 794.37 635.24 172.71 95.50 66.28 -64.60 -199.11 -294.52 -437.07 -492.12 -677.38 -714.15 -783.31 -803.59 -843.46 -854.08 -847.28 -896.89 -1074.70 -1392.96 -1600.59 -2518.09 -2796.34 -3820.42 -4815.66 -4745.75 -5026.32 -5119.94 -5143.33 -5124.78 -5122.33 -4831.10 -4427.90 -4403.34 -4698.21 -4903.84 -4949.63 -4793.27 -4744.71 -5084.68 -5094.61 -5030.79 -4557.08 -4095.54 -4175.33 -4159.07 -3762.99 -3708.41 -3536.43 -3432.13 -3041.63 -2464.71 -1474.72 -1474.68
-7133.10 -7132.02 -6737.40 -7288.91 -7241.23 -7807.22 -7918.60 -8048.01 -7704.49 -7415.40 -6970.05 -6714.66 -6746.99 -6639.17 -6568.49 -6506.61 -6040.06 -5849.56 -5633.19 -5505.54 -5230.06 -5008.69 -5242.32 -5484.96 -5895.44 -5748.00 -5853.13 -5764.53 -5862.61 -5966.67 -5848.65 -6017.19 -6106.69 -6568.73 -6178.96 -5978.94 -5657.60 -4980.05 -4503.02 -4165.65 -3759.79 -3590.43 -3548.70 -3246.80 -3190.68 -2547.72 -2690.43 -2419.54 -1961.90 -1802.63 -1363.62 -1027.52 -753.11 -576.60 -341.14 -210.09 -70.40 2.40 28.55 50.99 60.51 68.98 73.74 77.07 80.96 87.56 102.71 111.15 116.15 121.47 130.32 150.40 184.49 220.59 228.09 247.78 268.62 275.23 299.34 305.95 324.13 361.09 375.15 376.12 389.26 405.28 404.11 398.02 519.17 136.45 -62.40 -219.71 -144.03 -239.52 -296.00 -396.81 -463.97 -550.03 -630.01 -637.14 -653.53 -691.69 -670.78 -675.08 -733.66 -893.80 -1277.98 -1599.49 -2513.99 -3638.84 -4966.63 -5062.44 -5126.50 -5016.98 -5056.97 -5113.17 -5115.38 -5092.97 -4911.19 -4559.95 -4374.01 -4639.02 -4871.34 -4953.14 -5004.40 -4943.85 -4974.94 -4711.03 -4384.34 -3906.59 -3887.25 -4391.93 -4128.74 -3693.42 -3284.10 -3171.33 -3186.90 -2816.77 -2418.80 -1810.39 -1809.89
-6013.45 -5954.04 -5920.96 -5997.82 -6156.00 -6391.05 -6849.48 -6479.62 -6291.92 -5974.45 -5313.80 -5609.84 -5221.79 -5227.79 -4810.94 -5085.82 -5088.58 -4946.54 -4476.14 -4054.20 -3985.14 -3786.19 -3930.47 -4114.80 -4137.78 -4540.29 -4778.23 -4914.35 -5020.33 -5111.38 -5046.23 -5023.50 -5157.81 -5103.71 -5342.82 -4650.12 -4575.25 -3973.84 -3708.73 -3582.89 -3608.31 -3591.95 -3746.53 -3571.33 -3226.57 -3063.21 -2957.51 -2652.29 -2268.86 -1792.25 -1404.30 -1216.79 -853.41 -623.74 -430.06 -244.50 -134.57 -40.51 8.83 43.76 59.43 66.32 68.24 74.05 77.01 84.75 97.71 104.59 114.47 121.96 130.69 139.92 170.81 209.16 221.40 229.12 240.45 266.41 279.69 297.73 313.73 330.53 346.12 361.90 376.81 356.57 348.64 318.54 311.15 160.24 -64.90 -264.78 -278.53 -276.85 -319.36 -398.01 -450.04 -501.63 -550.70 -573.67 -552.96 -569.28 -571.24 -597.30 -644.16 -788.62 -1373.55 -1809.22 -2591.36 -4231.06 -5491.53 -5595.92 -5226.53 -5021.59 -5034.85 -5088.69 -5112.25 -5118.66 -5082.01 -4817.75 -4750.01 -4946.84 -5043.13 -4935.62 -4844.00 -4673.60 -4300.99 -4068.71 -3576.06 -3661.02 -3952.78 -4671.54 -4344.38 -3913.40 -3333.21 -3247.78 -3201.25 -2950.72 -2689.95 -2545.34 -2544.87
-5663.58 -5676.91 -5683.58 -5605.75 -5532.80 -5246.73 -5048.78 -4825.14 -4500.38 -4233.60 -4193.90 -3949.84 -4080.66 -3746.03 -3811.13 -3650.35 -3782.53 -3762.89 -3810.59 -3739.89 -3437.94 -3033.90 -3074.03 -3615.48 -3711.16 -3945.84 -4259.08 -4288.96 -4634.90 -4648.66 -4530.90 -4423.22 -4180.55 -3968.49 -3462.34 -3802.62 -3617.33 -3635.26 -3176.25 -3346.17 -3665.07 -4058.94 -4227.67 -3992.62 -3568.09 -3240.85 -3187.18 -2875.79 -2523.65 -2059.11 -1668.05 -1334.89 -1019.84 -894.26 -538.55 -268.42 -183.79 -74.77 14.05 35.51 44.52 55.99 57.97 67.22 73.45 77.72 87.53 96.41 107.49 118.98 127.62 133.68 152.08 169.83 219.03 226.40 231.39 253.85 271.71 282.15 296.53 306.56 330.70 351.22 342.42 339.23 322.40 300.81 264.86 206.94 8.73 -160.35 -281.83 -309.64 -328.01 -398.35 -445.16 -455.65 -465.99 -490.29 -466.53 -457.52 -465.76 -468.17 -625.63 -923.01 -1683.44 -2105.17 -2939.30 -4182.51 -5671.92 -5812.37 -5286.52 -5075.09 -5080.29 -5096.86 -5103.29 -5112.13 -5114.56 -5114.32 -5046.96 -5073.75 -5074.83 -4666.89 -4220.95 -3747.85 -3440.95 -3259.27 -3251.00 -3672.18 -4431.02 -4771.98 -4225.09 -3772.72 -3422.10 -3340.90 -3277.34 -3115.44 -3093.99 -3129.21 -3128.99
-5817.36 -5817.35 -5430.36 -5360.76 -5056.28 -4775.05 -4061.36 -3791.58 -3540.42 -3483.51 -3400.70 -3217.91 -3030.64 -2969.33 -2650.31 -2782.24 -2951.95 -3167.69 -2975.59 -3071.71 -2887.53 -2768.43 -2814.45 -3027.11 -3406.50 -3458.49 -3611.67 -3615.59 -3889.39 -3635.70 -3830.31 -3501.12 -3575.31 -3211.44 -3002.91 -2918.14 -2866.67 -2578.47 -2879.07 -3493.55 -3961.04 -4386.42 -4527.60 -4336.24 -3917.81 -3801.26 -3608.94 -3245.94 -2578.75 -2276.97 -1843.50 -1682.99 -1407.85 -1014.50 -621.69 -338.46 -247.77 -99.91 -31.00 3.77 30.40 49.53 55.19 61.72 64.30 66.34 72.31 79.56 96.00 110.81 120.90 130.06 135.39 146.63 207.62 223.39 232.25 243.86 260.87 270.69 281.88 301.54 305.44 321.49 314.39 317.94 302.29 283.17 243.10 190.72 42.83 -284.80 -375.59 -389.50 -387.93 -418.10 -405.21 -386.71 -366.34 -378.78 -361.02 -366.84 -386.79 -449.92 -1013.41 -1136.11 -1816.43 -2920.68 -3758.72 -5283.22 -6038.76 -5801.08 -5051.29 -4997.17 -5086.49 -5084.87 -5091.40 -5099.45 -5103.86 -5107.54 -4864.22 -4453.66 -4145.74 -4091.48 -3701.70 -3205.22 -3080.05 -3075.67 -3370.90 -4063.35 -4789.05 -4632.38 -4104.69 -3390.54 -3168.89 -3166.47 -3225.57 -3259.68 -3298.27 -3389.20 -3389.20
-5621.32 -5620.73 -5220.31 -4736.20 -4028.71 -3473.64 -3240.66 -3115.54 -3177.17 -3133.92 -2988.46 -2801.55 -2866.81 -2627.19 -2242.62 -2192.91 -2291.80 -2230.78 -2305.45 -2023.14 -1887.59 -1890.38 -2123.97 -2509.29 -2295.43 -2662.89 -2473.60 -2591.10 -2604.17 -2682.88 -2585.29 -2647.65 -2346.84 -2294.88 -2237.49 -2351.31 -2371.94 -2527.21 -2809.51 -3321.44 -4172.89 -4527.71 -4533.16 -4529.40 -4405.91 -4118.34 -3843.76 -3499.21 -2848.78 -2619.15 -2449.00 -2160.57 -1637.50 -1233.51 -927.08 -629.98 -355.20 -223.67 -69.68 -35.86 28.00 39.81 45.06 47.83 55.52 56.62 60.75 71.47 79.60 94.92 108.42 130.10 138.47 159.99 192.87 228.76 239.13 246.73 252.52 264.70 273.32 282.58 295.27 296.81 305.23 298.96 294.87 267.03 233.32 209.65 -87.00 -256.61 -419.38 -444.65 -443.75 -421.04 -369.50 -274.19 -290.51 -301.76 -304.63 -319.20 -349.27 -595.59 -1012.95 -2118.54 -2807.60 -3191.91 -4262.75 -5595.21 -6234.99 -5764.33 -5001.80 -4937.63 -5075.67 -5077.36 -5085.27 -5091.09 -4916.03 -4371.43 -3765.34 -3794.47 -3583.81 -3380.08 -3116.62 -3028.67 -3135.81 -3381.65 -3979.84 -4420.90 -4770.28 -4166.14 -3559.05 -3003.45 -2858.50 -2900.76 -3011.60 -3183.75 -3306.37 -3349.76 -3373.37
-4745.63 -4744.57 -3932.14 -3300.37 -2963.24 -2828.89 -2494.60 -2463.23 -2558.42 -2363.38 -2330.51 -2192.31 -1888.96 -1483.77 -1241.38 -1199.61 -1033.89 -1091.53 -934.17 -1194.41 -1242.82 -1238.56 -1346.04 -1399.42 -1557.34 -1610.64 -1208.14 -1194.14 -1464.23 -1515.89 -1453.15 -1510.00 -1677.97 -1690.75 -1707.92 -2041.19 -2161.05 -2258.39 -2319.90 -2731.76 -3212.86 -3858.28 -4367.17 -4579.30 -4584.11 -4411.55 -4232.25 -3814.24 -3124.97 -2912.96 -2662.67 -2153.66 -1893.53 -1283.15 -1015.81 -772.87 -486.19 -347.97 -255.07 -76.74 -7.39 23.45 25.99 33.61 46.11 52.32 55.84 61.71 71.65 78.56 95.93 124.33 159.95 198.13 213.18 230.25 239.81 247.85 257.38 265.51 271.18 276.35 278.00 284.92 285.31 287.79 278.75 263.18 240.68 219.92 -73.36 -246.50 -388.54 -435.68 -429.61 -385.19 -314.51 -258.45 -226.96 -225.53 -242.73 -283.88 -359.11 -954.95 -1764.46 -2712.67 -3278.06 -4204.30 -5020.95 -5992.49 -6430.24 -5834.51 -5068.26 -4961.17 -5070.01 -5066.69 -5074.04 -4658.29 -4184.72 -3609.07 -3018.02 -3005.52 -3157.35 -3075.90 -3020.86 -3098.17 -3447.35 -3693.46 -4231.43 -4568.88 -4433.50 -3844.64 -3087.75 -2844.15 -2876.31 -2976.65 -3081.47 -3133.85 -3241.23 -3244.66 -3244.77
-3515.85 -3336.90 -3083.25 -2658.22 -2248.24 -1824.57 -1531.16 -1385.52 -1293.92 -1429.14 -1083.49 -908.00 -888.09 -836.27 -699.58 -711.08 -567.72 -522.73 -498.76 -456.81 -460.70 -447.08 -521.55 -591.32 -894.79 -957.62 -1034.51 -1258.64 -1301.97 -1443.77 -1372.74 -1389.45 -1513.45 -1599.35 -1837.63 -2075.65 -2283.11 -2270.69 -2294.90 -2241.95 -2449.44 -3201.18 -4302.06 -4617.21 -4610.99 -4596.56 -4356.39 -3877.83 -3409.64 -3276.74 -2928.19 -2800.84 -2280.71 -1612.06 -1339.85 -1056.76 -802.23 -638.80 -375.13 -201.19 -42.61 -15.64 0.61 26.05 36.68 41.18 43.51 50.90 54.50 76.90 96.17 140.02 185.74 218.82 234.39 238.03 254.36 261.76 274.03 272.39 272.59 272.46 273.12 275.34 275.88 271.55 273.27 260.20 247.70 219.06 145.13 -111.31 -279.97 -378.35 -367.90 -325.73 -268.70 -215.54 -204.49 -201.51 -257.34 -313.05 -705.32 -1857.35 -3367.00 -3943.87 -4525.11 -5286.53 -6477.32 -6444.50 -6417.80 -5924.33 -5561.01 -5220.36 -5062.74 -5051.42 -4781.77 -4198.19 -3671.27 -3018.82 -2633.78 -2649.26 -2877.10 -3004.91 -3191.37 -3442.32 -3765.79 -4057.11 -4349.79 -4408.24 -4017.90 -3706.80 -3108.98 -2977.35 -3057.85 -3189.79 -3277.72 -3274.48 -3270.48 -3267.18 -3267.13
-2420.31 -2255.65 -2018.64 -1751.59 -1079.72 -731.57 -415.42 -389.03 -316.89 -397.90 -457.75 -544.84 -493.95 -486.16 -432.63 -361.24 -350.85 -311.01 -289.19 -330.13 -368.56 -396.03 -390.11 -513.06 -784.33 -974.25 -1151.17 -1350.26 -1609.41 -1697.40 -1700.14 -1734.54 -1856.38 -2075.86 -2282.17 -2658.86 -2624.92 -2658.10 -2604.01 -2426.09 -2352.11 -3033.28 -4028.14 -4655.01 -4657.13 -4633.05 -4604.21 -4316.83 -3842.38 -3576.49 -3463.26 -3274.88 -2426.44 -2157.74 -1590.68 -1387.56 -1013.41 -880.18 -494.32 -256.75 -127.81 -63.29 -20.42 9.79 26.72 18.42 20.59 21.66 41.07 53.80 103.08 149.49 209.35 238.31 244.86 273.08 280.78 290.44 296.45 284.57 279.33 278.85 277.48 274.96 273.02 266.97 264.12 253.88 248.53 226.17 189.17 16.33 -229.42 -223.60 -256.62 -272.78 -210.83 -171.75 -185.23 -249.81 -304.99 -346.11 -881.47 -2367.03 -5848.07 -5553.90 -5416.26 -6373.66 -6497.21 -6330.75 -6250.31 -6205.95 -6006.27 -5517.24 -5142.13 -4974.07 -4411.22 -3890.44 -2829.21 -2605.61 -2470.43 -2629.70 -2862.32 -3060.28 -3519.56 -3918.73 -4364.71 -4423.27 -4293.72 -4240.47 -3874.26 -3553.25 -3229.18 -3154.40 -3281.52 -3412.47 -3421.02 -3470.48 -3424.71 -3416.51 -3396.61
-1493.35 -1493.81 -1289.20 -644.13 -421.72 -206.17 -22.05 -6.54 -87.59 -216.57 -348.14 -436.82 -442.08 -411.91 -389.58 -365.98 -371.77 -370.25 -346.63 -421.49 -497.91 -483.43 -524.23 -578.45 -747.74 -900.08 -1127.86 -1312.43 -1546.61 -1731.95 -1777.48 -1835.66 -2081.81 -2251.55 -2717.98 -2996.41 -3163.15 -2950.78 -2534.04 -2243.62 -2285.48 -3156.96 -4092.86 -4667.28 -4663.01 -4660.55 -4664.18 -4545.54 -4276.35 -4147.72 -3888.67 -3666.65 -3266.14 -2578.23 -2180.76 -1740.82 -1310.89 -855.11 -531.21 -339.69 -189.36 -115.95 -51.09 -27.49 -11.66 -2.28 -5.50 7.84 11.82 27.16 47.55 161.34 220.35 239.08 257.50 284.84 296.83 308.72 311.64 307.00 291.60 285.92 276.00 272.21 271.35 263.30 256.93 250.83 245.67 236.83 189.49 109.57 -53.22 -95.34 -136.51 -159.13 -146.74 -178.53 -279.76 -422.31 -897.16 -1494.46 -2882.48 -4173.66 -6426.50 -6202.69 -6070.67 -6424.23 -6223.41 -6095.86 -6231.49 -6510.21 -6504.87 -5992.68 -5476.19 -4578.44 -3891.49 -3442.79 -2727.46 -2676.21 -2781.29 -2984.43 -3294.39 -3503.89 -4007.10 -4664.47 -4634.04 -4437.03 -4226.95 -4123.66 -3977.35 -3872.89 -3533.36 -3308.58 -3396.13 -3449.88 -3483.21 -3497.00 -3474.73 -3449.35 -3439.59
-707.01 -707.64 -534.69 -311.73 -222.38 -79.74 -20.52 -38.32 -111.04 -272.10 -405.97 -518.10 -541.37 -504.20 -507.01 -485.48 -509.81 -498.40 -475.20 -553.42 -555.70 -474.11 -515.84 -517.06 -648.45 -781.55 -903.64 -1090.24 -1338.16 -1553.15 -1692.77 -1712.63 -1815.44 -1992.77 -2352.93 -2539.65 -2711.94 -2392.93 -2127.82 -1845.37 -1831.19 -3110.92 -4672.75 -4671.10 -4669.49 -4666.76 -4666.88 -4666.72 -4619.68 -4518.30 -4232.58 -4049.37 -3672.02 -3147.48 -2355.59 -1976.76 -1430.30 -969.17 -677.73 -520.36 -317.73 -250.13 -154.07 -105.00 -67.04 -41.96 -42.72 -35.62 -34.26 -8.82 -0.99 128.51 211.96 232.59 253.06 273.56 284.16 286.14 289.63 289.09 283.52 268.32 263.24 265.37 263.12 262.89 256.25 248.73 242.51 233.70 213.00 131.57 19.85 -27.01 -75.09 -96.57 -198.54 -412.65 -554.62 -1731.55 -2564.41 -4628.85 -5634.01 -6763.00 -6616.04 -6503.19 -6584.96 -6483.24 -6303.86 -6279.53 -6522.84 -6932.01 -6820.23 -6229.40 -5178.42 -4109.07 -3137.04 -3040.45 -2963.27 -3058.74 -3533.30 -3673.47 -3817.95 -4131.82 -4320.88 -4558.61 -4512.21 -4271.90 -4143.29 -4134.70 -4228.49 -4059.91 -3696.82 -3441.54 -3393.74 -3434.53 -3446.85 -3392.01 -3381.82 -3317.27 -3314.62
-356.55 -356.52 -297.03 -287.41 -197.94 -106.59 -101.96 -138.25 -197.39 -270.33 -426.31 -643.19 -611.16 -608.41 -591.97 -576.92 -567.85 -547.78 -510.32 -491.51 -492.23 -433.83 -435.91 -460.60 -490.54 -529.61 -744.65 -905.31 -1196.21 -1462.02 -1588.40 -1626.82 -1617.80 -1640.61 -1712.34 -1834.98 -1789.32 -1634.06 -1397.89 -1336.26 -1719.56 -3068.00 -4273.16 -4671.53 -4667.45 -4666.96 -4666.31 -4668.70 -4666.53 -4661.08 -4545.23 -4439.66 -4089.99 -3352.61 -2971.72 -2445.87 -1936.34 -1207.63 -1024.12 -851.10 -701.58 -589.64 -287.55 -278.79 -213.59 -169.62 -101.49 -78.60 -113.99 -158.94 -107.65 132.99 206.59 233.38 242.38 260.58 259.49 264.00 264.13 260.86 258.96 257.31 252.68 249.45 250.09 256.71 254.38 242.64 239.13 233.36 229.11 185.68 64.75 15.79 -79.81 -149.91 -487.21 -854.94 -1418.34 -2810.89 -3984.59 -5681.17 -6173.66 -6040.09 -5652.25 -6133.90 -6591.12 -6616.45 -6660.47 -6663.00 -6922.93 -7173.97 -6970.44 -5941.29 -4042.12 -3246.56 -2955.55 -3347.30 -3474.15 -3854.83 -4179.68 -4251.35 -4194.58 -4110.11 -4057.16 -4178.07 -4155.13 -4152.21 -4173.82 -4316.31 -4461.78 -4242.75 -3872.96 -3509.62 -3334.19 -3339.54 -3308.96 -3218.81 -3160.67 -3094.13 -3021.72
-292.59 -296.64 -264.05 -212.78 -166.42 -155.68 -189.00 -272.71 -294.12 -367.22 -564.04 -668.31 -660.27 -630.09 -583.52 -547.91 -510.75 -463.86 -467.20 -429.81 -405.90 -386.53 -372.00 -420.45 -425.98 -455.63 -586.56 -728.06 -1032.49 -1407.79 -1559.13 -1626.30 -1620.44 -1601.05 -1574.27 -1489.22 -1306.69 -1091.07 -1185.88 -1438.04 -1804.72 -2840.59 -3659.04 -4668.48 -4665.11 -4667.89 -4668.42 -4669.03 -4667.12 -4658.87 -4604.19 -4465.94 -4095.53 -3854.33 -3720.87 -2943.27 -2198.50 -1635.07 -1473.91 -1219.29 -1147.97 -934.51 -548.25 -412.10 -334.93 -263.52 -165.92 -182.02 -295.21 -336.67 -258.86 -16.03 205.70 226.83 234.63 241.51 251.70 256.04 249.32 244.97 243.56 246.93 242.17 238.76 236.15 240.88 235.66 236.02 235.17 231.98 223.72 144.02 80.46 64.92 -233.81 -614.85 -987.73 -1676.53 -3275.74 -4280.80 -4731.90 -4688.08 -4327.18 -4574.29 -4574.13 -5184.65 -5733.80 -6643.29 -7132.08 -7139.70 -7256.19 -7140.06 -5871.59 -4649.43 -3874.76 -3257.31 -3388.55 -3633.47 -3842.88 -4027.55 -4222.84 -4205.82 -4139.56 -4031.05 -3782.32 -3864.95 -4135.12 -4206.72 -4343.86 -4510.02 -4677.87 -4299.48 -3782.96 -3414.07 -3221.18 -3109.59 -2973.28 -2858.90 -2798.66 -2593.03 -2592.73
-169.22 -177.37 -149.05 -144.43 -135.01 -135.58 -209.50 -317.17 -378.43 -460.10 -566.74 -617.96 -613.27 -575.40 -531.43 -452.73 -437.08 -387.06 -390.98 -381.19 -377.83 -364.91 -302.97 -367.42 -370.75 -410.50 -455.62 -659.36 -903.59 -1476.98 -1607.83 -1714.41 -1717.10 -1761.19 -1513.74 -1231.37 -949.95 -696.03 -1052.94 -1416.05 -1782.29 -2152.64 -3108.11 -4122.22 -4667.48 -4666.46 -4668.89 -4669.56 -4667.53 -4665.64 -4661.89 -4607.61 -4315.06 -4182.98 -3728.45 -3224.96 -2526.16 -2261.31 -1643.55 -1567.09 -1299.76 -894.25 -617.43 -577.47 -539.79 -476.98 -378.92 -333.53 -456.17 -431.91 -402.26 -554.41 -133.12 160.43 222.79 234.02 231.85 237.15 234.21 235.23 233.91 235.41 -77.50 -18.11 233.38 233.37 229.76 228.20 224.41 221.31 60.57 -74.16 -331.08 -698.05 -685.30 -1450.80 -1603.34 -2667.19 -3304.14 -3635.81 -3552.05 -3511.53 -3109.33 -3097.48 -3379.93 -4018.50 -5092.42 -5983.73 -7076.98 -7201.94 -7154.53 -6480.96 -5353.34 -4009.49 -3472.55 -3712.66 -3854.63 -3990.11 -3995.36 -4025.69 -4111.32 -4073.38 -3959.79 -3833.35 -3793.02 -4054.50 -4337.22 -4608.47 -4691.86 -4838.97 -4837.64 -4329.43 -3791.29 -3161.87 -2932.20 -2688.01 -2547.54 -2384.70 -2315.60 -2313.23 -2313.16
-74.79 -82.43 -93.43 -105.89 -105.58 -143.57 -206.59 -317.33 -408.80 -521.13 -579.93 -570.80 -537.34 -516.70 -445.47 -389.88 -342.29 -298.39 -284.38 -259.70 -302.45 -271.43 -232.39 -249.87 -281.24 -340.24 -383.04 -498.34 -876.67 -1438.57 -1753.49 -1826.38 -2049.94 -2034.51 -1701.40 -956.91 -594.81 -537.23 -877.75 -1146.49 -1474.03 -1491.79 -1981.54 -3367.16 -4231.86 -4630.18 -4669.40 -4670.23 -4671.17 -4666.75 -4669.96 -4653.26 -4636.76 -4341.59 -3908.96 -3729.47 -3367.48 -2691.57 -2442.73 -2094.12 -1714.29 -1356.26 -1439.79 -1250.33 -961.93 -836.65 -804.57 -707.37 -765.87 -753.23 -970.56 -1203.12 -900.36 -1174.74 -814.75 -936.07 -1104.04 -1459.57 -734.11 -662.90 -555.13 -890.61 -981.46 -889.67 -972.80 -847.02 -548.69 -537.94 -483.27 -258.02 -590.09 -938.21 -1107.38 -1388.96 -2061.87 -2625.59 -3008.22 -3315.90 -3674.19 -3593.42 -3535.05 -3421.69 -3267.66 -3309.16 -3565.59 -3854.22 -4309.31 -5068.38 -5868.32 -6710.76 -6525.45 -5735.00 -5061.63 -4118.86 -3755.91 -3967.88 -4058.95 -3962.70 -3910.02 -3850.26 -3904.15 -3969.84 -3933.34 -3866.58 -4031.74 -4324.56 -4717.21 -5037.09 -5134.99 -5069.87 -5067.18 -4754.15 -3953.74 -3006.88 -2685.76 -2369.52 -2205.22 -2214.20 -2297.68 -2394.67 -2394.89
-23.77 -23.74 -55.45 -62.58 -71.55 -129.76 -227.75 -294.67 -441.76 -503.16 -555.80 -551.26 -487.04 -454.17 -406.83 -329.27 -260.75 -238.64 -210.71 -195.42 -207.06 -185.57 -182.72 -191.93 -234.51 -254.74 -340.21 -454.24 -745.53 -1410.99 -2078.67 -2326.09 -2416.38 -2172.71 -1924.05 -1010.41 -546.03 -492.98 -831.01 -1048.14 -893.32 -1004.49 -1591.27 -2681.15 -4119.25 -4629.78 -4668.40 -4670.24 -4670.61 -4671.16 -4671.05 -4666.95 -4639.35 -4450.19 -4222.85 -3999.34 -3788.95 -3344.72 -3038.47 -2693.61 -2404.18 -1903.79 -1751.18 -1660.35 -1418.06 -1291.83 -1175.11 -1142.68 -1139.15 -1149.87 -1244.78 -1385.44 -1533.79 -1652.73 -1632.04 -1550.17 -1807.96 -2117.40 -2071.54 -2079.82 -1789.81 -1837.20 -1812.70 -1851.72 -1800.29 -1802.73 -1826.76 -1646.87 -1366.04 -1428.76 -1644.81 -1719.87 -1891.65 -2730.16 -3033.93 -3597.88 -3722.30 -3962.80 -4113.42 -4142.39 -4247.08 -4082.55 -4047.29 -4144.69 -4490.87 -4431.85 -4214.69 -4813.76 -5110.08 -5608.17 -5970.46 -5876.57 -4925.34 -4447.71 -4229.19 -4204.71 -4050.74 -3801.61 -3721.68 -3740.90 -3828.47 -3872.91 -3923.07 -3989.81 -4179.52 -4598.56 -5202.54 -5233.95 -5382.50 -5391.31 -5237.94 -4733.89 -4002.08 -2999.98 -2583.11 -2249.58 -2171.07 -2285.37 -2559.53 -2709.78 -2710.12
-31.11 -31.03 -65.88 -69.76 -71.95 -143.09 -219.37 -311.51 -449.62 -511.35 -547.09 -536.46 -471.74 -427.57 -381.21 -317.60 -264.42 -202.43 -173.02 -167.81 -164.85 -158.99 -164.60 -174.95 -194.38 -203.54 -275.95 -353.72 -619.48 -1360.14 -2029.73 -2453.77 -2760.67 -2643.26 -2296.64 -957.35 -564.48 -498.11 -580.22 -816.43 -478.46 -637.24 -1536.73 -3244.23 -4495.25 -4667.51 -4669.94 -4670.62 -4670.03 -4670.54 -4667.81 -4670.91 -4652.40 -4552.56 -4259.37 -4202.06 -4049.33 -3652.59 -3370.36 -2976.60 -2805.98 -2394.40 -2179.07 -1921.83 -1753.30 -1671.77 -1567.33 -1457.87 -1383.00 -1360.64 -1432.38 -1434.51 -1443.76 -1362.15 -1436.64 -1313.72 -1474.08 -1624.09 -1786.34 -1798.97 -1758.05 -1697.11 -1809.64 -1992.94 -2282.37 -2281.78 -2304.89 -2237.89 -2354.40 -2327.01 -2285.35 -2385.25 -2553.82 -3095.16 -3598.29 -3887.14 -4035.74 -4260.49 -4370.67 -4535.30 -4567.90 -4499.47 -4801.94 -5000.44 -5055.39 -4915.92 -4648.74 -4484.80 -4728.98 -5113.85 -5397.08 -5433.36 -5019.35 -4610.22 -4473.49 -4333.30 -4044.85 -3844.28 -3747.68 -3763.07 -3832.17 -3904.46 -3979.08 -4024.45 -4289.05 -4697.73 -5273.32 -5464.98 -5580.32 -5577.79 -5541.97 -4872.42 -4090.01 -3160.53 -2649.11 -2584.64 -2417.38 -2552.53 -2755.68 -2968.35 -3041.14
-103.32 -103.19 -139.05 -140.32 -153.90 -190.42 -236.34 -325.88 -441.86 -511.67 -527.04 -505.23 -441.36 -412.83 -356.03 -260.87 -229.04 -167.65 -151.45 -159.37 -149.53 -139.63 -146.45 -139.41 -154.61 -196.62 -217.41 -268.17 -482.49 -1125.62 -1824.19 -2257.33 -2745.26 -2650.52 -1969.89 -1069.20 -460.58 -429.98 -568.12 -535.16 -390.22 -798.39 -1859.78 -3519.74 -4682.95 -4673.42 -4668.78 -4669.21 -4669.85 -4670.52 -4671.37 -4654.16 -4649.42 -4615.05 -4259.21 -4070.33 -3848.41 -3721.17 -3620.05 -3285.70 -2989.03 -2628.42 -2446.13 -2191.22 -1891.94 -1842.50 -1750.77 -1582.88 -1503.09 -1450.05 -1443.77 -1440.82 -1236.42 -802.84 -796.28 -500.28 -537.75 -905.24 -1179.51 -1346.48 -1512.42 -1766.28 -1858.29 -2235.09 -2523.52 -2629.39 -2674.17 -2762.08 -2682.25 -2783.96 -2779.92 -2810.06 -3051.30 -3782.93 -4060.00 -4194.78 -4288.67 -4335.24 -4472.64 -4645.07 -4718.44 -4988.61 -5088.63 -5307.27 -5540.27 -5486.83 -5056.92 -4824.65 -4750.45 -4992.57 -5336.37 -5321.27 -5050.39 -4673.65 -4532.69 -4359.64 -4156.79 -4050.03 -3913.54 -3880.03 -3867.15 -3971.03 -4018.69 -4152.24 -4463.99 -4868.19 -5407.19 -5666.67 -5681.40 -5762.92 -5712.70 -5255.56 -4191.45 -3368.29 -3075.72 -3029.07 -3024.58 -3269.68 -3260.30 -3367.78 -3368.08
