-14986.92 -14986.82 -15109.19 -15146.14 -15141.34 -15050.78 -15081.78 -15007.31 -14984.34 -15021.92 -15069.66 -15228.47 -15370.23 -15491.87 -15610.94 -15733.65 -15857.02 -15816.91 -15840.69 -15893.83 -15595.84 -14817.58 -13689.16 -13359.82 -12575.74 -11290.11 -10369.23 -8251.60 -4344.45 -467.90 166.31 226.75 259.86 284.46 324.73 386.89 661.33 827.95 686.40 910.78 919.50 788.26 1114.02 1243.14 1221.38 852.97 826.87 1012.93 1011.46 746.03 589.99 655.36 581.45 410.29 473.27 612.66 620.68 472.49 449.80 497.69 580.34 609.78 568.33 533.18 414.66 386.96 410.88 418.84 422.60 425.67 419.50 418.06 415.59 413.70 412.59 412.87 415.81 431.21 440.24 446.63 470.72 510.38 524.29 541.17 568.36 599.39 624.83 654.56 671.69 710.45 744.97 781.62 795.46 825.37 828.56 838.04 829.19 821.87 847.95 861.64 893.18 955.93 882.38 1040.48 1079.00 438.88 -292.00 -1748.17 -2747.30 -3419.06 -4092.43 -4295.30 -4572.90 -4862.48 -5237.28 -5344.64 -5423.05 -5400.26 -5222.40 -3843.36 -2465.08 -1680.32 -1771.10 -2321.87 -3080.18 -3442.09 -3913.20 -4223.22 -4506.49 -4845.13 -4965.42 -4927.11 -4713.16 -3701.34 -2569.92 -2033.79 -1939.98 -2144.95 -2269.68 -2225.62 -2225.55
-15071.47 -15071.34 -15243.47 -15321.80 -15366.15 -15330.62 -15221.22 -15154.30 -15035.64 -14999.44 -15038.03 -15244.47 -15369.43 -15500.91 -15412.82 -15392.68 -15208.42 -15042.57 -15318.61 -15173.19 -14790.14 -13884.76 -12995.41 -11875.04 -10150.98 -9819.61 -5362.25 -3568.98 88.08 180.42 220.38 252.90 265.63 326.72 450.20 390.79 543.32 913.02 1087.51 954.17 1194.64 914.87 1054.23 1323.80 1279.92 953.83 1186.54 1214.49 1018.95 786.36 818.80 656.96 549.54 514.76 685.98 770.39 733.46 656.12 470.81 684.41 685.34 599.59 525.26 466.15 452.53 434.74 441.15 434.17 429.62 437.17 428.01 426.20 420.13 421.96 418.54 426.12 432.73 438.41 450.22 459.68 493.98 516.45 538.63 569.54 581.58 612.21 658.66 673.36 697.88 756.73 766.49 808.78 824.08 853.19 870.81 857.35 867.05 858.61 889.88 914.74 940.45 1010.81 981.35 1089.35 894.28 182.94 -114.10 -905.11 -1794.93 -2796.08 -3765.92 -4224.71 -4545.44 -4762.96 -5089.85 -5182.04 -5346.61 -5345.09 -5129.47 -3839.11 -2399.74 -1452.94 -1676.40 -2183.98 -2819.22 -3400.54 -3659.88 -4119.40 -4475.29 -4829.67 -4954.08 -4919.72 -4732.82 -3616.99 -2754.32 -2068.35 -1827.21 -1949.32 -1941.86 -1990.24 -1990.16
-15127.67 -15146.45 -15264.24 -15476.64 -15500.46 -15506.88 -15455.30 -15213.33 -15091.28 -14990.35 -15035.46 -15214.64 -15367.93 -15359.85 -15160.26 -14927.21 -14784.28 -14752.58 -14877.69 -14621.98 -14079.35 -12983.83 -11013.78 -9400.89 -8340.35 -6416.55 -3597.42 -672.50 191.32 225.47 244.06 301.87 383.72 492.38 606.78 623.20 585.76 825.15 1251.36 1138.68 1436.60 1324.60 1155.43 1311.70 1374.23 1181.44 1366.29 1364.52 1119.80 922.40 780.55 574.76 697.18 718.98 857.13 818.16 745.00 674.65 549.14 691.75 614.62 621.12 582.29 504.57 486.87 460.88 459.46 463.95 449.84 456.15 440.69 437.29 432.19 428.85 430.69 433.45 438.11 448.99 455.84 478.49 507.17 509.61 540.18 581.07 590.14 624.15 685.67 712.14 736.27 769.80 796.75 818.82 856.62 877.12 915.62 916.98 898.87 898.42 921.25 960.26 975.58 935.95 952.73 960.27 1101.89 425.99 4.77 -590.09 -1022.56 -1816.43 -3865.97 -4189.77 -4399.97 -4704.10 -4917.55 -5181.68 -5281.94 -5361.52 -5079.78 -3833.26 -2300.51 -1331.12 -1817.06 -1950.69 -2730.99 -3313.10 -3648.02 -3975.21 -4625.39 -4792.43 -4833.56 -4850.66 -4410.07 -3922.39 -2773.36 -2149.88 -1786.07 -1756.14 -1773.44 -1809.47 -1809.44
-15131.51 -15131.44 -15328.73 -15501.19 -15577.11 -15592.01 -15557.39 -15357.68 -15110.81 -15004.14 -15016.63 -15151.42 -15238.91 -15252.58 -14972.10 -14650.04 -14537.38 -14472.44 -14174.65 -14087.11 -13198.86 -11423.48 -9536.48 -7331.68 -6308.84 -4590.56 -1960.58 -185.11 234.39 251.38 257.70 316.13 486.61 680.08 859.09 843.55 840.07 958.52 1184.83 1309.33 1490.26 1396.87 1418.29 1423.91 1436.64 1447.52 1524.50 1539.90 1170.77 1037.14 819.95 692.25 883.39 935.02 934.77 868.13 820.00 651.84 679.79 758.99 759.39 708.60 613.14 537.05 540.16 531.72 478.06 475.16 473.48 471.17 469.62 452.03 444.62 443.29 438.65 441.49 447.00 456.66 475.60 513.04 520.78 531.15 579.90 597.95 610.13 653.87 690.12 725.24 756.71 778.98 812.29 842.58 875.12 901.70 920.40 941.25 953.16 947.78 968.97 966.21 920.49 810.75 760.09 808.59 1134.43 539.27 120.06 -111.34 -484.40 -1205.24 -2729.98 -4285.72 -4282.78 -4527.05 -4845.83 -5120.22 -5306.33 -5310.27 -4972.23 -3901.51 -1942.14 -1308.99 -1235.59 -1765.15 -2187.03 -3420.67 -3832.58 -3913.34 -4225.56 -4492.14 -4755.70 -4766.83 -4360.20 -3914.80 -2806.97 -2190.12 -1718.15 -1613.73 -1589.81 -1687.49 -1687.50
-15120.45 -15120.38 -15309.54 -15492.27 -15602.81 -15604.74 -15563.93 -15319.70 -15135.97 -14999.46 -15017.89 -15042.47 -15110.15 -15048.46 -14799.64 -14477.72 -14171.33 -13945.72 -13516.23 -12744.36 -11546.00 -10061.46 -7469.25 -5810.91 -5531.85 -2002.39 -301.48 247.15 265.53 278.05 314.04 339.17 443.46 588.70 845.65 967.11 975.92 1253.54 1448.48 1486.16 1372.18 1341.05 1418.47 1422.67 1360.18 1406.88 1342.72 1424.73 1302.68 1181.98 1077.41 969.36 1072.02 1111.82 1038.12 1003.60 841.09 748.08 875.99 814.76 722.91 652.91 622.61 554.06 554.98 534.06 513.82 508.07 497.58 494.51 483.39 479.07 464.50 457.76 450.34 450.11 461.60 466.90 499.05 524.19 534.21 550.62 583.59 610.00 635.80 661.85 688.64 732.81 768.64 797.57 816.29 858.35 898.21 930.87 939.67 956.68 993.45 1028.79 1005.62 929.11 816.83 679.85 613.82 679.68 988.92 287.54 172.93 -26.84 -442.53 -1504.45 -2849.57 -4309.69 -4383.37 -4681.67 -4990.48 -5128.63 -5304.38 -5295.27 -4788.81 -3882.76 -1868.46 -1199.33 -1117.52 -1590.29 -2227.40 -3174.88 -3647.34 -3721.91 -4055.60 -4536.41 -4798.57 -4769.79 -4543.17 -3702.00 -2925.29 -2242.94 -1774.60 -1481.85 -1465.49 -1578.14 -1578.15
-15103.36 -15129.08 -15261.81 -15444.84 -15522.97 -15505.38 -15456.05 -15291.70 -15123.21 -15001.86 -14993.91 -14986.48 -14888.54 -14788.97 -14573.82 -13987.39 -13380.69 -12548.50 -11946.40 -11528.52 -11247.21 -8594.71 -5852.12 -5087.81 -3176.55 -572.21 215.42 252.71 268.21 309.81 330.33 336.87 358.20 416.04 567.14 668.74 835.98 1148.72 1467.04 1473.99 1228.92 1126.51 1268.22 1282.10 1225.71 1189.57 1100.50 1292.01 1286.34 1219.90 1135.39 1085.55 1075.29 1110.11 1120.42 1054.68 877.55 864.03 1052.19 903.97 705.50 702.57 723.41 613.30 573.84 546.94 537.69 523.35 515.54 518.29 502.14 493.93 489.76 479.48 465.72 460.30 465.81 481.14 517.14 529.83 550.02 575.36 593.21 621.48 649.06 679.69 712.86 762.32 791.07 814.73 851.19 874.08 899.40 938.62 958.27 991.70 1010.65 1052.81 1082.41 996.69 783.95 776.14 604.34 458.35 805.52 494.39 87.38 -287.78 -503.21 -1222.23 -2497.36 -3862.52 -4501.60 -4741.71 -5108.16 -5288.03 -5371.10 -5288.84 -4812.54 -3363.19 -1838.68 -1259.52 -1216.29 -1700.37 -2708.83 -3362.59 -3497.66 -3685.91 -4011.54 -4477.90 -4694.14 -4735.62 -4595.85 -3729.76 -3049.54 -2527.86 -1715.99 -1440.54 -1379.93 -1510.77 -1510.81
-14981.52 -14981.53 -15122.79 -15315.49 -15375.71 -15321.47 -15240.06 -15145.22 -14951.30 -14874.15 -14842.20 -14810.32 -14666.05 -14188.64 -13385.77 -12568.52 -11715.31 -11366.49 -10849.27 -10394.90 -9258.86 -7800.22 -5675.69 -4662.63 -3097.20 -1500.59 123.16 256.20 272.48 304.49 349.50 401.53 438.41 566.49 581.97 514.04 708.80 925.34 1205.00 1333.71 1309.25 1141.39 1125.54 1143.28 1056.61 1039.80 1032.81 1061.78 1132.91 1092.37 1006.25 1028.70 1042.40 1054.51 1087.47 1000.84 900.00 977.12 1080.63 929.10 744.17 865.61 804.73 672.04 609.03 588.21 550.30 537.16 534.12 530.16 524.55 524.75 516.32 492.34 476.71 468.00 474.98 498.40 518.92 527.48 570.41 579.39 602.37 638.64 667.80 698.50 729.88 759.53 791.08 832.19 860.63 895.41 916.21 952.39 970.87 1011.72 1051.57 1080.27 1051.68 952.60 812.79 761.60 559.80 784.77 1150.17 500.33 -131.03 -718.24 -1030.57 -1900.24 -3197.41 -4058.44 -4413.97 -4546.00 -5121.47 -5320.84 -5337.45 -5135.01 -4757.88 -3035.32 -2090.31 -1242.91 -1424.91 -2027.35 -3231.55 -3420.76 -3512.81 -3705.34 -3920.64 -4304.50 -4680.58 -4727.64 -4636.86 -3743.69 -3128.69 -2583.44 -1875.39 -1338.43 -1276.54 -1385.04 -1392.77
-14728.82 -14728.91 -14871.10 -15032.69 -15082.38 -15023.14 -14886.26 -14777.49 -14748.20 -14782.37 -14719.58 -14417.75 -13720.16 -13390.25 -12499.39 -11383.95 -10766.48 -10408.49 -10209.32 -9967.35 -9067.17 -7457.69 -5447.46 -4473.18 -3724.70 -2170.32 -440.72 216.10 287.78 306.27 379.80 484.34 547.63 544.36 883.08 882.86 848.88 941.56 1026.90 1366.45 1355.84 1176.07 1054.13 1003.29 974.46 940.37 977.73 1010.73 1006.27 958.38 963.66 973.01 984.82 988.25 1024.13 1027.47 1033.80 1105.11 1064.45 871.65 854.64 1053.98 847.74 701.74 648.26 600.81 584.55 551.18 542.69 540.82 538.76 533.75 522.05 502.66 486.66 475.25 482.20 501.64 517.99 535.98 572.13 592.14 615.44 654.36 674.17 703.98 725.30 753.67 791.80 846.53 863.87 899.88 930.74 955.21 988.34 1021.66 1046.98 1038.72 996.21 911.41 723.53 772.26 719.68 1157.48 882.50 221.58 147.92 -586.08 -1161.40 -2649.42 -3668.71 -3938.33 -4361.42 -4641.82 -5153.29 -5332.00 -5283.21 -4902.40 -4229.72 -2755.23 -1342.41 -1319.34 -1375.22 -2673.56 -3268.57 -3502.96 -3559.05 -3754.87 -3924.09 -4223.61 -4605.05 -4685.87 -4460.76 -3710.70 -3152.13 -2638.29 -1697.38 -1371.77 -1071.41 -1137.84 -1137.75
-14512.35 -14512.41 -14671.18 -14820.61 -14740.28 -14582.95 -14466.10 -14391.56 -14535.49 -14568.57 -14525.86 -13983.83 -12763.38 -11502.63 -10158.33 -9920.45 -9527.14 -9836.05 -10124.30 -9953.38 -8976.95 -7281.65 -5644.82 -4179.15 -3751.72 -2534.07 -1178.02 60.29 291.27 301.73 384.63 536.66 639.53 723.91 652.66 897.58 1033.36 1212.23 1265.29 1434.04 1337.47 1141.34 1092.86 990.41 919.34 917.99 925.85 921.06 928.69 917.24 927.21 930.87 949.09 966.20 986.94 1013.84 1067.92 1178.59 1126.26 939.60 1061.84 1081.53 1015.88 829.10 676.21 701.90 637.55 564.52 548.00 542.29 540.86 540.11 524.41 504.48 493.20 486.12 489.23 500.20 516.69 544.04 585.72 603.42 622.43 655.29 694.42 718.33 740.68 779.11 818.01 853.81 876.58 904.82 945.83 960.69 992.02 1034.08 1064.72 1059.92 1013.20 908.58 877.20 941.10 903.91 1289.12 583.83 248.32 144.95 -441.71 -1833.93 -2713.47 -3062.50 -3858.50 -4364.51 -4634.24 -5246.79 -5263.07 -5175.11 -4627.29 -3535.24 -2051.66 -1082.86 -1269.95 -1714.79 -2854.58 -3363.21 -3518.35 -3578.65 -3728.14 -3913.94 -4265.64 -4577.15 -4629.27 -4224.12 -3570.69 -3032.56 -2310.31 -1512.15 -1121.01 -878.54 -947.27 -947.23
-14286.37 -14309.28 -14479.00 -14635.61 -14475.15 -14284.40 -13856.96 -13930.59 -14053.49 -14264.82 -14032.24 -13279.86 -11311.70 -10222.81 -9281.23 -8674.15 -8830.99 -9540.03 -10071.47 -10036.35 -9035.12 -7125.70 -5891.70 -4261.51 -3632.87 -2313.44 -775.21 265.92 301.17 329.27 366.28 473.97 661.17 929.11 888.21 877.66 1072.67 1240.31 1489.16 1463.52 1326.54 1242.63 1065.73 921.96 891.06 871.84 869.90 871.70 883.38 891.87 898.32 901.01 924.65 940.07 956.90 1026.93 1112.89 1263.41 1336.27 1104.89 1330.37 1459.13 1207.92 1026.39 853.83 932.59 716.89 688.33 585.45 563.04 547.91 540.50 530.97 515.40 499.01 489.66 493.25 505.40 518.65 542.53 584.46 604.61 651.90 681.37 700.26 733.77 756.94 794.09 829.68 859.54 881.47 922.91 950.54 964.36 1019.73 1044.61 1070.85 1099.08 1073.68 1069.57 1038.58 888.03 807.65 885.37 562.89 216.02 102.48 -175.60 -774.61 -1384.53 -2894.52 -3863.16 -4156.58 -4656.23 -5101.42 -5008.99 -4805.74 -4170.90 -2301.50 -971.74 -676.07 -785.09 -1268.98 -1949.59 -2807.07 -3547.04 -3783.10 -3883.72 -4023.65 -4248.18 -4508.39 -4526.54 -4285.35 -3614.38 -2861.17 -2072.23 -1454.78 -767.09 -807.47 -1016.67 -1016.82
-14031.24 -14031.36 -14136.48 -14152.42 -13942.67 -13561.47 -13162.22 -13187.55 -13459.13 -13008.00 -12454.10 -11631.59 -10388.16 -8757.36 -8237.08 -7900.06 -8284.71 -9049.71 -9971.51 -9954.29 -9254.19 -7183.52 -5632.33 -4276.88 -3459.90 -2221.86 -726.49 252.36 297.94 343.08 358.98 440.15 637.59 897.29 1040.40 1002.23 1210.59 1339.68 1489.20 1467.12 1267.47 986.32 944.47 868.83 862.30 823.68 828.20 820.18 839.81 865.15 873.96 887.10 905.55 910.02 942.68 1010.17 1072.02 1178.81 1465.15 1531.56 1512.05 1459.88 1253.19 986.53 992.65 954.59 789.79 656.91 628.14 587.51 561.92 541.75 534.59 524.94 504.82 497.94 503.22 515.10 525.79 554.21 584.21 607.42 674.50 693.69 710.24 745.73 781.42 806.60 847.74 869.96 892.10 937.46 953.84 997.70 1036.71 1060.11 1077.33 1098.71 1101.54 1089.17 1084.20 926.24 854.97 658.77 289.40 198.80 160.24 1.07 -500.34 -1643.31 -3223.86 -3915.75 -4247.62 -4627.25 -4831.27 -4765.47 -4358.88 -3717.51 -1632.09 -545.84 -433.07 -589.92 -1360.66 -1977.52 -2473.33 -3701.03 -3780.18 -3817.54 -3969.87 -4265.61 -4491.30 -4515.63 -4312.28 -3479.61 -2652.13 -2061.95 -832.59 -570.75 -902.48 -1249.66 -1249.94
-13888.78 -13879.81 -13603.08 -13040.33 -12509.22 -12234.97 -11782.73 -11376.80 -11471.23 -11479.16 -10607.67 -9397.34 -9114.98 -8421.71 -7944.95 -7785.75 -8042.56 -8815.52 -9613.23 -9707.90 -9115.13 -7347.17 -5673.28 -4157.02 -3811.65 -2408.10 -305.59 253.93 292.37 321.28 368.56 510.12 754.89 1041.66 1024.10 982.92 1106.65 1269.19 1382.85 1263.78 1144.56 983.68 977.53 888.43 801.97 799.78 786.36 788.67 806.12 793.86 837.87 869.13 900.27 910.23 931.42 938.33 1017.90 1207.47 1513.03 1613.77 1513.43 1354.32 1069.81 948.18 892.16 857.94 761.71 653.80 643.58 601.70 581.02 554.62 534.67 518.70 503.62 503.91 506.02 515.58 538.61 579.25 598.49 624.86 674.60 688.25 711.38 749.23 798.64 814.30 845.75 878.15 900.18 950.83 969.00 1022.05 1063.06 1073.82 1038.65 1026.64 1022.57 1101.61 1102.77 1088.10 1058.43 565.58 307.93 211.22 111.22 -9.74 -321.03 -1956.55 -3080.13 -3849.98 -4177.56 -4555.92 -4835.36 -4788.68 -3701.00 -2676.41 -878.93 -434.37 -316.05 -646.01 -1067.70 -1556.94 -2689.17 -3856.26 -3743.48 -3743.20 -3878.67 -4205.67 -4507.00 -4488.56 -4404.90 -3563.98 -2410.59 -1543.96 -788.00 -556.85 -943.97 -1442.51 -1442.77
-13386.32 -13386.81 -12550.88 -11797.45 -11078.47 -10368.95 -10030.55 -9696.34 -9494.96 -9493.39 -9396.24 -8866.10 -8489.10 -8346.95 -8183.34 -8023.78 -8219.67 -8687.47 -9245.78 -9333.05 -8705.38 -7814.64 -5498.62 -4108.52 -3393.61 -2242.34 -628.46 245.91 278.70 293.09 324.69 550.25 789.97 900.32 862.21 737.03 926.89 1017.74 1106.48 1055.53 945.68 859.54 874.37 817.10 765.41 725.17 750.13 768.16 780.03 792.14 812.86 833.91 880.71 902.35 925.27 940.55 976.31 1040.86 1288.76 1453.58 1312.13 1055.12 947.34 866.20 807.07 767.27 720.80 678.54 654.26 634.13 604.99 561.70 539.90 527.77 507.44 505.50 510.06 522.27 536.63 569.20 601.75 627.02 657.40 678.08 719.19 755.68 782.99 823.13 848.40 884.96 912.05 956.70 983.83 1031.31 1053.42 1069.59 1030.92 936.38 943.43 1043.71 1193.94 1289.68 708.08 350.30 289.86 236.32 86.13 -263.99 -744.13 -1891.85 -2825.73 -2771.27 -3235.73 -3880.77 -4532.48 -4510.62 -3511.25 -1874.86 -595.94 -302.18 -305.95 -596.46 -1068.96 -1882.96 -2744.79 -3718.61 -3753.33 -3736.74 -3897.93 -4317.89 -4479.23 -4498.43 -4180.48 -2958.03 -1962.14 -1191.22 -593.08 -718.32 -1196.79 -1342.10 -1342.05
-12049.52 -12051.34 -11441.62 -10365.27 -9875.45 -9025.72 -8897.92 -8936.15 -9004.05 -9115.94 -8993.58 -8661.28 -8666.94 -8650.93 -8453.68 -8341.15 -8236.05 -8454.72 -8780.92 -8792.18 -8400.29 -7314.40 -5714.35 -3920.85 -3032.31 -1838.94 -560.05 236.43 264.14 289.98 302.12 508.14 596.16 667.03 582.56 636.25 876.22 848.90 891.15 979.77 873.63 756.26 724.67 718.94 701.61 713.44 717.39 732.58 739.36 772.68 806.74 838.54 847.72 892.67 920.42 939.65 950.55 1084.97 1179.18 1337.88 1364.40 1197.59 1071.73 894.38 821.06 808.59 785.78 720.63 677.58 653.71 613.01 574.50 540.79 527.41 513.34 508.69 513.90 526.22 537.68 571.16 599.84 634.37 665.70 690.24 720.43 760.15 778.23 833.35 838.56 896.57 912.76 948.75 1007.64 1037.23 1024.12 964.40 968.03 888.11 897.45 966.50 1323.40 1063.42 400.21 312.62 267.62 198.34 52.30 -176.22 -705.47 -1244.59 -1598.53 -2020.54 -2219.03 -2698.31 -3851.37 -3554.23 -3021.57 -1523.69 -517.83 -227.60 -387.77 -674.63 -1215.63 -2158.46 -3343.92 -3841.61 -3740.15 -3761.35 -3918.98 -4269.00 -4487.85 -4384.46 -3973.36 -2514.75 -1312.05 -816.48 -710.57 -1049.20 -1189.87 -1067.74 -1067.44
-10962.23 -10964.11 -10473.72 -9857.31 -9386.62 -8885.30 -8955.66 -9190.56 -9359.25 -9474.50 -9264.24 -9167.15 -8979.14 -9059.30 -8860.98 -8555.90 -8335.10 -8338.36 -8401.03 -8504.99 -8056.37 -7109.12 -5471.38 -4076.14 -2947.85 -1991.88 -359.09 211.78 243.39 277.26 284.83 401.25 467.80 436.14 498.36 769.37 934.50 758.99 674.63 871.21 746.99 714.01 651.32 661.22 662.30 682.56 682.15 710.38 720.51 741.02 787.50 832.22 839.36 855.53 917.82 935.06 965.43 1061.72 1185.10 1240.15 1448.13 1387.39 1218.95 969.50 954.04 982.41 890.84 810.57 743.00 688.48 597.26 576.45 542.28 523.42 513.98 506.76 509.81 522.07 535.84 574.91 602.89 630.14 656.97 681.93 745.41 757.14 782.64 830.31 850.59 885.06 938.19 942.71 1005.31 964.14 925.17 886.38 906.04 866.79 880.56 1047.82 1264.67 649.23 321.29 278.27 246.17 169.97 -22.77 -148.73 -306.38 -583.09 -945.97 -1515.13 -1841.61 -2144.98 -2382.53 -2589.60 -1986.56 -723.76 -285.83 -327.46 -530.85 -1181.35 -2117.66 -3018.22 -3441.43 -3771.10 -3740.06 -3803.66 -3974.71 -4175.20 -4451.68 -4246.67 -3252.27 -1778.05 -923.33 -867.25 -1048.64 -1161.32 -1319.18 -1290.70 -1291.26
-10801.31 -10801.55 -10461.30 -10120.98 -9796.56 -9633.81 -9662.56 -9804.52 -9855.58 -9834.38 -9737.51 -9666.29 -9646.27 -9506.37 -9189.55 -8603.99 -8362.84 -8322.14 -8350.04 -8346.03 -8224.56 -7220.44 -5642.71 -4480.55 -3255.46 -1025.72 147.50 220.48 235.15 269.36 283.94 286.09 353.04 472.84 589.05 756.31 819.36 730.98 554.88 634.37 666.88 624.35 641.11 629.73 622.79 633.48 645.87 682.92 717.78 728.11 782.42 823.61 839.52 847.96 896.01 934.71 968.48 1032.25 1077.01 1252.89 1518.65 1478.46 1245.73 1258.57 1271.38 1205.81 1073.92 1056.85 880.53 722.92 616.89 577.21 536.95 518.96 511.64 507.26 516.36 530.68 544.39 580.84 609.70 622.99 668.53 688.42 720.41 757.64 784.67 831.54 856.05 908.15 925.04 918.52 1004.61 964.26 865.16 801.84 869.01 823.62 1043.23 1298.30 1011.09 339.66 267.68 229.57 179.61 119.58 21.64 -44.48 -194.12 -321.91 -1020.65 -1393.90 -1652.68 -1908.34 -2019.68 -1742.93 -860.65 -403.95 -296.08 -455.57 -702.79 -1554.97 -3252.18 -3688.17 -3807.50 -3641.49 -3773.32 -3973.79 -4213.89 -4383.75 -4673.82 -4323.16 -2963.17 -1382.25 -1051.34 -1100.42 -1292.85 -1455.50 -1663.73 -2164.86 -2167.48
-10896.20 -10895.58 -10669.18 -10393.52 -10302.33 -10255.83 -10264.00 -10265.28 -10317.37 -10242.09 -10100.77 -9981.18 -9943.93 -9716.58 -9319.17 -8705.75 -8389.02 -8296.03 -8336.20 -8275.91 -7800.92 -6945.88 -5832.83 -4006.54 -3027.38 -1222.88 194.32 217.91 224.13 249.63 280.93 285.84 347.05 462.23 479.49 453.65 579.08 609.51 522.50 480.90 514.24 533.55 578.95 576.50 606.50 620.13 622.87 675.99 711.60 724.50 752.74 781.93 830.97 857.71 904.29 925.80 953.79 1030.95 1205.15 1365.53 1428.64 1465.60 1324.39 1387.48 1405.89 1301.29 1311.79 1156.18 990.71 873.52 760.99 591.00 531.14 519.96 507.83 510.50 517.73 535.69 552.24 586.87 608.38 637.16 675.83 701.08 727.35 764.92 792.53 823.99 868.09 900.51 893.35 820.80 908.16 936.32 853.11 743.92 739.14 775.20 1233.43 1068.58 409.06 350.16 250.46 179.78 151.09 120.74 33.75 -67.40 -156.42 -390.19 -927.43 -1228.13 -1620.28 -1673.34 -1604.49 -1229.75 -739.69 -333.25 -286.05 -507.65 -1832.53 -2113.28 -3693.65 -3714.81 -3345.63 -3355.81 -3885.68 -4189.44 -4505.54 -4733.64 -4715.19 -3920.04 -2369.55 -1338.59 -1272.39 -1533.56 -1674.24 -1972.79 -2446.17 -3093.19 -3098.10
-10952.98 -10952.85 -10797.98 -10623.45 -10504.02 -10483.36 -10521.17 -10604.72 -10510.94 -10423.46 -10371.78 -10234.66 -10155.37 -9991.68 -9374.79 -8936.90 -8599.66 -8394.30 -8336.57 -8152.07 -7552.83 -6361.56 -5268.97 -3634.39 -3313.83 -1719.27 -310.76 208.73 222.63 234.80 280.36 282.18 285.99 340.74 361.88 389.01 393.25 409.04 448.29 472.99 486.46 507.12 525.79 545.36 570.11 580.54 613.86 657.23 666.50 711.51 744.28 774.05 807.48 858.30 899.67 920.65 958.14 1122.20 1238.63 1339.90 1492.79 1363.06 1073.89 1146.41 1083.73 1098.80 1115.43 1069.81 927.02 785.94 741.62 529.00 523.50 510.81 504.61 508.25 520.48 537.16 562.39 592.71 622.91 651.84 679.19 695.10 744.07 765.63 794.10 824.49 860.11 904.87 857.47 777.84 804.44 888.50 858.30 811.72 676.00 841.01 1353.60 727.62 330.48 294.60 206.92 151.70 113.95 72.28 -17.48 -77.56 -247.09 -444.75 -913.37 -1370.92 -1533.92 -1623.05 -1499.91 -1074.44 -600.72 -290.14 -337.92 -531.36 -1969.65 -2820.31 -3554.11 -3641.79 -3481.58 -3603.70 -3835.66 -4781.33 -5405.23 -5107.70 -4746.69 -3546.20 -2255.42 -1916.56 -2009.00 -2040.33 -2196.57 -2565.16 -3025.74 -3698.38 -3701.84
-11007.12 -11006.34 -10913.55 -10779.61 -10752.72 -10715.77 -10687.91 -10679.22 -10574.24 -10485.59 -10474.93 -10445.34 -10324.49 -10117.18 -9578.08 -9043.63 -8710.11 -8583.60 -8471.14 -8079.40 -6698.06 -5468.15 -4359.37 -3227.67 -3110.35 -2796.00 -1318.81 187.35 217.50 221.81 243.60 248.50 261.18 287.24 324.28 326.09 373.21 390.35 413.53 432.97 461.17 474.92 489.05 519.64 532.17 549.20 569.14 638.50 677.09 720.44 734.76 764.17 811.84 872.17 902.73 906.95 969.46 1011.64 1114.04 1234.23 1549.26 1534.95 1208.41 934.35 799.73 934.49 936.05 1001.58 708.41 587.91 613.19 548.93 520.51 505.53 502.44 508.42 518.39 535.02 562.90 586.51 626.27 650.21 672.15 697.58 733.75 769.71 798.39 835.37 866.11 911.64 891.32 832.40 732.77 692.82 757.30 759.50 780.56 1198.42 1261.27 635.74 427.74 239.36 207.14 131.86 84.04 22.81 -23.80 -107.85 -209.82 -457.74 -869.34 -1409.72 -1557.14 -1591.11 -1569.94 -1302.16 -495.56 -415.06 -412.20 -714.43 -1589.94 -2522.25 -3236.52 -3643.60 -3974.64 -4506.67 -5371.74 -5976.80 -6174.12 -5932.83 -5176.17 -3627.84 -2633.70 -2213.75 -2282.21 -2377.12 -2645.02 -3305.07 -3587.40 -4052.49 -4051.71
-11054.13 -11054.24 -11010.32 -10914.03 -10916.51 -10938.60 -10888.54 -10797.81 -10680.64 -10588.50 -10521.15 -10484.19 -10360.67 -10249.76 -9947.71 -9372.07 -9185.56 -8883.04 -8436.62 -7707.36 -6821.77 -5288.59 -4145.15 -3393.75 -3224.20 -3289.66 -2068.40 -1016.25 21.96 204.36 217.63 225.69 234.13 260.64 302.92 328.65 348.41 378.65 391.59 413.08 426.78 452.78 466.49 487.40 513.44 516.70 584.31 616.66 649.33 752.55 783.39 814.72 837.12 858.95 898.57 942.49 1011.19 1022.85 1084.51 1180.80 1366.45 1409.26 1135.98 888.82 754.49 799.61 848.75 875.94 721.30 589.64 523.90 520.85 508.68 497.53 495.89 505.40 518.43 539.02 561.49 603.73 631.30 664.59 686.60 712.69 744.04 778.64 818.61 840.03 871.43 930.94 915.66 846.44 754.23 656.26 596.05 681.07 830.35 1091.83 728.36 455.30 287.61 246.25 165.39 82.09 0.94 -32.54 -90.03 -154.23 -227.82 -540.37 -851.84 -1522.80 -1566.33 -1650.49 -1644.67 -1365.02 -907.28 -609.24 -609.85 -1028.52 -1656.87 -2241.07 -3256.25 -3788.39 -4218.85 -4940.37 -6270.03 -6786.78 -6895.69 -6356.09 -5062.97 -4030.64 -3147.08 -2650.82 -2610.62 -2689.21 -3130.24 -3591.91 -3888.45 -4218.73 -4218.61
-11128.52 -11128.59 -11079.09 -11052.59 -11038.15 -11047.46 -10942.38 -10812.63 -10712.97 -10637.93 -10615.59 -10586.54 -10547.83 -10390.75 -10010.02 -9614.84 -9422.02 -9064.66 -8343.61 -7823.46 -6876.46 -5806.38 -4035.45 -3583.67 -3361.97 -3496.85 -3314.41 -2896.87 -999.08 182.25 193.26 217.03 226.62 247.65 298.73 311.82 309.90 344.92 376.45 385.16 392.22 406.42 446.68 452.24 453.78 485.87 594.99 607.57 602.79 780.39 860.60 861.51 865.12 939.14 968.24 978.75 1059.99 1113.91 1154.28 1217.22 1315.60 1221.29 1030.69 953.34 863.10 702.67 841.48 863.25 700.89 524.57 511.75 514.52 497.41 487.33 492.95 506.85 524.66 552.36 571.00 590.66 627.89 650.03 693.82 702.03 758.80 778.31 817.09 831.70 885.37 920.50 952.16 802.10 661.99 677.16 646.89 701.02 931.14 677.60 361.28 308.58 267.63 220.99 133.59 22.83 -61.55 -114.16 -177.52 -186.01 -289.95 -641.88 -1077.36 -1521.10 -1643.26 -1682.31 -1715.07 -1568.35 -1253.33 -934.58 -926.90 -1189.62 -1781.96 -2588.31 -3455.72 -4136.62 -4423.28 -5341.08 -6725.34 -7202.51 -7160.36 -6526.20 -5252.86 -4428.87 -3679.63 -3014.40 -2977.81 -3204.55 -3571.51 -3902.31 -4115.45 -4294.73 -4294.74
-11217.42 -11217.44 -11168.70 -11164.81 -11143.22 -11122.36 -11029.99 -10949.36 -10853.48 -10748.65 -10711.92 -10714.05 -10647.97 -10493.47 -10341.23 -9906.69 -9505.48 -9282.57 -8579.23 -8000.71 -7261.43 -5882.28 -4377.25 -3696.45 -3537.45 -3530.99 -3581.64 -3104.69 -2468.49 -1153.05 -347.91 64.14 224.32 225.46 265.65 283.37 300.42 317.86 357.98 372.70 381.38 382.64 405.88 428.69 451.82 466.24 457.85 426.53 487.43 721.05 753.64 922.38 875.38 836.12 852.01 969.57 1015.20 1106.26 1199.06 1265.93 1117.87 943.17 862.50 905.45 881.49 747.87 727.58 665.28 601.44 512.27 487.08 480.05 468.44 479.41 490.81 505.85 519.52 550.93 572.94 602.69 636.51 668.38 700.77 713.95 750.93 784.20 814.60 835.39 892.08 947.32 973.92 878.06 718.98 578.61 520.66 711.64 535.60 360.52 340.59 287.55 264.94 189.74 107.74 4.10 -78.31 -147.94 -212.91 -271.48 -346.97 -806.66 -1242.94 -1517.83 -1700.81 -1733.65 -1770.80 -1729.07 -1601.79 -1215.65 -1110.95 -1292.52 -1892.30 -3256.54 -4017.40 -4857.79 -5207.00 -6023.40 -7207.94 -7341.03 -6851.65 -6317.09 -5347.42 -4837.23 -4048.63 -3405.34 -3342.88 -3537.46 -3778.14 -4014.80 -4220.04 -4332.37 -4332.47
-11288.58 -11288.53 -11260.12 -11228.68 -11239.54 -11209.00 -11166.56 -11060.71 -10939.86 -10822.57 -10808.94 -10788.22 -10764.83 -10691.08 -10459.88 -10146.98 -9793.40 -9516.49 -9058.40 -8669.05 -7634.86 -6125.30 -4938.48 -4040.39 -3738.50 -3623.82 -3599.41 -3210.00 -2527.20 -1609.42 -1097.07 -219.33 81.39 221.11 228.73 245.06 281.38 291.54 335.52 341.89 360.11 372.79 377.66 382.29 412.47 415.88 402.70 378.01 524.83 531.21 548.92 817.38 732.15 576.42 716.28 784.63 818.77 777.65 1061.93 950.34 872.96 817.17 648.18 711.86 711.02 708.61 573.59 564.85 500.03 456.41 449.50 453.62 461.12 479.69 489.88 504.52 521.89 547.62 569.71 601.51 649.71 671.65 695.40 722.68 749.99 783.79 819.17 852.60 895.34 944.22 974.05 913.24 762.44 627.41 846.77 1000.51 388.09 325.28 310.59 258.12 212.02 140.82 72.91 -24.68 -103.01 -163.11 -252.73 -362.89 -394.30 -796.74 -1258.49 -1642.88 -1727.08 -1766.48 -1768.90 -1760.33 -1747.56 -1606.50 -1280.83 -1152.06 -1452.64 -3280.48 -4653.18 -5096.67 -5911.25 -7017.45 -7214.54 -7227.13 -6865.37 -6289.26 -5955.42 -5109.90 -4270.81 -3877.14 -3657.49 -3791.46 -4014.24 -4183.31 -4292.63 -4327.62 -4327.68
-11316.02 -11314.62 -11301.72 -11274.07 -11268.45 -11264.82 -11235.55 -11136.15 -11002.92 -10878.90 -10792.61 -10791.96 -10765.14 -10713.08 -10499.57 -10332.11 -9934.55 -9615.01 -9296.85 -9025.52 -8622.46 -7092.75 -5817.33 -4496.31 -3954.70 -4092.26 -4011.79 -3812.33 -3290.77 -2100.48 -1512.08 -1632.61 -488.64 128.81 215.89 226.10 255.18 272.29 289.86 309.54 334.31 343.02 343.24 344.82 340.35 353.18 352.41 332.00 385.52 385.03 511.77 684.60 642.51 467.44 590.09 723.18 557.87 677.22 917.26 717.30 627.55 654.94 526.00 549.94 629.21 602.45 548.92 531.04 463.21 440.37 441.30 448.26 458.05 471.28 491.57 509.73 534.48 550.20 587.35 614.57 647.10 668.58 690.65 722.84 744.63 762.64 821.24 851.04 893.28 924.84 921.04 812.68 692.63 753.49 912.22 591.18 379.10 309.17 268.45 173.06 154.57 117.20 78.79 -10.80 -97.07 -166.74 -272.67 -383.79 -495.05 -824.43 -1341.85 -1614.97 -1742.08 -1772.48 -1771.37 -1767.28 -1753.75 -1716.95 -1459.71 -1311.43 -1906.68 -4756.37 -5402.32 -5875.91 -6430.05 -6800.74 -7254.18 -7328.73 -7166.42 -6681.51 -6247.19 -5660.08 -4497.31 -4091.08 -3932.99 -4147.32 -4293.86 -4323.54 -4359.56 -4362.54 -4362.55
-11273.55 -11273.39 -11254.09 -11254.93 -11240.42 -11242.65 -11211.78 -11125.27 -10992.27 -10776.56 -10662.14 -10643.29 -10685.18 -10664.35 -10545.21 -10444.58 -10189.67 -9961.13 -9737.35 -9667.32 -9171.08 -7813.63 -6838.00 -5878.54 -5087.80 -4842.80 -5111.50 -5038.20 -4164.98 -3565.24 -3397.46 -2922.31 -3416.37 -2095.86 -511.95 218.86 223.83 250.48 270.85 284.12 299.13 309.79 313.83 316.44 315.94 313.81 317.02 309.73 310.11 311.35 375.08 394.87 412.41 407.96 492.40 557.03 498.01 628.76 673.27 562.16 500.17 467.29 473.42 482.82 510.13 517.79 522.76 487.01 444.89 441.70 440.57 445.28 454.03 457.69 486.00 512.59 530.42 562.91 583.69 611.65 643.00 669.84 702.96 735.85 753.00 777.04 833.11 857.29 898.48 935.56 895.69 821.58 762.95 1179.13 989.44 409.99 305.90 272.31 224.06 156.48 112.74 70.78 24.01 -60.59 -143.20 -195.54 -291.79 -404.46 -639.09 -891.89 -1396.22 -1605.87 -1731.60 -1772.23 -1775.44 -1771.83 -1768.62 -1737.02 -1513.12 -1344.63 -3287.88 -5908.22 -6462.70 -6840.30 -7254.66 -7278.54 -7578.28 -7564.18 -7492.13 -7206.29 -6909.68 -6409.53 -4770.13 -4408.01 -4272.97 -4308.44 -4343.12 -4395.08 -4415.51 -4419.70 -4419.89
-11193.45 -11189.35 -11181.49 -11187.39 -11193.51 -11194.39 -11153.89 -11073.70 -10886.09 -10641.86 -10516.38 -10483.93 -10455.36 -10449.13 -10457.23 -10441.92 -10303.48 -10189.34 -10015.21 -9844.37 -9734.13 -8977.46 -7310.31 -6778.89 -6527.30 -6458.26 -6061.56 -6244.30 -6075.63 -5437.39 -4753.70 -5131.20 -4897.57 -4147.68 -2196.36 155.74 220.39 229.69 237.47 267.15 274.55 277.47 284.66 296.98 298.67 290.26 295.70 303.27 308.06 311.40 314.98 342.88 323.01 362.07 434.87 452.00 406.32 505.12 494.78 419.43 431.32 432.37 432.78 440.21 447.30 460.13 467.36 451.18 444.03 439.86 438.50 439.01 447.39 453.47 475.79 506.32 528.46 567.62 585.44 607.34 632.59 673.13 690.85 733.86 762.38 789.72 830.79 872.53 901.27 946.23 986.70 992.75 910.32 796.87 597.77 336.42 254.32 223.53 191.25 149.19 88.56 37.54 -7.96 -75.41 -139.22 -223.85 -335.24 -410.09 -530.04 -870.03 -1342.98 -1545.41 -1697.31 -1762.94 -1767.56 -1776.88 -1769.95 -1747.70 -1513.20 -1367.80 -3624.96 -7065.31 -7057.36 -7061.50 -7331.15 -7524.40 -7648.06 -8017.06 -8015.93 -7880.58 -7546.87 -6733.13 -5419.37 -4657.79 -4302.68 -4292.42 -4291.29 -4223.96 -4225.27 -4254.62 -4255.03
-11197.20 -11197.17 -11170.93 -11175.38 -11180.48 -11172.31 -11126.11 -11045.17 -10796.21 -10610.69 -10467.89 -10372.45 -10336.06 -10375.17 -10401.61 -10488.07 -10490.91 -10462.39 -10285.66 -10109.87 -9921.82 -9320.17 -8613.20 -7896.86 -7308.45 -7078.87 -7310.19 -7317.91 -7062.90 -7193.31 -6933.42 -6824.81 -7152.26 -6450.26 -4022.38 -1163.30 108.40 218.23 229.84 248.58 252.72 261.05 260.73 259.22 238.58 242.17 253.04 274.54 292.17 305.35 308.13 311.22 312.10 332.31 351.47 370.53 367.21 382.04 389.70 370.54 388.06 383.99 383.54 399.59 416.71 425.13 425.99 445.27 437.57 437.02 437.32 437.58 440.96 458.03 478.41 507.26 527.58 571.87 585.12 614.16 638.11 667.51 694.59 731.59 759.30 799.08 818.35 848.37 896.58 932.84 954.28 990.29 1062.20 636.76 356.11 304.64 266.01 203.42 185.60 138.48 62.68 3.72 -49.20 -136.44 -220.32 -268.06 -347.71 -376.24 -672.53 -913.95 -1259.42 -1660.03 -1764.88 -1767.93 -1775.40 -1777.38 -1772.43 -1741.77 -1412.76 -1398.41 -4358.18 -7314.72 -7121.14 -7029.56 -7149.25 -7515.95 -8002.35 -8144.20 -8273.74 -8162.79 -7763.72 -7009.38 -5901.75 -4650.54 -4274.98 -4038.63 -3983.41 -3898.37 -3895.88 -3785.16 -3785.55
-11268.92 -11268.87 -11218.44 -11205.40 -11203.24 -11202.23 -11183.46 -11043.53 -10835.64 -10582.45 -10478.43 -10344.64 -10319.59 -10319.37 -10376.77 -10508.73 -10577.21 -10551.14 -10322.23 -10198.37 -9827.74 -9398.94 -8679.75 -8033.67 -7640.61 -7593.65 -7565.41 -7689.32 -7807.25 -7805.49 -7760.03 -7607.24 -7768.12 -7420.98 -4828.91 -927.03 -73.83 44.86 187.82 185.34 223.71 233.23 240.60 228.10 228.29 223.46 223.77 229.91 256.36 295.76 305.60 308.65 310.51 310.68 308.41 322.07 338.85 356.46 359.22 358.34 360.15 364.48 367.49 370.28 385.17 403.99 402.22 413.58 429.05 431.32 436.64 436.58 434.60 452.69 480.75 498.38 531.63 559.77 576.81 610.73 645.50 671.39 706.46 737.95 770.02 802.91 828.71 834.71 843.68 822.13 870.08 991.35 864.90 364.06 318.48 284.75 252.09 168.53 146.92 85.43 2.39 -92.81 -126.76 -167.87 -257.39 -308.79 -360.81 -486.02 -735.55 -969.23 -1282.36 -1566.32 -1740.82 -1749.56 -1777.85 -1777.38 -1758.00 -1710.43 -1321.31 -1900.54 -3754.58 -6605.95 -6981.42 -7068.01 -7252.31 -7560.75 -8091.83 -8336.99 -8351.55 -8281.05 -8092.83 -6720.44 -5548.59 -4831.32 -3916.92 -3713.49 -3524.59 -3433.29 -3386.40 -3378.46 -3389.11
-11298.87 -11298.77 -11228.45 -11190.13 -11188.50 -11217.06 -11200.61 -11075.27 -10872.92 -10657.10 -10522.94 -10432.24 -10369.13 -10341.15 -10447.31 -10565.49 -10670.08 -10600.28 -10365.96 -10095.11 -9623.25 -9339.45 -8667.52 -8113.06 -7910.04 -8101.24 -8409.18 -8129.32 -8221.98 -8386.55 -8184.41 -8092.63 -8383.29 -7704.46 -7423.60 -4134.09 -2007.66 -363.11 -39.72 63.77 179.43 212.10 219.94 223.00 223.11 221.58 222.44 223.28 231.57 275.00 289.29 305.32 307.31 306.84 306.13 305.42 318.78 333.75 346.23 343.19 339.73 343.76 361.34 346.85 352.95 359.99 371.42 377.43 399.96 395.67 421.87 421.31 425.54 441.39 475.77 491.17 538.49 555.76 576.29 615.40 636.23 677.61 700.69 725.59 771.96 802.81 848.33 845.93 756.23 777.95 861.54 1016.50 711.04 323.28 282.82 271.87 162.77 108.14 54.75 23.28 -66.40 -119.74 -138.84 -223.09 -263.67 -338.00 -396.18 -563.57 -853.41 -1163.95 -1358.40 -1629.38 -1713.42 -1753.86 -1779.19 -1779.86 -1773.60 -1659.35 -1329.26 -2733.96 -5335.27 -7202.15 -6792.64 -6880.34 -7352.65 -7783.03 -8277.56 -8391.13 -8375.86 -8295.65 -8159.39 -7093.88 -5221.55 -4532.70 -3785.87 -3471.88 -3323.67 -3371.57 -3379.76 -3493.55 -3493.45
-11228.22 -11213.02 -11143.77 -11119.06 -11117.59 -11154.54 -11098.08 -11067.92 -10899.53 -10747.97 -10647.60 -10541.31 -10462.64 -10422.88 -10481.22 -10562.06 -10601.00 -10534.42 -10225.00 -9987.46 -9512.07 -9106.67 -8706.78 -8511.07 -8703.54 -8867.17 -8920.20 -8987.55 -9305.88 -9197.03 -9269.10 -9333.24 -9385.74 -8873.27 -8030.46 -5577.46 -2553.33 -902.70 -467.84 -104.98 68.79 151.91 193.54 210.41 216.53 219.49 221.28 221.37 223.12 228.51 260.74 270.22 294.75 299.82 294.22 301.75 303.63 300.40 315.69 316.76 332.99 326.78 327.51 323.25 322.58 334.12 338.87 347.65 367.35 360.20 387.82 406.63 412.76 424.01 471.17 490.23 527.46 550.40 568.86 598.88 625.92 664.93 689.93 725.54 776.58 790.81 824.10 832.87 742.76 616.43 879.44 985.83 569.14 306.43 273.60 216.13 113.95 49.99 14.96 -25.43 -74.25 -128.90 -233.70 -249.23 -292.80 -352.51 -398.54 -575.97 -813.03 -1248.59 -1502.51 -1668.99 -1744.96 -1774.22 -1787.03 -1785.86 -1765.01 -1726.20 -2410.95 -4565.11 -6221.39 -6560.25 -6408.19 -6599.42 -6944.92 -7575.98 -8036.21 -8394.70 -8363.33 -8322.49 -7990.24 -7207.15 -5834.75 -4212.06 -3658.64 -3433.60 -3383.65 -3471.63 -3586.19 -3744.28 -3744.31
-11018.38 -11018.13 -11038.04 -11008.57 -10908.90 -10704.68 -10797.98 -10886.53 -10840.39 -10737.70 -10711.13 -10556.87 -10419.54 -10462.43 -10428.01 -10419.86 -10340.13 -10236.74 -10070.61 -9653.23 -9180.45 -9060.85 -8979.85 -9047.87 -9247.72 -9668.66 -9764.78 -9968.58 -10067.22 -10459.31 -10403.32 -10216.75 -10555.43 -9987.37 -8446.85 -6397.10 -4259.46 -2594.09 -1491.48 -1085.28 -1068.38 -157.04 -52.79 125.11 144.41 162.66 214.62 218.77 219.42 229.49 239.93 242.09 248.72 272.61 277.40 289.20 292.06 288.58 274.18 280.51 292.05 295.43 297.38 288.99 289.84 313.50 321.13 334.39 348.71 347.64 373.52 381.62 388.17 412.88 449.64 471.23 507.99 532.12 558.83 581.17 615.63 632.32 686.82 709.96 771.10 772.27 758.66 722.33 725.06 581.48 618.71 1007.38 517.97 285.44 271.95 234.90 102.44 41.11 -14.59 -47.01 -144.59 -155.53 -257.64 -288.39 -336.42 -404.37 -508.47 -694.36 -934.87 -1252.18 -1552.15 -1638.80 -1739.03 -1781.19 -1797.84 -1800.12 -1795.66 -1678.45 -3655.24 -5749.95 -6683.34 -6241.79 -6031.52 -6133.05 -6486.26 -7332.06 -7720.16 -8157.19 -8287.28 -8255.44 -8025.33 -7214.08 -5155.67 -4305.52 -3705.87 -3562.23 -3434.76 -3343.46 -3570.00 -3782.97 -3783.11
-10727.71 -10727.51 -10785.16 -10713.92 -10578.02 -10491.66 -10389.41 -10554.17 -10711.40 -10723.56 -10697.49 -10483.69 -10263.20 -10295.70 -10252.25 -10219.00 -10135.54 -9846.29 -9712.69 -9207.20 -8983.34 -9054.23 -9191.55 -9499.64 -9626.48 -10094.70 -10349.87 -10561.14 -10972.44 -11005.95 -11060.65 -11099.87 -11166.60 -10474.65 -9101.25 -7393.82 -5512.91 -4939.93 -3769.91 -3271.59 -2535.97 -992.94 -371.46 -99.84 -44.61 -21.93 119.70 161.15 194.60 218.44 223.92 188.93 236.13 238.26 249.25 248.12 247.91 245.81 239.88 253.25 267.81 265.67 267.86 271.01 269.96 287.84 300.35 298.45 326.28 335.76 342.28 352.86 371.95 410.10 425.10 463.64 493.49 519.14 556.22 586.83 612.34 639.64 690.15 717.13 774.94 778.21 655.04 643.38 663.81 633.29 653.31 542.55 360.50 293.86 267.39 233.67 123.51 32.48 -27.74 -101.75 -162.42 -210.30 -265.91 -331.09 -394.27 -509.84 -607.63 -872.10 -1128.28 -1302.90 -1501.19 -1640.13 -1751.22 -1784.71 -1815.07 -1834.80 -1833.60 -1831.42 -4460.46 -6915.11 -6031.40 -5664.96 -5560.54 -5598.20 -6157.00 -6709.69 -7302.24 -7653.64 -7921.39 -7963.51 -7757.64 -6855.81 -5266.51 -4379.72 -3675.93 -3364.30 -3207.38 -2950.28 -3143.33 -3690.37 -3690.43
-10544.28 -10544.16 -10589.87 -10500.58 -10430.53 -10279.39 -10244.71 -10449.53 -10543.14 -10625.02 -10529.74 -10194.53 -9887.20 -9904.06 -10155.11 -10042.92 -9910.66 -9763.07 -9458.43 -9119.89 -9025.77 -8920.27 -9136.58 -9436.33 -9687.66 -9959.36 -10312.33 -10741.93 -10984.68 -11239.83 -11236.47 -11181.99 -11189.48 -11197.68 -10236.04 -8479.54 -6134.33 -5154.72 -4453.73 -4121.79 -3565.86 -1995.73 -612.27 -498.73 -346.60 -259.16 -80.02 8.08 27.08 175.56 127.12 76.26 156.97 161.55 199.89 213.27 222.72 222.22 223.69 228.23 240.43 254.40 259.01 250.53 251.83 254.93 282.77 284.59 302.94 317.34 328.14 339.13 363.73 384.91 399.56 458.38 471.89 505.95 542.68 586.50 603.29 628.86 691.68 716.91 740.18 711.38 642.45 587.04 600.81 701.99 1089.51 415.33 362.52 270.65 238.46 188.30 99.43 33.61 -33.37 -116.03 -187.85 -332.10 -361.25 -519.87 -611.38 -625.40 -913.67 -1043.31 -1215.17 -1338.92 -1520.12 -1633.49 -1744.30 -1788.53 -1818.48 -1861.76 -1958.22 -3139.91 -5841.22 -6771.01 -5562.72 -5304.32 -5296.64 -5432.32 -5739.83 -6454.69 -7048.00 -7183.38 -7503.17 -7606.59 -7532.71 -6382.44 -5067.14 -4176.60 -3159.81 -2917.71 -2549.49 -2396.25 -2855.34 -3789.39 -3789.24
-10472.28 -10472.18 -10451.19 -10375.27 -10285.54 -10178.48 -10116.09 -10218.47 -10381.66 -10526.55 -10275.41 -9721.17 -9597.11 -9753.79 -10003.87 -9904.82 -9767.92 -9655.13 -9501.49 -9168.08 -8967.78 -8935.60 -9088.37 -9329.78 -9622.27 -10050.86 -10369.38 -10806.39 -11060.04 -11242.70 -11226.53 -11203.35 -11184.35 -11178.11 -10398.65 -8846.93 -6570.84 -5515.32 -4673.32 -4237.41 -3681.15 -2409.08 -1483.61 -736.63 -403.76 -347.40 -334.59 -236.49 -202.35 -132.26 -262.51 -237.90 -158.96 -88.74 158.03 188.78 215.93 218.63 220.91 217.08 225.64 224.44 230.91 220.31 227.47 237.33 263.82 270.44 283.40 297.13 318.20 323.48 357.16 374.94 387.34 438.67 461.62 486.24 522.94 569.48 595.75 635.59 667.65 701.97 704.48 668.63 547.38 546.46 582.07 760.85 969.21 430.84 319.63 229.07 183.88 158.67 108.17 41.43 -18.58 -91.01 -326.99 -394.86 -463.33 -635.77 -832.16 -943.39 -1048.88 -1196.25 -1272.61 -1364.87 -1417.52 -1550.49 -1687.13 -1770.21 -1919.18 -1909.79 -1992.31 -4781.62 -6194.46 -6249.39 -5552.53 -5335.72 -5304.92 -5398.14 -5806.66 -6186.05 -6683.10 -6985.82 -7140.30 -7094.11 -6958.67 -6280.90 -4734.20 -3746.19 -2989.00 -2484.06 -2153.81 -2355.47 -2914.74 -4205.45 -4205.17
-10408.77 -10408.60 -10314.09 -10181.98 -10077.55 -10054.99 -9997.54 -9971.37 -10185.38 -10234.62 -9738.69 -9264.58 -9207.31 -9525.83 -9740.24 -9708.10 -9621.23 -9530.41 -9401.45 -9248.01 -8972.75 -9006.60 -9177.09 -9554.93 -9749.55 -10115.10 -10466.56 -10749.07 -11041.55 -11221.41 -11202.76 -11160.10 -11092.47 -10924.44 -10006.98 -9033.32 -7286.40 -5711.94 -4849.45 -4465.97 -3802.27 -3072.79 -1745.27 -813.80 -560.64 -413.31 -464.40 -486.42 -474.17 -415.49 -399.51 -301.65 -241.45 -198.42 -74.00 98.40 197.25 205.60 203.79 167.77 173.07 190.40 220.68 218.70 217.35 227.51 236.17 255.42 262.34 278.85 305.01 318.20 327.36 366.49 387.13 402.01 454.09 485.61 519.92 537.91 587.09 633.97 655.80 680.35 638.57 586.34 533.90 501.36 561.36 909.09 523.48 316.16 266.47 195.70 151.99 108.17 46.85 -19.61 -79.00 -216.44 -543.99 -549.06 -744.19 -954.44 -1075.16 -1147.90 -1189.26 -1257.68 -1287.74 -1349.22 -1410.25 -1466.04 -1600.31 -1818.67 -1944.65 -1977.76 -2097.94 -2947.04 -6183.37 -6149.77 -5570.26 -5455.72 -5438.44 -5454.04 -5744.09 -6071.19 -6641.89 -6829.34 -6983.41 -6989.12 -6891.11 -5907.08 -4965.97 -3744.75 -2939.70 -2468.31 -2387.59 -2656.23 -3331.18 -4797.39 -4797.04
-10192.45 -10192.12 -10020.53 -9942.79 -9880.22 -9943.23 -9873.06 -9839.07 -9896.49 -9843.27 -9527.70 -9123.74 -9122.80 -9226.86 -9163.68 -9087.62 -9067.34 -9025.96 -8965.61 -9097.48 -8880.16 -8969.58 -9289.48 -9583.83 -9868.41 -10139.77 -10170.11 -10469.21 -10716.08 -11064.18 -10954.48 -10879.49 -10379.94 -10353.66 -9656.91 -8771.29 -6802.67 -5966.97 -5106.21 -4526.58 -4073.67 -3332.19 -1972.84 -1395.72 -825.73 -740.58 -579.14 -619.23 -579.10 -467.47 -390.50 -338.93 -224.91 -162.20 -121.72 -29.03 132.14 147.59 176.94 142.04 119.22 130.87 181.09 203.30 209.79 216.36 223.87 240.79 255.41 270.32 289.27 307.61 316.87 356.07 380.46 399.15 448.66 483.14 501.13 535.87 568.10 613.83 630.39 666.96 615.52 580.29 501.97 467.62 710.55 532.03 340.34 295.82 218.06 153.43 82.82 47.66 -124.19 -190.94 -289.01 -415.65 -628.65 -924.52 -1073.78 -1161.00 -1169.47 -1197.51 -1230.61 -1265.12 -1298.87 -1348.92 -1382.09 -1399.70 -1483.26 -1676.26 -1774.63 -1988.32 -2127.29 -4355.24 -5809.86 -5810.43 -5580.95 -5471.68 -5498.11 -5518.56 -5567.86 -5931.54 -6160.32 -6445.91 -6744.34 -6761.60 -6778.67 -6169.57 -5183.64 -4054.13 -3433.67 -3330.64 -3293.98 -3529.75 -4255.56 -5445.31 -5445.00
-9746.72 -9746.30 -9698.75 -9594.52 -9714.83 -9762.52 -9630.34 -9366.76 -9371.92 -9220.58 -9034.49 -8809.26 -8645.63 -8788.59 -8357.36 -8226.73 -8067.46 -7893.94 -8189.51 -8207.07 -8102.73 -8462.43 -8714.92 -8855.35 -9289.23 -9056.60 -9435.08 -9628.43 -9685.79 -9795.88 -9822.79 -9523.69 -9361.10 -9329.35 -8651.95 -7851.46 -6914.13 -5506.89 -4958.29 -4307.12 -3977.33 -3224.08 -2099.24 -1620.03 -1547.17 -1175.41 -826.89 -683.61 -622.92 -514.96 -419.09 -341.23 -212.42 -118.96 -87.95 -37.38 42.70 92.47 113.36 112.48 100.00 113.73 126.54 167.47 192.01 214.11 219.12 226.27 242.63 257.95 271.50 290.85 317.57 347.14 364.57 386.89 413.45 448.37 475.60 540.85 574.78 604.10 626.58 654.71 644.47 589.37 555.24 518.26 1019.69 346.96 309.36 290.48 196.61 145.18 85.81 -128.13 -305.96 -441.13 -617.51 -944.48 -982.18 -1121.04 -1219.46 -1207.61 -1203.19 -1198.11 -1205.21 -1254.30 -1303.86 -1302.37 -1340.37 -1325.94 -1353.38 -1387.59 -1853.98 -2161.06 -4703.68 -5581.76 -5347.10 -5126.03 -5231.43 -5447.29 -5452.77 -5393.80 -5384.85 -5437.45 -5396.45 -5806.55 -6350.26 -6497.93 -6687.63 -6288.86 -5254.34 -4360.84 -3953.65 -3782.17 -4044.87 -4261.48 -4893.13 -5875.73 -5875.82
-9118.31 -9034.15 -8987.42 -9213.87 -9568.18 -9665.42 -9447.63 -9262.95 -8564.88 -8346.22 -8462.24 -8285.25 -8127.11 -7656.21 -7266.93 -6876.15 -6685.23 -6168.21 -6477.93 -6611.63 -6912.42 -7538.17 -7865.82 -8265.24 -8280.87 -8496.05 -8342.89 -8656.37 -8557.08 -8499.23 -8920.31 -8775.82 -8368.18 -8342.34 -7705.65 -7267.83 -5839.15 -5176.12 -4488.77 -4213.42 -3770.06 -3038.41 -2374.61 -2048.77 -1769.05 -1285.72 -939.63 -728.73 -620.13 -533.86 -425.85 -294.45 -213.88 -81.50 -43.23 19.18 48.03 83.48 93.72 103.23 103.71 109.89 119.44 131.37 155.13 189.75 214.90 218.42 231.05 256.19 264.45 281.82 300.92 312.19 345.80 385.48 412.08 431.28 464.20 502.37 531.63 561.41 610.01 629.31 619.30 607.41 559.00 933.35 722.48 314.58 288.82 221.11 129.64 72.20 -16.53 -169.29 -440.75 -619.04 -861.79 -946.89 -1096.03 -1150.62 -1204.62 -1201.90 -1187.46 -1180.50 -1147.01 -1219.57 -1256.08 -1278.70 -1452.16 -1387.30 -1276.81 -1560.12 -2310.52 -4457.43 -5507.42 -5385.51 -5060.75 -4756.58 -4815.54 -5070.83 -5201.86 -5192.89 -5126.72 -5036.77 -4779.37 -5319.98 -5821.01 -6207.02 -6329.79 -6155.96 -5175.79 -4645.46 -4278.98 -4228.00 -4325.18 -4597.64 -4995.93 -5530.98 -5661.80
-8210.12 -8209.33 -8518.02 -8693.19 -9194.28 -9493.27 -9299.72 -8822.06 -8283.74 -8081.43 -7995.16 -7870.49 -7615.03 -7311.98 -6766.75 -6300.81 -6217.91 -5655.37 -5629.04 -5886.97 -6083.34 -6427.11 -7030.71 -7467.30 -7656.07 -7783.14 -7777.07 -7927.99 -8048.81 -7843.24 -7937.64 -7970.28 -7863.97 -7850.04 -7233.51 -6152.07 -5528.09 -4909.23 -4399.85 -3929.53 -3559.73 -2929.64 -2626.37 -2063.26 -1729.20 -1249.91 -951.72 -848.06 -675.02 -550.80 -453.48 -291.95 -190.89 -62.40 -19.36 45.85 61.90 77.76 86.51 92.89 102.27 114.20 117.55 121.85 131.05 138.06 163.17 215.78 220.72 229.78 246.61 259.51 292.51 306.59 331.63 373.27 385.68 414.58 442.51 473.26 521.17 536.36 583.39 586.19 579.47 587.86 493.02 616.06 302.78 277.51 242.06 168.99 60.57 16.19 -169.44 -270.57 -500.72 -672.21 -805.18 -977.34 -1094.44 -1165.54 -1190.85 -1186.69 -1163.70 -1111.20 -1020.87 -1033.80 -1077.57 -1136.67 -1470.97 -1657.17 -1525.16 -1864.58 -3344.96 -5058.02 -5439.80 -5135.14 -4603.16 -4378.80 -4530.14 -4739.46 -5051.86 -5064.13 -4738.07 -4167.36 -4189.25 -5049.25 -5681.86 -6185.89 -6336.49 -6128.29 -5242.78 -4811.63 -4407.06 -4415.05 -4512.00 -4569.52 -4856.72 -4746.52 -4747.56
-7397.64 -7397.43 -7814.74 -8466.46 -9080.70 -9465.72 -9327.46 -8823.87 -8362.88 -8043.78 -7925.51 -7839.98 -7655.47 -7266.57 -6871.93 -6338.61 -6015.60 -5562.56 -5555.56 -5746.72 -5836.45 -6246.09 -6758.09 -7154.63 -7320.84 -7435.80 -7647.47 -7723.16 -7686.01 -7642.64 -7685.04 -7752.94 -7747.68 -7506.93 -7009.96 -5962.06 -5229.77 -4861.25 -4362.48 -3912.21 -3415.13 -2944.80 -2554.83 -2123.30 -1710.67 -1310.11 -1137.02 -993.99 -851.36 -710.01 -520.31 -326.79 -214.62 -82.62 -8.18 48.76 70.17 77.13 85.74 92.00 99.73 115.51 118.94 116.81 113.97 116.49 135.36 174.77 195.68 222.00 227.54 238.42 276.07 282.69 326.82 361.27 383.17 432.64 442.46 444.68 475.47 521.28 548.05 545.82 539.26 549.13 662.08 1217.85 296.58 271.46 231.29 95.03 9.25 -57.97 -179.83 -337.46 -488.71 -644.32 -778.43 -927.54 -1045.02 -1118.95 -1129.83 -1108.92 -1054.71 -939.62 -788.33 -785.91 -849.26 -1060.89 -1541.36 -1868.88 -2371.38 -2676.57 -4158.42 -5240.27 -5147.88 -4989.20 -4772.45 -4404.74 -4458.02 -4823.00 -5068.89 -5065.26 -4657.79 -4124.16 -4346.63 -4999.25 -5905.08 -6315.50 -6352.10 -5904.92 -5335.79 -4885.70 -4510.37 -4445.54 -4425.54 -4252.86 -4163.36 -3288.27 -3289.44
-7388.01 -7388.28 -7739.17 -8374.70 -8895.59 -9271.88 -9379.47 -9103.04 -8517.51 -8159.25 -7955.95 -7810.72 -7724.01 -7517.85 -7233.64 -6659.13 -6424.42 -6083.61 -5872.70 -5770.97 -5873.38 -6148.00 -6670.26 -7016.51 -7153.62 -7281.95 -7482.73 -7662.48 -7659.85 -7646.91 -7605.12 -7702.00 -7601.23 -7529.91 -6741.88 -6317.23 -5128.27 -4719.92 -4195.39 -3728.70 -3471.91 -3129.46 -2817.25 -2194.99 -1824.68 -1638.41 -1447.10 -1222.79 -1061.75 -848.39 -573.20 -401.16 -235.91 -85.16 -21.65 34.77 55.20 71.97 88.07 94.48 104.64 117.36 119.60 119.47 117.98 120.63 128.53 130.38 160.15 204.88 215.40 225.46 255.65 277.44 321.16 345.79 348.43 394.40 413.46 438.30 448.41 473.34 505.97 502.38 495.78 460.39 467.22 1129.47 486.78 225.25 171.69 103.54 -20.84 -90.04 -249.73 -372.88 -554.26 -652.01 -759.77 -825.80 -931.72 -983.38 -969.47 -986.78 -936.48 -885.09 -821.27 -844.84 -1123.43 -1393.30 -1822.16 -2556.53 -2805.45 -3393.43 -4326.33 -5071.52 -5133.86 -5120.64 -4754.60 -4431.06 -4558.65 -4831.25 -5087.18 -4969.45 -4830.24 -4428.15 -4927.41 -5361.97 -5733.54 -5560.66 -5175.62 -5350.92 -4918.29 -4618.49 -4289.84 -4155.91 -4071.79 -3508.69 -2579.04 -1956.71 -1957.32
-7614.59 -7603.84 -7703.81 -7924.96 -8440.55 -8969.94 -9129.52 -8829.47 -8466.41 -8075.63 -7895.13 -7702.49 -7609.48 -7584.46 -7279.27 -6929.23 -6505.36 -6207.60 -5941.89 -5715.20 -5656.54 -6007.70 -6558.77 -6665.45 -6606.49 -6721.42 -6948.67 -7127.02 -7292.79 -7005.89 -7303.09 -7321.54 -7447.40 -7507.85 -7001.77 -6322.39 -5471.98 -4453.23 -4270.61 -3874.86 -3657.50 -3342.21 -2777.09 -2399.38 -2080.81 -1923.20 -1608.30 -1386.70 -1161.80 -984.81 -836.94 -491.50 -336.97 -188.42 -64.63 16.36 50.89 72.20 83.49 101.38 108.64 115.20 119.63 120.84 122.40 123.97 125.46 126.28 151.31 189.90 219.54 220.93 247.31 268.68 285.58 321.86 341.84 367.61 378.23 416.92 440.44 453.40 467.77 482.07 465.66 423.74 418.00 841.74 694.24 179.59 122.33 94.18 -64.24 -185.39 -284.26 -424.91 -480.79 -649.18 -676.35 -742.60 -778.93 -819.97 -845.57 -856.95 -861.12 -902.15 -1051.05 -1283.64 -1645.19 -1612.99 -2451.47 -3135.62 -3523.46 -4248.11 -4749.71 -5062.80 -5131.58 -5117.84 -4807.42 -4416.55 -4456.86 -4757.89 -4972.98 -5015.36 -4873.87 -4851.32 -5215.11 -5226.78 -5177.39 -4701.24 -4233.33 -4285.61 -4215.28 -3775.29 -3710.20 -3536.58 -3432.14 -3041.63 -2464.71 -1474.72 -1474.68
-7043.45 -7042.55 -6704.42 -7185.15 -7192.04 -7721.17 -7868.33 -7993.74 -7689.93 -7421.91 -6986.61 -6732.50 -6754.60 -6636.32 -6506.38 -6367.13 -5881.30 -5675.29 -5450.47 -5323.88 -5111.98 -5013.43 -5381.52 -5688.86 -6149.21 -5982.35 -6084.01 -5981.18 -6099.85 -6239.14 -6121.49 -6311.93 -6430.50 -6926.76 -6486.66 -5793.56 -5356.68 -4551.34 -4068.22 -3817.27 -3636.82 -3451.37 -3157.52 -2666.15 -2546.90 -2074.30 -1952.29 -1758.84 -1440.78 -1316.91 -948.46 -656.11 -398.94 -247.22 -92.80 -15.28 42.45 76.70 90.80 103.79 108.96 114.61 117.10 118.08 119.80 121.62 129.03 137.35 166.25 188.31 218.20 220.43 232.76 254.69 270.02 296.56 320.19 329.57 366.79 374.04 397.96 432.45 439.87 439.10 440.32 416.35 369.39 406.32 605.21 148.40 14.20 -120.49 -138.48 -234.01 -296.00 -401.68 -460.33 -536.31 -602.16 -614.50 -635.08 -682.61 -675.91 -699.90 -766.06 -885.46 -1035.21 -1316.71 -2021.40 -2626.44 -3598.31 -3783.22 -4188.76 -4741.14 -4922.71 -5112.00 -5115.82 -5103.73 -4965.29 -4698.72 -4565.70 -4854.50 -5038.05 -5115.98 -5153.93 -5059.55 -5073.61 -4798.81 -4487.48 -4009.95 -3961.91 -4450.81 -4160.04 -3703.08 -3285.47 -3171.43 -3186.90 -2816.77 -2418.80 -1810.39 -1809.89
-6128.77 -6080.39 -6050.08 -6116.22 -6275.33 -6510.54 -6921.77 -6557.76 -6347.01 -6004.58 -5340.24 -5633.70 -5243.91 -5234.89 -4773.65 -5010.39 -4976.40 -4825.11 -4370.36 -3966.40 -3902.83 -3763.74 -3977.00 -4216.59 -4233.23 -4650.64 -4893.02 -5045.83 -5194.87 -5327.18 -5279.84 -5263.27 -5414.04 -5363.46 -5607.50 -4786.00 -4662.87 -3875.70 -3697.68 -3627.11 -3616.96 -3571.37 -3270.09 -2873.80 -2503.12 -2362.70 -2141.51 -1937.46 -1665.61 -1312.97 -984.03 -825.38 -491.07 -284.66 -149.04 -36.95 8.46 52.68 79.27 97.34 106.76 107.80 109.92 114.85 116.77 122.08 133.99 137.70 167.38 190.16 216.70 219.34 227.19 246.00 256.33 273.17 284.53 317.35 339.54 368.59 381.78 402.72 413.01 417.55 424.02 393.87 352.65 359.76 363.77 175.29 113.44 -76.87 -212.22 -276.73 -330.20 -400.31 -447.26 -493.64 -523.05 -551.86 -537.49 -562.83 -580.89 -632.61 -700.13 -835.78 -1246.27 -1543.00 -2318.11 -3727.08 -4620.70 -4921.47 -5079.40 -5122.27 -5119.50 -5111.42 -5111.70 -5118.40 -5110.75 -4960.59 -4910.73 -5189.09 -5341.69 -5225.87 -5051.46 -4799.18 -4364.32 -4114.63 -3606.58 -3687.88 -3977.17 -4694.11 -4354.99 -3920.01 -3333.61 -3247.81 -3201.25 -2950.72 -2689.95 -2545.34 -2544.87
-5880.14 -5895.27 -5892.64 -5815.73 -5744.18 -5458.46 -5244.99 -4958.95 -4589.45 -4271.05 -4223.64 -3978.70 -4105.60 -3761.99 -3798.94 -3605.64 -3711.38 -3686.48 -3733.46 -3662.75 -3376.08 -3017.31 -3091.94 -3673.37 -3763.93 -3994.36 -4317.09 -4371.85 -4775.35 -4844.04 -4748.65 -4649.53 -4404.30 -4186.71 -3615.35 -3862.61 -3583.89 -3617.38 -3142.50 -3448.40 -3597.86 -3613.80 -3381.87 -3137.70 -2707.83 -2408.96 -2333.94 -2095.50 -1852.12 -1517.94 -1205.19 -918.29 -600.10 -467.32 -225.94 -66.17 -35.26 25.40 79.33 90.23 94.09 98.22 100.26 107.94 115.26 121.79 133.62 140.66 153.64 173.60 193.11 210.19 220.40 222.19 230.95 266.47 268.53 302.62 330.89 350.02 356.07 363.55 394.84 403.35 384.94 376.92 345.35 316.10 278.11 222.13 141.65 103.88 -118.09 -286.88 -339.94 -406.32 -448.17 -453.64 -459.31 -477.76 -460.66 -453.92 -476.76 -499.19 -721.81 -1050.45 -1651.84 -1897.51 -2687.46 -3877.27 -5371.39 -5392.67 -5194.34 -5121.39 -5107.88 -5104.89 -5105.24 -5114.78 -5116.57 -5119.77 -5126.77 -5347.39 -5398.35 -4988.43 -4498.83 -3879.34 -3483.66 -3265.97 -3247.25 -3669.61 -4424.92 -4771.11 -4222.71 -3772.45 -3422.03 -3340.90 -3277.34 -3115.44 -3093.99 -3129.21 -3128.99
-6052.13 -6052.12 -5659.08 -5588.84 -5283.95 -5002.62 -4267.72 -3945.11 -3635.78 -3522.92 -3434.83 -3249.61 -3061.64 -2987.50 -2647.56 -2738.96 -2892.47 -3098.74 -2907.12 -3007.28 -2834.11 -2749.17 -2822.49 -3064.33 -3447.90 -3497.82 -3655.89 -3682.10 -4010.87 -3818.02 -4046.84 -3721.06 -3793.71 -3418.16 -3144.38 -2964.15 -2827.16 -2470.43 -2800.28 -3512.20 -3606.04 -3612.71 -3622.12 -3448.13 -3030.91 -2872.11 -2686.32 -2351.11 -1894.46 -1680.47 -1299.28 -1125.96 -871.65 -550.40 -281.13 -105.23 -86.97 5.25 51.28 71.91 84.22 93.33 96.16 101.32 108.15 114.81 125.55 133.35 142.85 158.46 176.73 198.78 217.83 220.47 223.54 250.60 266.98 285.32 307.66 320.71 334.42 355.52 360.81 374.34 359.21 361.51 335.94 311.76 263.19 214.84 150.30 -47.79 -217.99 -381.47 -399.69 -433.68 -433.99 -405.78 -378.92 -381.88 -366.69 -383.77 -424.68 -504.29 -1211.72 -1346.41 -1776.43 -2610.67 -3327.93 -4906.31 -5582.45 -5437.34 -5228.42 -5112.95 -5097.87 -5093.65 -5097.43 -5102.30 -5107.17 -5114.71 -5008.31 -4831.75 -4534.74 -4449.88 -3979.23 -3333.33 -3125.95 -3074.75 -3362.17 -4056.19 -4782.42 -4625.31 -4100.53 -3389.52 -3168.68 -3166.46 -3225.57 -3259.68 -3298.27 -3389.20 -3389.20
-5856.23 -5855.65 -5453.78 -4968.43 -4259.00 -3699.25 -3441.14 -3265.42 -3267.67 -3177.80 -3016.34 -2829.50 -2896.93 -2645.86 -2236.97 -2144.22 -2229.78 -2156.94 -2231.54 -1940.51 -1814.91 -1855.10 -2133.54 -2543.31 -2335.59 -2701.63 -2512.23 -2650.12 -2724.16 -2850.15 -2788.70 -2856.58 -2546.75 -2489.11 -2377.68 -2337.36 -2300.67 -2418.07 -2734.70 -3248.74 -3603.39 -3633.02 -3646.93 -3608.61 -3459.90 -3143.83 -2760.96 -2443.16 -2005.16 -1839.50 -1663.91 -1436.53 -1040.16 -721.67 -487.99 -283.63 -147.65 -72.41 26.52 45.62 81.37 85.08 85.25 86.61 94.97 98.65 107.49 124.68 133.27 142.11 154.81 190.14 215.53 220.82 223.36 239.63 258.58 276.18 283.94 300.76 307.23 319.44 340.68 341.86 352.63 339.45 335.17 303.23 259.79 230.73 38.88 -97.59 -319.42 -468.08 -465.59 -445.49 -391.48 -291.33 -310.71 -310.79 -314.79 -356.07 -396.54 -701.72 -1218.46 -1953.13 -2442.46 -2783.54 -3797.20 -5289.61 -5616.62 -5509.56 -5286.26 -5075.63 -5086.64 -5088.82 -5091.30 -5093.78 -5020.58 -4733.19 -4168.70 -4197.66 -3955.94 -3723.15 -3388.24 -3182.67 -3191.45 -3404.34 -3988.36 -4425.09 -4781.22 -4166.27 -3560.62 -3005.54 -2859.01 -2900.77 -3011.60 -3183.75 -3306.37 -3349.76 -3373.37
-4978.96 -4977.90 -4160.51 -3523.76 -3189.02 -3057.10 -2691.55 -2618.55 -2638.65 -2358.26 -2305.10 -2189.97 -1882.21 -1436.29 -1162.04 -1095.60 -920.12 -974.79 -793.23 -1081.05 -1149.68 -1160.37 -1325.78 -1411.15 -1591.77 -1637.82 -1226.07 -1209.85 -1526.42 -1602.77 -1566.24 -1618.41 -1792.50 -1789.73 -1790.79 -2059.25 -2115.84 -2161.54 -2229.59 -2721.49 -3095.40 -3465.20 -3663.02 -3669.35 -3663.35 -3435.72 -3159.24 -2670.30 -2173.82 -1983.74 -1801.79 -1434.56 -1241.68 -769.90 -567.39 -402.06 -241.65 -152.74 -93.15 20.53 58.36 73.52 73.69 76.77 84.58 92.02 97.87 110.05 124.31 132.13 142.79 158.03 184.69 215.26 222.94 233.65 247.51 265.24 275.78 287.00 292.72 300.73 303.96 318.70 318.56 322.41 306.97 290.41 261.22 247.28 -23.79 -207.40 -415.90 -467.62 -455.80 -398.49 -320.13 -265.23 -238.39 -257.41 -287.10 -340.45 -407.89 -1327.81 -2277.44 -2590.41 -2784.97 -3789.13 -4576.75 -5676.77 -6008.21 -5804.85 -5248.43 -5039.48 -5083.00 -5083.34 -5082.43 -4771.15 -4428.71 -3940.98 -3369.27 -3362.29 -3505.37 -3381.40 -3280.35 -3302.20 -3588.36 -3781.64 -4327.61 -4666.01 -4538.67 -3901.59 -3105.69 -2857.71 -2877.65 -2976.72 -3081.47 -3133.85 -3241.23 -3244.66 -3244.77
-3744.33 -3563.76 -3306.37 -2873.18 -2479.12 -2092.26 -1759.66 -1537.19 -1272.28 -1301.41 -956.85 -785.60 -762.27 -690.77 -538.48 -576.86 -434.66 -406.79 -366.97 -325.89 -335.91 -351.07 -486.48 -507.39 -810.22 -954.21 -1018.01 -1229.16 -1290.66 -1415.39 -1385.14 -1363.52 -1498.07 -1589.11 -1777.40 -2024.46 -2225.68 -2207.29 -2241.50 -2225.94 -2578.04 -3331.32 -3661.26 -3670.62 -3662.72 -3561.07 -3241.36 -2720.21 -2369.10 -2225.15 -1977.91 -1887.12 -1524.54 -1030.91 -819.02 -621.11 -450.99 -342.49 -170.00 -59.01 35.02 49.54 58.21 71.21 76.06 78.66 82.67 95.70 100.65 131.11 144.83 156.03 172.86 212.74 226.52 235.00 255.22 261.78 265.94 270.07 276.76 286.98 285.80 295.63 299.15 293.26 296.34 279.63 265.83 249.48 182.56 -78.37 -282.84 -397.41 -386.17 -328.77 -266.27 -221.60 -216.52 -247.33 -341.13 -395.11 -978.14 -3001.36 -3741.11 -3538.57 -4121.43 -4998.66 -6241.60 -6095.45 -6136.02 -5912.35 -5577.46 -5210.01 -5083.23 -5061.53 -4815.57 -4292.99 -3838.81 -3289.50 -2922.10 -2932.66 -3150.87 -3291.25 -3460.38 -3702.49 -4018.38 -4318.59 -4636.94 -4684.60 -4276.67 -3909.20 -3210.77 -2998.41 -3062.37 -3190.26 -3277.73 -3274.48 -3270.48 -3267.18 -3267.13
-2638.69 -2471.65 -2233.14 -2043.69 -1403.44 -1032.53 -638.03 -509.83 -234.88 -278.61 -314.27 -375.92 -333.68 -361.53 -306.70 -237.69 -227.33 -187.61 -174.25 -217.78 -272.62 -320.63 -353.64 -418.18 -648.98 -942.06 -1104.73 -1281.97 -1470.21 -1521.78 -1482.36 -1509.86 -1625.12 -1878.55 -2142.35 -2552.55 -2578.26 -2624.80 -2582.68 -2408.45 -2473.64 -3108.63 -3603.19 -3682.21 -3678.68 -3617.97 -3534.40 -3175.75 -2702.93 -2488.03 -2375.42 -2237.57 -1624.12 -1423.15 -1001.12 -844.73 -590.66 -501.20 -247.85 -94.56 -25.78 16.82 44.61 60.11 69.50 63.92 66.90 67.46 86.25 104.72 163.06 186.07 208.53 242.65 254.85 260.91 266.19 263.56 261.39 266.14 267.77 272.06 275.45 274.90 278.89 281.54 277.88 265.06 260.78 216.00 149.85 -42.06 -237.37 -235.13 -274.05 -272.79 -223.35 -198.70 -212.40 -303.14 -366.84 -437.82 -1386.20 -3908.41 -5369.94 -5018.57 -4984.92 -5995.56 -6268.62 -6141.13 -5988.79 -6102.39 -5892.27 -5403.97 -5129.82 -4940.39 -4389.49 -3911.95 -2969.70 -2789.08 -2696.12 -2870.31 -3100.07 -3304.09 -3805.54 -4255.71 -4764.58 -4858.46 -4691.42 -4643.74 -4252.13 -3864.89 -3383.20 -3197.73 -3289.62 -3414.08 -3421.03 -3470.48 -3424.71 -3416.51 -3396.61
-1736.77 -1737.19 -1510.65 -1034.15 -796.41 -376.41 -114.20 -47.55 -54.59 -124.20 -222.53 -287.76 -296.49 -287.93 -259.79 -237.45 -227.43 -233.78 -216.49 -263.10 -309.89 -332.11 -373.00 -428.78 -521.43 -797.88 -1051.64 -1205.59 -1380.75 -1493.46 -1502.86 -1564.98 -1794.85 -1965.46 -2490.50 -2851.48 -3121.86 -2935.87 -2519.08 -2248.72 -2376.78 -3256.52 -3609.51 -3695.13 -3698.04 -3701.22 -3703.45 -3529.40 -3207.59 -3064.98 -2754.03 -2551.28 -2248.25 -1726.16 -1445.77 -1107.85 -796.53 -487.67 -293.45 -178.70 -73.43 -18.59 18.92 33.01 43.80 50.50 46.68 56.83 49.83 67.26 115.87 206.38 231.56 249.54 269.18 276.79 275.50 269.12 262.53 256.05 257.76 253.30 257.08 264.34 270.22 263.66 262.60 260.08 257.65 240.41 99.30 -36.21 -126.46 -149.66 -187.87 -193.57 -186.49 -205.59 -254.73 -376.47 -516.53 -2250.17 -4494.45 -6113.85 -5873.24 -5693.11 -5604.69 -6018.32 -5810.00 -5685.38 -5856.43 -6282.41 -6315.76 -5981.28 -5452.70 -4516.91 -3843.37 -3448.68 -2839.33 -2850.93 -2988.53 -3199.56 -3510.40 -3740.25 -4290.79 -5075.31 -5094.88 -4951.12 -4730.86 -4631.95 -4439.91 -4254.50 -3751.95 -3357.80 -3401.59 -3451.44 -3483.23 -3497.00 -3474.73 -3449.35 -3439.59
-1235.40 -1235.68 -790.92 -570.79 -428.75 -250.82 -151.15 -75.29 -103.38 -158.33 -247.04 -303.90 -329.80 -333.43 -328.45 -314.62 -316.17 -311.45 -293.85 -326.13 -328.46 -338.39 -384.93 -421.97 -503.18 -646.50 -810.50 -981.36 -1155.54 -1306.06 -1400.49 -1406.91 -1507.61 -1693.10 -2112.68 -2376.32 -2685.64 -2389.60 -2126.37 -1855.92 -1896.64 -2977.11 -3698.80 -3697.58 -3700.34 -3705.67 -3705.66 -3704.13 -3645.19 -3514.05 -3172.73 -2963.27 -2605.44 -2186.46 -1662.41 -1326.53 -884.04 -601.67 -438.86 -330.70 -162.13 -115.77 -55.27 -24.30 2.40 19.54 13.92 9.51 -1.22 31.45 75.46 205.56 227.18 241.13 272.62 290.41 277.13 260.39 256.08 253.93 249.68 246.27 250.96 256.04 256.26 257.23 252.27 252.48 247.72 230.65 121.21 -42.08 -92.13 -112.49 -144.94 -160.73 -195.79 -297.19 -368.62 -555.49 -1826.78 -6274.25 -6716.41 -6472.88 -6216.85 -6080.35 -6122.23 -6014.50 -5834.33 -5811.90 -6127.27 -6696.38 -6727.81 -6245.13 -5100.41 -4042.26 -3099.38 -3033.64 -3048.61 -3236.31 -3735.50 -3881.67 -4031.11 -4354.72 -4606.56 -4969.15 -5004.57 -4794.49 -4676.11 -4661.85 -4707.73 -4436.19 -3887.74 -3507.59 -3400.85 -3435.75 -3446.87 -3392.01 -3381.82 -3317.27 -3314.62
-844.70 -844.93 -438.68 -451.15 -356.73 -296.47 -242.61 -204.15 -192.83 -220.87 -276.53 -328.27 -330.67 -341.44 -333.92 -325.86 -323.13 -325.66 -325.98 -326.36 -330.66 -339.70 -373.51 -416.28 -466.10 -465.69 -605.33 -748.66 -1014.96 -1208.54 -1298.16 -1325.66 -1321.60 -1357.73 -1491.54 -1710.15 -1756.62 -1636.99 -1407.04 -1348.02 -1779.43 -3101.55 -3578.29 -3701.51 -3702.62 -3704.24 -3704.95 -3706.02 -3707.80 -3708.05 -3564.23 -3449.33 -3070.22 -2410.29 -2256.35 -1817.76 -1287.59 -859.48 -748.27 -591.32 -469.44 -380.80 -149.73 -167.46 -110.51 -85.85 -41.92 -35.39 -101.49 -158.97 86.27 206.90 225.78 242.04 255.55 275.46 255.86 246.17 243.10 238.54 238.50 238.18 239.28 241.76 244.90 250.37 249.08 240.29 237.91 231.84 154.25 -17.21 -95.22 -129.03 -195.82 -220.41 -266.85 -382.25 -491.27 -659.41 -1248.38 -6461.84 -6323.76 -5899.89 -5415.83 -5758.12 -6149.62 -6158.52 -6191.05 -6198.75 -6509.39 -7016.99 -6840.60 -5870.14 -3989.60 -3215.33 -2928.81 -3396.23 -3554.05 -4023.94 -4369.28 -4446.18 -4390.03 -4329.68 -4328.74 -4575.96 -4602.83 -4663.51 -4672.42 -4818.76 -4886.02 -4592.17 -4089.29 -3584.74 -3344.28 -3340.11 -3308.97 -3218.81 -3160.67 -3094.13 -3021.72
-488.66 -486.75 -358.70 -337.58 -353.21 -329.71 -274.81 -279.73 -280.00 -288.60 -309.53 -335.10 -336.56 -325.20 -307.97 -302.90 -310.15 -318.97 -322.63 -318.45 -326.87 -316.65 -310.22 -380.67 -398.64 -369.75 -428.90 -550.64 -855.39 -1180.82 -1309.21 -1361.31 -1361.18 -1352.47 -1375.91 -1378.61 -1266.01 -1109.92 -1205.80 -1467.72 -1842.35 -2961.08 -3380.79 -3703.99 -3703.97 -3704.16 -3704.64 -3705.62 -3706.58 -3707.76 -3663.98 -3534.61 -3170.03 -3100.80 -3060.29 -2329.51 -1646.86 -1261.63 -1151.41 -901.10 -837.16 -661.08 -372.48 -296.99 -221.03 -174.57 -128.62 -181.75 -320.83 -287.55 1.42 207.73 226.15 236.06 242.89 244.90 243.12 238.68 232.68 230.72 220.75 218.05 228.40 225.26 230.69 238.98 234.78 234.35 233.39 227.83 194.55 -53.27 -213.77 -192.97 -279.35 -363.36 -393.71 -512.94 -942.48 -1508.08 -3565.65 -5442.13 -4646.61 -4545.14 -4370.15 -4888.78 -5381.22 -6286.02 -6767.31 -6790.63 -7003.59 -7021.28 -5848.53 -4693.34 -3901.79 -3301.88 -3471.93 -3706.68 -3952.54 -4172.83 -4371.42 -4334.59 -4293.47 -4183.59 -3996.10 -4121.47 -4403.30 -4571.56 -4683.47 -4862.17 -4997.61 -4559.02 -3906.42 -3464.85 -3227.93 -3110.18 -2973.28 -2858.90 -2798.66 -2593.03 -2592.73
-262.20 -280.04 -275.27 -267.52 -288.38 -281.33 -275.42 -287.06 -296.40 -316.46 -321.66 -321.67 -323.00 -307.20 -287.52 -286.28 -307.40 -277.48 -262.30 -241.44 -230.00 -271.56 -224.80 -293.92 -269.08 -256.80 -308.01 -512.04 -734.68 -1318.81 -1437.50 -1550.45 -1525.56 -1591.04 -1382.14 -1155.96 -950.19 -765.65 -1122.85 -1467.99 -1832.51 -2209.74 -3145.03 -3706.92 -3706.08 -3703.96 -3705.36 -3705.61 -3706.17 -3706.32 -3706.04 -3675.69 -3476.81 -3496.89 -3125.29 -2605.31 -1966.25 -1786.13 -1337.60 -1259.89 -981.93 -722.95 -511.10 -468.05 -436.79 -396.31 -313.61 -329.23 -488.75 -408.82 -243.78 -299.69 10.20 219.01 231.95 231.37 229.57 229.82 -279.44 -449.94 -577.70 -224.21 -415.77 -57.00 220.33 227.60 228.15 226.14 221.34 217.29 30.03 -197.20 -474.52 -451.19 -407.02 -615.51 -563.45 -948.49 -1913.60 -2602.56 -3839.22 -4012.90 -3167.81 -2988.90 -3242.66 -3821.82 -4875.56 -5742.30 -6835.06 -7018.47 -7034.04 -6487.17 -5496.67 -4208.48 -3733.40 -4000.67 -4071.45 -4186.82 -4129.33 -4105.39 -4180.78 -4120.22 -4017.26 -3869.31 -3903.41 -4095.32 -4398.54 -4638.56 -4732.23 -4875.65 -4889.99 -4362.87 -3819.63 -3174.29 -2933.03 -2688.06 -2547.54 -2384.70 -2315.60 -2313.23 -2313.16
-154.22 -164.07 -175.65 -174.64 -204.16 -204.17 -231.88 -250.73 -265.21 -317.98 -316.59 -302.50 -301.70 -302.64 -255.56 -243.48 -219.46 -193.33 -182.04 -156.93 -128.92 -165.25 -169.67 -167.63 -153.61 -157.18 -248.91 -376.13 -684.45 -1304.97 -1652.77 -1706.52 -1928.97 -1920.66 -1629.84 -966.60 -660.50 -641.74 -981.31 -1247.35 -1542.15 -1537.92 -2090.07 -3294.03 -3704.34 -3702.46 -3703.54 -3704.89 -3705.29 -3705.19 -3704.53 -3707.62 -3710.11 -3560.36 -3277.76 -3131.12 -2825.84 -2240.39 -2060.04 -1781.14 -1490.82 -1194.49 -1268.78 -1099.61 -848.96 -758.93 -853.67 -730.41 -774.60 -729.79 -898.72 -1111.49 -413.38 -481.42 -494.13 -695.67 -768.32 -1172.20 -1360.52 -1365.92 -1434.17 -1294.81 -1231.44 -1005.33 -1142.64 -881.52 -438.97 -413.43 -350.96 -83.82 -542.36 -874.18 -947.63 -733.48 -825.24 -1039.59 -1123.64 -1871.68 -3015.32 -4085.07 -3825.68 -3472.14 -3212.17 -3186.59 -3453.63 -3753.71 -4226.87 -4960.83 -5776.35 -6604.02 -6578.14 -5956.75 -5373.02 -4479.74 -4142.97 -4372.85 -4439.25 -4261.35 -4077.84 -3872.45 -3869.71 -3939.82 -3894.30 -3834.11 -3913.05 -4194.19 -4523.12 -4785.98 -4877.64 -4904.35 -4846.01 -4570.39 -3845.92 -2982.87 -2679.91 -2369.43 -2205.21 -2214.20 -2297.68 -2394.67 -2394.89
-79.73 -79.72 -106.70 -126.62 -136.55 -156.17 -204.29 -213.51 -245.47 -282.19 -294.83 -291.04 -271.79 -254.67 -209.78 -166.56 -145.18 -127.00 -129.18 -108.08 -74.70 -102.05 -92.82 -40.79 -63.51 -103.93 -209.45 -333.83 -523.66 -1164.58 -2021.94 -2254.90 -2332.76 -2099.17 -1869.24 -1067.46 -617.02 -578.79 -949.04 -1154.43 -986.49 -1069.14 -1671.51 -2973.60 -3589.14 -3701.73 -3702.40 -3703.87 -3704.27 -3704.14 -3703.63 -3705.03 -3707.19 -3665.87 -3640.40 -3468.04 -3286.98 -2960.06 -2643.49 -2395.68 -2206.41 -1709.82 -1556.53 -1508.95 -1340.83 -1426.98 -1342.61 -1212.97 -1156.66 -1101.93 -1227.49 -1279.87 -1132.54 -1101.41 -1278.11 -1459.46 -1443.82 -1825.99 -1829.61 -1856.45 -1791.44 -1784.09 -1817.09 -1775.81 -1740.64 -1522.80 -1541.41 -1365.13 -1107.27 -1125.78 -1432.45 -1591.87 -1666.97 -2016.90 -1601.67 -2086.67 -2519.20 -3570.43 -3284.16 -4328.04 -4257.69 -3953.07 -3872.24 -3989.62 -4390.74 -4373.79 -4173.95 -4781.18 -5082.15 -5600.15 -6072.28 -6101.46 -5317.51 -4906.12 -4712.74 -4683.57 -4499.08 -4113.12 -3871.11 -3765.61 -3758.80 -3791.12 -3841.14 -3885.78 -4024.87 -4363.71 -4849.60 -4884.29 -5013.36 -5021.70 -4926.69 -4492.61 -3845.20 -2956.99 -2576.87 -2249.41 -2171.06 -2285.37 -2559.53 -2709.78 -2710.12
-74.55 -74.47 -103.55 -116.87 -127.74 -136.84 -158.88 -189.39 -225.39 -257.01 -281.02 -264.37 -230.86 -213.62 -171.31 -137.84 -123.16 -96.64 -86.69 -72.19 -51.28 -45.00 -31.36 -27.93 -39.36 -80.49 -169.75 -224.38 -413.23 -1098.57 -1985.49 -2394.37 -2689.26 -2572.50 -2237.00 -1023.60 -641.06 -621.39 -727.81 -929.40 -552.52 -721.13 -1703.77 -3259.44 -3640.30 -3700.70 -3700.71 -3700.32 -3701.41 -3702.65 -3702.62 -3701.89 -3703.00 -3704.90 -3679.04 -3666.01 -3592.63 -3331.14 -3099.75 -2782.32 -2614.60 -2243.94 -2158.61 -1982.19 -1818.97 -1921.23 -1768.22 -1572.05 -1471.96 -1423.00 -1489.06 -1465.20 -1322.06 -1358.25 -1370.40 -1267.25 -1436.37 -1626.16 -1715.11 -1681.92 -1724.95 -1764.72 -1836.07 -1923.20 -2038.16 -1968.83 -1959.56 -1961.01 -2077.17 -2056.83 -2044.61 -2206.00 -2527.35 -2856.14 -3167.96 -3167.78 -3136.89 -4301.43 -4386.24 -4434.34 -4439.95 -4330.79 -4612.34 -4842.94 -4959.34 -4867.22 -4623.27 -4464.54 -4710.96 -5119.70 -5445.24 -5727.39 -5418.29 -5084.89 -4965.00 -4825.01 -4505.13 -4195.25 -3914.73 -3751.31 -3754.59 -3816.04 -3884.83 -3920.12 -4125.59 -4448.19 -4914.40 -5077.77 -5184.66 -5185.99 -5183.57 -4603.01 -3930.91 -3114.08 -2643.14 -2583.92 -2417.37 -2552.53 -2755.68 -2968.35 -3041.14
-152.51 -152.38 -190.20 -195.98 -218.82 -217.83 -222.31 -215.57 -228.59 -248.13 -250.47 -232.92 -205.34 -194.34 -152.68 -112.38 -100.52 -82.08 -68.89 -57.02 -37.50 -24.04 -16.17 -11.77 -24.66 -62.72 -109.20 -180.53 -289.74 -917.52 -1722.63 -2227.67 -2689.06 -2599.55 -1961.82 -1116.80 -528.39 -483.34 -722.98 -648.84 -468.82 -920.78 -2089.09 -3419.39 -3701.92 -3699.74 -3700.97 -3701.95 -3701.01 -3700.16 -3700.15 -3701.66 -3700.66 -3705.34 -3661.11 -3616.42 -3491.14 -3395.71 -3342.09 -3075.57 -2802.04 -2507.81 -2502.50 -2313.45 -2089.62 -2057.49 -1941.90 -1747.49 -1680.22 -1606.45 -1474.10 -1454.72 -1125.75 -669.31 -683.03 -402.13 -496.75 -936.68 -1252.17 -1430.04 -1587.05 -1824.37 -1875.39 -2149.06 -2341.41 -2397.10 -2381.75 -2513.96 -2420.79 -2526.50 -2543.74 -2609.04 -2985.83 -3772.83 -4044.80 -4056.21 -4195.88 -4275.09 -4413.39 -4494.12 -4553.28 -4799.15 -4893.09 -5142.79 -5432.59 -5413.17 -5015.06 -4785.74 -4710.69 -4960.94 -5402.74 -5542.50 -5380.76 -5128.02 -4994.30 -4801.97 -4516.97 -4371.75 -4050.37 -3851.93 -3802.94 -3873.64 -3917.52 -4023.44 -4275.23 -4603.16 -5052.90 -5282.42 -5287.64 -5375.01 -5341.57 -4959.40 -4036.56 -3317.41 -3060.37 -3028.69 -3024.57 -3269.68 -3260.30 -3367.78 -3368.08
-264.23 -253.57 -256.52 -265.72 -289.17 -290.89 -307.11 -295.85 -259.59 -242.34 -238.12 -223.11 -189.18 -171.95 -139.65 -117.81 -88.47 -66.31 -56.54 -37.36 -21.42 -1.42 8.54 3.96 -18.32 -66.85 -147.48 -187.32 -235.63 -371.82 -1473.71 -2075.41 -2433.66 -2398.45 -1879.90 -1233.13 -626.89 -646.66 -819.24 -814.97 -779.65 -1510.10 -2402.60 -3623.35 -3703.85 -3700.68 -3700.94 -3702.60 -3700.96 -3699.69 -3700.23 -3701.94 -3700.62 -3703.03 -3643.31 -3542.02 -3457.17 -3431.94 -3407.90 -3313.78 -3030.44 -2788.56 -2652.37 -2482.07 -2285.77 -2178.69 -2091.79 -1964.35 -1820.04 -1732.69 -1667.63 -1713.23 -1301.65 -696.87 -913.96 -736.76 -816.97 -1222.54 -1533.00 -1741.63 -2173.83 -2223.34 -2546.48 -2440.61 -2662.21 -2770.23 -2895.39 -3005.65 -3038.00 -3358.14 -3370.66 -3647.86 -4401.44 -4575.89 -4362.31 -4398.67 -4429.74 -4525.77 -4619.86 -4636.68 -4883.08 -5101.18 -5326.62 -5456.67 -5534.25 -5561.17 -5374.54 -5074.79 -4944.10 -5178.14 -5486.95 -5431.45 -5321.01 -5131.03 -4944.44 -4786.59 -4604.29 -4396.65 -4147.40 -3984.30 -3944.69 -3952.25 -4007.51 -4088.34 -4354.90 -4540.29 -5213.06 -5412.77 -5508.80 -5478.22 -5459.97 -4913.32 -4184.23 -3524.91 -3346.43 -3469.61 -3399.80 -3629.62 -3671.45 -3721.09 -3721.41
-414.18 -414.01 -418.27 -427.30 -412.98 -417.89 -388.84 -376.39 -306.24 -228.19 -210.47 -207.98 -177.44 -152.80 -135.62 -110.79 -83.71 -56.55 -38.06 -25.72 -9.88 24.20 27.83 20.57 -6.21 -42.02 -137.47 -247.27 -356.58 -854.37 -1653.96 -1970.94 -2186.29 -2209.42 -1741.17 -1292.92 -1181.93 -1023.78 -1425.94 -1674.30 -1808.95 -2430.34 -3215.01 -3701.12 -3703.05 -3701.63 -3701.64 -3701.41 -3700.29 -3700.52 -3701.46 -3702.72 -3702.93 -3702.33 -3455.92 -3154.53 -3141.05 -3408.62 -3418.52 -3323.79 -3159.34 -2890.13 -2855.14 -2804.28 -2539.91 -2433.90 -2316.78 -2214.39 -2297.07 -2635.12 -2648.95 -2563.21 -2534.39 -2521.36 -2222.54 -2203.37 -2203.72 -2245.87 -2283.59 -2746.13 -2691.33 -3152.57 -3127.86 -3407.82 -3530.48 -3713.93 -4031.56 -3889.70 -4059.64 -4176.83 -4111.91 -4720.58 -4969.10 -5094.48 -5003.03 -5082.70 -4959.42 -5013.78 -4943.21 -5159.94 -5393.14 -5610.75 -5689.22 -5656.27 -5554.01 -5402.63 -5295.05 -5140.87 -5223.06 -5632.01 -5763.49 -5816.47 -5573.70 -5206.93 -4955.66 -4805.14 -4605.44 -4393.84 -4232.07 -4087.54 -4044.07 -4083.78 -4120.05 -4248.43 -4538.37 -5061.40 -5405.33 -5624.06 -5754.01 -5804.18 -5666.57 -5226.15 -4182.30 -3639.47 -3676.52 -3794.46 -3844.08 -3980.58 -4006.01 -3977.92 -3978.13
-531.51 -531.37 -520.54 -500.39 -500.66 -466.16 -449.20 -394.87 -330.01 -244.72 -224.22 -193.35 -169.17 -142.23 -116.18 -98.05 -73.77 -44.34 -20.50 -11.12 12.62 38.75 51.62 44.30 16.43 -32.21 -126.62 -252.45 -419.01 -845.17 -1679.69 -2060.90 -2392.96 -2367.18 -1982.16 -1686.14 -1429.54 -1867.44 -2026.71 -2353.76 -2630.99 -3268.97 -3676.67 -3694.64 -3701.33 -3701.07 -3702.17 -3700.22 -3701.06 -3701.33 -3701.69 -3703.07 -3704.97 -3704.36 -3541.74 -3239.97 -3220.01 -3363.86 -3373.83 -3340.07 -3240.01 -3205.29 -3104.12 -3070.18 -2927.77 -2818.85 -2705.95 -2706.56 -2899.47 -3369.97 -3865.62 -3648.71 -3700.07 -3464.14 -3111.40 -3193.57 -3239.06 -3095.28 -3204.92 -3178.91 -3431.03 -3635.12 -3725.39 -4175.11 -4464.53 -5060.94 -5052.34 -4890.03 -4845.98 -4910.88 -5354.44 -5519.23 -5617.69 -5412.50 -5219.65 -5277.74 -5273.13 -5256.98 -5390.37 -5760.28 -5881.50 -6024.47 -5963.22 -5680.62 -5369.68 -5312.77 -5401.53 -5475.40 -5964.54 -6312.30 -6221.80 -6089.52 -5755.56 -5402.85 -5210.51 -4928.77 -4630.95 -4395.70 -4261.61 -4153.92 -4103.80 -4137.35 -4266.45 -4361.63 -4593.86 -5181.65 -5672.01 -5942.77 -6051.07 -5998.26 -5989.02 -5478.01 -4578.48 -4029.43 -3845.96 -3939.40 -3986.49 -4054.49 -4105.88 -4110.21 -4116.81
-597.18 -597.08 -597.08 -580.41 -544.36 -513.73 -456.39 -394.69 -339.78 -262.23 -226.48 -208.76 -168.83 -136.11 -109.01 -90.82 -53.58 -34.78 -11.46 4.52 32.79 48.09 65.25 51.65 27.75 -22.45 -130.52 -227.78 -319.67 -539.02 -1860.56 -2667.77 -2824.85 -2849.32 -2255.41 -1924.53 -1895.81 -2154.50 -2337.95 -2589.66 -3046.45 -3649.01 -3697.41 -3705.38 -3706.93 -3704.27 -3702.42 -3701.02 -3701.11 -3700.94 -3702.28 -3703.22 -3703.76 -3704.01 -3605.60 -3423.94 -3356.67 -3358.25 -3352.83 -3317.36 -3278.49 -3251.43 -3213.78 -3211.62 -3192.27 -3095.79 -3053.40 -3046.88 -3134.04 -3652.13 -4011.76 -4206.43 -4121.99 -4113.39 -3981.36 -4074.70 -3938.55 -3882.74 -3818.71 -3876.52 -4056.45 -4815.00 -4964.91 -5727.05 -5912.42 -6168.21 -6104.48 -5825.51 -5553.22 -5354.63 -5446.15 -5591.57 -5622.58 -5591.85 -5542.31 -5360.51 -5309.16 -5346.04 -5613.23 -5860.24 -5978.73 -6013.73 -5886.77 -5621.87 -5476.54 -5666.04 -5979.04 -6544.34 -6725.85 -7020.21 -6591.03 -6197.13 -5918.66 -5479.27 -5242.51 -4933.93 -4667.25 -4469.64 -4262.56 -4164.27 -4150.87 -4175.08 -4263.48 -4503.41 -4821.45 -5272.17 -5894.47 -6086.07 -6301.09 -6276.08 -6118.17 -5325.05 -4794.50 -4185.69 -3979.55 -4002.80 -4014.24 -4126.62 -4195.07 -4209.30 -4209.42
-624.46 -624.38 -627.13 -609.29 -591.59 -543.76 -462.02 -406.02 -348.86 -289.59 -251.51 -202.04 -178.96 -136.28 -97.98 -80.20 -43.61 -19.75 -7.68 6.59 33.91 49.89 62.96 48.32 27.84 11.60 -96.92 -215.17 -277.51 -496.62 -1488.60 -2769.74 -3197.06 -3099.50 -2654.53 -2261.94 -2070.20 -2148.44 -2283.92 -2534.32 -2876.67 -3346.37 -3450.45 -3529.52 -3654.99 -3706.99 -3703.59 -3703.69 -3703.58 -3701.40 -3704.97 -3705.83 -3641.13 -3406.96 -3099.29 -3186.53 -3347.41 -3345.91 -3340.42 -3325.85 -3288.95 -3250.22 -3227.43 -3226.47 -3213.69 -3181.13 -3167.04 -3219.00 -3434.07 -3834.86 -4122.03 -4261.13 -4343.91 -4352.00 -4373.83 -4370.48 -4511.43 -4380.53 -4470.98 -5139.19 -5532.00 -5737.50 -6010.57 -6400.90 -6507.58 -6482.24 -6360.95 -5988.42 -5716.91 -5227.83 -5261.61 -5583.77 -5801.92 -5829.69 -5688.13 -5588.50 -5543.28 -5563.99 -5692.94 -5887.66 -6002.79 -6019.05 -5999.47 -6140.76 -6138.21 -6833.61 -6977.79 -7418.97 -7622.18 -7678.32 -6958.11 -6362.65 -5948.17 -5520.59 -5182.14 -4959.07 -4683.65 -4501.66 -4294.30 -4195.61 -4179.64 -4250.36 -4335.37 -4441.77 -4773.14 -5339.42 -5873.97 -6232.20 -6370.20 -6479.50 -6379.22 -5595.46 -4907.48 -4326.32 -4109.76 -4116.16 -4176.72 -4193.79 -4206.40 -4170.67 -4155.62
-629.91 -631.30 -629.62 -612.54 -605.49 -568.75 -492.43 -444.55 -381.82 -295.16 -262.77 -227.94 -191.58 -156.40 -122.14 -95.07 -46.20 -26.89 -16.45 -1.87 17.73 40.12 44.34 35.60 17.61 -39.97 -127.61 -216.45 -290.49 -368.61 -902.03 -2562.28 -3119.47 -3263.82 -2823.77 -2477.02 -2333.01 -2368.65 -2479.12 -2503.80 -2720.19 -2857.97 -3094.09 -3216.87 -3460.14 -3688.94 -3709.11 -3704.10 -3703.24 -3705.13 -3703.02 -3618.38 -3416.72 -2806.75 -2571.92 -2649.46 -3134.82 -3342.83 -3206.09 -3121.62 -3225.86 -3228.34 -3175.38 -3188.85 -3139.56 -3081.80 -3111.65 -3195.36 -3524.42 -3857.31 -4152.83 -4311.09 -4380.01 -4409.79 -4554.61 -4894.56 -5052.05 -5268.17 -5753.09 -5813.32 -6048.03 -6222.44 -6362.26 -6573.45 -6507.22 -6549.91 -6462.64 -6209.89 -5746.53 -5477.63 -5363.89 -5549.62 -5918.14 -5970.81 -5977.61 -5932.03 -5941.86 -5880.24 -5886.22 -5964.85 -6120.87 -6208.69 -6418.11 -6737.13 -6792.90 -7475.16 -7826.60 -8226.95 -8352.44 -7968.74 -7304.59 -6533.76 -6130.60 -5533.63 -5155.42 -4744.00 -4680.26 -4453.28 -4248.58 -4160.70 -4164.83 -4206.41 -4222.40 -4362.39 -4805.91 -5259.12 -5579.39 -6088.28 -6201.61 -6429.44 -6500.30 -5895.45 -5081.17 -4371.01 -4235.77 -4220.93 -4240.25 -4231.74 -4134.39 -4010.25 -4010.22
-592.87 -599.42 -606.04 -584.69 -575.57 -533.92 -496.78 -448.46 -426.85 -341.18 -313.34 -264.13 -230.20 -192.53 -159.48 -137.84 -111.86 -44.18 -27.90 -22.35 2.80 22.40 15.06 17.77 7.83 -76.90 -161.08 -203.49 -255.69 -347.52 -498.38 -1729.34 -2336.56 -2933.33 -2900.58 -2556.44 -2291.59 -2372.75 -2471.62 -2513.37 -2357.71 -2289.65 -2447.77 -2621.73 -3190.50 -3571.59 -3713.17 -3709.71 -3704.13 -3647.70 -3621.01 -3623.86 -3038.91 -2014.99 -1845.19 -2025.01 -2797.91 -2837.07 -3031.06 -2721.63 -2515.20 -2470.79 -2838.48 -2824.74 -2792.89 -2773.38 -2894.98 -3067.34 -3414.25 -3604.37 -3875.59 -4126.29 -4274.81 -4583.70 -4729.45 -4958.17 -5057.79 -5548.52 -5833.00 -6007.96 -6067.71 -6052.46 -5972.34 -6203.73 -6039.97 -6094.92 -6037.09 -5867.38 -5562.44 -5335.86 -5266.51 -5219.03 -5663.42 -5834.49 -5904.04 -5985.20 -5902.70 -5854.48 -5738.42 -5874.87 -6082.03 -6301.55 -6663.52 -6822.08 -7198.49 -7339.64 -7853.31 -7880.49 -7449.23 -7491.70 -6800.90 -6345.25 -5891.43 -5045.21 -4937.03 -4344.27 -4102.51 -4010.25 -3742.94 -3848.34 -3538.19 -3796.36 -3847.33 -3952.09 -4426.84 -4569.76 -5088.61 -5362.75 -5516.05 -5948.83 -5828.18 -5701.96 -5137.81 -4516.88 -4284.83 -4301.10 -4290.65 -4257.16 -4201.12 -4060.30 -4060.44
-528.30 -528.27 -526.51 -531.57 -534.65 -522.12 -487.76 -463.12 -439.86 -386.83 -335.85 -284.10 -255.64 -244.73 -191.79 -162.53 -152.00 -105.87 -78.99 -47.99 -4.64 5.48 3.31 -12.62 -17.11 -112.54 -150.60 -204.33 -250.20 -322.17 -463.72 -1022.93 -2184.83 -2823.94 -2693.33 -2241.98 -2125.42 -2004.08 -2163.60 -1976.54 -1946.79 -1566.27 -1872.78 -2117.51 -2706.38 -3321.98 -3654.83 -3651.82 -3621.04 -3443.90 -3345.24 -2809.21 -2479.55 -1531.79 -1122.37 -1458.68 -2031.67 -2095.97 -2025.82 -1722.34 -2025.46 -1993.84 -2431.76 -2620.84 -2607.25 -2609.75 -2777.67 -3010.54 -3170.17 -3070.99 -3490.01 -3751.58 -4220.78 -4625.57 -4888.00 -5032.16 -5031.52 -5059.79 -5377.76 -5193.13 -5144.51 -5011.23 -4974.55 -4685.41 -4739.34 -4536.90 -4920.03 -4943.96 -4871.93 -4827.14 -4840.18 -4926.80 -5152.58 -5210.89 -5113.66 -5343.86 -5127.26 -5180.80 -5214.03 -5389.44 -5689.26 -5612.29 -5944.99 -6473.63 -6656.96 -6821.58 -6942.58 -7136.24 -6478.92 -6113.31 -5812.11 -5384.88 -4678.70 -4345.97 -3827.67 -3376.51 -3428.91 -3449.48 -3158.37 -3101.03 -3198.70 -3047.59 -3151.75 -3319.61 -3264.97 -3656.29 -3749.97 -4602.75 -4509.23 -4720.12 -4953.67 -4745.93 -4677.97 -4397.24 -4322.99 -4321.99 -4307.02 -4276.57 -4242.67 -4204.05 -4204.21
-476.04 -475.99 -496.53 -521.94 -517.06 -496.47 -487.51 -464.89 -439.99 -409.55 -355.16 -333.47 -287.66 -267.62 -236.77 -226.01 -193.44 -165.64 -133.47 -78.63 -50.34 -31.98 -31.44 -55.86 -68.90 -93.25 -140.83 -190.35 -255.66 -298.27 -404.69 -901.45 -2080.01 -2543.68 -2363.92 -2044.74 -1521.96 -1464.33 -1419.94 -1369.38 -1091.76 -1233.09 -1518.52 -1675.29 -2116.76 -2968.56 -3210.30 -3139.11 -3206.80 -2942.14 -2821.53 -2573.13 -1892.64 -933.64 -656.72 -960.90 -1297.70 -1285.69 -1312.84 -1124.74 -1120.66 -1765.42 -2525.62 -3001.62 -3034.90 -3099.56 -3194.17 -3254.76 -3143.10 -3270.50 -3547.76 -3765.12 -4296.80 -4531.31 -4632.17 -4670.79 -4678.48 -4645.02 -4329.27 -4411.98 -4110.28 -3697.51 -3778.71 -3568.08 -3858.24 -3856.62 -3744.75 -3637.14 -3997.83 -3965.98 -4057.10 -4182.24 -4226.35 -4276.86 -4376.22 -4473.67 -4656.36 -4589.65 -4728.19 -4957.24 -5144.99 -4989.19 -4949.87 -5174.01 -5498.08 -5440.43 -5480.42 -5232.67 -5188.33 -4941.12 -4755.12 -4319.83 -3852.18 -3458.38 -3215.13 -2813.19 -2737.37 -2596.86 -2607.90 -2523.38 -2510.70 -2509.57 -2510.49 -2537.67 -2630.88 -2933.46 -3090.69 -3358.57 -3503.32 -3915.90 -4087.06 -4356.62 -4350.20 -4310.56 -4312.10 -4310.14 -4298.89 -4270.17 -4266.12 -4252.44 -4252.53
-448.81 -448.75 -462.50 -486.55 -500.96 -504.26 -497.82 -478.42 -446.91 -425.21 -382.91 -371.83 -333.12 -299.86 -287.92 -260.46 -255.86 -214.01 -160.76 -137.28 -81.61 -56.18 -45.94 -43.98 -61.77 -65.25 -131.94 -153.31 -231.50 -364.24 -456.63 -575.61 -1502.19 -1832.27 -2188.25 -2097.23 -1559.56 -1229.28 -1058.21 -923.34 -793.30 -896.67 -985.17 -1252.82 -1505.41 -1633.66 -1668.61 -2289.94 -2383.63 -2504.17 -2561.05 -2250.35 -1707.14 -733.41 -429.13 -618.04 -907.03 -1186.16 -1376.61 -1543.03 -1378.67 -1937.50 -2803.06 -3322.88 -3517.57 -3742.45 -3755.00 -3513.84 -3559.12 -3533.84 -4198.16 -4401.85 -4493.50 -4510.01 -4488.55 -4403.48 -4273.95 -4079.30 -3960.87 -3743.44 -3660.56 -3599.50 -3453.89 -3400.95 -3389.85 -3451.91 -3303.30 -3354.29 -3495.69 -3638.21 -3800.23 -3883.48 -3930.60 -3962.68 -4121.83 -4253.84 -4439.60 -4487.31 -4553.65 -4690.37 -4904.43 -4743.56 -4612.54 -4809.55 -5034.62 -5135.56 -5032.73 -4895.65 -4715.72 -4523.97 -4276.65 -3878.13 -3563.86 -3265.32 -2950.17 -2700.85 -2507.76 -2390.10 -2330.32 -2310.19 -2347.26 -2388.68 -2420.14 -2463.06 -2525.35 -2686.93 -2841.40 -3011.60 -3294.60 -3504.41 -3911.21 -3970.79 -4211.91 -4256.09 -4279.63 -4278.48 -4270.95 -4258.89 -4240.52 -4236.38 -4236.44
-446.07 -447.00 -463.79 -482.61 -504.85 -514.43 -507.13 -496.13 -490.62 -477.23 -450.69 -401.95 -364.80 -339.87 -324.37 -308.59 -268.61 -259.86 -194.44 -176.00 -128.79 -89.32 -25.49 -7.21 -7.95 -22.10 -92.75 -108.87 -248.27 -372.02 -442.12 -601.59 -1013.32 -1605.34 -2075.58 -2413.18 -2212.24 -1524.57 -1300.24 -928.61 -892.28 -1091.84 -1103.70 -1162.00 -1462.60 -1352.63 -1292.44 -1528.09 -1900.99 -2044.15 -2235.74 -2091.79 -1481.98 -856.80 -402.40 -735.47 -1172.50 -1666.57 -1919.00 -2260.91 -2703.32 -2649.65 -3137.92 -3601.95 -3769.37 -3863.70 -3854.49 -3704.06 -3710.01 -4039.20 -4341.06 -4475.31 -4491.78 -4464.42 -4426.31 -4343.97 -4273.61 -4173.85 -4033.98 -3909.77 -3822.39 -3676.07 -3545.83 -3388.14 -3277.67 -3251.50 -3272.78 -3407.52 -3527.65 -3740.41 -3868.72 -4031.52 -4044.03 -4146.31 -4257.50 -4393.33 -4448.53 -4484.19 -4543.74 -4706.15 -4861.59 -4744.60 -4621.85 -4801.06 -5013.13 -5048.29 -4971.05 -4832.33 -4567.07 -4308.48 -4074.16 -3766.70 -3538.19 -3260.85 -2983.69 -2727.50 -2520.86 -2389.53 -2324.42 -2334.55 -2371.35 -2435.24 -2462.70 -2541.26 -2568.77 -2700.96 -2777.85 -3005.34 -3202.43 -3527.49 -3761.47 -3913.62 -4054.86 -4177.81 -4225.21 -4240.71 -4233.33 -4224.85 -4209.08 -4207.81 -4207.87
-460.67 -460.59 -470.65 -497.45 -506.99 -517.27 -514.86 -514.76 -509.38 -498.18 -477.69 -462.42 -421.34 -394.46 -367.03 -347.89 -320.58 -306.22 -262.78 -221.99 -169.58 -90.99 -36.79 5.84 20.58 13.30 5.12 -69.40 -147.77 -303.89 -405.09 -461.90 -717.85 -1384.25 -2126.17 -2936.43 -3139.55 -2565.55 -1959.40 -1668.48 -1646.06 -1861.68 -2326.57 -2475.61 -2307.49 -1940.34 -1931.88 -1718.69 -1689.68 -1926.65 -2078.53 -2131.68 -1636.08 -1318.81 -579.45 -799.96 -1361.76 -2488.28 -3022.67 -3262.42 -3256.75 -3437.81 -3576.43 -3835.65 -3827.24 -3841.35 -3921.78 -3886.37 -3913.46 -4204.98 -4348.08 -4416.94 -4430.43 -4437.96 -4439.52 -4442.15 -4376.92 -4422.31 -4259.80 -4195.09 -4085.88 -3925.82 -3696.53 -3433.53 -3229.16 -3173.83 -3283.85 -3549.63 -3694.73 -4071.32 -4179.03 -4269.17 -4323.64 -4410.60 -4417.40 -4467.15 -4474.15 -4475.71 -4510.44 -4663.86 -4755.57 -4710.70 -4669.38 -4861.70 -5046.50 -5098.48 -5029.90 -4827.92 -4566.74 -4228.12 -4066.44 -3667.85 -3505.02 -3169.68 -2994.96 -2766.14 -2608.63 -2483.34 -2462.47 -2442.23 -2440.62 -2485.94 -2545.95 -2607.55 -2688.83 -2710.48 -2858.02 -3080.88 -3281.55 -3513.09 -3721.08 -3934.57 -4027.56 -4130.09 -4200.55 -4213.68 -4217.52 -4193.66 -4180.68 -4173.92 -4173.97
-477.20 -477.11 -486.31 -502.75 -518.94 -527.82 -541.92 -536.04 -534.67 -523.27 -513.64 -493.22 -467.65 -456.25 -410.03 -397.68 -354.99 -326.89 -289.47 -248.17 -220.09 -184.06 -87.95 -2.60 22.25 34.64 16.99 -13.35 -112.65 -218.31 -318.07 -345.75 -557.66 -1612.70 -2682.01 -4162.31 -3934.36 -3946.03 -3535.66 -3148.59 -2648.72 -4001.75 -3954.66 -4224.34 -4050.20 -3819.26 -3041.17 -2575.32 -2023.51 -1902.99 -2040.22 -2153.51 -2045.17 -1479.34 -1142.53 -1246.56 -2006.17 -2958.74 -3751.89 -3786.46 -3735.32 -3827.27 -4002.00 -4059.75 -3915.86 -3885.97 -4062.62 -4133.26 -4200.60 -4293.45 -4438.58 -4466.40 -4458.29 -4468.47 -4562.26 -4567.34 -4589.57 -4531.10 -4527.73 -4437.36 -4330.19 -4104.29 -3777.49 -3424.57 -3193.95 -3115.04 -3427.15 -3631.88 -4093.10 -4269.30 -4386.44 -4408.34 -4495.32 -4512.94 -4532.99 -4516.86 -4493.89 -4467.42 -4510.84 -4581.36 -4570.12 -4564.60 -4663.92 -4941.13 -5108.77 -5109.32 -5002.26 -4768.95 -4560.16 -4110.60 -3945.72 -3739.48 -3355.50 -3221.92 -2976.89 -2801.80 -2705.15 -2577.86 -2536.58 -2549.62 -2578.19 -2642.42 -2654.84 -2717.66 -2761.50 -2794.47 -2941.21 -3101.82 -3325.17 -3560.53 -3735.83 -3867.67 -4017.28 -4136.82 -4177.90 -4212.76 -4207.21 -4175.32 -4157.55 -4136.44 -4132.43
-491.66 -491.57 -497.56 -522.22 -527.79 -538.51 -550.15 -554.48 -550.74 -550.77 -550.33 -539.11 -513.28 -509.22 -468.88 -447.14 -416.49 -375.73 -358.62 -308.86 -265.47 -210.07 -99.20 -38.71 15.17 37.98 18.94 -13.44 -106.85 -200.36 -270.04 -343.12 -578.41 -1853.29 -2889.40 -4355.98 -4714.63 -4553.44 -4669.93 -4575.70 -4906.92 -5029.20 -5035.52 -5025.02 -4829.33 -4739.94 -4189.52 -3105.53 -2332.22 -1973.28 -2073.21 -2213.94 -2214.17 -1893.75 -1818.21 -1486.19 -2405.43 -3367.72 -3837.67 -4000.45 -4042.02 -3993.45 -4025.93 -4031.13 -3925.75 -3975.95 -4078.23 -4281.59 -4380.67 -4495.07 -4556.53 -4520.90 -4553.34 -4594.42 -4645.45 -4653.75 -4684.93 -4691.92 -4645.25 -4564.66 -4491.67 -4122.03 -3883.00 -3445.31 -3204.51 -3112.89 -3359.72 -3776.99 -4223.21 -4407.62 -4491.31 -4548.25 -4580.47 -4589.92 -4571.99 -4553.06 -4494.38 -4464.40 -4472.44 -4487.13 -4450.93 -4449.12 -4657.11 -5059.56 -5126.57 -5096.45 -4986.20 -4741.13 -4537.23 -4217.55 -4009.89 -3738.10 -3467.82 -3224.74 -3019.98 -2876.63 -2725.31 -2706.39 -2643.93 -2646.40 -2657.85 -2713.71 -2739.75 -2805.37 -2836.38 -2879.13 -2989.69 -3193.26 -3350.06 -3560.78 -3686.20 -3899.43 -3986.79 -4099.01 -4186.78 -4217.14 -4211.50 -4160.96 -4114.83 -4085.69 -4085.74
-504.07 -503.99 -512.63 -521.97 -541.85 -552.88 -568.09 -571.43 -578.23 -574.93 -570.33 -568.28 -547.37 -532.48 -520.36 -485.09 -474.92 -456.95 -377.65 -356.51 -291.73 -249.09 -158.99 -84.72 -23.31 11.13 19.88 0.75 -49.54 -164.89 -222.38 -325.51 -542.11 -2114.14 -3317.94 -4683.58 -5005.62 -5175.17 -5293.69 -5413.21 -5468.79 -5525.41 -5556.84 -5510.63 -5378.61 -5160.42 -4729.10 -3678.90 -2698.93 -2128.52 -2099.01 -2245.97 -2436.93 -2486.73 -2159.51 -2408.82 -3193.56 -3614.00 -3902.33 -4065.60 -4073.88 -3965.55 -3905.30 -3910.66 -3888.56 -4000.58 -4202.68 -4410.61 -4539.64 -4586.23 -4646.25 -4636.96 -4665.49 -4727.98 -4784.76 -4816.74 -4751.13 -4771.57 -4713.36 -4622.33 -4538.94 -4219.41 -3906.50 -3452.34 -3197.40 -3064.76 -3392.73 -3899.81 -4271.83 -4461.26 -4567.93 -4575.37 -4596.32 -4631.63 -4624.95 -4568.12 -4511.03 -4448.64 -4455.95 -4468.63 -4446.57 -4431.82 -4850.84 -5043.65 -5106.47 -4972.73 -4873.56 -4723.96 -4512.83 -4322.49 -4042.29 -3809.21 -3516.63 -3288.53 -3075.38 -2931.41 -2846.32 -2757.66 -2747.66 -2836.15 -2866.14 -2868.14 -2866.98 -2889.46 -2969.47 -3087.69 -3203.12 -3346.48 -3445.59 -3594.23 -3717.08 -3867.58 -3961.72 -4119.17 -4189.20 -4226.40 -4200.50 -4155.88 -4096.38 -4060.27 -4055.95
-515.65 -515.56 -525.51 -538.49 -551.93 -570.99 -579.95 -589.03 -593.97 -602.14 -604.29 -608.99 -588.42 -575.45 -562.77 -554.23 -546.48 -498.77 -463.24 -408.83 -382.56 -305.15 -254.06 -173.65 -60.68 -9.68 14.79 -18.49 -47.97 -159.86 -227.54 -291.80 -415.91 -1716.61 -3475.13 -4491.58 -4751.61 -5174.12 -5366.62 -5552.92 -5605.21 -5607.97 -5578.05 -5519.70 -5347.24 -5229.59 -4718.80 -4247.73 -3017.64 -2267.44 -2122.35 -2224.00 -2494.62 -2645.86 -2652.15 -3157.24 -3597.35 -4220.15 -4223.76 -4211.18 -4196.77 -4000.38 -3979.67 -3915.72 -3915.53 -4032.78 -4204.98 -4430.88 -4602.75 -4735.48 -4791.40 -4827.85 -4823.07 -4895.77 -4903.75 -4914.17 -4895.07 -4850.98 -4782.61 -4698.05 -4603.63 -4372.41 -4223.02 -3333.17 -3087.24 -3001.66 -3409.72 -3893.29 -4216.95 -4422.60 -4543.85 -4579.88 -4591.94 -4629.72 -4625.01 -4587.02 -4490.34 -4413.39 -4404.69 -4402.29 -4478.61 -4552.80 -4904.95 -4983.46 -4992.31 -4882.37 -4805.37 -4646.46 -4492.98 -4375.86 -4135.31 -3901.79 -3635.81 -3351.33 -3088.36 -2981.59 -2946.89 -2932.08 -2895.52 -2917.99 -2935.70 -2909.84 -2955.42 -3051.99 -3230.51 -3257.99 -3415.60 -3489.24 -3475.52 -3635.01 -3709.76 -3816.71 -4024.71 -4134.53 -4221.89 -4254.91 -4219.49 -4175.61 -4121.72 -4071.13 -4071.23
-527.04 -526.95 -535.63 -546.59 -563.36 -578.83 -589.47 -601.77 -612.37 -616.64 -624.67 -623.03 -611.23 -605.61 -599.30 -591.61 -593.78 -582.19 -542.29 -487.11 -423.23 -363.84 -271.50 -202.43 -87.38 -33.27 -1.70 -35.55 -92.57 -152.07 -203.73 -325.86 -406.05 -1256.97 -3172.92 -3990.14 -4543.94 -5051.22 -5233.64 -5420.18 -5487.99 -5509.88 -5491.21 -5417.47 -5368.58 -5315.74 -4776.65 -4367.63 -3040.84 -2289.49 -2148.64 -2244.65 -2366.64 -2699.86 -3100.87 -4008.95 -4540.60 -4845.99 -4761.02 -4591.20 -4404.92 -4152.27 -4088.90 -4014.25 -3937.15 -4021.58 -4181.17 -4318.36 -4647.22 -4859.97 -5020.11 -4988.03 -5025.47 -5015.51 -5030.26 -5019.76 -4957.94 -4882.19 -4818.12 -4729.62 -4585.00 -4434.43 -4002.04 -3481.29 -3068.79 -3038.23 -3350.81 -3761.81 -4041.21 -4289.34 -4508.12 -4527.71 -4542.08 -4582.64 -4588.72 -4541.58 -4442.18 -4360.01 -4246.53 -4235.92 -4342.59 -4641.39 -4757.59 -4773.21 -4712.02 -4754.52 -4631.88 -4597.40 -4549.09 -4471.27 -4264.27 -3992.79 -3643.07 -3385.89 -3166.56 -3090.76 -3110.10 -3138.31 -3075.05 -3002.70 -2980.76 -2950.44 -2994.91 -3132.40 -3351.26 -3491.59 -3558.27 -3573.43 -3564.04 -3598.88 -3655.19 -3788.52 -3985.65 -4136.25 -4236.34 -4264.00 -4244.24 -4209.67 -4163.81 -4127.68 -4127.82
-539.92 -539.82 -550.41 -556.40 -577.39 -587.43 -601.23 -611.61 -618.71 -636.08 -647.93 -654.31 -653.93 -655.94 -649.45 -624.05 -623.47 -616.67 -575.83 -517.35 -458.02 -401.96 -332.04 -270.73 -145.08 -83.04 -27.63 -92.47 -137.64 -192.90 -289.17 -413.63 -629.55 -1231.78 -2155.00 -3554.93 -4105.00 -4435.07 -4802.26 -5131.79 -5367.44 -5414.88 -5433.37 -5406.49 -5358.90 -5308.99 -4986.39 -4593.25 -3137.32 -2369.61 -2148.14 -2158.44 -2280.65 -2700.46 -3319.44 -4421.89 -5196.38 -5253.43 -5151.22 -4962.25 -4734.26 -4527.23 -4365.29 -4064.45 -3876.51 -3995.37 -4091.51 -4225.66 -4447.97 -5001.39 -5094.37 -5127.29 -5081.43 -5060.62 -5064.45 -5040.03 -4994.02 -4874.60 -4797.06 -4740.64 -4682.63 -4569.85 -4139.26 -3620.73 -3202.95 -3074.98 -3189.98 -3568.92 -3876.61 -4225.44 -4268.96 -4420.88 -4477.68 -4462.77 -4483.04 -4476.75 -4356.36 -4279.06 -4107.17 -4077.94 -4224.33 -4469.50 -4588.01 -4536.02 -4452.77 -4423.78 -4536.89 -4622.03 -4652.67 -4565.30 -4305.17 -4102.97 -3729.85 -3473.75 -3248.55 -3219.80 -3279.04 -3299.52 -3237.01 -3089.22 -3040.65 -2977.93 -3016.35 -3199.36 -3492.03 -3625.16 -3706.49 -3646.12 -3606.62 -3569.84 -3616.25 -3758.91 -3941.85 -4120.38 -4247.82 -4291.71 -4302.89 -4258.58 -4237.87 -4219.73 -4221.83
-553.15 -553.06 -559.49 -576.79 -592.24 -601.34 -611.90 -618.91 -633.24 -653.97 -663.32 -677.09 -683.11 -680.05 -682.76 -672.67 -666.93 -674.96 -665.89 -588.64 -511.22 -466.83 -431.76 -361.35 -247.83 -175.26 -140.04 -106.60 -150.76 -181.99 -302.23 -423.47 -518.27 -764.07 -1472.23 -2721.94 -2845.18 -3503.04 -4332.48 -4847.57 -5056.77 -5310.41 -5358.93 -5379.82 -5359.52 -5328.39 -5168.38 -4152.82 -3623.05 -2471.95 -2217.87 -2272.86 -2536.45 -2919.89 -4470.30 -4961.59 -5618.37 -5502.99 -5347.08 -5194.04 -4954.48 -4834.71 -4606.80 -4193.99 -3891.65 -3954.15 -4036.30 -4146.99 -4439.88 -4894.63 -5071.87 -5080.29 -5040.14 -5049.19 -5058.28 -5018.02 -4967.85 -4862.33 -4794.21 -4739.09 -4670.96 -4533.38 -4199.22 -3715.53 -3313.81 -3048.00 -3044.49 -3277.89 -3695.84 -4008.04 -4238.78 -4311.62 -4379.59 -4368.89 -4356.10 -4351.90 -4309.22 -4218.45 -3997.43 -3844.87 -4009.90 -4298.20 -4329.27 -4323.26 -4309.50 -4452.69 -4565.50 -4717.86 -4708.54 -4599.44 -4293.76 -4072.87 -3818.82 -3532.26 -3471.57 -3414.03 -3527.68 -3509.05 -3451.74 -3263.86 -3131.94 -3027.03 -3122.27 -3228.64 -3605.11 -3717.95 -3767.73 -3746.89 -3661.92 -3595.11 -3615.18 -3834.25 -3973.45 -4110.20 -4267.70 -4331.78 -4353.13 -4343.15 -4336.35 -4346.18 -4349.71
