-11182.38 -11173.27 -10522.48 -10042.14 -9901.51 -9900.95 -9971.52 -10134.16 -10368.10 -10528.74 -10584.28 -10598.11 -10648.11 -10720.89 -10722.19 -10634.55 -10543.03 -10495.46 -10486.95 -10466.36 -10432.56 -10414.41 -10393.83 -10358.18 -10343.23 -10364.96 -10378.67 -10403.51 -10446.83 -10423.90 -10384.08 -10443.46 -10529.45 -10573.78 -10676.40 -10899.64 -11151.41 -11221.61 -11215.85 -11191.77 -11148.96 -11052.98 -10944.58 -10916.88 -10971.27 -11003.24 -11004.52 -11021.73 -11130.46 -11406.23 -11746.46 -12028.57 -12255.40 -12373.37 -12347.54 -12194.76 -11990.60 -11848.71 -11706.39 -11552.15 -11439.51 -11369.66 -11302.84 -11215.11 -11145.29 -11092.27 -11060.67 -10995.49 -10858.12 -10722.41 -10653.01 -10627.81 -10545.13 -10427.39 -10468.86 -10639.69 -10939.15 -11337.29 -11577.35 -11623.48 -11612.14 -11610.69 -11639.12 -11741.75 -11979.34 -12165.07 -11746.92 -10169.57 -8858.97 -8434.72 -8073.51 -7924.23 -8045.23 -8244.43 -8493.76 -9010.27 -8543.48 -4414.18 248.30 2998.58 5177.09 7109.99 8169.88 3577.72 -1962.82 -7806.47 -9812.65 -9305.66 -8663.95 -8195.69 -7868.59 -7435.56 -6950.42 -6332.75 -5543.04 -4804.59 -4004.72 -2799.11 -1301.90 -105.85 209.95 262.11 273.98 272.78 256.79 183.35 -78.32 -1067.18 -1200.77 -1054.68 -908.19 -752.02 -579.42 -446.65 -369.38 -315.17 -288.01 -370.39 -593.46 -828.26 -831.52
-11186.84 -11174.95 -10520.60 -10041.69 -9901.41 -9900.95 -9982.39 -10134.32 -10368.17 -10528.71 -10599.66 -10598.07 -10648.09 -10720.83 -10724.23 -10634.41 -10542.92 -10495.39 -10486.87 -10475.84 -10432.48 -10414.33 -10393.74 -10374.49 -10343.18 -10364.90 -10378.61 -10403.50 -10446.77 -10423.77 -10384.05 -10461.35 -10529.43 -10573.76 -10676.50 -10926.87 -11151.21 -11221.54 -11215.80 -11191.73 -11148.94 -11077.01 -10944.60 -10916.81 -10971.15 -10986.73 -11004.46 -11010.99 -11110.75 -11376.71 -11746.15 -12028.31 -12255.18 -12373.24 -12342.14 -12194.80 -11990.67 -11848.72 -11705.32 -11552.19 -11433.30 -11369.64 -11302.82 -11215.12 -11145.28 -11092.25 -11060.64 -10995.56 -10858.53 -10721.83 -10653.57 -10627.67 -10544.59 -10427.38 -10469.06 -10640.01 -10939.55 -11337.47 -11577.31 -11623.39 -11612.05 -11610.63 -11639.10 -11741.84 -11979.44 -12164.90 -11745.77 -10013.20 -8858.61 -8434.37 -8073.28 -7924.23 -8043.71 -8244.51 -8494.00 -9010.86 -8540.63 -4409.48 250.53 3001.22 5177.62 7113.88 7614.38 3573.95 -1969.19 -8462.67 -9812.77 -9306.21 -8664.42 -8195.96 -7949.14 -7435.92 -6950.75 -6333.25 -5543.65 -4805.08 -4077.69 -2800.07 -1303.00 -164.04 209.97 262.32 274.05 272.85 256.88 195.51 -78.04 -914.98 -1200.73 -1029.51 -908.22 -752.07 -579.50 -446.69 -370.11 -315.16 -287.97 -370.08 -592.54 -840.09 -841.55
-11480.24 -11480.90 -10915.60 -10328.36 -10043.70 -10030.42 -10119.66 -10242.10 -10437.58 -10613.78 -10696.06 -10753.44 -10826.54 -10832.85 -10804.67 -10711.01 -10638.41 -10578.47 -10563.99 -10557.82 -10530.11 -10521.18 -10510.18 -10492.43 -10475.57 -10483.46 -10483.57 -10458.54 -10494.73 -10492.81 -10484.89 -10497.97 -10580.29 -10620.69 -10785.04 -10957.76 -11155.12 -11275.25 -11318.82 -11281.12 -11199.46 -11132.38 -11015.79 -10879.11 -10893.69 -10914.61 -10960.49 -10984.78 -11106.20 -11375.06 -11751.29 -11976.18 -12121.26 -12257.78 -12243.75 -12092.70 -11923.31 -11756.15 -11632.09 -11472.98 -11355.25 -11255.52 -11188.63 -11120.50 -11050.08 -11009.46 -10947.80 -10897.82 -10809.94 -10690.28 -10634.90 -10594.80 -10507.43 -10445.49 -10493.33 -10638.96 -10800.41 -11405.95 -11545.16 -11655.74 -11668.62 -11661.57 -11670.62 -11770.15 -11937.66 -12051.66 -11458.12 -9713.19 -9033.40 -8579.96 -8118.39 -7914.74 -7959.95 -8071.37 -8457.16 -9011.32 -7070.96 -3770.87 -249.95 1032.00 3092.24 4118.45 6692.90 6155.53 1184.13 -3956.70 -5054.01 -10030.73 -9072.00 -8486.61 -8162.31 -7786.04 -7115.56 -6567.43 -5852.13 -4852.85 -4069.68 -2586.42 -1177.76 -63.26 260.25 278.10 284.29 280.30 264.34 248.89 19.62 -278.14 -914.27 -805.76 -655.15 -597.64 -533.76 -433.37 -400.41 -462.82 -635.09 -997.59 -1160.02 -1506.49 -1504.58
-11742.52 -11742.74 -11199.57 -10766.31 -10402.31 -10147.98 -10258.81 -10385.46 -10564.76 -10737.52 -10813.33 -10873.06 -10943.31 -10989.12 -10895.86 -10777.56 -10704.38 -10640.25 -10621.46 -10612.47 -10633.05 -10604.62 -10631.96 -10636.01 -10647.71 -10646.30 -10582.37 -10546.94 -10545.46 -10547.00 -10526.09 -10548.38 -10608.92 -10681.95 -10896.40 -11034.82 -11201.02 -11370.85 -11414.76 -11383.99 -11282.10 -11182.85 -11097.47 -10883.24 -10845.83 -10869.78 -10947.86 -10978.07 -11103.12 -11485.81 -11742.62 -11922.64 -12016.25 -12128.77 -12126.48 -12009.96 -11824.69 -11693.54 -11500.02 -11354.74 -11263.43 -11213.69 -11156.59 -11079.58 -11003.38 -10954.27 -10887.07 -10839.16 -10723.51 -10683.40 -10580.68 -10537.02 -10481.61 -10435.27 -10472.11 -10640.19 -10808.54 -11325.59 -11624.59 -11744.30 -11743.70 -11699.61 -11708.38 -11819.25 -11970.25 -11929.10 -10855.37 -9791.09 -8907.59 -8494.22 -8135.26 -7898.71 -7811.69 -7916.03 -8345.84 -9557.57 -7083.03 -1726.72 -96.16 942.24 2391.44 5537.24 5847.76 4628.75 1470.43 -627.89 -3733.79 -8459.61 -9573.90 -8820.93 -8398.56 -7652.68 -7263.35 -6962.79 -6311.83 -5109.89 -4238.95 -3039.74 -1309.11 98.02 272.23 290.78 301.85 289.41 277.34 253.64 201.06 108.77 -211.45 -231.30 -395.42 -311.64 -455.65 -605.21 -622.05 -884.05 -1037.44 -1429.53 -1872.66 -2203.74 -2203.27
-11908.24 -11902.58 -11652.39 -11193.96 -10642.47 -10571.19 -10398.45 -10501.66 -10644.47 -10790.25 -10877.07 -10981.38 -11047.03 -11046.54 -11008.90 -10881.26 -10787.56 -10725.14 -10734.83 -10744.57 -10737.74 -10744.45 -10749.79 -10774.04 -10816.11 -10766.45 -10685.75 -10654.63 -10683.53 -10677.91 -10657.89 -10663.30 -10730.04 -10767.34 -10967.55 -11182.53 -11372.13 -11428.39 -11486.32 -11469.07 -11397.25 -11262.99 -11109.54 -10973.48 -10916.85 -11049.41 -11032.00 -11049.01 -11216.47 -11684.44 -11913.98 -12046.86 -11970.45 -12008.57 -12005.66 -11942.89 -11735.78 -11626.10 -11476.98 -11359.91 -11266.80 -11219.99 -11156.69 -11113.43 -11010.14 -10928.84 -10899.57 -10822.71 -10744.69 -10672.64 -10566.58 -10538.70 -10473.77 -10459.03 -10474.86 -10677.43 -10939.80 -11434.17 -11803.64 -11815.09 -11773.88 -11740.17 -11750.16 -11851.87 -11973.54 -11605.33 -10308.12 -9651.59 -8600.08 -8482.22 -8040.29 -7890.11 -7718.65 -7847.36 -8212.30 -9489.06 -7717.13 -3539.17 -110.88 473.96 3561.54 7184.31 7459.41 2507.60 975.32 315.77 -2331.35 -6031.59 -9807.18 -9150.34 -8545.78 -7909.75 -7446.30 -7117.48 -6750.64 -6256.96 -5155.13 -3704.17 -1584.40 -191.16 190.24 292.15 301.13 297.17 278.83 253.73 232.66 208.30 110.50 152.68 104.10 -14.89 -264.22 -695.00 -1076.31 -1274.68 -1553.49 -1989.56 -2150.46 -2456.94 -2472.86
-12052.38 -12056.32 -11984.94 -11770.92 -10960.81 -10932.73 -10551.40 -10614.58 -10757.87 -10898.11 -10934.62 -11028.48 -11096.29 -11117.96 -11094.07 -11022.60 -10933.24 -10848.58 -10863.94 -10895.82 -10863.52 -10856.77 -10843.87 -10904.64 -10930.45 -10927.33 -10910.68 -10841.88 -10831.31 -10889.12 -10858.28 -10867.40 -10846.37 -11005.74 -11109.36 -11320.50 -11520.74 -11558.05 -11595.64 -11551.68 -11466.86 -11351.51 -11371.81 -11335.45 -11246.40 -11195.39 -11195.34 -11266.59 -11499.07 -11730.56 -12085.99 -12141.57 -12034.32 -12000.35 -11966.02 -11878.06 -11703.47 -11611.09 -11426.19 -11382.85 -11352.17 -11384.35 -11369.95 -11238.57 -11196.65 -11108.32 -11034.62 -10933.27 -10862.98 -10772.00 -10772.46 -10677.54 -10686.94 -10587.37 -10585.31 -10669.05 -11040.60 -11393.47 -11759.41 -11837.96 -11781.85 -11767.72 -11806.65 -11855.75 -11768.01 -11006.40 -10383.95 -8707.24 -8365.34 -8224.70 -8056.40 -7862.36 -7790.41 -7942.29 -8352.38 -9629.38 -10027.18 -5959.63 -1398.66 827.77 3297.83 7240.62 7296.22 4268.20 2203.71 -595.06 -5306.52 -9918.12 -10098.32 -9105.80 -8653.03 -8177.53 -7614.29 -7269.78 -7279.06 -6868.46 -5953.57 -4975.98 -3193.39 -1551.91 -328.75 274.80 289.23 278.65 270.14 266.02 242.55 244.18 240.13 228.21 221.03 207.17 69.59 -623.84 -1247.65 -1503.73 -1668.73 -1676.12 -1921.06 -2092.36 -2088.09
-12301.33 -12301.54 -12258.87 -12120.06 -11809.38 -11235.22 -10898.18 -10851.28 -10878.39 -10991.20 -11075.80 -11111.32 -11147.58 -11204.49 -11248.86 -11172.77 -11177.76 -11089.24 -11071.48 -11082.49 -11114.31 -11070.75 -11075.07 -11105.71 -11139.42 -11185.19 -11234.18 -11175.24 -11005.12 -11111.33 -11131.74 -11049.80 -11088.24 -11237.27 -11396.33 -11551.12 -11628.41 -11676.34 -11664.29 -11628.32 -11562.88 -11613.38 -11599.45 -11368.93 -11515.40 -11544.27 -11472.64 -11594.32 -11650.32 -11874.66 -12206.79 -12229.94 -12166.98 -12051.52 -11973.59 -11898.42 -11836.39 -11633.17 -11548.71 -11528.39 -11573.86 -11570.84 -11548.48 -11491.58 -11412.26 -11305.77 -11238.02 -11137.14 -11012.24 -11054.82 -11011.19 -10944.87 -10958.94 -10863.20 -10793.63 -10818.51 -11126.33 -11586.49 -11890.88 -11870.48 -11827.11 -11843.38 -11836.65 -11659.22 -11200.93 -10148.34 -8528.72 -7950.86 -7604.08 -7699.41 -7686.46 -7762.72 -8025.70 -8191.46 -8456.10 -9700.86 -10927.16 -9463.68 -3582.06 79.13 3698.84 6803.18 6620.93 5462.24 2766.12 -584.95 -5017.90 -11146.99 -10069.88 -9544.67 -8868.00 -8450.07 -8064.19 -7764.62 -7616.24 -7381.52 -7290.32 -6053.03 -4942.79 -3203.01 -2282.80 -1271.61 142.11 159.17 160.75 167.11 243.71 254.32 255.68 255.02 243.05 233.97 216.57 167.43 -422.84 -1079.33 -1170.13 -1293.39 -1397.28 -1134.87 -1135.83
-12609.95 -12610.00 -12551.20 -12437.62 -12316.41 -11841.13 -11202.18 -11118.66 -11108.59 -11152.84 -11164.39 -11189.40 -11235.33 -11300.66 -11347.11 -11426.74 -11450.31 -11432.24 -11510.56 -11372.47 -11335.49 -11387.20 -11302.19 -11446.65 -11508.11 -11583.19 -11579.45 -11503.33 -11525.69 -11475.70 -11372.26 -11342.41 -11417.12 -11480.64 -11610.64 -11771.12 -11771.05 -11756.74 -11737.50 -11714.08 -11687.18 -11721.07 -11868.98 -11978.67 -11918.99 -11853.67 -11837.55 -11861.12 -11938.04 -12081.46 -12273.38 -12298.81 -12238.19 -12150.24 -12048.26 -11961.51 -11900.42 -11796.60 -11714.03 -11692.54 -11746.61 -11816.21 -11836.97 -11869.48 -11763.38 -11616.23 -11499.57 -11478.77 -11372.78 -11292.47 -11271.59 -11249.84 -11277.20 -11120.03 -11109.04 -11051.07 -11600.03 -11738.85 -12006.39 -11966.89 -11996.22 -12009.67 -11895.50 -11127.74 -10756.31 -8297.70 -7429.96 -6737.62 -6616.50 -6810.13 -7260.72 -7745.71 -8279.59 -8550.17 -8656.64 -10432.95 -10647.03 -7295.24 -533.77 153.90 1542.58 4086.39 5383.45 4765.32 2358.56 -892.93 -5289.62 -8930.98 -10184.93 -9718.59 -9297.24 -8846.69 -8749.74 -8418.31 -8377.49 -8339.37 -8085.49 -8029.64 -6095.43 -5444.34 -3918.00 -2757.68 -2061.55 -1339.80 -755.23 -262.10 239.69 242.48 251.28 259.96 265.02 253.95 231.24 200.08 -51.60 -320.35 -352.98 -315.27 -62.08 -221.65 -222.05
-12761.05 -12767.08 -12776.48 -12768.64 -12561.71 -12224.41 -11690.11 -11360.17 -11261.70 -11285.21 -11260.37 -11237.96 -11263.19 -11361.99 -11484.44 -11605.18 -11619.97 -11602.60 -11574.83 -11562.78 -11522.21 -11525.07 -11607.83 -11672.77 -11741.30 -11801.14 -11854.64 -11781.74 -11701.93 -11659.05 -11586.83 -11569.25 -11668.87 -11741.81 -11727.53 -11805.45 -11804.30 -11812.22 -11806.70 -11785.02 -11779.10 -11810.81 -11957.71 -12085.74 -12150.61 -12129.50 -12107.29 -12077.74 -12115.70 -12237.49 -12306.96 -12321.68 -12286.34 -12230.65 -12153.34 -12099.54 -12042.26 -11990.79 -11865.46 -11893.71 -11893.18 -11894.50 -11999.91 -12014.03 -11912.03 -11820.67 -11696.17 -11583.77 -11534.38 -11557.03 -11535.92 -11526.06 -11465.76 -11374.78 -11337.53 -11311.78 -11541.21 -11972.50 -12142.93 -12134.79 -12152.38 -12143.96 -11893.11 -10718.80 -9276.82 -7327.88 -6242.43 -6144.16 -6088.47 -6377.94 -6604.90 -7945.32 -8406.77 -8645.73 -9189.95 -9721.49 -10862.38 -5223.32 -762.06 -224.06 1910.59 3954.38 5220.19 4855.96 3070.91 -1334.54 -9792.53 -10998.60 -10351.72 -9806.96 -9392.10 -9192.74 -8948.21 -8823.26 -8800.53 -8746.65 -8647.91 -8087.76 -7122.04 -6027.67 -5233.16 -4234.65 -3622.57 -2904.81 -2139.19 -1085.19 -209.38 233.02 238.10 251.94 250.55 261.18 248.81 234.18 184.58 101.35 49.70 93.49 98.52 147.82 147.70
-12798.26 -12798.25 -12864.95 -12931.56 -12892.47 -12664.16 -12088.45 -11743.92 -11512.21 -11424.26 -11356.04 -11324.07 -11400.86 -11452.55 -11648.45 -11689.71 -11716.37 -11682.04 -11627.01 -11610.37 -11606.95 -11652.91 -11691.67 -11771.44 -11870.31 -11959.27 -11968.07 -11923.05 -11811.77 -11788.85 -11769.45 -11765.18 -11791.21 -11813.97 -11824.38 -11812.27 -11809.78 -11826.40 -11843.44 -11826.26 -11827.21 -11855.12 -12011.07 -12165.16 -12244.93 -12255.98 -12222.72 -12167.83 -12243.02 -12270.30 -12341.23 -12346.23 -12318.75 -12308.89 -12279.92 -12233.17 -12172.89 -12141.19 -12036.56 -12027.59 -12006.20 -12074.66 -12103.34 -12045.00 -11981.15 -11911.62 -11853.33 -11772.54 -11758.24 -11751.82 -11779.14 -11764.11 -11729.08 -11690.46 -11535.94 -11477.84 -11643.92 -11959.08 -12209.92 -12245.97 -12272.66 -12234.26 -11821.61 -11023.29 -9886.72 -6714.95 -5967.69 -5606.66 -5521.76 -5833.25 -6694.26 -7800.05 -8660.82 -8804.61 -9268.55 -9914.57 -10756.21 -8860.38 -2907.45 -246.09 2032.99 4605.75 5679.68 4765.64 2555.14 -1466.85 -5175.49 -9562.37 -10503.11 -9874.57 -9488.97 -9381.82 -9053.91 -9001.02 -8986.70 -8940.04 -8710.65 -8330.34 -7379.57 -6315.84 -5786.56 -5016.00 -4175.60 -3407.14 -2754.47 -2216.32 -851.70 -426.89 31.80 147.34 239.81 247.63 242.57 223.82 189.86 160.07 152.44 180.81 195.14 209.29 209.19
-12900.90 -12914.20 -12990.90 -13050.04 -13031.43 -12932.20 -12486.81 -12067.83 -11893.40 -11627.41 -11527.58 -11496.83 -11475.35 -11602.54 -11712.51 -11784.16 -11773.44 -11687.38 -11644.33 -11618.67 -11654.83 -11716.66 -11777.53 -11853.02 -11945.91 -12000.72 -12040.94 -11993.90 -11885.13 -11834.58 -11828.62 -11827.86 -11834.99 -11847.32 -11843.43 -11817.03 -11827.17 -11844.03 -11870.19 -11876.51 -11871.19 -11925.38 -12045.57 -12227.34 -12299.96 -12299.26 -12251.93 -12251.21 -12281.15 -12310.03 -12387.31 -12392.64 -12344.96 -12330.67 -12307.91 -12276.70 -12239.06 -12198.67 -12162.12 -12139.48 -12153.07 -12172.42 -12124.41 -12087.31 -12059.07 -12002.07 -11937.87 -11927.02 -11882.37 -11908.21 -11899.87 -11927.67 -11903.97 -11796.82 -11715.33 -11653.52 -11736.22 -12097.59 -12296.71 -12368.08 -12346.57 -12351.06 -12300.68 -10194.77 -8914.40 -6298.23 -5503.90 -5374.21 -5494.86 -5844.39 -7005.37 -8147.08 -8563.30 -8899.57 -9082.97 -9733.26 -10588.11 -5717.09 -832.21 117.08 2110.33 3720.51 6476.08 5049.27 3452.46 -1054.54 -5811.92 -11608.30 -10651.92 -9910.38 -9680.07 -9370.53 -9188.06 -9080.54 -9020.97 -8905.72 -8674.22 -8120.31 -7331.32 -6554.72 -5948.27 -5399.42 -4539.07 -3795.17 -3084.81 -2123.52 -1519.81 -831.71 -634.79 -144.39 139.74 224.05 217.98 188.78 160.28 161.02 161.90 196.02 219.14 240.39 240.30
-13072.55 -13072.63 -13075.79 -13174.90 -13229.58 -13254.17 -13132.52 -12377.68 -12002.60 -11862.73 -11699.73 -11668.57 -11682.50 -11707.33 -11850.61 -11907.29 -11849.87 -11786.54 -11703.48 -11696.65 -11716.20 -11752.98 -11834.09 -11938.63 -12029.23 -12092.00 -12117.24 -12105.34 -11964.86 -11914.70 -11876.12 -11890.16 -11882.67 -11891.85 -11907.01 -11904.48 -11861.17 -11942.57 -11957.52 -11977.30 -11999.21 -12060.05 -12152.50 -12286.44 -12352.49 -12332.08 -12293.21 -12296.80 -12304.17 -12357.59 -12448.73 -12477.27 -12405.63 -12368.71 -12352.83 -12385.98 -12403.87 -12444.29 -12386.83 -12286.17 -12367.64 -12290.70 -12279.58 -12206.63 -12171.06 -12152.33 -12162.07 -12151.65 -12161.37 -12106.11 -12085.36 -12045.42 -12013.16 -12006.54 -11959.14 -11936.15 -12130.76 -12246.06 -12381.05 -12452.12 -12456.67 -12444.69 -12242.02 -11364.90 -9789.89 -6440.60 -5527.86 -5347.17 -5716.76 -6165.32 -7353.54 -8443.09 -8617.64 -8661.17 -8826.46 -9553.90 -10252.78 -8713.50 -745.89 1504.92 3633.75 5214.44 6490.47 6032.20 4116.56 -685.00 -4806.91 -8817.41 -10602.12 -10039.19 -9721.01 -9493.19 -9222.51 -9111.72 -8986.99 -8876.41 -8640.81 -8015.16 -7488.66 -6614.65 -6163.33 -5599.67 -4857.75 -3927.91 -3219.61 -2092.46 -1643.43 -1105.98 -861.88 -486.20 -33.44 1.49 101.54 126.74 80.13 118.50 158.63 199.30 227.83 252.56 257.19
-13349.96 -13350.12 -13369.09 -13501.88 -13484.44 -13534.06 -13460.68 -13257.33 -12620.80 -12261.31 -11998.33 -11878.67 -11946.47 -12003.03 -12049.77 -12075.29 -11998.29 -11952.01 -11834.39 -11799.22 -11857.32 -11895.23 -11992.46 -12127.33 -12160.04 -12251.05 -12286.67 -12191.92 -12038.11 -11968.51 -11941.37 -11961.83 -11987.22 -11989.16 -12036.69 -12055.66 -12181.65 -12196.61 -12229.51 -12181.89 -12228.81 -12287.51 -12401.35 -12445.55 -12416.10 -12419.94 -12379.63 -12383.87 -12392.37 -12442.24 -12535.18 -12582.80 -12541.29 -12486.70 -12498.45 -12559.32 -12667.37 -12683.10 -12683.00 -12699.97 -12714.66 -12624.38 -12625.24 -12599.92 -12729.48 -12520.75 -12547.12 -12502.50 -12429.39 -12378.68 -12292.87 -12243.81 -12257.17 -12317.00 -12218.31 -12323.76 -12375.19 -12514.32 -12606.36 -12625.69 -12656.41 -12619.78 -12490.85 -11553.29 -8911.80 -7133.31 -5556.78 -5507.01 -6197.51 -6746.72 -7605.49 -8447.90 -8408.44 -8503.77 -8616.05 -9710.04 -8677.36 -2815.11 -657.70 916.08 1889.15 4491.94 4672.89 3287.67 2025.94 21.64 -645.35 -9205.86 -10660.86 -10118.78 -9720.13 -9485.81 -9335.64 -9112.87 -8993.20 -8838.24 -8420.25 -8103.35 -7307.56 -6744.26 -6214.31 -5763.08 -5041.72 -4271.61 -3139.72 -2338.01 -1539.96 -1342.67 -1245.68 -1002.36 -872.65 -408.52 -223.12 -122.26 36.59 115.65 158.88 194.00 222.96 243.93 243.87
-13740.35 -13740.48 -13729.45 -13695.17 -13841.94 -13798.97 -13814.42 -13624.92 -13221.19 -12488.77 -12383.80 -12281.76 -12231.94 -12284.72 -12337.73 -12279.26 -12178.57 -12059.81 -12035.87 -11973.33 -11947.21 -12044.53 -12179.99 -12276.74 -12308.99 -12344.47 -12379.16 -12337.64 -12140.64 -12062.06 -12008.45 -12046.24 -12057.84 -12124.77 -12133.04 -12295.83 -12361.85 -12446.95 -12480.32 -12491.62 -12535.04 -12582.46 -12613.86 -12560.57 -12541.90 -12507.37 -12482.07 -12496.26 -12511.41 -12550.69 -12665.54 -12755.05 -12662.50 -12604.91 -12631.87 -12722.17 -12892.13 -13183.34 -13148.72 -12990.21 -13006.64 -13093.83 -13049.33 -12930.99 -12942.01 -12859.24 -12852.89 -12845.64 -12832.74 -12749.18 -12633.25 -12554.07 -12540.76 -12488.31 -12508.76 -12528.63 -12690.28 -12842.05 -12942.14 -12967.60 -13008.66 -12892.02 -12512.60 -11547.86 -8970.51 -6787.75 -5597.22 -5724.42 -6418.96 -7205.46 -7720.92 -8312.73 -8274.13 -8330.13 -8644.22 -9722.12 -9651.60 -2702.74 -337.90 333.85 2644.41 3789.29 4662.56 4363.61 2173.05 -2643.47 -6294.55 -10827.45 -10278.46 -9707.44 -9562.10 -9527.89 -9438.51 -9284.25 -9116.34 -8981.58 -8666.53 -8044.85 -7653.07 -6925.19 -6525.33 -6028.15 -5151.46 -4425.46 -3293.08 -2410.71 -1839.07 -1512.20 -1416.46 -1339.60 -1260.01 -948.53 -692.81 -313.43 -107.44 42.49 154.54 168.10 195.42 209.58 209.53
-14046.43 -14058.79 -14042.23 -14045.09 -14053.43 -14128.97 -14103.63 -13925.61 -13470.74 -13017.42 -12727.55 -12625.32 -12743.16 -12612.94 -12560.39 -12398.16 -12289.77 -12199.93 -12126.61 -12062.54 -12088.79 -12177.02 -12306.18 -12408.85 -12422.53 -12438.53 -12450.25 -12410.55 -12233.66 -12065.25 -12060.51 -12096.15 -12159.60 -12229.51 -12294.53 -12410.67 -12549.60 -12542.66 -12624.75 -12632.14 -12662.04 -12730.00 -12705.77 -12742.62 -12679.76 -12666.59 -12587.92 -12570.80 -12618.92 -12714.75 -12788.53 -12847.45 -12806.56 -12670.52 -12620.63 -12795.93 -13071.15 -13358.61 -13377.19 -13297.90 -13281.95 -13304.73 -13310.37 -13306.78 -13217.14 -13228.49 -13229.58 -13134.17 -13072.46 -12963.66 -12841.66 -12724.00 -12708.43 -12670.38 -12650.29 -12653.79 -12822.84 -12908.26 -13113.49 -13142.78 -13138.13 -13122.59 -12963.87 -11531.40 -9015.84 -6834.26 -5794.70 -5995.43 -6463.33 -6987.70 -7607.09 -8135.94 -8201.80 -8260.93 -8096.55 -8115.67 -8164.56 -4271.24 267.61 1536.74 4488.46 6063.49 5688.82 4628.05 1608.93 -2236.83 -8265.89 -10520.90 -9932.21 -9600.79 -9511.28 -9510.83 -9473.10 -9440.97 -9320.51 -9158.25 -9034.58 -8625.48 -7716.31 -7070.63 -6649.89 -5992.38 -5388.92 -4206.35 -3588.88 -2550.00 -2030.81 -1696.55 -1619.68 -1553.67 -1457.75 -1158.40 -854.35 -554.51 -424.26 -276.86 -57.53 112.39 167.16 172.05 172.00
-14183.34 -14183.30 -14157.18 -14151.02 -14163.61 -14169.13 -14185.70 -14178.60 -13944.77 -13646.19 -13377.72 -13260.64 -13183.53 -13020.41 -12733.09 -12522.57 -12360.36 -12266.29 -12178.12 -12143.31 -12159.04 -12226.68 -12457.22 -12470.97 -12484.93 -12508.04 -12535.70 -12507.65 -12332.35 -12238.82 -12202.11 -12177.70 -12193.34 -12243.04 -12345.92 -12506.17 -12638.25 -12732.61 -12716.14 -12733.66 -12778.04 -12823.71 -12811.52 -12795.88 -12796.32 -12752.75 -12682.55 -12685.38 -12695.19 -12779.11 -12846.43 -12890.83 -12833.14 -12671.76 -12604.48 -12773.90 -13216.30 -13494.37 -13526.35 -13428.87 -13411.35 -13450.88 -13442.32 -13391.49 -13363.29 -13336.52 -13291.61 -13311.00 -13246.26 -13142.43 -12965.90 -12903.05 -12861.27 -12812.83 -12773.08 -12769.23 -12854.01 -13023.04 -13165.41 -13223.74 -13221.41 -13214.95 -12925.47 -11951.70 -8864.43 -6775.25 -6080.75 -6095.58 -6180.72 -6528.77 -7099.91 -8056.46 -8139.77 -8186.33 -8030.72 -6970.53 -2468.44 -440.36 233.70 2519.04 3721.08 5589.63 4739.67 3315.65 775.16 136.23 -6125.26 -10234.69 -9771.51 -9483.76 -9453.38 -9500.87 -9505.11 -9495.59 -9486.29 -9386.66 -9215.27 -8732.18 -7582.35 -7027.60 -6664.60 -6158.38 -5607.34 -4431.83 -3547.54 -2446.22 -1914.38 -1694.32 -1578.45 -1547.65 -1502.30 -1316.51 -1081.27 -745.84 -644.65 -558.02 -358.37 -289.85 -132.74 72.77 72.90
-14219.56 -14219.49 -14214.40 -14198.44 -14198.61 -14211.02 -14274.51 -14299.76 -14185.05 -14002.89 -13948.28 -13837.63 -13692.70 -13236.25 -13080.35 -12667.57 -12425.11 -12413.46 -12291.37 -12249.32 -12270.06 -12346.11 -12456.14 -12509.28 -12522.44 -12598.51 -12619.31 -12544.25 -12422.03 -12310.74 -12257.80 -12230.56 -12240.94 -12250.10 -12366.91 -12552.02 -12695.05 -12774.51 -12767.44 -12782.08 -12868.29 -12857.54 -12853.77 -12870.23 -12903.95 -12856.29 -12834.49 -12802.79 -12802.94 -12845.30 -12889.05 -12905.24 -12849.77 -12740.16 -12719.01 -12929.17 -13242.75 -13474.92 -13589.19 -13531.52 -13520.03 -13546.47 -13509.08 -13442.30 -13409.53 -13397.57 -13416.71 -13382.78 -13319.73 -13216.96 -13065.09 -12961.10 -12954.66 -12917.28 -12881.10 -12843.90 -12910.12 -13117.37 -13240.97 -13253.24 -13245.43 -13242.59 -12968.45 -11931.03 -9231.37 -7394.34 -6238.81 -5595.74 -5503.45 -5165.65 -6656.79 -7489.33 -7915.43 -8091.09 -8031.72 -6775.52 -2365.86 -255.09 576.31 1967.25 3825.84 6063.81 5466.47 4679.90 363.39 -4970.93 -10360.94 -10265.13 -9585.13 -9370.03 -9425.73 -9458.68 -9498.29 -9490.17 -9473.25 -9425.60 -9180.02 -8617.62 -7587.85 -6863.07 -6463.17 -5968.48 -5421.34 -4527.82 -3739.13 -2631.70 -1865.90 -1692.33 -1507.39 -1500.65 -1470.54 -1342.48 -1112.01 -987.49 -988.46 -985.39 -880.65 -772.46 -507.39 -260.72 -260.61
-14228.40 -14228.33 -14234.28 -14241.08 -14235.20 -14280.37 -14336.50 -14367.37 -14364.29 -14290.38 -14196.05 -14170.76 -14065.85 -13877.02 -13403.83 -13116.75 -12701.54 -12593.25 -12597.82 -12487.65 -12470.09 -12491.60 -12496.64 -12564.91 -12603.63 -12692.27 -12680.54 -12646.05 -12505.25 -12402.38 -12338.01 -12322.00 -12294.75 -12315.18 -12471.85 -12628.18 -12786.31 -12874.26 -12907.09 -12902.83 -12907.79 -12932.17 -12966.01 -12953.02 -12980.87 -12967.71 -12971.92 -12967.70 -12943.07 -12904.69 -12961.63 -12966.61 -12949.86 -12869.25 -12858.72 -13059.33 -13377.66 -13613.60 -13660.49 -13681.94 -13677.03 -13640.12 -13551.91 -13550.19 -13470.26 -13474.90 -13494.47 -13491.92 -13415.11 -13302.66 -13170.90 -13133.80 -13099.01 -13051.29 -13026.76 -13007.32 -13061.28 -13199.65 -13295.98 -13277.94 -13286.64 -13249.10 -12892.46 -11921.69 -9975.95 -6626.98 -5416.17 -4451.38 -3665.78 -4130.79 -5517.08 -7212.71 -6969.56 -7704.69 -7695.42 -6107.99 -1973.54 262.21 1187.68 3751.35 5388.35 7018.45 4816.04 1895.55 327.31 -8732.98 -10654.94 -10277.29 -9586.87 -9295.42 -9369.73 -9468.38 -9489.44 -9466.64 -9443.14 -9363.07 -9122.12 -8503.88 -7660.89 -6704.89 -5927.57 -5683.50 -5413.45 -4498.15 -4039.82 -2481.86 -2151.17 -1664.27 -1617.70 -1528.08 -1510.50 -1410.59 -1204.11 -1245.20 -1323.03 -1338.95 -1232.57 -1088.26 -854.17 -554.83 -554.72
-14248.38 -14256.62 -14284.23 -14303.69 -14334.95 -14350.74 -14387.06 -14439.22 -14454.69 -14429.29 -14437.22 -14347.64 -14363.81 -14376.24 -14024.62 -13714.24 -13412.00 -12928.51 -12836.23 -12763.63 -12665.25 -12668.09 -12619.44 -12612.93 -12702.16 -12754.42 -12778.61 -12710.37 -12569.76 -12516.63 -12476.78 -12401.65 -12477.26 -12535.87 -12632.42 -12770.78 -12912.20 -12999.74 -13051.42 -13067.97 -13069.25 -13117.12 -13129.11 -13127.23 -13112.52 -13110.48 -13096.58 -13088.42 -13106.24 -13082.56 -13161.06 -13234.55 -13221.34 -13242.25 -13148.71 -13286.47 -13532.61 -13653.28 -13780.53 -13774.47 -13817.39 -13842.18 -13731.29 -13630.58 -13677.10 -13643.66 -13611.31 -13577.49 -13527.45 -13462.55 -13332.97 -13264.89 -13239.59 -13257.86 -13216.85 -13132.70 -13188.04 -13317.18 -13379.52 -13368.97 -13335.90 -13286.41 -12794.98 -11417.73 -9186.73 -6299.44 -4541.83 -2952.24 -2155.60 -2362.17 -4058.49 -5255.91 -5716.60 -7039.07 -6439.17 -5004.44 -2818.13 45.03 1875.38 4737.06 6936.04 7366.54 3879.24 938.45 170.60 -5477.01 -10606.19 -10320.92 -9502.43 -9285.73 -9362.57 -9479.11 -9487.01 -9459.84 -9435.85 -9381.28 -9081.01 -8234.43 -6810.46 -5905.42 -5325.06 -5230.78 -5046.76 -4652.31 -4004.80 -3146.30 -2335.80 -1996.33 -1806.19 -1817.93 -1731.79 -1787.67 -1503.02 -1415.83 -1482.65 -1557.29 -1499.99 -1199.94 -1074.15 -796.62 -796.60
-14321.91 -14321.93 -14343.88 -14393.46 -14445.31 -14444.73 -14449.06 -14474.25 -14524.80 -14610.10 -14617.53 -14638.29 -14640.06 -14635.70 -14617.63 -14344.32 -13810.21 -13457.24 -13270.09 -13134.02 -12917.53 -12847.40 -12747.11 -12745.03 -12777.90 -12818.15 -12842.04 -12791.49 -12759.22 -12695.56 -12725.36 -12706.07 -12663.82 -12766.16 -12829.85 -12939.52 -13172.33 -13198.83 -13260.56 -13241.55 -13279.64 -13294.42 -13276.20 -13262.58 -13204.62 -13240.59 -13294.76 -13329.15 -13349.72 -13332.48 -13479.95 -13402.43 -13437.91 -13401.02 -13465.05 -13603.45 -13663.16 -13816.68 -13906.85 -14021.99 -14048.29 -13998.63 -13908.11 -13813.17 -13781.45 -13781.92 -13782.87 -13758.80 -13766.40 -13655.42 -13502.27 -13436.59 -13450.57 -13440.56 -13420.72 -13413.80 -13419.71 -13464.29 -13477.45 -13462.94 -13436.87 -13328.48 -12749.58 -10518.08 -8011.53 -5046.07 -3479.12 -1233.70 -1163.36 -1813.12 -3044.43 -3670.39 -4737.06 -4899.29 -5334.68 -4355.72 -1393.32 1517.30 4752.47 5949.28 6679.12 4584.31 1707.84 480.83 -609.64 -1412.70 -9511.96 -10299.61 -9624.66 -9348.91 -9408.42 -9480.93 -9488.81 -9458.91 -9432.01 -9368.28 -9060.37 -7698.59 -6648.05 -5549.99 -4942.61 -4594.77 -4689.44 -4456.95 -3914.95 -3261.85 -2726.52 -2330.90 -2233.29 -2144.61 -2147.16 -2116.81 -1884.71 -1718.69 -1684.81 -1687.66 -1618.54 -1441.31 -1203.61 -931.58 -887.53
-14454.93 -14467.03 -14481.77 -14496.18 -14496.00 -14475.29 -14472.49 -14515.95 -14578.25 -14682.29 -14731.83 -14766.79 -14843.81 -14811.68 -14780.21 -14792.57 -14573.41 -14190.12 -13692.64 -13318.33 -13148.93 -13016.53 -12890.31 -12836.81 -12820.47 -12832.25 -12846.17 -12856.50 -12856.31 -12851.11 -12825.14 -12830.03 -12887.68 -12948.63 -13013.46 -13148.83 -13267.61 -13390.55 -13411.25 -13403.23 -13387.92 -13365.05 -13364.26 -13317.53 -13319.56 -13346.42 -13384.63 -13414.16 -13467.65 -13546.57 -13639.93 -13722.43 -13681.59 -13693.66 -13698.72 -13753.09 -13932.75 -14058.22 -14136.84 -14178.61 -14222.12 -14184.52 -14089.18 -14006.76 -13932.08 -13919.91 -13920.33 -13908.01 -13862.33 -13774.16 -13691.70 -13607.10 -13545.94 -13541.25 -13598.47 -13554.41 -13543.03 -13537.05 -13533.98 -13539.67 -13517.78 -13157.92 -12661.41 -10357.76 -7188.59 -4499.95 -2085.90 -1059.87 -247.71 -969.05 -2808.44 -2811.35 -3161.30 -3336.85 -3475.06 -1732.45 -52.75 772.98 2698.76 5414.10 6307.13 4841.66 3315.15 540.62 -281.15 -1427.91 -6932.25 -10143.18 -9576.91 -9408.90 -9445.45 -9487.65 -9459.06 -9438.31 -9450.01 -9346.44 -9066.13 -7765.77 -6699.38 -5217.26 -4629.83 -4325.57 -4274.98 -4300.38 -3922.52 -3460.06 -3010.67 -2513.34 -2467.54 -2536.39 -2625.53 -2489.60 -2053.80 -1901.97 -1783.00 -1757.99 -1653.43 -1420.33 -1137.53 -817.70 -817.88
-14563.67 -14567.29 -14557.72 -14560.16 -14544.21 -14509.53 -14485.36 -14518.76 -14617.96 -14709.96 -14793.52 -14859.25 -14898.36 -14902.85 -14928.48 -14933.75 -14861.38 -14605.23 -14127.71 -13627.11 -13254.78 -13098.07 -12971.97 -12914.15 -12865.54 -12845.77 -12843.65 -12861.25 -12888.88 -12898.49 -12906.75 -12941.82 -12978.87 -13046.87 -13071.01 -13219.33 -13396.03 -13486.98 -13479.76 -13475.80 -13446.60 -13443.88 -13439.57 -13391.58 -13376.20 -13404.46 -13448.60 -13464.15 -13548.54 -13649.40 -13791.76 -13829.31 -13831.32 -13820.21 -13838.37 -13916.95 -14031.56 -14146.00 -14213.04 -14302.13 -14330.62 -14301.92 -14225.57 -14057.96 -14058.12 -13994.91 -14019.77 -13994.35 -13952.59 -13850.47 -13759.80 -13666.19 -13660.41 -13637.18 -13653.46 -13639.98 -13632.45 -13618.65 -13600.73 -13588.38 -13514.33 -12868.67 -12188.17 -9599.57 -5954.69 -3493.45 -1650.02 -404.22 -76.00 -1062.03 -1959.37 -2223.78 -2527.32 -2398.49 -1590.84 -891.15 77.23 951.77 3252.88 5893.24 5924.69 3481.46 2826.87 319.71 -442.52 -2871.35 -7039.77 -10425.52 -9849.44 -9495.13 -9481.79 -9515.56 -9461.08 -9454.69 -9486.58 -9431.50 -9105.45 -8399.56 -6816.66 -5556.81 -4529.53 -4150.47 -4064.66 -3962.73 -3783.30 -3494.21 -3085.57 -2804.41 -2739.31 -2969.31 -2959.42 -2825.12 -2454.60 -2077.88 -1878.39 -1787.06 -1603.08 -1293.73 -1030.26 -637.46 -637.67
-14612.99 -14612.94 -14610.48 -14612.50 -14611.57 -14577.03 -14536.25 -14538.74 -14627.52 -14693.88 -14830.34 -14896.57 -14928.95 -14968.79 -15015.00 -15049.59 -15053.21 -14901.81 -14595.61 -14025.52 -13423.06 -13179.11 -13110.49 -12965.63 -12910.11 -12875.53 -12877.82 -12891.83 -12933.16 -12983.73 -13013.56 -13003.22 -13040.73 -13071.11 -13154.10 -13246.72 -13485.87 -13554.75 -13610.70 -13560.22 -13489.82 -13487.02 -13477.77 -13492.95 -13500.76 -13496.40 -13486.69 -13516.67 -13586.01 -13704.12 -13839.19 -13956.58 -13962.41 -13940.94 -13951.05 -14025.41 -14131.23 -14230.09 -14282.60 -14335.36 -14325.21 -14333.01 -14312.12 -14235.33 -14133.77 -14151.59 -14163.40 -14118.76 -14053.80 -13960.93 -13845.65 -13761.90 -13727.09 -13696.08 -13704.00 -13694.91 -13632.12 -13607.94 -13492.08 -13450.41 -13330.64 -12693.06 -11548.12 -8557.23 -6292.01 -3832.34 -1555.84 -338.64 -300.00 -702.84 -1984.58 -2029.19 -2084.26 -1840.07 -1304.82 -643.10 -53.43 2364.90 3500.29 7751.95 8459.23 5824.13 829.03 287.91 -435.54 -3753.20 -8784.51 -11186.47 -9689.65 -9448.71 -9462.24 -9505.96 -9499.49 -9506.47 -9497.84 -9453.56 -9282.10 -8529.12 -6966.00 -5525.17 -4671.51 -3878.90 -3765.72 -3759.70 -3669.98 -3382.89 -3089.33 -2953.62 -3089.18 -3148.34 -3379.54 -3231.39 -2676.99 -2239.18 -1861.91 -1778.23 -1540.46 -1374.39 -782.46 -503.96 -451.11
-14590.91 -14590.76 -14623.49 -14660.81 -14643.14 -14602.01 -14530.20 -14552.72 -14656.65 -14778.70 -14912.53 -14947.41 -14993.72 -15033.77 -15103.88 -15186.29 -15145.54 -15063.73 -14931.67 -14450.12 -13867.51 -13478.26 -13186.27 -13042.00 -12962.33 -12953.08 -12969.99 -12988.84 -13063.56 -13090.90 -13090.57 -13106.13 -13139.47 -13172.89 -13224.21 -13395.14 -13528.53 -13643.63 -13645.34 -13626.39 -13593.28 -13566.46 -13594.87 -13616.93 -13609.11 -13572.47 -13557.43 -13555.98 -13615.91 -13736.46 -13896.81 -13964.73 -13986.86 -13991.71 -14006.21 -14120.81 -14218.68 -14295.45 -14320.82 -14322.95 -14329.77 -14343.13 -14315.62 -14319.87 -14294.57 -14290.57 -14273.04 -14237.67 -14219.22 -14101.05 -14031.95 -13849.53 -13798.02 -13746.24 -13731.07 -13680.58 -13518.20 -13294.63 -13184.29 -13150.03 -12677.38 -11425.48 -9844.99 -8001.42 -5546.74 -2557.50 -1351.99 -651.17 -977.24 -1352.73 -1829.04 -1697.92 -1712.58 -1371.12 -965.46 -350.80 986.14 4307.01 5861.13 8562.17 7916.34 5398.42 1532.64 -176.33 -826.88 -2868.57 -9687.87 -11097.03 -9735.90 -9315.62 -9359.92 -9438.60 -9418.92 -9343.23 -9415.57 -9321.53 -9014.91 -8324.15 -7008.03 -5602.05 -4370.99 -3663.07 -3420.05 -3394.86 -3403.12 -3296.87 -3168.90 -3135.31 -3241.16 -3601.97 -3708.02 -3411.22 -2677.38 -2212.91 -1818.39 -1765.18 -1536.26 -1162.94 -839.10 -324.67 -324.79
-14461.55 -14460.74 -14560.76 -14616.00 -14608.89 -14559.26 -14506.58 -14554.11 -14674.22 -14925.55 -15006.25 -15056.17 -15105.57 -15184.04 -15283.80 -15321.48 -15347.33 -15313.00 -15258.76 -15002.18 -14444.75 -13711.34 -13441.09 -13208.59 -13058.56 -13059.17 -13101.16 -13108.25 -13181.09 -13220.28 -13338.10 -13321.35 -13293.26 -13317.88 -13445.60 -13528.02 -13610.11 -13663.36 -13669.19 -13665.21 -13662.28 -13647.05 -13671.11 -13684.11 -13678.19 -13642.51 -13631.38 -13631.02 -13706.75 -13834.07 -13927.49 -13974.35 -14018.32 -14073.54 -14148.38 -14232.47 -14314.75 -14340.91 -14340.46 -14333.83 -14327.43 -14327.77 -14331.67 -14325.21 -14321.01 -14307.05 -14299.81 -14298.58 -14264.69 -14218.88 -14117.74 -14012.90 -13905.44 -13883.01 -13766.94 -13652.56 -13235.95 -12814.14 -12400.37 -11936.17 -10969.35 -10169.92 -8575.33 -6432.00 -4120.55 -2706.47 -1303.45 -849.51 -1323.08 -1641.27 -1647.83 -1564.83 -1139.56 -825.73 -525.76 -25.37 601.10 1731.24 4521.96 8170.67 6265.41 3638.13 1484.60 -15.38 -667.46 -5430.04 -9597.86 -10625.36 -9447.12 -9082.65 -9057.40 -9092.70 -9133.88 -9121.81 -9105.01 -8975.22 -8801.52 -7700.03 -6702.11 -5461.00 -4260.24 -3443.79 -3204.24 -3019.73 -3126.71 -3178.44 -3240.73 -3442.23 -3634.34 -3857.90 -3912.91 -3656.11 -2532.48 -2073.75 -1754.28 -1689.00 -1431.10 -1142.15 -691.52 -326.35 -259.18
-14373.89 -14399.24 -14479.57 -14538.83 -14496.80 -14465.22 -14456.59 -14518.35 -14826.79 -14977.61 -15087.74 -15119.47 -15154.99 -15253.04 -15365.78 -15518.44 -15485.44 -15484.34 -15483.36 -15414.37 -15058.98 -14207.37 -13717.07 -13462.00 -13251.20 -13255.31 -13235.99 -13216.40 -13360.34 -13451.08 -13481.39 -13457.48 -13483.31 -13528.14 -13539.30 -13643.00 -13678.00 -13688.03 -13713.41 -13704.56 -13727.86 -13721.52 -13738.54 -13708.45 -13684.62 -13686.77 -13695.21 -13687.09 -13730.14 -13871.71 -13969.15 -14024.91 -14091.68 -14153.35 -14222.00 -14325.75 -14345.43 -14369.57 -14360.59 -14334.84 -14350.64 -14341.71 -14334.74 -14328.56 -14315.90 -14302.50 -14303.34 -14304.45 -14286.84 -14257.17 -14198.89 -14148.38 -14104.60 -14025.88 -13974.18 -13663.42 -13107.27 -12167.89 -11339.97 -10745.27 -9874.46 -8745.43 -7106.16 -5192.15 -3191.93 -1841.77 -1247.07 -1275.35 -1475.31 -1513.83 -1534.38 -1217.97 -808.84 -740.30 -182.30 123.84 751.01 1750.29 4483.09 7476.71 7175.86 4603.67 3191.01 -42.85 -1253.00 -4964.65 -8305.40 -10298.57 -9212.53 -8853.25 -8840.95 -8849.49 -8857.35 -8721.28 -8718.95 -8668.82 -8436.92 -7398.43 -6127.16 -4525.33 -4005.96 -3332.24 -3006.38 -2808.47 -2915.21 -3046.33 -3344.14 -3650.96 -3882.54 -4139.76 -4007.33 -3616.10 -2318.90 -1775.42 -1660.13 -1599.75 -1487.25 -1105.96 -646.71 -252.12 -252.13
-14425.17 -14443.83 -14496.81 -14464.97 -14406.02 -14389.36 -14434.27 -14577.65 -14795.37 -14971.85 -15113.66 -15211.01 -15268.82 -15300.10 -15436.43 -15618.25 -15716.39 -15818.93 -15818.42 -15723.46 -15515.07 -14776.92 -14189.20 -13675.12 -13533.57 -13532.68 -13467.30 -13488.01 -13605.44 -13626.38 -13628.26 -13572.86 -13593.66 -13630.00 -13673.90 -13693.86 -13687.98 -13710.60 -13774.22 -13814.54 -13866.48 -13902.78 -13773.56 -13693.91 -13671.69 -13709.59 -13751.76 -13738.34 -13797.42 -13911.41 -14005.06 -14090.06 -14150.24 -14220.97 -14304.28 -14359.85 -14354.70 -14352.72 -14341.43 -14320.15 -14333.64 -14342.90 -14328.55 -14328.92 -14321.21 -14310.00 -14310.86 -14306.83 -14282.77 -14256.99 -14192.72 -14169.34 -14129.51 -14027.78 -13448.84 -12889.67 -12263.14 -10814.35 -9946.70 -9140.84 -8507.95 -7560.27 -6344.00 -4593.23 -2874.37 -1698.59 -1407.35 -1328.13 -1339.30 -1401.43 -978.88 -802.79 -524.87 -184.47 10.57 213.37 837.51 3382.23 4147.92 8721.02 8159.95 6652.06 3810.62 532.51 -988.37 -2617.33 -8116.98 -10639.25 -9237.30 -8761.45 -8763.25 -8777.06 -8679.77 -8577.73 -8549.34 -8456.42 -7986.31 -7036.15 -5437.72 -4521.63 -3842.80 -3392.80 -2936.09 -2634.18 -2658.33 -2988.49 -3332.03 -3843.09 -4161.72 -4239.97 -4125.56 -3168.39 -2550.07 -1781.68 -1658.33 -1650.84 -1421.46 -1152.82 -727.17 -429.58 -429.33
-14447.71 -14447.59 -14466.36 -14432.63 -14385.43 -14372.63 -14411.83 -14551.34 -14831.63 -15033.81 -15274.08 -15395.11 -15424.46 -15461.97 -15641.94 -15817.31 -15867.19 -16027.42 -16036.68 -16038.09 -15878.35 -15379.31 -14969.87 -14184.28 -13958.36 -13965.82 -13823.53 -13727.71 -13842.04 -13847.55 -13769.41 -13726.41 -13726.13 -13706.43 -13755.90 -13746.21 -13706.61 -13767.93 -13857.27 -13939.44 -13947.98 -13963.78 -13863.40 -13699.83 -13672.65 -13723.71 -13750.08 -13757.14 -13760.99 -13945.14 -14039.54 -14110.00 -14193.33 -14258.98 -14313.46 -14358.81 -14355.87 -14341.34 -14335.96 -14339.71 -14343.01 -14346.81 -14339.22 -14326.56 -14326.69 -14319.48 -14318.64 -14307.03 -14287.49 -14264.60 -14155.75 -14076.99 -13791.54 -13917.43 -12155.17 -10921.81 -10965.23 -9819.21 -7901.78 -6477.11 -6128.68 -6428.54 -5589.31 -4427.74 -2473.15 -1645.32 -1383.07 -1334.62 -1206.81 -1196.96 -766.16 -350.55 -178.18 -57.05 119.72 274.14 818.58 2776.75 4292.70 7752.70 7469.88 4850.60 2264.94 692.34 -695.16 -2194.69 -6068.73 -10736.78 -9302.27 -8791.22 -8773.54 -8728.23 -8635.77 -8538.93 -8470.19 -8302.44 -7750.45 -6579.77 -5401.24 -4440.30 -3868.48 -3494.05 -2926.87 -2635.47 -2597.25 -2981.51 -3416.18 -4069.49 -4338.95 -4291.53 -3851.02 -3259.68 -2300.44 -1858.69 -1721.87 -1641.92 -1472.38 -1292.70 -1131.48 -930.65 -930.17
-14330.67 -14330.44 -14383.68 -14360.79 -14397.62 -14400.30 -14420.29 -14565.42 -14910.96 -15279.74 -15415.22 -15573.94 -15673.29 -15735.27 -15854.13 -16010.68 -16055.47 -16095.30 -16156.13 -16156.87 -16008.72 -15731.43 -15130.68 -14893.97 -14278.37 -14136.76 -14022.43 -13953.02 -13964.31 -14041.89 -13980.03 -13874.26 -13817.12 -13788.73 -13739.59 -13729.70 -13655.34 -13642.16 -13735.17 -13786.30 -13906.76 -13880.87 -13830.25 -13707.30 -13692.26 -13683.45 -13703.23 -13722.42 -13771.58 -13936.63 -14021.55 -14167.98 -14242.85 -14253.91 -14316.81 -14369.78 -14364.77 -14346.30 -14343.92 -14346.37 -14345.63 -14342.08 -14341.23 -14327.33 -14325.19 -14316.42 -14316.23 -14313.98 -14283.86 -14097.61 -13789.19 -13613.83 -13211.97 -12250.03 -11640.26 -8931.73 -7526.44 -7164.54 -5865.68 -5328.51 -4970.16 -4629.89 -4112.22 -3587.73 -2522.85 -1578.09 -1255.15 -1124.84 -964.44 -765.14 -536.20 -162.83 -15.26 48.39 180.68 267.18 698.73 2362.35 3559.58 8811.97 7092.98 4246.79 3475.08 490.72 -651.70 -2545.62 -5397.32 -10823.38 -9968.01 -9288.37 -8797.12 -8640.82 -8569.23 -8490.19 -8382.84 -8025.04 -7574.12 -6586.63 -5265.47 -4394.50 -3799.77 -3210.96 -2997.63 -2560.00 -2708.49 -3014.17 -3544.26 -4262.56 -4365.53 -4166.96 -3600.25 -3174.21 -2180.50 -2001.58 -1798.78 -1706.24 -1591.15 -1411.43 -1475.57 -1615.73 -1593.88
-14085.59 -14085.28 -14100.03 -14171.04 -14315.45 -14366.17 -14468.52 -14649.75 -15082.74 -15244.17 -15441.58 -15589.10 -15797.35 -15878.25 -15982.46 -16099.18 -16128.69 -16146.95 -16149.34 -16145.30 -16067.40 -15750.36 -15359.88 -14592.16 -14058.65 -13888.72 -13781.04 -13802.77 -13749.87 -13580.19 -13665.16 -13730.54 -13558.82 -13523.22 -13461.55 -13089.25 -12657.09 -13027.55 -12995.46 -13021.84 -13275.61 -13366.52 -13491.25 -13519.41 -13507.13 -13551.50 -13585.99 -13593.05 -13721.85 -13877.29 -14035.75 -14223.18 -14281.25 -14204.42 -14272.29 -14349.31 -14359.24 -14345.51 -14337.47 -14340.90 -14340.92 -14338.26 -14334.99 -14332.08 -14323.51 -14304.24 -14302.07 -14290.27 -14146.17 -13824.73 -13322.96 -12977.67 -12614.51 -11117.96 -8732.16 -6235.53 -4564.50 -3548.20 -3399.70 -3275.17 -3071.80 -3105.61 -2162.88 -1982.26 -1425.06 -1183.25 -735.56 -750.46 -921.24 -456.38 -233.19 -6.15 123.27 151.89 209.50 262.54 791.13 2360.14 4975.92 8348.20 8732.79 6745.50 4198.25 2170.08 294.15 -363.16 -4012.12 -9222.38 -11310.73 -9668.38 -8965.94 -8540.33 -8410.25 -8193.52 -7989.72 -7700.53 -7083.86 -6542.85 -4933.53 -4177.20 -3430.92 -3087.57 -2838.64 -2675.74 -2831.06 -3323.60 -3813.84 -4328.61 -4320.83 -4023.35 -3474.90 -3036.78 -2332.19 -2018.88 -1852.79 -1847.08 -1915.97 -1903.76 -1832.33 -2175.90 -2175.55
-13655.36 -13614.18 -13706.42 -13824.00 -14147.26 -14127.61 -14398.73 -14643.66 -15018.44 -15262.71 -15454.68 -15640.70 -15900.72 -16079.21 -16055.13 -16187.93 -16196.69 -16137.02 -16126.92 -16095.22 -15969.83 -15573.58 -14828.85 -14241.07 -13472.81 -13155.47 -13216.78 -13121.39 -13218.85 -13068.90 -12971.74 -13198.76 -12452.93 -12308.52 -12046.73 -11634.30 -10833.76 -10644.30 -10899.17 -11082.13 -11361.72 -11311.23 -12444.05 -13143.56 -12997.58 -13331.57 -13283.43 -13335.98 -13454.70 -13770.68 -14011.26 -14174.55 -14240.02 -14138.37 -14118.14 -14232.85 -14316.42 -14324.21 -14336.61 -14337.85 -14335.44 -14337.65 -14340.61 -14330.28 -14319.33 -14299.97 -14145.28 -14220.22 -13864.25 -13427.29 -12511.94 -12234.69 -11643.87 -9080.09 -8263.31 -4164.33 -2892.76 -2476.74 -2209.86 -2182.69 -1847.60 -1360.04 -808.41 -767.74 -315.81 -275.02 -180.37 -75.17 -226.74 -90.02 69.57 79.56 150.62 208.10 234.57 271.02 606.44 1936.62 4646.64 7507.77 8602.05 7249.09 4035.56 1402.88 613.48 148.20 -781.83 -3690.70 -8499.69 -9818.88 -9426.53 -8600.69 -8045.68 -7799.57 -7783.60 -7407.98 -6639.93 -5836.46 -4966.63 -3845.43 -3447.49 -2939.59 -2811.04 -2776.49 -2930.70 -3711.85 -4199.89 -4591.14 -4385.84 -3855.33 -3425.97 -3074.80 -2439.08 -2138.34 -1999.89 -2023.14 -2360.86 -2627.87 -2436.17 -2665.09 -2664.82
-12879.10 -12878.24 -12875.74 -13184.66 -13235.46 -13302.62 -13884.97 -14339.08 -14905.49 -15362.64 -15515.42 -15812.38 -16078.36 -16144.14 -16160.74 -16177.72 -16156.99 -16105.58 -16057.20 -16000.27 -15817.61 -15303.70 -14674.66 -13286.68 -12260.87 -11615.47 -12138.47 -12024.26 -11731.31 -12178.00 -11980.25 -11552.39 -11400.66 -10972.86 -10239.33 -9583.01 -9097.73 -9044.19 -9184.02 -8982.91 -9433.47 -10346.34 -10583.59 -11789.24 -12164.71 -12542.73 -13109.16 -13078.65 -13250.68 -13545.49 -13928.67 -14035.17 -14009.53 -13964.64 -13959.83 -14062.55 -14267.56 -14320.21 -14334.40 -14339.93 -14338.47 -14338.62 -14327.02 -14049.13 -13766.97 -13929.05 -13856.05 -13943.73 -13435.91 -12634.34 -11612.59 -10088.78 -9337.97 -7370.11 -5009.95 -3162.19 -1901.89 -1065.97 -929.73 -1351.37 -804.62 -601.56 -345.52 -76.65 -72.19 47.88 287.13 281.63 165.46 245.18 199.36 198.10 220.18 239.06 245.58 287.01 519.32 1244.18 3965.09 6333.68 9384.94 9406.93 5042.08 2235.15 559.10 245.75 -88.67 -753.36 -2931.96 -9850.49 -9706.94 -9035.29 -7932.61 -7623.88 -7330.50 -6780.93 -6099.80 -5579.82 -4377.88 -3886.84 -3156.02 -2923.69 -2812.39 -2972.06 -3323.40 -4156.23 -4626.36 -4740.40 -4506.95 -3943.33 -3400.33 -3044.91 -2367.09 -2222.58 -2260.19 -2500.89 -2846.45 -2950.20 -3063.28 -3014.79 -3014.66
-12063.66 -12018.05 -12007.11 -11986.71 -12245.45 -12709.16 -13075.08 -14244.82 -14867.35 -15504.58 -15784.67 -15956.30 -16138.14 -16157.36 -16114.85 -16080.34 -16072.00 -16031.01 -15979.95 -15929.77 -15751.15 -14922.30 -13494.93 -12035.63 -10392.65 -10169.86 -9936.66 -10698.49 -10689.42 -10822.98 -10562.06 -10019.40 -9451.97 -9112.75 -8547.42 -8130.05 -7662.44 -7585.92 -7897.34 -8008.14 -8444.46 -8900.64 -9625.31 -10625.50 -11531.94 -11941.99 -12493.24 -12847.00 -13056.33 -13238.74 -13630.81 -13755.88 -13873.80 -13865.27 -13931.30 -14030.30 -14238.44 -14328.69 -14332.55 -14349.35 -14345.54 -14353.11 -14209.45 -13623.71 -13429.09 -13326.81 -13304.97 -13284.47 -13125.91 -12140.12 -10477.32 -8789.34 -7600.19 -6396.63 -3669.17 -2281.69 -805.22 -545.95 -378.24 -586.16 -211.52 -24.12 -25.80 133.13 216.72 296.88 310.17 341.58 375.92 369.85 339.91 344.83 350.67 279.12 308.68 341.58 375.73 1536.57 4180.10 6849.27 8871.86 9855.13 6611.68 3513.33 944.01 425.44 -147.58 -234.72 -1164.66 -8449.80 -10849.32 -9090.93 -8194.31 -7524.45 -7141.19 -6544.43 -5878.73 -5130.97 -4222.07 -3588.64 -3023.89 -2749.56 -2768.35 -3137.08 -3620.03 -4331.12 -4876.64 -4865.11 -4561.86 -4022.99 -3414.62 -2706.01 -2282.69 -2130.94 -2458.79 -2914.48 -3265.06 -3341.86 -3328.83 -3211.45 -3235.27
-11725.37 -11730.24 -11758.94 -11738.49 -11818.92 -12077.81 -12601.38 -13838.92 -14628.04 -15557.74 -15823.19 -15985.10 -16047.45 -15983.25 -15925.74 -15966.86 -15980.29 -15979.31 -15907.69 -15847.51 -15618.78 -14783.44 -12859.00 -10518.15 -9021.80 -8538.54 -8929.85 -9203.60 -8851.51 -9242.24 -9514.11 -8944.75 -7839.32 -7134.40 -7083.12 -6703.52 -5798.62 -5994.82 -6056.27 -7346.31 -5596.02 -8637.01 -9388.39 -10243.88 -10793.58 -11112.50 -11969.18 -12387.52 -12490.53 -12874.44 -13200.68 -13530.73 -13539.19 -13723.97 -13892.12 -14072.53 -14157.30 -14315.63 -14342.27 -14334.41 -14291.31 -14258.84 -14059.89 -13526.98 -13217.89 -13130.37 -12823.10 -12867.14 -12619.32 -11634.82 -10133.48 -8077.25 -5999.15 -3716.05 -2649.30 -791.32 -266.50 -158.99 -78.24 16.41 141.44 200.43 228.02 299.71 301.37 316.38 333.59 367.06 438.98 503.58 508.71 594.85 495.64 421.88 378.77 367.45 386.41 722.62 1042.06 4016.17 5129.36 7940.85 7225.18 4253.70 3302.13 2542.97 155.62 -329.85 -958.23 -4786.30 -10526.07 -9660.23 -8671.43 -7707.84 -7094.51 -6422.79 -5632.81 -5066.72 -4105.81 -3743.91 -2845.81 -2722.42 -2759.60 -3044.65 -3982.35 -4669.80 -4997.87 -4948.41 -4528.40 -3840.97 -3077.89 -2586.19 -2386.42 -2178.94 -2613.47 -3194.43 -3468.85 -3551.64 -3534.50 -3380.01 -3380.19
-11871.37 -11871.10 -11896.04 -11891.62 -11884.32 -12084.37 -12724.48 -13775.31 -15018.75 -15591.11 -15808.00 -15945.41 -15915.24 -15854.07 -15827.89 -15871.68 -15931.66 -15926.33 -15842.93 -15721.30 -15417.35 -14584.72 -12436.92 -10702.78 -8237.61 -7817.34 -7675.24 -7862.74 -7813.53 -7955.44 -7598.75 -7256.12 -6597.69 -5827.09 -5076.54 -4033.26 -4311.39 -4110.16 -4088.60 -2868.47 -1664.07 -7333.69 -9021.05 -9477.72 -9930.36 -10210.97 -10771.00 -11168.79 -11753.92 -11566.80 -11973.68 -12462.46 -12810.69 -13104.30 -13545.71 -13576.27 -14019.02 -14004.38 -13713.56 -14002.76 -13974.90 -14044.01 -13674.63 -12964.06 -12617.31 -12228.02 -12304.77 -11418.21 -11113.43 -10221.40 -8957.09 -7550.41 -5892.03 -3501.55 -2583.46 -1103.70 -327.17 137.30 152.80 195.76 212.04 254.13 295.87 310.60 325.36 329.00 338.72 365.97 416.59 520.70 593.84 667.63 663.82 594.19 482.52 411.19 428.42 509.39 756.00 2297.54 4100.94 7274.13 8360.24 7139.46 5025.63 4035.68 2312.46 0.30 -503.75 -1927.73 -6324.01 -8097.25 -8166.61 -7767.35 -6857.47 -6261.38 -5636.83 -4574.11 -3904.30 -3442.48 -2962.88 -2695.71 -2705.44 -3261.62 -4002.07 -4741.81 -5111.34 -5058.32 -4563.14 -3995.41 -3094.50 -2679.93 -2164.42 -2124.95 -2547.70 -3438.63 -3600.32 -3662.10 -3566.16 -3459.95 -3431.74
-12359.36 -12358.80 -12693.26 -12353.46 -12255.80 -12615.76 -12932.35 -14205.84 -14962.77 -15633.20 -15817.01 -15889.34 -15855.59 -15795.81 -15776.04 -15844.26 -15902.15 -15986.70 -15926.24 -15847.72 -15685.42 -14484.50 -12153.46 -10175.98 -8411.46 -8136.73 -8036.35 -7852.05 -7394.84 -7007.55 -6537.20 -5925.79 -4999.14 -3787.58 -3150.36 -2719.19 -2313.83 -1977.69 -1605.44 -459.56 134.20 -365.68 -7787.34 -8568.06 -7405.68 -9201.63 -9161.54 -9004.94 -9584.12 -9848.84 -10423.55 -10869.74 -11328.52 -11747.35 -12083.06 -12715.95 -12677.78 -12936.90 -12887.67 -13114.62 -12994.21 -11956.73 -12414.21 -12046.82 -11217.27 -10539.70 -10930.45 -9590.14 -9897.67 -8218.19 -7169.03 -5632.40 -3618.32 -2888.27 -1969.73 -1027.55 -169.38 171.62 243.66 259.48 258.98 278.95 300.88 321.28 326.68 332.50 337.77 347.43 378.88 413.70 441.75 541.00 579.34 611.03 460.33 458.73 485.32 502.43 708.68 1964.14 6092.66 6725.61 8766.82 7957.73 5940.01 4641.01 2812.31 497.21 -115.23 -1150.86 -2946.61 -6349.73 -8232.34 -7561.05 -6615.09 -5940.91 -5103.59 -4304.42 -3674.84 -3255.40 -2728.72 -2609.64 -2629.57 -3198.71 -3869.45 -4747.30 -5142.70 -5194.66 -4801.95 -4331.93 -3490.74 -2997.18 -2452.22 -2232.67 -2704.85 -3262.39 -3522.44 -3578.05 -3437.61 -3239.57 -3239.40
-13134.95 -13134.21 -13409.56 -13131.65 -13335.20 -13596.53 -13974.26 -14640.84 -15196.92 -15554.77 -15711.76 -15719.14 -15726.30 -15729.38 -15784.24 -15928.88 -15977.69 -16063.68 -16087.50 -16101.02 -15826.68 -14990.94 -12696.92 -11266.19 -9390.19 -9271.71 -9383.30 -9039.40 -7727.28 -6857.87 -5596.03 -4493.55 -3998.84 -2102.99 -1242.05 -470.44 -581.99 -150.47 201.20 192.80 159.16 43.58 -4344.92 -3588.87 -3263.52 -5727.11 -4993.81 -6007.86 -6372.98 -7763.83 -8530.46 -8044.39 -7953.50 -10195.11 -9570.83 -9637.35 -10103.44 -10611.52 -10497.18 -10762.51 -9927.92 -10421.95 -9592.84 -9600.13 -8393.70 -6943.59 -6435.84 -6652.80 -5690.65 -5403.87 -3781.03 -2408.36 -1664.25 -1424.57 -567.10 -142.27 55.74 255.13 269.10 283.17 277.90 288.65 303.90 321.41 328.30 332.22 332.68 343.69 355.95 388.97 415.63 446.16 484.27 498.96 485.93 494.64 498.51 506.95 661.80 1107.05 3998.96 5221.56 7148.09 7842.77 7375.11 5174.05 2862.94 619.11 214.61 -584.75 -2641.62 -6935.04 -7465.89 -6918.39 -6238.58 -5522.11 -4668.53 -4115.41 -3479.09 -2975.01 -2694.27 -2545.65 -2624.42 -3196.39 -3797.84 -4749.87 -5214.87 -5362.15 -5112.64 -4546.17 -4279.77 -3639.36 -2852.97 -2472.75 -2701.46 -3125.15 -3314.84 -3202.41 -3088.75 -2953.80 -2953.65
-13820.22 -13783.74 -13905.86 -14027.47 -14120.80 -14194.73 -14559.00 -14984.55 -15226.39 -15481.40 -15552.93 -15568.51 -15498.71 -15586.05 -15757.87 -16028.77 -16153.37 -16186.28 -16256.62 -16244.97 -15981.49 -15540.78 -13987.52 -12264.78 -12132.49 -11232.33 -11590.01 -11271.99 -8651.32 -7275.72 -5010.26 -3611.38 -2748.43 -1476.14 -355.93 191.20 260.60 261.34 291.62 281.52 270.80 183.07 -1204.21 -1385.68 -371.99 -2047.16 -2460.00 -2953.81 -3886.88 -4035.96 -4073.13 -4917.74 -6281.84 -2794.35 -7457.66 -7517.47 -7432.66 -7416.36 -7517.06 -7188.40 -6851.33 -7230.86 -6186.93 -6377.49 -4873.03 -3743.60 -4663.29 -3642.73 -3695.40 -3242.35 -1776.29 -372.66 -29.06 187.71 247.85 286.27 320.83 307.00 295.30 307.71 288.13 287.35 299.81 324.91 330.07 331.66 334.03 341.30 354.56 387.40 420.65 446.72 464.71 480.98 491.95 503.00 505.67 517.97 577.18 1003.16 1759.31 3249.48 4160.72 6570.86 8583.68 7281.85 4935.52 2176.96 1125.30 -18.88 -1724.95 -6166.91 -7054.51 -6422.90 -5909.33 -5370.25 -4598.86 -3833.08 -3358.92 -2853.13 -2581.27 -2502.51 -2561.63 -2931.54 -3632.31 -4317.04 -5126.36 -5541.58 -5649.05 -5325.83 -4806.13 -4136.19 -2893.11 -2457.11 -2479.20 -2889.25 -3072.97 -2970.16 -2870.81 -2828.08 -2828.11
-14219.50 -14223.65 -14354.07 -14565.63 -14555.76 -14743.95 -14941.05 -15091.81 -15268.34 -15390.85 -15423.02 -15350.26 -15358.44 -15463.25 -15767.46 -16010.32 -16160.98 -16215.75 -16257.77 -16297.52 -16171.14 -15820.13 -15005.05 -14350.00 -14096.30 -14352.78 -13950.55 -12794.21 -9700.63 -6827.80 -5103.14 -3633.64 -2657.40 -1302.05 -68.59 201.57 353.10 443.07 419.55 293.42 277.38 342.36 186.32 164.53 253.46 246.42 229.82 26.90 -163.39 -439.44 -275.78 160.77 -1400.50 -1190.78 -4620.48 -6389.31 -6224.07 -6082.07 -5738.50 -5640.37 -5376.38 -4890.13 -3923.78 -2924.02 -2295.15 -1754.65 -2067.82 -1788.53 -1601.47 -1195.51 -623.31 232.23 264.64 328.31 415.56 556.37 492.40 362.80 343.53 331.71 318.98 283.71 273.66 312.01 327.78 331.57 339.97 347.65 376.15 394.36 422.82 451.43 467.34 482.11 494.25 512.66 524.04 566.91 593.95 912.52 1802.96 2389.48 4136.51 6540.13 7699.48 8551.37 5196.95 2919.44 2030.60 95.96 -2353.85 -6955.83 -7180.08 -6846.14 -5677.51 -5160.55 -4284.82 -3757.59 -3315.79 -2835.48 -2614.75 -2541.89 -2521.30 -2829.95 -3295.33 -4337.36 -5025.83 -5625.56 -5767.33 -5687.42 -5366.62 -4556.00 -3074.09 -2197.05 -2173.50 -2572.78 -2782.41 -2784.12 -2757.51 -2770.67 -2767.79
-14449.91 -14461.74 -14601.96 -14727.07 -14851.50 -14923.90 -15012.47 -15150.62 -15271.46 -15290.09 -15273.67 -15208.12 -15209.37 -15458.20 -15740.49 -16028.70 -16122.35 -16190.21 -16214.00 -16232.92 -16193.59 -16004.28 -15644.39 -15368.58 -15297.84 -15257.19 -14759.26 -13881.85 -11803.87 -8411.62 -5743.05 -4058.27 -1818.34 -676.89 174.00 251.17 398.82 505.45 537.36 385.07 417.04 556.90 578.76 331.97 405.92 426.09 286.13 339.52 135.61 107.22 235.15 228.37 194.97 99.79 -44.17 -1653.01 -3967.60 -4220.58 -4345.14 -4681.57 -4290.94 -3457.07 -2247.33 -809.45 -467.42 -389.59 -701.41 -983.54 -898.72 -528.02 -34.95 279.93 385.32 514.36 567.15 652.50 651.40 409.44 378.14 359.23 336.99 308.91 290.72 296.79 326.95 331.55 350.12 375.72 398.11 413.91 446.68 458.87 471.65 484.19 504.69 527.13 544.74 563.90 594.78 622.45 1313.81 1846.06 3469.70 5167.94 6316.21 8412.65 6552.79 4619.93 4658.96 117.99 -11.32 -2143.12 -5015.98 -6057.53 -5895.37 -4973.42 -4161.50 -3627.73 -3130.77 -2763.08 -2644.89 -2557.95 -2524.72 -2627.19 -3204.18 -4085.46 -5086.19 -5526.92 -5846.43 -5784.20 -5502.38 -4551.40 -3132.35 -2277.71 -1780.09 -2094.36 -2350.37 -2647.93 -2668.87 -2701.59 -2704.07
-14595.08 -14594.93 -14740.97 -14850.35 -14933.76 -15037.25 -15093.25 -15168.11 -15203.52 -15162.59 -15204.41 -15169.49 -15243.01 -15445.67 -15794.42 -15989.41 -16096.47 -16144.74 -16171.12 -16214.63 -16173.97 -16029.82 -15695.64 -15569.44 -15480.27 -15380.83 -15277.53 -14218.38 -12547.01 -10466.57 -7238.63 -4483.52 -747.50 -173.55 224.06 279.24 352.77 540.56 628.18 504.73 654.20 617.15 857.43 504.12 542.59 664.71 587.34 738.37 437.41 264.06 256.88 247.61 226.39 209.98 117.59 -62.33 -786.61 -1598.79 -1539.89 -2111.45 -2444.65 -1245.30 -541.11 -43.05 -31.78 -34.78 -336.12 -538.12 -208.74 55.99 282.46 429.92 743.36 789.52 743.98 755.13 742.12 539.49 391.60 375.99 351.48 311.72 296.10 275.18 297.42 336.31 361.93 377.76 400.46 425.28 449.03 465.15 478.11 496.53 508.72 521.07 541.14 555.28 582.52 620.76 739.56 1240.03 2128.58 3698.23 5402.28 7833.11 9113.89 5859.12 4687.10 1876.76 271.02 -159.91 -2848.11 -6115.33 -6150.48 -4977.15 -3934.60 -3523.41 -3140.47 -2787.86 -2677.85 -2552.05 -2518.17 -2683.01 -3026.86 -4041.78 -4843.35 -5576.24 -5911.34 -5866.24 -5662.63 -4907.82 -3483.96 -2405.61 -1593.94 -1752.18 -2246.94 -2532.70 -2751.93 -2752.86 -2753.00
-14730.83 -14733.88 -14819.36 -14925.77 -15010.74 -15062.76 -15088.24 -15102.27 -15080.25 -15055.30 -15070.97 -15157.36 -15326.51 -15515.24 -15751.34 -15961.19 -16093.80 -16145.40 -16168.52 -16185.77 -16102.75 -15953.84 -15527.34 -15257.46 -15102.73 -15120.54 -14986.47 -14388.98 -12790.89 -10866.89 -6564.03 -1873.07 107.73 195.51 249.25 280.97 354.62 502.31 694.63 720.68 650.54 876.14 982.81 863.95 1031.02 1051.09 1164.76 1169.25 747.69 312.31 263.54 278.27 255.89 235.73 231.36 144.98 -36.53 -457.67 -386.32 -191.50 -915.68 -585.53 -41.12 108.98 189.58 93.95 -56.58 -154.70 -132.77 119.31 330.52 639.10 688.46 703.50 560.42 559.86 602.66 534.67 451.45 373.16 344.83 329.88 305.40 273.14 303.79 332.09 365.96 385.59 409.68 430.88 453.47 468.23 481.91 498.35 510.01 537.11 552.46 571.36 582.05 607.60 624.68 653.51 889.89 2771.32 4037.39 7891.87 8904.79 7996.09 6042.93 2612.03 325.21 -33.91 -1865.05 -5546.12 -6351.91 -5671.87 -4366.73 -3759.03 -3263.56 -2947.59 -2711.74 -2590.66 -2542.07 -2697.71 -3112.59 -3952.98 -5045.37 -5737.13 -5992.95 -5936.71 -5588.25 -5049.84 -3608.65 -2629.83 -1629.41 -1519.49 -2077.23 -2725.95 -2844.39 -2899.18 -2924.10
-14920.97 -14920.75 -14983.03 -14999.96 -15044.33 -15045.62 -15060.27 -15030.66 -15013.14 -15027.85 -15073.30 -15179.65 -15291.72 -15571.44 -15757.57 -16015.88 -16104.45 -16157.38 -16179.83 -16196.76 -16077.24 -15674.87 -15010.13 -14657.58 -14584.19 -14718.16 -14342.79 -13666.59 -11984.76 -10540.60 -6635.13 -1617.72 215.24 233.54 257.91 322.06 535.17 709.97 781.99 621.85 818.26 1186.44 1303.10 1267.70 1291.44 1459.04 1282.09 1098.91 771.80 490.73 445.03 315.03 302.35 267.23 253.44 245.57 239.96 243.89 234.50 216.66 157.56 78.77 99.06 177.13 229.04 216.61 150.58 41.43 225.88 326.46 409.62 582.08 560.20 542.20 447.47 453.72 475.63 522.07 466.18 403.17 358.41 322.75 295.39 273.80 282.18 313.90 365.56 386.99 418.85 438.59 458.68 471.82 479.03 493.56 516.43 534.67 555.95 580.60 592.29 614.43 623.17 644.91 878.50 1566.52 3658.03 6240.24 6922.20 7845.50 6978.27 5883.29 1388.14 117.61 -1734.01 -4468.61 -5995.16 -5895.66 -5000.78 -4250.46 -3581.47 -2974.04 -2778.30 -2629.92 -2600.52 -2702.76 -3218.58 -4126.44 -4838.48 -5701.17 -6027.42 -5951.78 -5818.27 -4995.64 -3839.38 -2387.97 -1794.82 -1691.52 -2310.82 -2698.23 -3037.23 -3149.85 -3150.08
-15075.49 -15075.34 -15061.81 -15038.44 -15023.05 -14972.19 -14932.50 -14960.33 -15050.56 -15076.00 -15148.76 -15280.06 -15375.49 -15564.42 -15754.51 -15956.12 -16108.82 -16176.92 -16222.11 -16244.57 -16024.96 -15373.75 -14612.33 -14224.52 -14049.62 -13961.34 -13553.39 -13164.04 -11920.34 -10144.60 -7125.44 -867.81 246.61 253.82 272.38 381.78 698.63 1154.52 1200.87 804.80 646.66 848.28 1251.46 1440.76 1512.77 1487.27 1153.55 808.00 672.28 602.78 668.51 361.69 379.03 314.95 359.07 294.02 255.88 297.98 254.56 255.66 257.74 256.05 257.40 255.13 254.91 285.76 287.79 218.09 322.34 417.70 464.71 520.70 460.50 382.07 357.06 369.78 448.46 521.11 553.54 430.85 388.83 314.65 292.94 275.78 272.63 286.94 359.84 381.42 408.31 439.84 460.19 474.09 480.97 501.18 511.89 525.76 555.63 577.10 594.94 604.51 631.84 641.53 679.86 969.26 3371.38 4295.91 5234.00 7086.86 6908.17 6109.79 2337.44 256.63 -472.15 -1881.48 -5611.88 -6326.98 -5537.77 -4752.98 -3816.50 -3193.19 -2877.92 -2710.79 -2708.81 -2792.27 -3181.45 -3855.13 -4924.35 -5568.53 -6018.12 -6044.71 -5802.54 -5138.18 -3657.42 -2723.97 -1984.42 -1871.21 -2267.33 -2807.32 -3108.07 -3250.21 -3250.31
-15105.13 -15105.07 -15081.94 -15039.66 -14969.42 -14921.90 -14876.97 -14926.67 -15088.92 -15167.06 -15231.40 -15288.62 -15434.03 -15585.14 -15723.99 -15961.01 -16099.05 -16210.69 -16297.89 -16293.83 -16101.09 -15296.56 -14645.55 -14096.01 -13874.06 -13733.19 -13421.95 -12297.81 -11370.85 -7180.39 -3139.99 229.18 249.96 268.48 300.67 595.51 877.28 1180.70 1330.34 1038.96 859.80 1169.58 1362.94 1539.53 1571.31 1377.94 1324.37 1062.67 1071.76 948.32 592.38 465.96 755.96 572.53 388.30 426.06 366.88 389.35 310.07 405.70 374.26 404.04 277.07 290.96 288.96 309.68 329.35 342.99 345.40 432.22 425.75 372.31 333.78 349.36 343.91 333.52 355.17 377.93 479.12 442.48 443.34 352.38 282.14 274.56 272.40 276.75 325.55 350.30 391.71 396.50 442.19 473.39 484.46 502.03 510.76 524.56 547.61 581.35 596.05 608.77 628.34 653.11 664.00 688.53 2403.92 4308.82 5923.06 7394.25 6448.17 3466.32 1641.64 271.30 57.82 -1784.57 -3394.59 -6131.03 -5917.55 -4906.77 -3977.63 -3383.29 -3072.89 -2820.12 -2765.59 -2805.14 -3243.56 -3789.44 -4722.91 -5449.62 -5935.38 -6048.88 -5860.53 -5096.46 -4006.62 -2893.64 -2160.03 -2045.94 -2394.87 -2885.21 -2984.40 -3065.12 -3065.00
-15095.17 -15095.55 -15096.89 -15052.82 -14974.36 -14914.52 -14901.60 -14988.00 -15098.21 -15180.90 -15251.84 -15331.33 -15450.50 -15561.88 -15772.23 -15953.03 -16121.13 -16221.68 -16340.58 -16404.19 -16133.34 -15350.94 -14751.93 -13999.37 -13833.15 -13440.70 -12848.96 -10464.51 -9031.50 -5770.97 -281.03 228.52 264.75 277.59 428.50 474.54 628.17 791.33 1056.17 1295.13 877.68 1235.23 1432.93 1550.87 1495.00 1403.49 1349.26 1171.83 771.78 623.43 509.73 579.98 855.37 505.16 482.83 677.22 630.58 518.96 422.76 496.65 632.82 520.79 479.62 386.69 334.88 349.41 354.74 396.10 433.01 396.84 335.86 306.26 316.35 313.79 309.33 308.16 323.23 358.28 375.26 369.54 406.14 323.22 285.62 273.65 272.31 279.26 295.80 323.89 361.99 393.93 458.29 477.58 485.08 502.84 517.35 534.03 563.88 571.24 589.67 611.54 629.54 659.33 699.61 745.22 845.59 3689.65 5385.03 7595.63 7054.40 3521.18 1885.93 556.42 110.36 -716.64 -2823.74 -6847.96 -6234.74 -5337.66 -4461.04 -3590.98 -3175.91 -2912.27 -2868.14 -2858.73 -3114.08 -3841.35 -4421.68 -5306.98 -5738.58 -6014.52 -5935.74 -5558.49 -4344.00 -2938.48 -2342.50 -1988.36 -2204.42 -2712.94 -2827.40 -2757.74 -2711.89
-15117.10 -15117.01 -15175.01 -15176.37 -15068.95 -15036.72 -15075.94 -15067.12 -15123.09 -15188.80 -15251.36 -15329.66 -15479.31 -15598.02 -15852.16 -15961.17 -16074.52 -16175.31 -16267.82 -16346.13 -16112.17 -15404.67 -14489.89 -13963.43 -13366.34 -13037.68 -12133.24 -9617.29 -7399.61 -2347.57 -249.41 239.17 308.67 349.88 444.20 739.91 714.35 979.27 913.02 1227.62 1143.21 1041.55 1234.09 1445.65 1537.81 1384.97 1234.37 937.14 1161.46 1039.62 660.84 713.87 934.69 455.82 676.58 882.19 956.52 810.12 620.95 530.04 824.75 871.44 757.90 568.28 458.97 394.09 404.15 432.81 418.11 349.66 305.85 300.09 300.14 299.50 300.93 296.05 287.42 303.47 298.71 286.18 292.42 282.97 280.19 273.12 272.29 272.72 277.59 307.47 378.85 419.60 459.93 483.51 495.84 509.95 523.55 542.72 553.87 566.42 593.14 620.87 643.20 675.94 708.43 764.43 874.93 2906.47 4302.20 6232.03 6224.65 3606.71 2839.53 921.40 160.95 -415.57 -1364.75 -5134.81 -6664.12 -5572.27 -4465.91 -4074.79 -3304.96 -3071.75 -2919.99 -2946.20 -3079.97 -3900.69 -4390.78 -5047.12 -5633.33 -5886.99 -5914.93 -5501.66 -4323.20 -3228.15 -2448.61 -1982.22 -2057.21 -2349.39 -2457.58 -2420.66 -2420.55
-15177.63 -15177.51 -15302.78 -15333.23 -15325.03 -15224.82 -15255.05 -15163.63 -15132.44 -15160.24 -15197.66 -15336.96 -15466.97 -15576.59 -15681.72 -15790.81 -15904.69 -15853.22 -15869.75 -15911.16 -15610.66 -14830.61 -13692.09 -13350.18 -12399.57 -10856.79 -9664.60 -7794.43 -5112.32 -1089.42 99.04 255.72 315.56 436.73 406.12 609.62 1004.47 1204.10 1018.09 1300.67 1316.15 1153.96 1276.23 1452.84 1535.53 1291.15 1211.80 1357.35 1406.41 1135.59 911.42 1032.67 916.76 589.76 874.26 1056.12 1024.04 829.11 765.58 842.49 884.43 879.15 724.46 663.97 435.60 405.91 419.99 438.32 377.57 326.10 307.78 305.39 304.28 300.49 292.89 282.70 276.11 278.85 283.33 285.62 284.62 280.98 274.82 272.35 272.15 287.13 309.29 333.96 380.63 428.31 460.81 485.18 499.82 521.26 536.91 550.83 556.74 574.10 613.65 631.53 659.59 690.08 723.77 786.29 900.21 1800.01 5988.87 8301.33 10338.18 5825.51 3169.40 2162.75 118.97 -210.42 -1763.65 -4325.18 -6900.48 -6130.99 -5182.40 -4036.88 -3509.71 -3173.92 -3018.52 -2962.00 -3184.05 -3635.40 -4344.86 -4794.94 -5285.00 -5837.39 -5924.42 -5374.28 -4350.69 -3412.14 -2451.50 -1959.30 -1878.35 -2090.61 -2223.22 -2190.24 -2190.17
-15281.71 -15281.57 -15454.06 -15528.74 -15569.13 -15526.35 -15406.05 -15332.93 -15201.20 -15152.92 -15179.27 -15362.74 -15478.99 -15593.04 -15490.90 -15459.36 -15267.72 -15089.73 -15354.75 -15199.48 -14809.26 -13897.38 -12996.50 -11798.31 -9712.94 -9208.85 -6345.53 -5008.60 -2001.54 -8.64 -9.71 282.88 369.39 560.67 688.50 641.96 998.12 1389.82 1441.86 1330.71 1531.69 1320.47 1318.11 1484.88 1514.70 1390.96 1503.84 1520.55 1394.25 1196.81 1224.67 1022.29 862.83 835.22 1046.30 1031.83 1002.84 979.68 907.42 990.39 850.52 665.76 559.29 502.64 485.50 466.18 477.90 458.57 387.26 347.93 311.95 309.60 305.97 299.64 290.23 276.03 276.39 277.53 279.34 280.99 279.22 275.04 272.99 272.04 273.30 301.75 346.34 357.67 390.09 452.41 463.69 495.60 510.99 532.15 546.07 553.90 569.16 578.84 602.52 633.52 659.90 700.28 735.49 755.91 932.71 2024.28 4590.60 5638.75 8804.75 5985.30 4486.11 2385.13 152.97 -319.71 -2275.84 -4609.96 -7087.81 -6365.05 -5444.28 -4148.66 -3650.86 -3224.36 -3038.01 -2912.98 -3028.97 -3521.67 -3992.93 -4716.97 -4994.91 -5338.56 -5650.51 -5307.74 -4485.21 -3363.73 -2635.88 -1993.96 -1763.47 -1894.09 -1894.83 -1955.19 -1955.11
-15361.81 -15378.56 -15498.64 -15702.48 -15723.71 -15727.01 -15669.27 -15404.63 -15273.32 -15157.07 -15196.89 -15354.92 -15488.80 -15470.75 -15255.73 -15005.58 -14849.53 -14807.36 -14919.51 -14645.68 -14085.21 -12954.81 -10899.88 -9120.47 -7814.53 -6004.48 -4352.21 -1822.86 -559.39 208.18 188.16 439.29 707.38 923.51 1028.87 958.87 1036.43 1290.22 1583.15 1486.68 1641.86 1563.81 1474.06 1569.98 1579.87 1523.91 1584.73 1551.62 1440.40 1332.47 1207.65 943.72 1057.05 1106.14 1137.25 1021.62 822.78 867.21 819.95 782.42 673.34 714.99 737.08 584.77 601.49 563.59 545.43 493.24 375.47 368.14 330.32 313.06 309.27 304.32 287.72 275.96 275.97 276.99 278.82 279.06 277.20 275.38 273.91 272.04 285.51 323.14 369.14 384.46 410.44 453.84 481.58 499.85 520.68 536.49 558.84 569.77 573.71 586.11 605.12 627.27 650.96 707.75 736.78 765.24 787.73 1518.99 3150.84 5302.46 7280.64 6463.33 3899.89 2090.78 371.14 -90.67 -1044.39 -5502.52 -6825.52 -6738.58 -5550.30 -4189.07 -3625.62 -3227.08 -2981.48 -2896.79 -3029.44 -3445.75 -3837.72 -4337.04 -5065.91 -5284.93 -5520.45 -5065.55 -4158.08 -3595.04 -2666.44 -2072.44 -1722.21 -1701.91 -1726.83 -1775.10 -1775.07
-15394.52 -15394.43 -15593.79 -15762.33 -15843.40 -15834.23 -15795.44 -15581.32 -15324.78 -15199.58 -15194.07 -15308.16 -15382.11 -15375.01 -15079.76 -14743.47 -14608.15 -14527.51 -14195.94 -14091.52 -13143.59 -11297.44 -9312.83 -6885.72 -5557.37 -4152.92 -2547.64 -633.56 179.88 243.62 362.43 633.65 891.46 1111.59 1206.40 1182.35 1261.06 1407.12 1541.31 1585.68 1666.97 1617.57 1584.15 1631.55 1627.64 1635.98 1632.91 1615.99 1464.95 1417.36 1240.56 1167.58 1257.02 1249.30 1091.72 948.45 928.96 831.50 804.55 873.19 985.48 916.36 723.01 602.27 664.54 718.90 642.87 495.89 399.45 374.34 361.79 326.30 309.73 309.17 294.48 275.70 275.93 277.08 278.14 278.13 277.44 275.76 273.39 272.64 291.70 323.84 355.18 377.75 414.80 461.72 494.49 514.91 535.83 552.43 560.01 578.51 584.86 591.08 609.85 641.37 668.75 696.55 725.20 755.19 800.47 2142.40 3798.98 5875.77 6832.82 5247.31 3265.90 1327.39 338.55 -98.38 -1265.53 -4744.23 -7255.70 -6736.46 -5256.93 -4020.14 -3430.12 -3266.17 -2960.59 -2818.32 -2866.96 -3331.98 -3833.33 -4199.84 -4772.07 -5090.18 -5398.89 -5077.05 -4173.08 -3596.38 -2693.62 -2111.59 -1654.53 -1557.15 -1544.09 -1654.16 -1654.17
-15417.33 -15417.24 -15613.63 -15788.01 -15893.90 -15891.97 -15849.67 -15571.44 -15375.63 -15215.69 -15215.86 -15224.49 -15265.88 -15183.90 -14916.22 -14569.57 -14229.69 -13963.93 -13475.91 -12613.30 -11341.85 -9809.43 -7074.04 -5257.69 -4863.44 -2572.44 -843.56 132.22 243.11 273.09 378.04 573.52 692.76 883.89 1097.17 1311.45 1436.65 1610.17 1679.19 1687.54 1608.17 1608.40 1622.35 1634.08 1596.96 1615.12 1587.45 1600.91 1446.18 1344.76 1354.78 1309.32 1300.52 1271.10 1186.07 1167.72 1006.21 902.01 1042.18 992.41 910.78 775.30 696.30 670.46 715.07 688.02 584.68 480.70 483.88 376.86 349.64 332.21 310.63 309.64 302.56 287.38 275.79 276.29 277.18 276.77 276.29 275.89 274.55 273.16 300.67 330.62 352.96 385.17 432.42 483.15 497.58 521.86 546.05 561.40 568.82 577.28 589.07 596.03 599.75 623.72 653.09 675.02 719.97 739.71 792.39 1335.21 2394.74 5152.57 7077.62 6617.57 4229.35 2905.69 212.55 -257.97 -1585.62 -4430.08 -6596.28 -6780.41 -4879.72 -3923.07 -3321.48 -3131.32 -2889.58 -2760.32 -2864.57 -3282.66 -3864.34 -4189.20 -4698.53 -5095.55 -5392.13 -5137.83 -4258.47 -3446.53 -2801.27 -2167.28 -1710.29 -1429.25 -1421.50 -1546.22 -1546.22
-15439.41 -15462.86 -15600.34 -15787.68 -15859.61 -15840.64 -15769.99 -15588.99 -15386.45 -15251.20 -15223.12 -15182.02 -15061.11 -14940.48 -14692.03 -14049.00 -13373.80 -12415.77 -11730.51 -11267.59 -10968.08 -8187.03 -5353.77 -4503.94 -2874.06 -1073.93 81.80 210.26 258.04 284.64 327.92 364.16 412.80 505.44 759.55 1048.19 1314.37 1541.38 1719.89 1696.19 1471.14 1438.46 1549.19 1525.34 1487.01 1445.51 1390.96 1509.80 1429.16 1300.61 1193.30 1186.21 1226.32 1233.13 1251.08 1225.47 1049.56 1017.81 1212.59 1124.38 825.79 867.53 936.40 794.00 714.03 622.86 562.31 547.52 507.79 396.48 319.52 313.46 316.47 319.32 312.52 300.85 287.88 279.98 276.02 276.08 275.88 275.56 278.26 299.09 327.55 353.47 380.43 419.22 451.78 488.15 509.18 523.98 541.81 561.72 568.97 579.53 587.10 596.49 604.63 612.99 626.89 630.47 655.82 699.84 738.55 2594.31 4335.38 6477.32 7805.10 6332.36 3730.43 1057.59 200.44 -267.80 -1431.92 -3823.66 -5728.47 -6468.58 -4996.95 -3723.95 -3265.87 -3049.22 -2920.56 -2786.46 -2924.34 -3311.38 -3719.88 -4251.00 -4672.54 -5082.62 -5355.98 -5069.92 -4213.79 -3501.29 -2934.53 -2447.90 -1655.18 -1388.89 -1339.41 -1480.58 -1480.62
-15362.76 -15362.74 -15514.34 -15696.80 -15753.15 -15696.51 -15603.96 -15488.43 -15280.41 -15166.29 -15113.32 -15032.13 -14855.58 -14315.61 -13422.59 -12506.29 -11524.09 -11100.48 -10497.16 -9994.56 -8819.39 -7335.68 -5175.27 -4123.24 -2437.91 -1113.49 109.42 229.09 265.59 275.38 457.63 591.27 597.78 786.71 860.22 816.06 1112.16 1381.62 1597.88 1647.34 1569.22 1342.02 1348.04 1353.57 1244.96 1251.53 1252.28 1239.44 1299.99 1219.59 1053.83 1076.74 1140.85 1154.32 1211.71 1201.37 1137.22 1131.59 1268.25 1189.81 911.01 1154.90 1086.77 803.74 692.21 685.84 654.50 685.90 554.64 398.11 335.70 333.57 342.39 342.23 327.29 313.96 302.02 294.30 279.43 278.87 281.41 285.49 294.90 317.40 334.68 363.28 394.42 421.39 451.52 480.09 500.97 530.24 543.45 559.90 570.63 581.54 588.43 595.24 609.26 615.36 617.75 615.27 620.22 641.61 706.47 2497.98 4089.68 6171.56 8152.00 5749.50 3751.59 2364.05 483.03 15.64 -1528.92 -3114.78 -5179.83 -5508.20 -4865.63 -3667.27 -3311.90 -3035.58 -2946.29 -2891.21 -2980.72 -3300.16 -3750.25 -4293.44 -4651.13 -5069.33 -5313.65 -5141.20 -4180.23 -3518.99 -3023.70 -2512.04 -1815.01 -1288.35 -1234.48 -1355.61 -1364.76
-15160.39 -15160.45 -15314.44 -15476.90 -15516.74 -15445.89 -15290.58 -15163.85 -15109.50 -15099.17 -15004.59 -14674.94 -13850.43 -13472.59 -12472.52 -11220.28 -10500.41 -10030.54 -9787.64 -9526.12 -8604.73 -6988.80 -4962.16 -3970.59 -3143.67 -1799.73 -383.58 202.82 283.25 329.25 572.11 813.48 858.94 787.52 1281.22 1287.49 1289.54 1442.12 1516.24 1693.77 1585.77 1392.08 1175.09 1079.34 1085.51 1055.17 1083.80 1151.98 1132.07 1045.14 1010.04 1027.37 1073.32 1057.07 1110.07 1115.16 1212.23 1308.41 1339.92 1163.11 1113.17 1368.28 1123.15 900.45 815.97 750.29 668.86 671.48 545.84 412.63 388.58 367.94 390.59 392.28 382.04 347.49 313.11 296.40 284.22 282.91 286.24 289.72 305.31 324.25 335.59 356.38 375.80 406.02 442.51 469.07 490.25 526.02 542.76 555.00 575.25 585.61 601.42 608.92 623.98 631.60 635.23 628.31 630.63 638.44 1029.15 2509.58 3774.16 6182.36 7853.42 6411.96 5765.01 4449.38 161.87 -59.07 -1418.57 -3309.31 -5229.08 -5188.92 -4521.56 -3664.20 -3114.14 -3096.97 -3089.58 -3030.49 -3099.00 -3363.52 -3765.29 -4173.87 -4732.39 -5002.41 -5171.71 -4849.78 -4209.91 -3500.82 -3050.19 -2568.93 -1640.91 -1322.27 -1034.75 -1112.39 -1112.30
-14997.58 -14997.60 -15172.20 -15323.12 -15253.76 -15088.11 -14926.87 -14837.29 -14934.64 -14944.48 -14846.69 -14227.21 -12887.47 -11492.73 -9999.24 -9696.61 -9218.82 -9467.51 -9708.54 -9519.01 -8523.87 -6818.65 -5173.80 -3673.98 -3244.67 -2388.06 -1405.02 -12.47 290.54 321.91 543.21 875.53 1044.34 1094.94 935.12 1251.43 1413.43 1584.18 1637.64 1709.29 1538.93 1351.02 1287.47 1170.52 1006.92 1037.40 984.44 1065.35 1042.65 995.38 953.87 970.78 992.98 988.51 1017.14 1079.17 1186.11 1381.54 1507.26 1307.55 1399.92 1412.45 1331.56 1109.48 906.18 917.74 866.85 749.37 607.59 463.73 415.01 440.98 427.42 403.43 393.74 363.66 335.57 307.54 290.80 287.16 289.51 295.50 309.96 319.62 350.71 362.10 378.73 407.14 431.81 459.29 485.07 504.64 532.83 547.91 579.62 617.96 634.55 656.89 645.60 656.16 639.32 640.83 653.61 665.37 1789.08 2624.99 4950.09 6920.06 6599.03 4902.48 4542.21 1520.19 193.79 -23.59 -761.84 -2710.19 -3671.82 -4763.57 -4493.71 -3775.38 -3249.01 -3218.28 -3212.90 -3126.17 -3129.57 -3347.25 -3741.90 -4111.19 -4647.46 -4952.36 -5018.56 -4757.60 -3975.66 -3401.88 -2943.64 -2249.12 -1459.54 -1075.29 -844.57 -924.52 -924.48
-14827.86 -14851.49 -15036.77 -15197.44 -15040.21 -14839.51 -14395.77 -14436.31 -14516.44 -14684.87 -14376.48 -13556.62 -11468.62 -10241.36 -9210.96 -8553.87 -8623.04 -9230.84 -9693.92 -9618.73 -8601.49 -6671.67 -5431.52 -3753.07 -3124.35 -2272.16 -1133.20 267.99 301.66 321.06 429.76 705.47 997.52 1335.08 1226.78 1213.44 1388.14 1499.95 1711.66 1692.47 1579.39 1522.26 1325.43 1153.15 1024.91 881.76 887.20 988.84 1021.14 934.88 933.38 916.39 926.92 949.25 988.43 1126.63 1293.18 1486.09 1688.16 1550.04 1695.10 1796.69 1527.91 1350.07 1148.10 1184.20 983.04 984.85 772.08 536.65 464.85 473.36 452.17 433.08 394.97 364.88 336.53 309.67 296.67 289.62 289.16 292.72 309.06 327.23 350.00 370.81 381.75 403.19 420.62 442.67 461.80 499.48 528.33 549.13 594.33 618.81 644.03 677.86 684.73 662.77 658.09 687.06 670.58 899.73 1693.66 3196.16 5814.00 8058.37 6336.75 3651.83 1182.61 585.80 190.01 -137.16 -668.89 -2192.89 -3815.42 -4686.80 -4229.02 -3715.69 -3489.70 -3402.20 -3357.95 -3209.26 -3215.64 -3426.51 -3922.00 -4272.35 -4613.62 -4823.57 -4894.00 -4675.26 -4092.41 -3444.10 -2782.81 -2015.06 -1403.08 -726.07 -777.97 -996.79 -996.95
-14629.52 -14629.60 -14753.84 -14778.05 -14566.91 -14167.20 -13755.02 -13742.32 -13963.22 -13481.22 -12891.45 -11968.52 -10665.48 -8946.95 -8358.21 -7954.91 -8249.98 -8905.28 -9670.11 -9608.93 -8880.42 -6765.29 -5182.36 -3759.58 -3220.64 -2542.02 -1352.04 33.89 297.31 305.65 404.64 631.67 930.17 1253.00 1389.67 1311.80 1495.87 1567.29 1661.48 1661.19 1543.00 1271.93 1159.98 1045.92 1068.99 893.94 844.04 895.36 974.63 926.71 884.37 884.10 905.75 912.63 952.97 1080.58 1269.49 1437.30 1778.79 1917.29 1888.60 1808.27 1570.39 1301.09 1303.56 1244.48 1016.83 815.50 786.06 625.55 543.31 500.48 470.77 451.95 409.00 380.25 354.42 319.38 305.05 293.50 291.08 294.42 307.80 321.77 335.34 360.80 379.83 393.18 411.61 436.63 463.11 500.12 534.16 573.85 606.36 633.19 660.03 682.77 702.36 702.67 706.10 722.92 730.65 975.66 2196.96 2797.97 4804.79 7380.43 5403.59 4005.67 2795.65 597.78 -245.26 -676.78 -1728.32 -2476.10 -3975.04 -4685.06 -4350.78 -3791.89 -3610.36 -3547.17 -3419.50 -3308.90 -3245.27 -3576.77 -3862.93 -4334.26 -4619.69 -4780.21 -4854.11 -4594.52 -4016.86 -3347.28 -2585.52 -2006.57 -788.10 -531.38 -877.82 -1232.69 -1232.97
-14540.41 -14532.17 -14276.20 -13733.20 -13202.29 -12904.94 -12428.94 -11990.90 -12046.14 -11978.72 -11066.73 -9786.15 -9466.28 -8692.96 -8194.49 -7946.11 -8152.03 -8848.30 -9526.00 -9562.92 -8816.79 -7028.79 -5326.05 -3695.50 -3314.99 -2650.44 -990.48 84.34 291.02 338.84 544.13 814.96 1116.74 1393.25 1328.14 1272.87 1392.77 1527.68 1599.24 1529.94 1458.78 1332.17 1235.90 1054.96 891.78 889.98 791.37 848.12 930.22 848.29 837.84 855.60 881.71 901.52 927.60 959.12 1169.48 1461.87 1837.79 1928.43 1903.06 1732.13 1397.13 1197.59 1127.08 1092.54 912.61 697.98 633.83 588.31 561.12 509.69 478.37 439.30 402.42 400.41 372.22 349.77 311.97 302.90 296.46 296.00 303.83 315.48 336.93 359.75 379.46 388.62 416.61 449.53 475.11 519.27 544.74 580.77 618.87 637.43 675.99 697.37 712.67 714.87 726.00 748.97 778.47 2357.26 3593.60 4312.54 6056.84 7208.17 7543.91 4672.98 2663.58 431.36 -245.42 -973.99 -2205.28 -3095.50 -3983.18 -4572.56 -4285.16 -3912.32 -3636.09 -3595.42 -3540.84 -3383.63 -3405.62 -3660.39 -4036.04 -4315.44 -4559.42 -4764.41 -4932.92 -4703.10 -4129.08 -3384.58 -2339.16 -1492.80 -745.69 -522.75 -919.56 -1428.51 -1428.77
-14085.45 -14085.89 -13276.23 -12535.40 -11815.11 -11099.09 -10720.54 -10350.11 -10116.61 -10049.94 -9873.26 -9279.55 -8868.94 -8670.59 -8473.88 -8278.65 -8420.25 -8816.39 -9291.65 -9342.14 -8630.83 -7733.08 -5319.28 -3816.90 -2988.76 -2312.09 -1255.37 -289.91 290.13 353.60 442.92 787.54 1133.79 1217.86 1163.21 1005.40 1254.66 1387.69 1443.66 1369.25 1215.12 1134.79 1154.86 1033.16 903.30 763.32 763.79 768.91 775.54 797.16 816.71 820.92 851.00 863.95 872.92 920.99 1027.99 1200.27 1550.45 1794.59 1706.12 1402.82 1226.73 1089.25 959.25 841.53 850.40 769.39 710.78 659.17 608.89 523.83 483.32 459.27 408.44 401.50 384.81 357.91 323.73 311.14 299.74 298.75 303.56 313.05 340.17 359.83 381.43 407.30 443.11 460.01 490.23 525.73 545.99 589.39 618.13 636.03 693.29 726.67 735.19 735.76 774.90 830.44 1518.36 2328.47 3438.00 5509.43 6376.77 7245.31 6686.20 5751.08 1545.49 451.02 96.21 -618.71 -2151.54 -3841.84 -4352.36 -4456.03 -4282.19 -3912.15 -3568.91 -3531.12 -3507.04 -3373.81 -3411.79 -3596.31 -4004.28 -4162.21 -4465.34 -4778.24 -4966.32 -4758.82 -3997.88 -2807.07 -1893.69 -1142.22 -554.45 -685.73 -1178.35 -1331.07 -1331.02
-12787.07 -12788.84 -12200.39 -11147.36 -10654.96 -9800.07 -9639.89 -9623.13 -9650.50 -9693.78 -9514.25 -9110.01 -9069.18 -8987.98 -8758.32 -8616.66 -8468.77 -8650.74 -8925.17 -8917.17 -8495.92 -7337.82 -5704.26 -3788.14 -2803.39 -1973.40 -1330.00 117.34 291.01 308.10 333.47 748.81 888.50 931.55 783.10 876.78 1188.41 1208.92 1265.99 1311.25 1144.67 955.29 894.78 856.41 783.54 700.89 717.11 726.28 718.68 774.07 805.76 811.62 829.96 852.01 855.68 926.97 1024.64 1353.54 1482.45 1716.23 1768.33 1547.82 1419.21 1152.45 988.73 951.02 1024.91 904.04 844.15 746.91 620.43 540.71 483.17 485.89 435.56 408.10 390.72 374.10 341.33 316.00 306.32 300.84 306.69 318.27 333.42 359.03 377.28 417.15 432.44 474.81 509.16 535.93 588.09 620.05 632.03 677.21 714.80 755.61 776.53 780.42 814.89 1401.12 2337.38 2318.58 3681.46 6184.91 6712.16 4554.88 4043.88 3324.34 818.04 314.80 132.38 -315.11 -1937.84 -4207.74 -4467.99 -4496.95 -4250.31 -3760.47 -3504.40 -3475.97 -3505.24 -3387.21 -3338.74 -3593.67 -3927.50 -4060.12 -4386.87 -4782.09 -5021.97 -4736.76 -3689.69 -2364.53 -1245.85 -772.15 -675.18 -1022.94 -1173.37 -1059.54 -1059.24
-11724.01 -11725.85 -11261.27 -10658.72 -10191.46 -9667.28 -9712.49 -9903.68 -10001.13 -10071.48 -9797.11 -9651.66 -9377.08 -9417.85 -9181.04 -8841.59 -8592.94 -8557.20 -8597.92 -8670.13 -8192.82 -7233.32 -5557.09 -4083.87 -2877.72 -2072.38 -1040.67 120.48 291.13 310.74 333.50 596.11 657.17 574.15 668.31 1102.40 1318.35 1106.25 995.83 1177.92 1018.00 910.17 755.99 702.45 689.67 690.19 700.46 712.43 720.65 744.72 775.41 794.51 808.59 845.64 864.21 935.80 1144.33 1269.83 1446.17 1495.04 1751.12 1730.51 1569.66 1222.62 1226.42 1274.96 1204.94 1088.57 978.29 831.28 695.04 581.63 525.29 502.10 468.06 446.03 408.24 378.78 375.74 331.82 333.37 312.60 309.54 313.57 343.36 357.08 380.27 413.18 438.60 462.96 517.02 538.92 585.88 634.87 661.29 696.59 733.97 756.55 795.41 816.43 832.48 2595.98 3715.44 3662.78 5223.49 6525.88 5552.20 3714.19 3438.95 1811.23 495.74 252.35 133.24 -324.93 -1441.47 -3357.17 -4437.79 -4397.37 -4005.79 -3702.85 -3400.76 -3391.09 -3412.19 -3307.58 -3293.47 -3526.06 -3715.18 -3870.68 -4267.95 -4778.57 -5123.86 -4328.23 -3001.48 -1661.92 -866.53 -827.86 -1017.77 -1135.82 -1304.70 -1285.30 -1285.87
-11571.85 -11572.07 -11256.76 -10929.35 -10611.07 -10430.55 -10428.17 -10530.04 -10515.61 -10444.10 -10272.87 -10150.26 -10062.95 -9882.18 -9513.08 -8883.66 -8612.46 -8545.81 -8552.30 -8511.57 -8383.20 -7355.73 -5744.90 -4525.62 -3341.68 -1521.08 -385.28 272.65 304.47 314.55 374.36 381.60 492.70 710.21 864.73 1081.36 1154.00 1119.39 815.26 843.46 963.28 914.09 730.06 627.45 624.56 658.92 681.38 706.60 713.70 758.78 780.65 787.02 803.61 857.66 877.06 904.66 939.74 1029.53 1172.18 1458.01 1813.79 1778.86 1573.72 1542.34 1546.62 1502.43 1380.92 1315.55 1109.04 927.37 776.28 688.52 647.75 581.07 570.78 506.07 493.42 433.02 425.84 387.59 382.65 331.90 319.96 318.99 331.95 352.76 378.52 408.01 432.70 479.08 493.47 552.09 572.96 623.50 650.16 716.86 729.54 772.58 801.54 834.33 1329.46 3511.67 5056.80 6025.79 7439.43 6632.44 4761.80 2792.48 3079.43 2647.95 331.15 211.25 105.85 -593.88 -1084.01 -3761.87 -4422.80 -4198.89 -3657.10 -3402.69 -3211.25 -3258.87 -3331.45 -3242.70 -3190.92 -3315.46 -3519.94 -3758.17 -4569.44 -4973.13 -5077.35 -4162.19 -2710.06 -1279.96 -1001.09 -1062.87 -1264.27 -1435.25 -1650.91 -2162.06 -2164.69
-11660.24 -11659.66 -11454.35 -11197.70 -11104.98 -11035.05 -11021.07 -10976.06 -10977.55 -10830.25 -10629.52 -10462.43 -10361.32 -10079.64 -9645.65 -8989.53 -8639.78 -8520.57 -8531.11 -8447.60 -7949.23 -7078.84 -5946.33 -4053.83 -3218.15 -1729.80 102.71 276.88 316.96 322.39 328.26 404.97 570.51 762.83 794.48 674.81 837.46 975.47 776.76 553.63 684.28 811.88 667.32 605.75 595.69 620.38 665.52 704.25 715.63 757.83 782.93 789.48 807.80 860.33 880.49 881.91 998.93 1185.91 1519.91 1671.97 1727.16 1785.02 1669.89 1646.01 1611.06 1546.55 1552.40 1404.74 1256.29 1142.74 967.09 795.85 639.80 600.67 600.89 573.61 536.22 476.29 490.42 475.88 453.29 364.61 352.37 323.46 339.12 360.23 375.87 394.83 439.87 467.95 491.30 542.62 583.68 621.25 650.28 687.69 721.89 751.68 808.23 1310.01 2447.32 3042.81 4526.30 6909.59 8162.36 7089.20 5223.84 2059.83 1595.66 854.56 302.95 196.22 -255.90 -983.89 -1565.45 -2696.89 -4198.81 -3911.76 -3524.89 -3067.20 -2906.89 -3040.32 -3260.27 -3086.72 -2972.25 -3105.13 -3614.43 -3827.08 -4646.29 -5301.65 -5060.26 -3718.82 -2172.15 -1242.67 -1223.92 -1498.17 -1647.64 -1955.29 -2435.99 -3092.92 -3097.84
-11695.98 -11695.69 -11562.72 -11400.19 -11284.21 -11245.37 -11252.76 -11277.24 -11153.66 -10994.02 -10892.10 -10699.73 -10563.65 -10359.18 -9687.84 -9219.25 -8856.30 -8605.02 -8526.66 -8320.55 -7700.37 -6490.04 -5381.31 -3665.26 -3283.81 -2078.75 -599.32 194.79 278.39 295.38 332.47 403.88 459.38 527.69 599.02 560.97 486.19 563.29 576.83 491.09 656.70 675.06 624.33 533.65 572.84 612.29 664.69 705.77 719.49 768.04 788.18 790.19 801.10 857.25 878.34 914.68 1041.72 1388.45 1545.30 1637.22 1791.13 1697.20 1469.04 1403.82 1334.05 1378.42 1419.24 1404.29 1270.23 1068.47 982.76 759.23 627.18 498.48 538.55 516.82 442.16 399.86 408.12 415.68 437.27 374.12 376.61 341.11 337.80 344.67 370.78 393.97 430.53 462.03 485.62 523.98 560.31 601.68 623.47 652.77 676.48 719.11 847.32 1842.12 3167.83 3761.37 5977.60 7734.15 5821.66 4159.88 2591.16 2277.06 605.74 365.77 257.17 68.21 -207.02 -898.44 -1777.73 -3396.23 -4087.32 -3584.35 -3149.66 -2853.93 -2777.22 -2978.52 -3218.66 -3226.08 -3056.83 -3289.03 -3603.54 -4499.19 -5328.68 -5351.74 -5084.55 -3347.72 -2095.40 -1822.72 -1967.86 -2007.13 -2172.87 -2551.05 -3018.20 -3700.58 -3704.05
-11716.82 -11715.83 -11639.10 -11521.84 -11484.16 -11445.84 -11386.91 -11339.22 -11199.51 -11044.32 -10965.63 -10892.18 -10715.49 -10462.10 -9883.98 -9312.54 -8946.85 -8792.26 -8656.42 -8241.44 -6830.27 -5586.97 -4456.19 -3283.23 -3097.18 -2934.14 -1714.42 32.30 203.95 238.78 291.07 293.44 319.19 358.26 439.31 448.95 349.29 414.85 353.80 407.82 580.80 509.15 503.44 504.35 569.22 607.82 655.63 710.27 744.65 775.16 795.55 808.90 820.83 864.06 888.24 931.47 1047.47 1146.83 1322.11 1500.50 1795.68 1751.43 1550.19 1269.88 1038.44 1204.74 1209.31 1218.94 1094.65 858.73 875.61 782.19 639.54 427.84 382.63 444.93 373.99 339.57 341.32 345.50 311.98 295.68 300.89 306.63 307.91 337.13 364.45 375.43 406.13 447.72 481.65 512.13 539.00 586.08 607.04 642.20 670.88 855.70 1355.66 1976.17 2433.54 5044.54 6529.97 7845.27 6108.49 4164.50 3015.61 1094.72 508.09 290.41 237.52 105.34 -183.81 -972.23 -2118.04 -3679.47 -4189.25 -4072.72 -3402.94 -3128.89 -3111.15 -3425.93 -3782.92 -3780.82 -3780.62 -4150.14 -5032.32 -5710.23 -5991.69 -5855.29 -5033.84 -3448.85 -2502.70 -2148.43 -2238.05 -2345.01 -2624.20 -3294.06 -3582.48 -4057.04 -4056.25
-11722.20 -11722.18 -11692.18 -11611.42 -11607.36 -11605.16 -11518.11 -11398.48 -11227.55 -11094.47 -10988.13 -10898.76 -10723.48 -10577.49 -10241.92 -9619.18 -9412.59 -9081.08 -8602.07 -7848.22 -6943.78 -5395.62 -4229.52 -3442.89 -3212.46 -3223.57 -2421.88 -1432.18 -1303.94 -214.63 61.08 77.40 193.64 298.03 333.56 308.03 305.45 340.44 328.42 400.15 436.14 458.95 437.02 496.93 611.89 698.94 717.91 743.37 774.67 832.51 866.28 878.94 885.84 953.49 959.00 1008.43 1066.68 1063.62 1234.99 1379.06 1569.78 1654.28 1448.83 1177.36 930.88 978.54 1081.90 1094.55 964.92 791.50 632.51 612.09 543.49 495.25 388.61 328.25 316.21 296.32 307.36 295.69 251.64 264.86 268.62 273.72 288.02 320.51 350.16 371.54 373.05 432.53 464.79 498.57 533.92 566.89 585.27 630.73 730.10 842.93 2574.71 2885.33 3511.62 5331.86 7490.30 7306.60 4795.10 3947.79 2633.71 882.69 442.85 270.10 224.35 -5.34 -195.20 -1381.97 -2548.12 -4093.51 -4880.20 -4512.50 -4190.75 -3944.06 -3944.46 -4160.05 -4452.47 -4695.53 -4667.51 -5293.23 -5964.89 -6429.30 -6668.88 -6155.15 -4895.95 -3889.18 -3063.70 -2595.63 -2568.57 -2658.47 -3110.24 -3581.54 -3885.25 -4225.46 -4225.33
-11749.03 -11749.01 -11716.62 -11691.22 -11681.66 -11677.24 -11534.30 -11372.06 -11231.82 -11126.20 -11056.46 -10966.67 -10892.10 -10703.82 -10284.01 -9852.00 -9629.35 -9247.97 -8488.34 -7953.97 -6993.60 -5903.62 -4108.38 -3638.64 -3375.35 -3389.09 -3259.60 -2985.51 -2179.65 -563.62 -467.04 -276.53 108.04 284.90 306.46 308.34 301.52 314.49 328.47 337.68 364.09 388.57 407.57 554.31 793.80 853.25 865.36 854.20 853.74 970.09 1053.74 982.06 976.71 1193.40 1189.57 1120.30 1240.67 1233.20 1241.58 1363.81 1560.15 1560.48 1333.94 1201.97 1087.75 816.28 1056.17 1152.78 996.83 639.43 521.57 504.08 465.68 429.43 409.98 293.56 279.44 283.36 274.43 241.70 212.42 201.44 228.57 245.72 279.64 300.51 322.23 358.33 382.50 416.08 437.32 489.02 515.18 533.09 550.66 616.33 745.07 1666.21 2926.01 4379.89 5681.58 7422.31 7705.95 5468.18 4369.89 3392.65 1297.17 560.16 336.70 222.51 148.51 -72.02 -990.16 -1811.38 -3042.33 -4636.20 -5137.44 -4975.04 -4810.59 -4140.77 -4369.87 -4687.75 -5194.61 -5403.09 -5487.03 -6108.85 -6758.54 -6969.37 -6922.63 -6368.36 -5134.88 -4341.89 -3608.04 -2960.99 -2936.97 -3177.83 -3554.91 -3894.51 -4115.35 -4303.49 -4303.51
-11786.62 -11786.56 -11754.18 -11745.03 -11727.67 -11701.37 -11570.90 -11458.05 -11336.98 -11186.35 -11102.91 -11069.82 -10970.31 -10766.56 -10596.79 -10118.08 -9692.78 -9444.85 -8709.07 -8120.98 -7355.08 -5962.67 -4438.65 -3747.92 -3554.99 -3470.31 -3463.82 -2802.64 -2169.94 -1075.44 -737.53 -647.37 -141.36 171.40 259.26 284.12 297.97 299.90 313.77 328.88 337.10 347.02 365.86 430.76 780.68 813.25 842.84 768.90 884.62 1091.15 1142.31 1225.82 1222.44 1237.32 1260.19 1348.80 1443.94 1453.54 1524.26 1505.41 1476.78 1422.69 1259.91 1146.65 1125.61 921.88 890.31 853.28 913.24 639.02 581.45 513.91 448.89 361.72 342.34 305.06 262.78 255.16 238.63 218.60 211.93 186.54 186.25 223.57 250.21 287.81 303.75 329.59 355.96 392.43 405.66 456.06 486.93 519.31 546.77 597.35 1062.76 2075.98 2744.12 4672.12 7041.30 7820.46 6521.99 4573.37 4470.11 3403.36 971.41 301.46 252.74 60.93 -30.66 -177.83 -1149.59 -1818.30 -2623.19 -3847.12 -5148.39 -5046.83 -4940.47 -4661.42 -4558.04 -5024.13 -5372.90 -5804.00 -6164.75 -6681.28 -6986.68 -6984.41 -6664.26 -6196.31 -5251.96 -4751.94 -3978.71 -3353.37 -3304.85 -3514.21 -3762.75 -4007.33 -4222.35 -4343.05 -4343.15
-11805.22 -11805.12 -11787.33 -11771.01 -11755.88 -11721.82 -11660.18 -11525.12 -11373.18 -11227.02 -11159.74 -11108.45 -11053.91 -10951.13 -10683.31 -10341.11 -9961.89 -9657.25 -9174.53 -8773.47 -7711.65 -6186.04 -4986.01 -4074.08 -3754.22 -3618.35 -3559.97 -3094.87 -2331.28 -1346.99 -903.02 -784.93 -606.75 203.12 238.76 259.69 282.62 278.02 291.70 283.32 290.14 317.75 332.59 371.83 544.14 594.01 602.22 523.31 838.00 891.25 1015.66 1179.50 1129.73 1009.99 1072.76 1186.49 1298.89 1259.17 1465.71 1319.46 1250.68 1267.12 1046.66 977.32 940.04 915.24 654.06 781.51 827.33 581.17 496.53 481.67 433.72 361.28 321.52 273.20 256.38 251.09 237.76 220.30 196.87 180.09 177.30 206.50 231.18 267.52 282.95 292.64 307.96 336.86 371.25 426.13 467.54 450.22 507.53 1244.34 2171.64 2364.63 3684.47 6126.62 6293.01 6295.76 5171.07 3498.33 2653.91 1765.30 321.00 241.37 221.93 44.22 -458.51 -1054.02 -1198.71 -2424.18 -3702.51 -4935.26 -5169.39 -5196.12 -5188.19 -5044.05 -5049.39 -5614.50 -5916.37 -5975.42 -6449.82 -6788.15 -6957.37 -6927.75 -6686.17 -6167.17 -5856.42 -5030.65 -4206.78 -3823.12 -3619.83 -3766.80 -4001.51 -4179.24 -4298.09 -4340.06 -4340.11
-11780.72 -11778.38 -11772.57 -11752.07 -11742.46 -11719.99 -11687.68 -11561.50 -11377.22 -11247.51 -11113.03 -11090.13 -11022.72 -10939.88 -10707.33 -10504.33 -10085.39 -9736.13 -9397.97 -9110.64 -8684.97 -7134.66 -5847.01 -4516.40 -3965.14 -4088.98 -3991.73 -3761.59 -3202.02 -1946.18 -1367.54 -1571.85 -1005.91 -60.80 205.72 231.37 260.59 257.53 258.54 265.37 271.12 282.86 286.68 306.50 331.36 406.63 406.34 419.19 632.01 656.54 842.32 1004.58 972.58 732.10 873.85 1082.45 916.15 1072.76 1293.65 1078.30 987.05 1017.98 828.31 795.50 817.24 782.23 605.17 766.76 721.11 582.43 392.53 385.04 343.60 319.67 306.03 268.00 251.11 246.71 228.02 201.49 174.67 170.57 179.13 200.20 213.30 227.15 255.31 257.05 268.77 289.45 324.39 388.48 420.99 437.77 696.19 1794.69 3519.18 3007.59 3679.48 7399.56 6921.07 4413.58 2982.71 3104.95 2042.64 703.03 282.97 184.03 113.66 -72.35 -848.12 -1374.36 -2469.88 -4410.67 -4890.68 -5175.25 -5209.01 -5395.10 -5438.30 -5696.33 -5701.20 -6183.24 -6421.47 -6590.30 -6595.49 -6817.46 -6968.33 -7072.04 -7008.48 -6572.07 -6151.38 -5578.18 -4433.69 -4037.96 -3894.62 -4124.08 -4284.21 -4321.21 -4366.27 -4376.68 -4376.70
-11688.11 -11687.92 -11674.80 -11677.42 -11655.77 -11653.25 -11596.49 -11500.01 -11342.80 -11085.96 -10939.17 -10901.94 -10916.90 -10875.09 -10716.88 -10595.63 -10307.09 -10066.05 -9818.20 -9736.76 -9220.44 -7851.63 -6853.67 -5882.74 -5079.74 -4825.33 -5084.25 -4999.88 -4115.47 -3482.65 -3217.03 -2636.37 -3353.75 -2758.15 -1004.04 194.42 234.22 249.52 252.19 255.67 259.97 264.57 265.12 262.85 277.08 320.25 311.33 424.97 412.50 369.20 534.96 594.28 605.01 548.91 760.44 805.13 768.52 944.09 970.10 875.05 786.13 701.79 683.70 675.99 650.70 664.07 602.43 692.46 613.76 497.26 380.23 352.82 319.00 309.13 286.34 251.92 245.88 223.63 218.66 185.19 165.94 171.18 188.78 207.68 223.02 238.78 251.62 253.75 256.72 264.76 301.35 350.18 367.36 427.54 787.93 2332.96 4539.13 3988.19 5316.22 7005.00 7087.66 4084.90 2434.15 1739.67 958.01 378.44 223.28 123.86 8.28 -128.48 -974.67 -1856.25 -3910.93 -5180.92 -5197.44 -5135.99 -5237.82 -5495.83 -5897.17 -6049.63 -6138.25 -6518.49 -6802.37 -6879.44 -6890.86 -6978.60 -7300.19 -7348.47 -7342.87 -7095.18 -6811.89 -6325.54 -4712.73 -4360.03 -4239.37 -4287.07 -4332.87 -4394.71 -4421.70 -4435.51 -4435.69
-11560.00 -11554.11 -11553.32 -11562.61 -11572.84 -11566.25 -11501.60 -11401.44 -11195.41 -10918.01 -10762.58 -10714.52 -10655.21 -10622.81 -10611.04 -10572.92 -10411.99 -10283.44 -10085.61 -9895.54 -9771.07 -8999.33 -7314.44 -6773.30 -6504.06 -6424.90 -6026.35 -6198.72 -6024.37 -5368.23 -4607.74 -4893.70 -4680.91 -4717.90 -3525.22 -49.53 210.47 215.76 204.94 226.43 236.13 242.74 254.23 257.05 259.66 278.47 291.17 281.69 275.46 316.41 375.11 483.38 423.03 484.15 669.39 637.90 570.60 795.01 822.55 620.97 574.62 530.84 483.02 571.60 591.56 566.87 516.74 548.18 526.17 413.01 365.20 335.55 313.82 298.41 273.14 244.49 228.80 191.32 187.41 174.42 164.98 171.55 182.20 208.32 225.98 239.84 248.24 251.14 251.67 252.73 288.31 313.32 341.02 629.79 2278.25 2788.93 4586.37 6078.03 6980.84 6519.90 5448.74 2723.65 1690.39 1020.43 567.29 320.59 157.63 96.00 -14.12 -358.41 -1177.49 -3673.84 -6657.70 -5292.81 -5075.72 -5106.53 -5359.42 -5617.03 -6012.52 -6191.18 -6317.16 -6664.89 -6872.23 -7011.05 -7114.34 -7216.54 -7428.47 -7811.50 -7847.28 -7747.19 -7445.44 -6654.29 -5358.22 -4610.45 -4270.61 -4274.94 -4278.63 -4226.05 -4234.11 -4272.01 -4272.43
-11518.18 -11518.12 -11500.82 -11497.47 -11487.29 -11471.56 -11434.43 -11331.24 -11057.28 -10855.85 -10688.56 -10563.38 -10510.59 -10525.59 -10526.56 -10593.47 -10573.28 -10534.16 -10336.89 -10144.44 -9945.60 -9329.38 -8604.97 -7878.83 -7275.88 -7039.90 -7258.80 -7259.36 -7003.11 -7124.33 -6831.02 -6664.72 -6800.05 -6275.45 -4929.72 -1647.35 -3.06 142.21 154.20 194.31 196.47 209.45 206.50 220.36 255.61 258.00 263.08 273.14 275.00 290.65 297.67 316.47 408.26 462.82 521.67 517.25 453.20 580.23 597.04 472.32 466.54 439.27 407.12 465.02 556.15 593.83 529.44 472.69 409.56 371.34 362.66 330.72 301.71 267.76 259.87 227.95 178.04 159.92 159.80 163.01 164.49 172.51 188.71 209.67 225.41 236.40 244.07 248.22 250.35 262.35 284.33 315.53 358.37 1338.93 2198.81 2855.43 5234.62 6890.39 7232.82 5457.83 3954.92 3343.51 839.34 549.43 278.76 241.35 131.19 103.38 -290.61 -593.31 -1141.49 -5192.49 -6769.15 -5639.46 -5060.65 -5149.94 -5398.77 -5691.95 -5959.05 -6100.58 -6320.67 -6532.52 -6813.16 -7051.38 -7195.60 -7540.48 -7956.17 -8058.40 -8147.70 -8013.84 -7659.89 -6931.23 -5838.10 -4609.05 -4244.66 -4020.61 -3976.12 -3901.55 -3905.80 -3804.03 -3804.42
-11546.14 -11546.07 -11499.32 -11483.03 -11479.93 -11471.83 -11439.41 -11288.10 -11063.90 -10781.28 -10656.88 -10512.32 -10468.23 -10441.04 -10488.22 -10599.42 -10648.48 -10607.95 -10354.17 -10226.51 -9839.00 -9394.37 -8662.67 -8003.10 -7595.20 -7544.48 -7506.64 -7622.16 -7736.17 -7732.36 -7677.46 -7477.25 -7575.02 -7080.05 -4800.07 -1091.92 -319.83 -165.22 28.02 46.79 113.66 148.18 148.34 150.39 205.84 251.92 254.94 259.08 268.18 273.30 273.18 313.28 381.40 416.72 432.93 447.21 362.74 386.27 488.04 399.22 442.36 410.07 386.95 430.85 490.49 594.83 569.08 455.91 407.57 368.84 359.26 339.47 279.29 252.26 244.68 209.33 159.60 158.74 158.72 160.79 165.35 178.64 201.96 214.39 226.79 234.22 240.57 246.98 249.78 250.87 255.96 349.50 960.44 2770.32 3089.34 5370.56 7328.80 7629.17 6236.00 3569.55 2477.42 3621.78 664.33 329.60 250.09 196.04 118.87 -136.85 -481.96 -811.76 -1659.89 -3843.43 -6470.13 -5953.36 -5168.03 -5271.35 -5536.64 -5690.62 -5849.07 -5919.92 -6183.80 -6346.32 -6561.68 -6997.12 -7259.02 -7727.05 -8080.28 -8317.51 -8279.16 -8145.83 -7963.31 -6646.19 -5492.26 -4785.89 -3891.04 -3696.75 -3518.85 -3439.47 -3399.47 -3397.99 -3409.40
-11534.49 -11534.36 -11469.26 -11421.47 -11415.14 -11437.24 -11415.71 -11279.26 -11058.17 -10833.10 -10675.01 -10565.31 -10488.60 -10441.39 -10528.78 -10627.62 -10717.51 -10635.86 -10385.47 -10103.70 -9615.14 -9323.41 -8639.67 -8073.33 -7861.47 -8045.62 -8339.32 -8055.84 -8143.79 -8305.73 -8102.30 -7991.92 -8242.02 -7470.16 -7179.62 -4022.09 -1958.25 -535.38 -253.20 -125.91 -1.28 60.38 58.89 40.93 67.39 112.05 229.05 252.82 258.63 270.03 273.49 297.18 385.99 423.03 413.22 361.14 327.88 312.81 381.27 320.74 363.35 325.56 381.26 386.15 380.64 467.59 541.21 461.65 359.96 345.62 348.13 313.76 263.99 251.16 242.12 218.12 158.75 158.08 159.01 163.89 170.49 188.00 204.93 212.12 224.56 232.25 238.77 243.89 248.20 251.92 294.00 365.36 1090.09 3000.91 4179.09 5639.19 8326.26 8263.42 7252.54 4168.59 4545.48 2070.83 924.85 268.75 235.76 104.21 10.49 -322.03 -943.18 -1632.89 -2362.94 -5699.80 -6420.68 -6003.78 -5518.69 -5460.62 -5533.30 -5648.97 -5720.96 -5874.73 -6075.87 -6201.15 -6395.09 -6647.98 -7158.16 -7617.45 -8090.39 -8339.91 -8383.84 -8279.02 -8065.40 -7009.06 -5170.23 -4492.02 -3760.02 -3455.99 -3318.80 -3376.89 -3393.68 -3515.29 -3515.19
-11424.97 -11407.51 -11338.00 -11318.15 -11311.24 -11345.40 -11276.41 -11243.05 -11054.09 -10883.60 -10769.94 -10649.20 -10551.30 -10504.77 -10545.63 -10606.94 -10635.74 -10557.00 -10229.79 -9986.58 -9495.94 -9080.30 -8669.00 -8463.40 -8646.27 -8803.65 -8849.31 -8909.70 -9219.48 -9106.76 -9171.41 -9229.68 -9278.33 -8735.00 -7858.80 -5399.14 -2455.04 -972.36 -649.95 -332.63 -164.96 -91.80 -60.26 -99.54 -26.80 86.87 207.39 228.25 248.08 248.95 265.13 294.82 346.78 325.66 279.26 278.51 273.89 264.69 290.18 287.11 320.31 318.31 320.08 337.13 324.52 496.09 555.65 513.74 386.42 318.50 321.72 286.44 252.96 249.21 222.88 171.46 158.01 157.12 158.12 164.61 175.45 191.13 199.45 212.24 223.41 230.52 238.19 240.73 246.25 252.51 351.47 371.04 2131.94 3644.45 4103.08 6061.65 7598.06 7441.64 5104.91 4099.98 3161.29 621.39 321.33 261.70 212.55 61.35 -32.62 -470.70 -862.25 -2412.21 -4679.27 -6763.44 -6439.17 -6020.94 -5806.08 -5689.97 -5608.53 -5571.28 -5557.42 -5771.02 -5909.46 -5999.32 -6046.20 -6409.30 -6730.90 -7351.05 -7821.93 -8269.50 -8371.65 -8344.57 -7912.74 -7119.27 -5774.44 -4175.57 -3636.05 -3421.16 -3381.70 -3477.02 -3600.95 -3767.49 -3767.52
