-12484.49 -12483.77 -12761.08 -12509.53 -12727.63 -13005.71 -13417.77 -14121.06 -14700.99 -15085.14 -15270.76 -15309.15 -15345.36 -15375.23 -15450.34 -15620.55 -15678.88 -15790.97 -15825.11 -15857.47 -15602.95 -14821.08 -12713.01 -11406.13 -9668.18 -9548.10 -9642.73 -9301.97 -8047.01 -7212.73 -6026.68 -4928.19 -4435.46 -2321.07 -1155.03 -389.69 -383.00 43.75 192.82 193.31 169.54 130.54 -1758.79 -2582.00 -2843.41 -5502.61 -5563.02 -7374.14 -6343.28 -7922.90 -8818.34 -7557.44 -7076.47 -12100.16 -11581.88 -11535.65 -11794.55 -12175.02 -11959.93 -12285.39 -11382.83 -11899.77 -10994.00 -10972.34 -9635.42 -8057.52 -7764.32 -8358.26 -7410.82 -6956.77 -3890.60 -2378.13 -843.25 76.18 172.12 187.79 205.47 276.01 328.06 306.79 300.68 279.95 316.02 331.56 346.93 366.84 396.74 400.72 426.70 489.54 510.38 529.40 603.08 741.78 796.92 844.56 694.25 344.95 240.88 215.06 166.48 121.96 -819.33 -3422.80 -4521.41 -4261.18 -4175.29 -4627.95 -4702.12 -4612.08 -4219.88 -3558.77 -2910.75 -2490.46 -2415.36 -2452.20 -2983.32 -3750.98 -6618.72 -6362.90 -4481.83 -3294.08 -3099.36 -3623.30 -4238.06 -5199.03 -5660.01 -5798.95 -5519.33 -4916.91 -4628.76 -3957.68 -3148.30 -2754.00 -2973.76 -3389.07 -3572.55 -3452.69 -3333.85 -3191.02 -3190.87
-13141.02 -13108.74 -13233.36 -13371.93 -13487.15 -13589.88 -13983.02 -14439.59 -14715.77 -15006.25 -15109.21 -15156.12 -15107.77 -15224.39 -15421.25 -15717.93 -15864.25 -15912.31 -16002.86 -16001.32 -15761.46 -15347.86 -13920.91 -12349.55 -12229.91 -11382.11 -11690.40 -11362.22 -8877.32 -7589.64 -5431.13 -4108.07 -3195.21 -1642.39 -233.80 226.91 237.63 229.35 221.45 227.19 196.21 168.17 -444.54 -579.16 -217.12 -1334.09 -2175.81 -3836.02 -2298.26 -1918.67 -2173.26 -3709.31 -3589.15 -1340.61 -6705.24 -7540.71 -9204.34 -8917.53 -8985.37 -8576.11 -8292.95 -8595.35 -7515.40 -7580.94 -5899.27 -4720.95 -5937.49 -4309.22 -4610.25 -4289.41 -2881.86 -1129.23 -78.96 160.57 178.07 241.25 252.38 303.36 339.01 353.68 347.10 335.69 343.36 370.89 374.21 396.35 409.24 417.64 441.41 484.57 502.94 503.08 503.29 518.01 578.36 506.33 446.54 356.95 528.43 221.84 206.16 144.18 -513.33 -2358.53 -3722.85 -4222.77 -4227.56 -4262.72 -4389.81 -4604.65 -4881.95 -5009.62 -3977.67 -3772.26 -2989.79 -2048.90 -1717.54 -2019.79 -2348.96 -4692.45 -4750.35 -3653.07 -3159.04 -3349.62 -4069.71 -4769.39 -5584.43 -5913.61 -5933.73 -5664.62 -5192.35 -4468.90 -3189.73 -2743.42 -2754.64 -3156.79 -3334.88 -3226.06 -3121.39 -3071.36 -3071.39
-13514.59 -13522.32 -13656.91 -13888.78 -13896.41 -14129.85 -14349.13 -14529.85 -14743.37 -14897.15 -14980.70 -14929.09 -14969.84 -15102.72 -15434.52 -15696.31 -15872.44 -15946.05 -16005.79 -16057.13 -15950.59 -15625.51 -14872.51 -14272.12 -14035.19 -14250.06 -13849.93 -12762.14 -9868.50 -7212.32 -5642.54 -4145.52 -2767.19 -1024.61 206.74 260.05 280.82 307.07 308.37 247.70 203.17 197.05 175.31 140.68 152.50 129.34 86.71 -152.30 -38.18 95.63 90.36 120.00 -618.88 -487.19 -2479.94 -3248.57 -4578.41 -7967.36 -6464.38 -7252.27 -7021.45 -5858.64 -4823.03 -3521.48 -3122.96 -2548.87 -2917.48 -1013.13 -281.16 -176.65 -125.35 122.57 155.53 189.87 248.07 365.76 351.38 304.73 350.26 395.79 392.11 359.79 366.09 400.13 401.34 419.27 428.94 441.59 456.57 477.94 492.40 484.98 490.87 470.99 443.73 506.97 583.37 701.92 655.90 344.66 200.30 171.68 118.42 -1267.93 -2741.85 -4119.04 -4226.03 -4174.21 -4304.48 -4565.87 -5148.45 -5432.12 -5365.16 -4927.96 -3827.81 -3160.91 -2714.55 -1930.79 -2218.19 -3284.24 -4341.31 -3849.32 -3231.93 -3282.18 -3725.01 -4795.88 -5515.38 -5933.15 -5964.28 -5926.57 -5776.39 -4926.40 -3384.26 -2482.43 -2450.45 -2843.34 -3046.14 -3042.96 -3011.22 -3019.76 -3016.32
-13723.12 -13738.04 -13885.49 -14026.28 -14175.40 -14281.36 -14403.50 -14587.51 -14747.18 -14790.84 -14820.62 -14784.38 -14817.62 -15100.88 -15406.78 -15723.63 -15833.70 -15934.29 -15964.67 -15997.92 -15975.45 -15798.53 -15457.19 -15198.92 -15124.42 -15070.48 -14585.87 -13744.16 -11833.67 -8882.51 -5839.26 -3730.30 -1451.27 42.17 204.76 224.60 312.97 345.31 341.37 283.19 336.06 266.87 262.20 204.74 223.04 184.98 146.53 127.52 122.85 119.25 138.96 161.71 155.62 136.12 123.85 -244.38 -858.51 -3454.41 -3272.45 -3795.73 -2844.03 -2830.82 -1907.68 -534.31 -377.92 -313.47 -159.20 -13.31 114.41 123.35 118.95 134.68 184.22 224.04 271.26 427.11 469.03 332.04 371.72 398.27 411.07 412.04 413.21 420.03 426.86 434.27 448.40 456.05 460.05 463.76 457.68 457.29 458.30 456.70 460.98 536.82 711.37 860.03 756.66 646.29 290.11 202.02 151.17 -665.55 -1773.18 -3491.35 -4259.91 -4180.25 -4217.03 -4556.08 -4766.07 -5235.28 -5435.24 -5326.38 -5044.58 -4453.47 -3975.66 -3375.38 -2709.34 -2432.00 -2626.66 -3183.21 -3342.97 -3126.82 -3640.75 -4548.53 -5608.00 -5964.60 -5967.31 -5948.66 -5827.05 -4933.59 -3447.76 -2569.72 -2056.66 -2366.79 -2618.57 -2910.47 -2925.97 -2955.05 -2957.00
-13850.88 -13850.73 -14003.90 -14132.40 -14247.70 -14383.53 -14470.55 -14589.25 -14672.40 -14666.91 -14741.21 -14748.70 -14856.76 -15083.87 -15467.87 -15687.12 -15812.28 -15886.48 -15923.48 -15986.40 -15959.25 -15824.72 -15502.58 -15379.90 -15288.47 -15174.06 -15059.81 -14098.47 -12640.20 -10978.74 -5648.62 -2589.56 -184.46 176.92 202.50 229.52 325.88 375.13 383.42 352.84 404.05 357.18 393.18 255.95 275.20 267.52 197.33 195.85 144.25 166.89 183.54 177.76 177.23 169.55 138.61 124.63 -86.90 -350.37 -100.21 87.12 93.14 26.59 26.25 130.17 140.38 151.07 66.90 140.40 170.67 155.72 159.02 193.07 341.24 345.13 379.34 471.93 500.01 394.88 420.14 423.66 425.66 429.77 428.94 436.38 455.99 461.85 475.85 473.72 475.31 467.94 467.56 457.21 463.37 462.68 469.83 502.92 607.61 754.66 855.32 690.54 442.46 269.43 190.45 143.16 106.25 -1078.45 -3860.35 -4147.39 -4221.10 -4444.72 -4793.18 -5114.09 -5263.14 -5469.75 -5602.36 -5489.92 -5397.83 -4990.89 -4049.99 -3254.06 -2880.14 -3860.32 -3420.47 -3191.97 -3471.43 -4521.19 -5394.86 -5912.06 -5983.37 -5954.18 -5921.32 -5308.08 -3821.91 -2702.57 -1872.18 -2024.95 -2516.88 -2798.95 -3013.20 -3009.47 -3009.61
-13973.92 -13979.38 -14074.35 -14196.86 -14306.01 -14396.30 -14453.29 -14518.03 -14540.63 -14560.94 -14607.32 -14738.80 -14950.25 -15161.77 -15423.12 -15657.25 -15815.73 -15887.13 -15930.36 -15959.69 -15894.53 -15751.93 -15334.20 -15063.53 -14899.69 -14904.98 -14772.84 -14259.91 -13048.94 -11564.71 -4806.56 -832.06 132.87 186.82 198.99 233.78 320.61 403.04 439.88 444.21 454.66 538.81 460.01 384.27 448.53 404.49 401.36 350.43 230.53 210.59 221.40 226.10 216.06 201.91 176.02 163.31 189.06 156.91 117.28 115.27 114.39 121.84 132.17 157.45 177.92 167.79 162.64 174.76 190.11 185.75 197.12 311.38 406.03 478.71 488.65 513.00 503.77 453.28 444.94 437.48 452.38 447.62 462.53 459.97 469.72 482.74 488.69 487.72 491.41 480.40 481.75 472.77 475.14 476.85 482.99 519.24 537.32 582.13 752.07 820.36 718.91 406.33 264.16 178.80 153.27 -542.58 -2723.98 -3828.92 -4117.30 -4428.38 -4867.80 -4887.21 -5158.30 -5454.23 -5625.83 -5718.47 -5756.34 -5572.90 -4999.15 -4227.24 -3546.27 -3817.91 -3584.19 -3299.05 -3627.12 -4484.25 -5628.63 -6011.06 -5993.55 -5890.81 -5812.90 -5559.99 -3980.46 -2939.92 -1906.38 -1792.60 -2348.58 -2993.84 -3108.47 -3159.39 -3183.83
-14156.69 -14156.48 -14231.27 -14271.77 -14337.48 -14385.28 -14419.70 -14448.23 -14467.88 -14542.16 -14620.56 -14767.78 -14906.11 -15226.32 -15434.18 -15722.26 -15826.08 -15899.94 -15943.52 -15975.51 -15870.37 -15476.97 -14815.91 -14459.28 -14370.29 -14496.64 -14172.45 -13635.43 -12509.77 -11421.71 -1357.08 18.61 151.71 201.48 246.28 320.03 370.51 428.09 507.94 439.24 540.51 681.45 679.10 610.93 552.85 687.48 522.09 411.16 288.75 260.79 249.10 261.76 255.20 242.15 221.94 209.08 203.57 198.36 160.01 123.72 133.36 147.34 167.65 180.57 202.69 196.99 190.87 196.79 214.00 216.10 216.57 277.87 400.44 465.98 479.09 494.57 478.13 456.43 451.48 456.83 459.52 464.00 479.80 486.10 498.08 503.10 512.58 514.23 514.65 502.25 493.22 487.95 489.37 501.08 499.71 513.92 536.00 573.02 662.75 797.93 756.47 571.20 307.80 203.45 164.78 115.35 -730.79 -2831.63 -3413.95 -4036.32 -4428.94 -4617.15 -5114.38 -5398.36 -5622.27 -5780.20 -5905.52 -5819.61 -5294.94 -3823.10 -3181.64 -3490.61 -3597.61 -3525.62 -3802.67 -4742.31 -5441.86 -6032.52 -5973.11 -5854.74 -5794.68 -5467.95 -4272.06 -2688.84 -2071.29 -1963.98 -2582.51 -2967.95 -3303.95 -3412.18 -3412.42
-14310.38 -14310.22 -14310.38 -14310.96 -14317.94 -14309.52 -14302.59 -14389.63 -14534.94 -14584.62 -14701.37 -14878.89 -14995.59 -15220.65 -15436.57 -15660.35 -15838.25 -15925.95 -15991.12 -16026.75 -15821.98 -15178.79 -14416.04 -14018.51 -13831.06 -13743.07 -13454.74 -13244.64 -12441.83 -10980.07 -2786.75 64.91 195.87 213.39 273.73 361.83 446.98 550.66 596.98 530.54 494.14 580.71 725.29 866.03 824.77 853.52 613.04 437.43 359.96 307.69 289.64 284.91 275.21 273.13 260.28 249.34 236.81 219.12 202.75 178.67 172.57 183.39 208.49 214.91 226.45 231.58 237.51 235.80 255.61 261.27 279.42 283.36 365.33 395.87 412.31 448.58 455.77 450.95 455.61 463.99 471.69 481.87 491.40 503.54 519.19 517.24 530.85 532.08 536.86 530.26 509.26 493.72 491.11 506.40 507.01 506.99 530.45 549.06 582.89 705.74 884.18 866.68 601.42 306.06 156.87 132.92 -193.42 -1873.32 -3566.18 -4062.54 -4341.03 -4530.51 -4941.03 -5138.48 -5529.78 -5772.73 -5943.62 -5915.21 -5316.55 -3715.74 -2637.45 -2552.42 -2729.01 -3417.57 -3784.48 -4349.99 -5274.07 -5790.80 -5840.11 -5626.61 -5589.41 -5352.02 -4095.06 -3060.72 -2266.67 -2143.07 -2539.29 -3078.50 -3376.55 -3514.78 -3514.88
-14346.82 -14346.75 -14338.83 -14315.91 -14276.82 -14257.67 -14266.28 -14351.15 -14571.61 -14680.93 -14795.46 -14876.94 -15064.34 -15248.09 -15408.49 -15673.02 -15831.39 -15965.47 -16072.14 -16086.63 -15900.23 -15100.51 -14446.17 -13885.95 -13655.63 -13557.68 -13419.95 -12686.99 -12059.08 -4736.84 -960.38 179.09 199.05 238.95 274.17 408.86 513.57 611.97 704.77 637.95 579.96 720.38 857.32 1029.62 1116.91 826.58 723.05 534.47 459.26 367.67 328.32 319.82 312.49 332.50 306.11 284.33 255.99 223.51 217.53 241.05 232.31 258.21 242.91 266.77 261.74 252.49 281.90 280.92 277.68 291.54 312.29 309.88 317.73 364.21 387.22 407.41 445.11 449.91 455.16 469.57 479.46 493.77 506.72 528.32 538.35 543.79 552.78 552.58 552.48 556.27 535.42 514.83 514.07 507.66 507.72 509.46 522.61 548.29 578.06 708.05 898.29 919.21 821.87 509.17 190.59 149.58 125.57 -1177.68 -3757.19 -4379.02 -4391.15 -4618.57 -4782.53 -5118.98 -5388.50 -5689.97 -5911.86 -5883.37 -5311.84 -4212.96 -2794.95 -1776.56 -2816.75 -3408.94 -3764.61 -3861.25 -4540.01 -5165.47 -5567.74 -5497.77 -5433.44 -5298.34 -4513.41 -3272.42 -2449.38 -2319.47 -2667.89 -3157.62 -3254.57 -3331.67 -3331.55
-14352.15 -14352.74 -14367.56 -14343.67 -14293.88 -14267.85 -14302.74 -14436.99 -14582.16 -14702.55 -14817.48 -14930.53 -15087.24 -15224.47 -15467.18 -15668.59 -15860.03 -15980.35 -16118.71 -16195.86 -15933.69 -15151.32 -14549.35 -13805.35 -13658.67 -13568.80 -13224.74 -10791.39 -7623.45 -2986.91 161.08 177.82 222.61 235.65 332.16 365.39 439.00 528.30 645.06 743.10 595.96 750.79 935.03 1101.06 1101.01 898.52 719.80 646.23 454.11 379.81 352.15 351.91 347.84 351.70 345.48 309.62 287.30 271.04 255.63 277.42 287.06 307.55 305.74 312.36 307.05 310.89 332.17 319.41 327.08 314.76 316.78 328.39 329.45 357.16 375.49 408.21 428.81 442.56 457.67 476.98 485.09 500.98 513.30 535.33 550.58 558.74 570.13 575.52 571.28 570.66 559.59 552.09 539.91 516.66 508.90 508.20 527.13 537.74 553.56 617.11 852.35 947.70 857.50 499.18 285.75 183.71 130.45 -2191.55 -3905.70 -4694.74 -4736.47 -4689.33 -4822.89 -5172.39 -5489.26 -5796.13 -5869.56 -5858.08 -5594.30 -4411.73 -2626.55 -2319.30 -2266.78 -3330.02 -3526.69 -3829.68 -4088.89 -4796.63 -5175.37 -5273.91 -5226.42 -5342.37 -4835.18 -3348.77 -2653.39 -2264.93 -2478.69 -2987.11 -3099.38 -3026.49 -2980.22
-14397.79 -14397.68 -14476.86 -14482.40 -14421.30 -14416.16 -14518.89 -14532.90 -14629.25 -14739.37 -14840.79 -14945.33 -15133.84 -15275.38 -15563.64 -15683.18 -15823.70 -15939.13 -16049.94 -16141.51 -15911.28 -15202.35 -14286.02 -13800.05 -13458.36 -13446.79 -13027.05 -9453.13 -7334.49 -1238.08 162.32 192.09 253.96 271.80 330.37 453.11 490.12 638.96 598.42 729.56 713.60 663.13 771.86 967.70 1079.32 774.15 660.06 512.07 554.41 501.19 417.46 405.19 392.95 371.20 367.97 368.19 385.41 382.41 334.68 299.17 353.70 432.25 379.06 396.51 393.74 362.66 361.95 366.29 348.93 346.15 342.44 349.09 354.75 370.01 400.46 414.33 429.22 449.82 461.23 477.75 488.28 504.98 526.47 549.79 562.91 580.16 593.08 596.04 601.96 594.99 580.54 565.65 552.59 549.20 529.74 517.53 508.94 528.27 558.01 582.12 790.43 926.20 941.96 624.58 314.53 181.79 130.18 109.63 -2866.83 -4786.81 -5017.94 -4895.86 -4909.62 -5252.20 -5548.64 -5754.70 -5819.80 -5805.10 -5443.81 -5011.80 -2542.26 -1982.08 -2433.15 -2960.35 -3191.13 -3794.09 -4064.52 -4754.57 -5233.56 -5147.79 -5154.86 -5120.97 -4825.93 -3686.65 -2771.25 -2261.45 -2332.40 -2624.51 -2731.07 -2690.62 -2690.52
-14489.39 -14489.25 -14638.56 -14678.77 -14702.10 -14638.95 -14706.56 -14650.41 -14651.68 -14737.96 -14798.09 -14972.26 -15126.46 -15260.05 -15394.25 -15526.65 -15652.38 -15623.97 -15653.42 -15709.54 -15411.23 -14629.82 -13518.43 -13230.85 -12804.10 -10363.25 -8514.55 -5949.04 -3998.84 147.98 188.56 208.56 270.13 346.20 337.77 399.88 618.87 708.88 636.64 780.94 784.88 712.98 965.52 1042.68 975.01 696.13 668.39 762.79 686.05 552.51 487.68 492.01 449.74 397.34 403.87 457.16 474.15 399.38 386.51 395.97 434.50 489.42 409.61 415.34 394.94 384.25 389.07 391.30 384.09 386.11 378.31 391.51 390.42 396.73 404.71 416.13 436.52 453.45 466.48 478.25 501.03 532.20 546.38 580.64 592.31 606.68 615.28 621.40 628.27 624.58 619.03 597.57 579.56 566.87 544.10 531.11 517.80 521.85 545.28 559.83 638.63 873.82 985.68 732.98 368.48 229.09 130.22 4.66 -580.81 -2130.44 -4789.29 -5010.25 -4965.81 -5149.23 -5508.58 -5639.07 -5752.68 -5745.67 -5568.80 -4142.42 -2710.57 -1882.43 -1959.19 -2503.11 -3257.31 -3615.91 -4078.24 -4386.03 -4669.14 -5010.13 -5133.10 -5097.85 -4891.90 -3887.73 -2767.64 -2238.78 -2155.12 -2367.42 -2498.34 -2461.82 -2461.75
-14629.37 -14629.21 -14822.11 -14911.61 -14986.99 -14966.99 -14884.74 -14847.72 -14758.71 -14738.42 -14792.68 -15013.14 -15153.67 -15289.24 -15213.01 -15198.50 -15023.99 -14868.21 -15141.38 -15002.03 -14616.75 -13707.93 -12832.32 -11785.09 -10484.97 -9262.57 -1847.49 -1064.93 129.59 189.10 213.28 220.83 263.08 378.73 446.42 412.79 510.16 735.35 908.70 838.34 1013.69 794.86 912.33 1113.35 1038.73 762.43 922.62 895.69 718.08 572.20 589.89 530.95 481.65 453.84 551.19 616.73 580.79 525.66 379.42 518.56 543.13 560.78 488.78 432.32 432.38 438.19 439.52 418.87 404.74 413.30 399.65 406.15 400.66 407.88 407.93 429.35 448.43 460.46 473.42 483.23 515.58 538.20 552.17 589.75 603.74 622.35 639.76 643.62 647.60 657.98 647.05 639.78 606.56 586.23 556.93 541.12 530.13 514.28 516.93 549.76 588.71 673.18 968.81 917.01 487.32 212.82 147.44 135.99 -63.56 -925.52 -2405.32 -5064.80 -5204.05 -5151.70 -5381.57 -5477.02 -5671.57 -5689.71 -5472.84 -4137.53 -2645.00 -1646.85 -1858.99 -2361.39 -2992.68 -3565.50 -3822.63 -4275.55 -4630.60 -4984.83 -5116.34 -5087.68 -4907.68 -3802.09 -2949.30 -2274.97 -2041.63 -2172.98 -2172.05 -2228.47 -2228.39
-14747.95 -14763.62 -14897.55 -15129.04 -15167.35 -15194.52 -15184.70 -14947.94 -14843.45 -14770.85 -14839.03 -15025.95 -15177.85 -15176.66 -14984.63 -14753.42 -14614.20 -14585.40 -14710.52 -14461.05 -13916.23 -12821.15 -10871.04 -9379.58 -8511.46 -5976.10 -1675.89 110.97 146.82 183.45 209.15 273.70 377.28 456.71 530.24 579.51 561.18 690.56 1016.63 983.27 1231.81 1117.12 1004.82 1095.74 1103.92 925.98 1062.78 1016.07 826.77 739.13 594.20 523.79 553.89 543.77 670.02 649.05 547.40 528.72 434.94 586.82 652.68 632.11 567.23 485.27 480.84 474.96 478.04 463.99 442.39 449.70 416.94 414.08 419.97 422.58 433.16 440.27 448.33 466.96 477.63 500.62 532.66 540.88 556.09 594.90 612.04 634.84 667.75 678.97 686.13 683.85 669.54 662.06 638.10 611.31 590.43 559.97 536.74 519.64 523.77 546.27 571.70 649.25 869.85 885.23 655.72 297.55 190.20 149.25 97.42 -73.34 -1594.24 -3836.08 -5058.23 -5204.86 -5282.21 -5487.44 -5603.04 -5705.29 -5419.82 -4129.21 -2538.02 -1519.53 -1994.40 -2122.07 -2896.98 -3474.64 -3804.36 -4126.70 -4777.39 -4945.41 -4988.65 -5015.22 -4585.00 -4103.44 -2968.53 -2355.10 -2002.69 -1982.05 -2005.78 -2050.22 -2050.20
-14819.99 -14819.88 -15038.48 -15227.90 -15330.44 -15357.49 -15332.49 -15156.34 -14933.51 -14842.75 -14853.50 -14987.66 -15080.46 -15091.19 -14818.67 -14502.24 -14382.28 -14319.18 -14028.45 -13939.57 -13049.00 -11271.81 -9403.39 -7257.27 -6408.62 -4571.37 -1345.55 73.03 167.17 191.14 246.33 351.00 447.61 553.17 683.92 706.82 736.01 755.89 882.29 1085.30 1277.44 1188.75 1238.98 1194.81 1191.85 1160.81 1270.72 1226.34 784.33 727.77 634.10 564.42 686.15 712.89 778.68 699.27 652.58 497.34 559.69 660.49 714.92 656.52 565.50 510.49 512.80 516.02 513.12 484.95 480.31 473.56 465.30 438.92 445.49 448.58 448.61 452.11 459.19 471.05 492.43 531.47 537.60 549.59 584.28 598.82 621.08 656.41 677.26 693.06 700.33 699.38 697.87 678.85 652.13 619.41 601.29 565.07 543.82 529.58 523.97 530.00 548.82 573.04 755.71 851.99 514.30 236.56 195.91 180.10 134.55 96.67 -494.14 -1803.96 -3990.76 -5155.94 -5233.83 -5433.60 -5629.54 -5650.35 -5306.99 -4195.65 -2157.85 -1499.05 -1407.05 -1930.54 -2347.46 -3576.23 -3982.39 -4060.98 -4372.92 -4640.61 -4908.20 -4929.39 -4534.02 -4096.14 -3003.31 -2397.11 -1937.46 -1839.78 -1825.37 -1931.37 -1931.38
-14880.90 -14880.79 -15098.84 -15285.07 -15415.23 -15450.16 -15430.05 -15176.84 -15003.98 -14871.01 -14890.76 -14921.19 -14980.38 -14917.82 -14669.10 -14341.51 -14036.22 -13808.97 -13380.37 -12609.62 -11407.48 -9920.78 -7339.34 -5724.76 -5474.14 -1520.34 -54.89 160.37 197.16 215.56 277.51 307.68 416.85 509.51 708.59 804.55 853.42 1012.80 1153.47 1187.55 1319.22 1284.95 1287.90 1273.82 1231.28 1234.26 1234.61 1189.68 963.76 832.41 783.45 725.28 755.67 876.48 965.97 936.89 690.63 562.28 686.92 746.88 692.25 626.09 576.50 553.39 548.19 525.96 533.44 529.75 513.55 499.52 484.94 478.82 465.88 463.19 462.17 462.85 475.96 478.83 511.93 532.50 543.91 559.36 585.72 608.60 635.30 660.44 676.19 708.61 713.44 715.87 707.43 680.65 653.48 614.98 596.40 573.40 538.12 514.28 506.58 501.44 504.49 488.72 641.43 759.28 404.77 224.38 191.81 147.56 122.50 97.91 -307.93 -2501.15 -5127.01 -5444.40 -5362.85 -5442.00 -5621.37 -5631.00 -5113.13 -4172.61 -2075.38 -1375.20 -1279.09 -1746.51 -2381.22 -3324.89 -3792.21 -3864.20 -4198.95 -4683.39 -4951.34 -4931.00 -4717.19 -3887.73 -3122.90 -2454.51 -1995.01 -1714.11 -1705.21 -1825.87 -1825.88
-14938.47 -14961.69 -15113.63 -15325.96 -15422.90 -15431.73 -15378.10 -15224.34 -15035.56 -14923.73 -14913.84 -14895.85 -14794.43 -14691.12 -14462.78 -13873.20 -13264.59 -12428.79 -11826.73 -11403.02 -11119.23 -8475.27 -5765.71 -5011.31 -2880.32 -267.30 150.75 183.95 206.14 249.71 311.81 354.33 360.25 379.94 503.08 639.94 798.42 988.98 1214.24 1267.34 1297.88 1159.15 1210.46 1159.75 1117.91 1093.93 1075.01 1163.25 1128.70 1007.01 888.39 873.72 830.71 960.10 1014.13 953.46 689.14 656.96 885.80 839.25 682.57 675.96 678.89 597.93 563.34 562.73 573.11 548.61 533.19 531.33 508.00 498.23 492.22 491.08 480.66 476.80 481.15 495.58 528.40 532.76 554.24 576.25 586.83 614.67 639.85 667.52 689.90 728.93 733.09 724.04 709.97 693.86 649.37 610.42 587.20 567.10 543.60 502.45 484.78 475.61 466.87 448.31 502.11 519.35 371.46 216.26 189.13 141.19 121.72 106.66 -178.06 -2917.91 -5056.79 -5523.99 -5485.90 -5603.61 -5688.90 -5620.27 -5133.41 -3625.02 -2037.30 -1425.17 -1372.85 -1850.49 -2853.35 -3503.59 -3637.31 -3825.09 -4153.08 -4624.29 -4845.88 -4898.55 -4772.76 -3919.48 -3251.40 -2738.18 -1943.72 -1677.98 -1625.96 -1763.21 -1763.25
-14894.69 -14894.65 -15067.64 -15265.62 -15336.08 -15311.40 -15242.28 -15143.65 -14961.69 -14866.36 -14826.96 -14765.72 -14609.14 -14118.75 -13308.46 -12479.83 -11619.04 -11262.37 -10742.62 -10286.06 -9148.61 -7690.62 -5602.75 -4632.23 -2678.10 -979.31 170.94 193.71 221.15 240.62 345.27 411.61 426.02 511.63 519.22 491.56 613.43 756.19 926.69 1081.23 1213.95 1106.27 1072.83 1053.87 975.65 965.96 1010.56 981.06 1028.84 1027.20 967.06 956.14 952.48 975.84 978.88 812.88 667.05 795.44 923.42 861.94 724.28 803.93 747.56 650.50 605.36 603.11 580.61 566.17 560.99 549.49 536.80 533.84 522.71 501.38 489.21 483.52 489.46 510.01 528.80 532.39 570.83 576.60 592.52 624.14 641.52 669.84 701.18 723.22 738.49 732.25 721.48 681.54 647.83 618.74 581.92 567.68 525.14 497.67 460.91 434.13 429.59 425.87 423.32 451.63 341.97 206.77 165.32 120.32 111.59 -128.02 -1154.85 -3418.68 -4982.79 -5260.14 -5451.80 -5626.36 -5653.75 -5457.27 -5072.67 -3279.21 -2294.96 -1398.05 -1569.97 -2168.22 -3368.65 -3555.71 -3646.95 -3842.24 -4061.05 -4452.45 -4838.07 -4892.59 -4816.99 -3938.72 -3334.94 -2802.14 -2105.78 -1580.90 -1524.88 -1642.10 -1651.03
-14722.21 -14722.25 -14894.44 -15075.95 -15130.91 -15083.63 -14953.30 -14844.57 -14805.85 -14813.46 -14736.86 -14441.90 -13692.30 -13349.94 -12441.85 -11313.99 -10687.92 -10319.02 -10119.43 -9870.36 -8963.71 -7357.82 -5381.54 -4461.87 -3510.16 -1180.60 -142.71 181.84 215.95 277.67 380.25 436.95 510.24 510.74 712.15 713.94 698.42 746.97 767.79 1051.26 1217.25 1141.24 978.93 930.12 906.05 883.55 910.12 910.97 905.86 903.51 927.64 951.97 955.98 998.18 1004.77 861.59 805.02 934.35 935.16 818.17 800.70 896.41 762.40 676.14 661.61 634.78 622.37 600.17 603.58 583.00 563.66 547.49 532.14 513.26 502.96 495.32 500.41 513.70 528.50 540.23 570.16 581.06 602.81 627.57 644.60 674.37 694.67 716.90 735.39 737.33 729.81 685.76 650.55 631.92 575.67 565.75 539.00 512.32 472.10 437.69 391.24 359.55 370.31 383.23 314.04 187.35 162.26 116.84 109.72 -729.41 -3026.96 -4068.23 -5091.91 -5118.89 -5475.65 -5628.98 -5600.63 -5214.59 -4516.90 -2980.28 -1501.47 -1460.96 -1511.08 -2805.32 -3398.19 -3632.36 -3690.21 -3889.23 -4066.12 -4372.24 -4763.77 -4858.69 -4645.07 -3909.82 -3364.34 -2861.34 -1935.79 -1618.11 -1329.83 -1403.20 -1403.11
-14586.07 -14586.08 -14780.12 -14943.18 -14902.90 -14757.32 -14611.23 -14533.25 -14644.39 -14674.73 -14598.11 -14035.71 -12787.28 -11507.54 -10136.38 -9878.09 -9473.68 -9769.40 -10047.62 -9871.01 -8885.43 -7186.61 -5576.19 -4184.76 -3846.33 -1888.29 -373.91 119.99 192.87 232.09 339.76 438.81 548.17 620.45 587.63 742.78 853.25 942.28 972.30 1196.48 1263.68 1093.95 1004.68 917.35 849.19 851.73 865.52 861.25 849.47 858.05 864.14 874.00 884.80 929.22 964.17 903.39 905.09 1057.61 969.32 846.84 933.45 928.35 880.15 769.77 696.50 683.41 660.10 626.85 614.54 601.33 571.89 567.96 541.30 519.70 511.44 511.25 515.10 518.41 529.67 549.16 576.63 589.61 611.47 625.41 662.36 682.96 701.04 722.45 736.13 736.17 719.29 692.43 660.10 632.62 592.15 570.31 554.95 513.48 485.55 440.18 405.46 360.27 353.70 302.79 220.10 198.67 140.92 116.98 -233.52 -834.59 -2308.80 -4643.17 -4938.71 -4987.06 -5517.40 -5552.64 -5476.64 -4921.61 -3789.34 -2246.67 -1229.67 -1399.77 -1840.92 -2978.26 -3486.94 -3643.65 -3707.74 -3860.75 -4056.32 -4418.43 -4742.84 -4805.30 -4420.92 -3780.53 -3254.16 -2546.63 -1760.83 -1377.21 -1145.08 -1220.94 -1220.90
-14440.01 -14465.03 -14667.01 -14847.35 -14710.19 -14522.57 -14104.38 -14152.90 -14244.06 -14427.41 -14148.28 -13370.39 -11377.01 -10248.08 -9283.67 -8658.85 -8797.15 -9487.97 -10008.36 -9962.13 -8953.07 -7039.31 -5816.04 -4278.88 -3748.42 -2024.64 -208.17 142.68 182.00 283.97 344.70 412.41 534.94 719.85 736.24 741.01 917.14 1039.64 1200.31 1234.94 1199.01 1102.98 957.42 833.02 805.98 802.28 806.70 821.33 823.66 811.67 804.41 837.81 854.67 895.31 930.08 987.52 1055.02 1155.99 1078.24 939.64 1109.57 1209.21 979.99 862.30 772.73 763.84 666.92 653.14 635.16 622.79 591.73 572.17 557.49 539.42 525.78 517.36 518.64 525.12 532.58 547.55 570.75 589.36 617.30 636.06 655.05 678.91 694.54 721.19 727.69 727.46 713.09 684.56 658.56 633.78 602.42 579.60 562.29 502.51 485.00 434.92 409.36 396.33 385.85 281.59 234.64 179.79 124.32 114.95 90.32 -345.08 -2520.54 -4506.10 -4535.80 -4924.95 -5362.92 -5294.11 -5094.50 -4434.43 -2498.32 -1119.86 -800.84 -904.47 -1385.07 -2065.17 -2924.02 -3669.12 -3911.24 -4018.07 -4168.65 -4403.31 -4683.46 -4714.91 -4490.41 -3834.27 -3095.23 -2319.53 -1707.98 -1035.08 -1085.72 -1300.03 -1300.20
-14262.59 -14262.65 -14403.98 -14443.10 -14249.56 -13869.15 -13473.30 -13471.29 -13701.56 -13233.08 -12653.78 -11768.98 -10494.23 -8824.84 -8275.98 -7905.54 -8271.55 -9020.54 -9921.93 -9893.74 -9186.69 -7110.97 -5571.63 -4318.38 -3194.59 -1359.63 -293.01 132.41 193.42 244.26 292.73 375.51 518.23 701.34 820.55 824.53 1008.00 1144.18 1303.33 1281.65 1082.89 888.88 853.30 790.30 786.34 769.11 775.02 758.68 771.59 785.19 780.45 809.74 834.45 855.24 895.39 971.14 1039.40 1121.35 1192.62 1201.21 1222.61 1220.68 1052.97 871.10 849.92 782.15 696.00 672.36 665.15 636.53 611.97 585.42 565.14 552.11 542.57 532.03 534.11 535.15 539.42 552.86 567.61 584.79 620.56 635.77 652.55 682.26 693.13 712.71 714.23 707.14 691.52 678.93 664.59 633.84 604.08 576.55 554.86 512.37 482.40 402.69 389.00 379.00 354.20 287.37 226.06 180.39 138.24 109.23 -52.45 -1251.41 -3597.05 -4423.66 -4554.13 -4886.02 -5112.06 -5044.43 -4623.72 -3954.11 -1790.48 -666.86 -545.49 -695.26 -1469.00 -2086.39 -2585.33 -3821.82 -3905.84 -3956.07 -4120.06 -4428.24 -4674.95 -4711.98 -4526.39 -3709.60 -2897.46 -2315.03 -1103.68 -849.77 -1192.46 -1544.04 -1544.33
-14191.92 -14184.65 -13945.94 -13420.14 -12907.30 -12623.78 -12162.46 -11735.61 -11796.83 -11739.88 -10838.37 -9574.57 -9260.12 -8515.87 -8010.39 -7812.59 -8049.91 -8805.49 -9581.98 -9663.11 -9053.22 -7286.64 -5641.49 -4237.09 -3964.56 -1039.64 79.90 141.30 188.06 237.54 347.47 436.91 587.46 789.69 811.59 799.01 894.44 1046.03 1180.79 1093.50 972.80 829.58 843.12 787.09 746.03 742.96 730.32 726.04 737.76 722.52 755.71 780.34 811.73 835.30 865.26 884.00 983.95 1133.82 1319.98 1365.45 1234.42 1155.05 978.05 895.79 841.47 774.64 758.41 696.92 672.03 644.42 623.57 598.48 573.83 560.97 546.84 547.78 545.37 544.58 548.14 567.41 577.50 593.90 620.71 633.10 656.71 672.32 679.60 680.87 691.84 681.72 676.21 666.27 653.88 616.48 585.48 574.01 538.83 498.96 460.00 417.48 373.89 337.09 303.82 252.02 218.80 186.78 153.95 103.87 -296.80 -2071.92 -3446.18 -4367.75 -4560.11 -4881.81 -5144.17 -5098.92 -3939.47 -2870.72 -1000.68 -539.86 -411.13 -743.93 -1166.46 -1659.70 -2797.84 -3974.00 -3871.29 -3882.49 -4032.86 -4379.75 -4696.67 -4698.80 -4628.96 -3798.77 -2668.30 -1812.90 -1068.95 -849.44 -1242.32 -1749.55 -1749.82
-13753.17 -13753.60 -12960.72 -12236.43 -11532.92 -10830.39 -10465.89 -10106.22 -9881.09 -9823.35 -9651.68 -9063.88 -8658.77 -8466.05 -8271.41 -8084.23 -8247.07 -8688.13 -9225.10 -9301.07 -8656.02 -7761.34 -5474.87 -4186.77 -3439.96 -945.83 128.95 142.04 192.05 250.80 307.37 433.24 585.17 689.52 690.69 613.77 742.16 829.56 910.24 911.69 845.29 759.36 765.56 721.81 700.58 679.24 701.76 716.00 719.66 722.60 738.13 750.10 784.44 794.06 836.21 882.44 936.40 1009.92 1184.76 1272.94 1116.44 975.49 936.62 870.38 823.50 776.57 751.04 735.02 685.56 660.07 633.25 597.54 583.33 567.94 550.86 548.49 548.18 550.10 555.19 568.81 582.25 604.72 621.88 635.93 665.75 670.57 671.28 664.00 666.93 659.50 656.72 657.08 644.52 602.61 576.20 567.32 517.95 481.16 453.81 456.87 430.99 321.86 258.95 230.68 200.04 183.73 158.32 -200.61 -1082.40 -2918.75 -3827.32 -3836.55 -4122.31 -4562.80 -5064.55 -4998.34 -3835.86 -2044.94 -701.57 -390.74 -388.42 -682.90 -1161.13 -1983.46 -2851.32 -3833.45 -3882.71 -3883.59 -4064.47 -4504.46 -4680.45 -4717.68 -4416.41 -3214.94 -2231.26 -1473.65 -891.30 -1023.75 -1518.83 -1663.44 -1663.40
-12469.33 -12471.08 -11896.45 -10862.88 -10380.75 -9546.63 -9396.74 -9391.50 -9422.74 -9474.89 -9301.95 -8900.53 -8864.63 -8785.96 -8556.25 -8419.67 -8278.99 -8471.97 -8772.65 -8772.20 -8364.19 -7269.73 -5696.01 -3995.21 -3116.38 -1317.86 138.90 162.60 202.56 223.95 261.13 398.52 458.22 575.16 520.50 541.48 699.46 702.72 748.48 794.57 692.16 657.54 675.65 672.47 660.72 668.25 676.85 692.83 703.41 718.92 727.59 739.24 765.55 777.85 821.48 874.46 901.56 1020.11 1090.43 1174.49 1141.75 1046.43 956.67 858.97 842.57 800.35 763.29 740.57 697.05 675.77 644.32 603.27 580.82 563.36 549.30 550.02 554.12 558.58 561.68 570.75 585.66 614.81 632.22 651.35 663.57 669.29 665.60 645.04 643.30 634.74 634.57 633.30 612.30 582.50 553.51 519.76 489.78 441.39 437.36 488.87 356.16 293.56 237.97 203.69 185.19 169.03 139.05 -474.45 -1633.06 -2636.94 -3110.29 -3652.77 -4042.29 -4403.19 -4844.52 -4608.88 -3555.07 -1742.33 -626.00 -302.69 -459.64 -752.08 -1300.48 -2252.81 -3446.78 -3958.85 -3874.52 -3911.30 -4093.55 -4460.99 -4700.13 -4614.32 -4225.26 -2784.01 -1598.09 -1115.77 -1023.04 -1373.68 -1520.65 -1404.62 -1404.34
-11418.88 -11420.70 -10972.67 -10385.75 -9930.94 -9423.31 -9477.65 -9679.25 -9786.59 -9862.89 -9591.07 -9449.99 -9179.06 -9222.67 -8986.16 -8649.91 -8402.76 -8372.92 -8417.68 -8497.52 -8030.30 -7079.42 -5468.96 -4138.81 -2894.66 -1354.69 -129.20 165.16 201.86 245.41 283.75 363.26 402.48 407.93 480.14 613.22 706.73 661.56 616.05 705.45 598.12 604.19 622.29 628.28 635.75 654.92 657.72 667.23 689.83 713.06 726.61 741.62 756.95 768.33 823.88 847.44 907.03 966.96 1061.71 1111.95 1254.16 1159.40 1042.61 905.00 878.20 868.59 809.70 740.18 706.69 690.62 622.93 602.17 581.86 557.82 550.25 553.30 554.53 559.71 564.94 581.20 599.34 613.06 632.40 649.58 665.01 665.76 656.56 635.93 624.79 619.02 609.99 602.66 594.74 555.79 522.04 497.91 452.38 428.38 377.88 371.35 294.51 258.18 204.66 187.15 168.36 149.97 32.79 -287.15 -1346.84 -2190.83 -2900.17 -4252.40 -4920.50 -5209.11 -5195.78 -4760.56 -2986.42 -1092.29 -391.56 -395.60 -593.78 -1251.13 -2196.51 -3112.03 -3542.94 -3890.98 -3874.87 -3959.93 -4153.93 -4371.80 -4673.05 -4495.74 -3519.04 -2060.93 -1226.18 -1185.57 -1379.57 -1495.87 -1667.25 -1644.45 -1645.05
-11277.88 -11278.06 -10978.11 -10661.63 -10361.55 -10195.77 -10203.18 -10314.38 -10308.64 -10242.28 -10077.78 -9959.71 -9877.96 -9698.27 -9331.27 -8706.23 -8433.31 -8368.89 -8377.83 -8343.72 -8216.52 -7202.45 -5649.59 -4526.89 -2885.15 -783.04 155.38 177.61 214.11 220.96 280.47 306.74 346.16 398.25 504.99 604.57 605.34 589.48 530.28 567.28 569.97 560.77 592.26 587.86 595.30 611.53 622.62 656.63 669.40 699.36 723.27 735.95 742.41 754.91 800.51 841.94 860.25 886.19 943.42 1120.20 1323.84 1236.05 1052.47 1078.89 1080.77 1010.49 899.61 878.09 766.15 688.90 630.05 598.77 574.18 554.03 550.68 554.63 559.42 565.63 572.20 592.83 611.39 617.77 650.31 660.81 662.64 658.33 643.01 627.55 617.41 600.62 592.22 589.63 585.39 557.84 537.89 471.32 451.78 499.16 501.15 344.02 249.92 199.00 173.54 147.49 115.48 98.92 47.01 -215.67 -1446.51 -1815.53 -3481.64 -4583.35 -5268.25 -5528.14 -5337.40 -4278.39 -1901.14 -807.41 -412.50 -511.30 -757.07 -1618.68 -3327.36 -3778.61 -3911.63 -3759.45 -3914.79 -4132.40 -4406.36 -4593.68 -4913.71 -4583.19 -3242.79 -1683.58 -1371.39 -1434.07 -1638.02 -1812.37 -2026.01 -2536.31 -2538.98
-11376.76 -11376.13 -11184.72 -10942.94 -10862.54 -10810.47 -10804.68 -10769.14 -10779.45 -10641.09 -10444.23 -10280.30 -10185.29 -9905.23 -9471.71 -8820.86 -8469.18 -8356.36 -8370.93 -8288.22 -7794.46 -6936.04 -5832.39 -3867.21 -2721.89 -1084.89 157.83 175.70 214.41 230.64 251.08 292.16 341.74 390.93 395.39 404.60 480.06 512.45 482.22 476.42 503.08 512.89 532.04 536.29 576.01 594.63 602.71 640.31 659.79 670.89 692.51 709.67 740.56 763.79 806.52 828.81 866.81 919.87 1074.42 1214.00 1235.46 1192.22 1078.37 1143.82 1179.57 1064.53 1047.87 920.35 794.73 703.95 634.50 588.26 567.41 557.20 550.42 557.78 561.23 569.13 580.10 602.38 612.77 633.66 658.24 659.95 658.45 652.08 624.62 616.22 602.07 582.36 574.93 568.67 547.06 543.80 506.49 485.28 545.17 633.24 500.28 323.16 196.71 186.88 158.57 114.58 99.50 58.91 -411.82 -938.09 -1307.83 -1875.21 -3349.91 -4239.75 -5465.26 -5571.18 -5132.98 -3871.66 -2126.57 -699.82 -416.03 -552.03 -1877.99 -2170.66 -3768.68 -3804.75 -3452.21 -3474.97 -4036.39 -4355.52 -4700.65 -4959.84 -4958.59 -4192.74 -2663.42 -1650.99 -1606.95 -1883.68 -2037.11 -2349.13 -2829.36 -3482.94 -3487.94
-11422.03 -11421.73 -11300.67 -11154.65 -11049.10 -11025.92 -11044.52 -11082.97 -10963.83 -10813.41 -10717.92 -10527.99 -10396.36 -10193.74 -9526.94 -9063.51 -8701.46 -8453.09 -8377.65 -8176.15 -7557.37 -6355.71 -5264.19 -3664.45 -3347.13 -1535.12 -277.46 169.35 196.03 210.09 238.73 252.37 273.86 304.86 333.33 371.27 387.54 400.05 411.61 442.97 470.82 483.76 496.83 528.97 547.92 562.62 598.58 615.11 631.34 662.30 679.54 709.01 732.92 766.37 804.89 829.29 879.49 1017.40 1106.39 1204.74 1258.12 1130.27 905.01 981.25 946.03 942.80 920.91 767.81 756.27 672.13 618.43 578.00 561.08 553.07 550.60 556.56 562.51 571.68 590.44 606.15 624.85 648.67 661.13 658.35 645.82 632.74 614.98 607.89 591.25 566.28 562.35 552.37 523.24 479.82 423.98 416.71 528.33 508.59 391.22 230.86 180.13 157.49 129.53 101.66 54.16 -312.74 -1240.48 -1416.20 -1565.89 -1966.49 -3327.09 -4717.88 -5299.35 -5514.23 -5023.54 -3437.92 -1800.42 -539.33 -427.30 -565.21 -2005.62 -2870.10 -3625.29 -3728.21 -3593.08 -3728.52 -3978.73 -4957.70 -5611.59 -5342.32 -4996.85 -3831.21 -2563.28 -2244.30 -2367.80 -2409.46 -2578.96 -2956.70 -3425.10 -4106.52 -4110.00
-11451.97 -11451.35 -11386.47 -11283.75 -11261.27 -11230.74 -11185.64 -11148.60 -11014.39 -10868.68 -10802.82 -10735.38 -10562.52 -10312.51 -9734.64 -9166.93 -8803.78 -8653.65 -8521.92 -8109.68 -6705.12 -5464.68 -4354.69 -3229.20 -3127.95 -2656.54 -1139.88 154.60 160.23 179.46 205.62 198.10 211.12 248.18 307.13 338.20 353.48 363.42 382.49 391.59 424.47 440.08 462.71 508.82 521.53 543.28 566.73 592.46 616.63 646.30 660.15 696.80 736.41 777.98 805.50 848.79 904.38 947.64 1062.42 1136.33 1255.86 1167.07 940.32 795.64 714.09 817.36 844.20 777.15 633.61 614.14 575.88 572.04 553.63 548.66 550.20 555.38 559.01 576.96 594.96 603.65 644.44 662.17 663.96 656.92 639.71 621.60 610.36 598.58 575.75 561.90 538.66 511.43 502.25 464.37 429.39 372.09 366.60 374.50 256.61 204.13 180.08 124.02 119.19 99.02 35.71 -701.26 -1265.51 -1364.35 -1424.39 -2055.39 -3282.11 -4946.18 -5405.14 -5458.18 -5272.05 -4240.99 -1286.62 -864.95 -519.91 -746.55 -1622.33 -2571.17 -3303.59 -3727.47 -4082.11 -4639.92 -5527.64 -6166.85 -6394.48 -6172.11 -5442.80 -3927.10 -2948.76 -2561.36 -2645.95 -2759.60 -3041.03 -3717.79 -4004.80 -4478.09 -4477.23
-11466.60 -11466.61 -11446.21 -11384.07 -11391.20 -11403.14 -11330.88 -11220.03 -11061.13 -10936.18 -10834.01 -10751.05 -10580.52 -10441.78 -10110.27 -9492.91 -9287.31 -8955.95 -8486.24 -7738.68 -6838.15 -5289.69 -4139.78 -3388.46 -3229.60 -3265.82 -1881.19 -879.55 135.16 151.85 173.81 181.89 183.61 213.37 258.15 286.10 314.61 340.54 362.35 373.92 396.29 428.39 442.83 468.08 512.44 532.98 545.79 576.09 587.69 611.03 661.98 689.17 776.73 774.04 805.57 862.69 904.90 976.81 1065.67 1155.17 1144.66 1093.30 925.52 760.79 676.20 704.11 761.06 711.82 628.86 579.42 567.44 556.80 541.92 539.85 542.24 548.38 554.06 579.84 594.67 637.63 664.62 666.70 665.48 660.30 641.26 619.26 599.53 566.30 557.55 534.14 501.89 497.11 472.44 447.18 446.22 425.13 348.98 290.47 226.89 195.48 172.16 134.87 111.79 -49.90 -648.75 -1231.26 -1307.78 -1336.30 -1431.13 -2191.93 -3008.62 -5331.33 -5467.82 -5619.27 -5464.56 -4333.00 -2542.12 -1436.21 -866.24 -1098.09 -1702.29 -2286.44 -3323.28 -3873.35 -4327.78 -5066.79 -6427.41 -6970.77 -7113.67 -6599.70 -5344.39 -4332.34 -3479.55 -3009.17 -2986.93 -3083.37 -3542.64 -4015.03 -4318.73 -4659.52 -4659.36
-11503.47 -11503.47 -11481.83 -11471.36 -11473.67 -11479.90 -11354.27 -11202.65 -11072.41 -10973.62 -10913.21 -10833.32 -10764.56 -10580.51 -10164.52 -9738.28 -9523.14 -9141.81 -8391.57 -7860.43 -6897.65 -5814.84 -4029.42 -3573.84 -3361.16 -3531.77 -3324.92 -2766.00 -434.63 135.38 153.92 175.01 183.89 197.11 230.83 259.64 259.69 288.21 328.48 352.20 369.35 391.63 435.12 454.24 484.01 501.50 519.07 557.03 565.40 575.06 603.93 667.38 728.71 670.32 723.77 824.54 865.46 945.84 1092.70 1125.71 996.00 940.82 817.78 774.88 736.81 617.60 690.00 661.31 574.99 550.47 542.59 540.78 534.32 532.10 530.54 541.28 557.70 582.75 593.59 618.42 665.34 667.77 664.80 660.18 632.15 617.37 596.05 563.54 550.13 527.79 496.76 469.17 424.21 405.21 417.62 433.80 366.14 252.26 229.78 205.32 167.84 122.89 106.10 -380.06 -973.59 -1311.17 -1309.83 -1302.26 -1497.63 -2235.81 -3242.29 -4910.61 -5646.70 -5682.97 -5592.78 -4914.25 -3683.04 -2245.99 -1836.28 -1280.15 -1867.20 -2640.23 -3520.13 -4224.64 -4527.30 -5477.33 -6889.99 -7399.84 -7378.99 -6778.26 -5542.11 -4748.01 -4020.46 -3380.95 -3363.98 -3615.88 -3997.50 -4338.63 -4560.74 -4747.82 -4747.82
-11551.98 -11551.94 -11532.40 -11537.95 -11527.88 -11513.24 -11399.24 -11297.87 -11185.06 -11046.72 -10974.34 -10949.03 -10853.98 -10661.47 -10494.97 -10025.51 -9600.52 -9360.39 -8630.64 -8039.89 -7286.77 -5893.78 -4374.73 -3685.76 -3530.47 -3565.30 -3648.20 -2992.73 -1917.02 111.53 118.18 146.56 179.74 184.31 186.88 218.40 235.04 255.82 297.25 333.40 352.75 360.75 398.30 423.16 467.97 469.79 499.88 520.34 537.50 536.41 556.70 613.48 643.97 614.87 652.35 678.35 673.73 782.48 893.86 896.85 739.23 654.58 644.35 694.85 710.64 620.30 611.22 545.19 534.35 535.19 526.69 517.37 507.47 515.79 521.66 529.05 548.26 570.91 590.02 630.94 660.18 666.00 664.06 661.27 639.35 610.61 579.84 563.14 542.48 511.48 495.78 465.04 437.91 385.20 373.69 375.65 310.75 229.72 204.27 176.52 138.47 121.12 100.89 -469.51 -1015.02 -1259.25 -1254.39 -1290.77 -1439.99 -2640.66 -3840.71 -4841.33 -5691.08 -5747.54 -5724.32 -5525.28 -4954.28 -3220.56 -2348.25 -1830.27 -2000.47 -3314.12 -4084.11 -4948.12 -5320.03 -6166.39 -7380.24 -7545.03 -7089.71 -6582.95 -5647.77 -5155.90 -4393.48 -3779.49 -3741.07 -3957.77 -4209.99 -4457.66 -4673.12 -4794.08 -4794.17
-11582.86 -11582.77 -11577.85 -11567.56 -11569.41 -11547.02 -11496.40 -11374.21 -11233.34 -11096.69 -11044.54 -11001.30 -10953.02 -10857.51 -10598.26 -10262.81 -9888.10 -9591.96 -9113.85 -8713.49 -7660.31 -6138.54 -4941.38 -4033.40 -3724.92 -3623.58 -3649.54 -3272.23 -2492.51 -867.27 -386.87 132.78 153.45 163.34 175.30 183.02 193.04 225.05 277.57 309.47 325.36 362.27 385.09 404.75 431.44 434.05 465.08 487.97 505.61 504.89 527.70 560.72 562.24 527.37 593.92 609.38 601.48 617.59 764.87 656.25 610.71 596.51 542.83 573.81 554.29 568.74 533.48 534.84 511.90 497.90 495.55 491.41 493.68 502.51 505.64 522.34 543.45 562.99 580.62 625.94 658.53 660.60 660.01 658.20 629.53 609.68 569.51 552.66 537.19 504.64 486.66 453.37 435.14 407.43 354.15 288.52 265.58 228.86 198.25 170.40 137.84 114.30 -118.69 -688.75 -1102.18 -1205.13 -1218.65 -1342.80 -1452.46 -2454.42 -3949.45 -5291.13 -5694.37 -5761.24 -5743.98 -5685.43 -5530.31 -4873.07 -3287.01 -2316.82 -1703.88 -3379.93 -4725.64 -5183.72 -6030.23 -7163.31 -7383.40 -7437.60 -7100.91 -6555.22 -6247.25 -5439.55 -4627.86 -4250.67 -4057.40 -4211.54 -4451.55 -4631.99 -4752.14 -4794.00 -4794.05
-11572.24 -11571.11 -11573.80 -11564.97 -11567.35 -11555.67 -11532.36 -11419.33 -11252.78 -11127.15 -11008.45 -10992.08 -10936.39 -10862.37 -10630.70 -10441.15 -10024.37 -9684.11 -9350.61 -9068.15 -8652.23 -7109.26 -5824.91 -4491.97 -3941.32 -4077.75 -4016.14 -3881.02 -3344.05 -2301.73 -1287.18 -911.48 -173.47 118.48 134.81 166.31 189.06 217.02 250.93 273.51 300.13 339.68 368.99 391.63 410.99 418.40 464.84 464.69 475.35 484.60 469.37 510.19 507.66 486.02 533.57 538.63 531.81 585.39 648.91 539.34 509.51 533.75 499.72 509.09 510.20 499.44 499.89 501.29 494.50 482.29 474.28 475.49 478.30 481.73 496.68 517.42 540.86 558.32 584.00 603.23 640.72 654.62 654.41 637.26 617.01 607.44 570.13 540.42 530.00 501.80 473.49 428.32 396.30 376.44 328.41 284.45 240.20 207.08 185.53 149.97 134.57 105.61 -14.29 -599.61 -996.68 -1150.63 -1248.09 -1413.88 -1596.12 -2378.97 -4051.30 -5113.58 -5740.44 -5761.16 -5750.06 -5738.71 -5593.89 -5293.88 -3936.94 -2496.49 -2218.83 -4852.88 -5480.97 -5966.39 -6546.73 -6952.12 -7429.74 -7539.17 -7406.45 -6957.69 -6546.27 -5985.80 -4854.76 -4465.91 -4330.46 -4566.38 -4733.10 -4772.91 -4819.47 -4829.60 -4829.62
-11494.94 -11494.76 -11488.77 -11503.54 -11493.13 -11500.85 -11459.38 -11371.24 -11224.97 -10984.41 -10850.20 -10819.29 -10842.00 -10806.70 -10662.28 -10547.70 -10269.90 -10030.10 -9789.39 -9711.34 -9201.38 -7833.49 -6848.02 -5880.32 -5076.06 -4823.66 -5092.22 -5034.10 -4204.13 -3705.93 -3333.76 -2583.19 -2005.51 101.80 114.52 131.76 158.98 197.72 224.05 252.45 289.86 319.08 336.15 363.00 387.41 402.83 427.71 429.95 425.89 441.32 438.39 438.12 440.15 458.78 458.09 463.25 470.57 469.11 493.99 485.48 487.50 470.43 468.79 472.90 475.64 483.73 493.53 483.82 470.44 459.33 460.83 461.00 465.13 463.75 489.05 512.95 531.70 556.81 577.96 603.95 632.79 636.28 634.23 618.35 611.12 592.13 540.19 526.55 516.66 495.41 464.32 423.31 372.82 324.84 295.18 249.27 232.13 200.21 161.14 118.54 104.44 -48.41 -409.10 -853.60 -1069.44 -1144.21 -1274.59 -1515.24 -2015.59 -2653.81 -4311.82 -5074.13 -5721.57 -5758.47 -5752.56 -5751.06 -5697.94 -5446.99 -4021.54 -2894.36 -3646.15 -6027.82 -6546.11 -6939.10 -7373.17 -7432.16 -7775.08 -7775.68 -7734.49 -7486.48 -7210.16 -6732.27 -5133.96 -4786.65 -4673.16 -4726.98 -4778.36 -4843.01 -4870.82 -4883.78 -4883.96
-11384.00 -11379.71 -11383.15 -11405.91 -11421.26 -11424.89 -11375.34 -11286.41 -11090.44 -10828.49 -10685.68 -10643.68 -10596.01 -10573.77 -10568.20 -10537.01 -10381.87 -10258.11 -10068.09 -9883.02 -9766.30 -8999.10 -7319.44 -6782.50 -6522.02 -6443.63 -6041.61 -6211.24 -6052.46 -5494.94 -5125.11 -5286.50 -3098.31 -1249.68 98.29 118.24 154.84 179.48 193.51 246.64 255.71 287.20 316.96 341.23 360.06 367.68 380.70 391.50 397.58 421.26 414.39 419.26 420.11 442.64 443.56 443.44 442.02 441.55 437.41 430.86 449.48 443.66 438.48 436.51 444.53 462.46 476.44 475.45 458.03 434.76 437.68 436.12 449.05 452.92 474.73 504.32 523.71 551.80 570.54 602.72 614.99 624.97 623.64 611.04 599.02 574.99 536.63 514.95 488.59 469.79 430.71 406.53 366.69 298.04 258.71 218.23 184.87 174.57 138.54 116.11 104.19 -95.50 -469.91 -868.38 -1057.90 -1171.74 -1326.15 -1504.25 -1755.00 -2648.52 -4325.71 -5000.39 -5590.17 -5761.24 -5758.60 -5762.49 -5707.24 -5518.53 -4122.09 -2869.17 -4079.61 -7178.01 -7141.95 -7161.96 -7465.88 -7683.83 -7828.49 -8234.02 -8259.12 -8152.89 -7850.14 -7063.01 -5774.00 -5033.89 -4699.41 -4711.36 -4716.80 -4666.06 -4674.86 -4712.83 -4713.25
-11362.17 -11362.12 -11348.97 -11357.88 -11362.26 -11354.67 -11320.50 -11230.79 -10970.49 -10777.95 -10622.28 -10510.30 -10464.27 -10488.07 -10499.94 -10573.60 -10561.61 -10526.40 -10335.79 -10148.91 -9954.29 -9342.09 -8626.24 -7904.21 -7306.73 -7069.06 -7291.43 -7285.93 -7024.54 -7190.28 -7123.85 -7293.02 -6615.43 -4492.30 -612.31 93.99 144.40 176.72 202.45 232.85 243.35 250.12 265.97 309.05 325.35 327.11 340.50 355.72 358.36 367.76 368.67 382.81 380.55 388.66 397.64 403.93 416.45 424.29 416.39 406.00 419.09 430.64 432.41 423.33 421.92 426.85 429.29 459.12 425.87 419.15 418.06 422.91 429.93 447.37 465.72 491.02 513.13 544.41 559.45 589.86 604.41 614.97 617.98 593.62 581.15 554.12 538.87 525.71 477.56 456.73 428.31 392.33 363.08 287.43 243.76 215.69 178.14 149.50 128.46 111.65 77.44 -24.77 -608.07 -1060.76 -1180.90 -1232.51 -1343.55 -1409.33 -2213.05 -2864.06 -4117.64 -5475.32 -5787.74 -5771.09 -5764.37 -5763.07 -5709.84 -5393.11 -3733.61 -2700.14 -4674.73 -7421.13 -7207.60 -7139.75 -7279.55 -7678.84 -8202.09 -8364.66 -8528.13 -8441.65 -8070.62 -7339.50 -6249.31 -5027.50 -4668.76 -4447.41 -4406.71 -4334.12 -4339.55 -4235.23 -4235.62
-11411.29 -11411.22 -11370.53 -11363.72 -11366.16 -11367.99 -11345.74 -11204.38 -10990.57 -10723.72 -10609.45 -10470.20 -10434.50 -10419.57 -10469.51 -10589.20 -10644.89 -10610.10 -10366.38 -10238.62 -9857.48 -9421.23 -8693.66 -8041.39 -7639.34 -7588.78 -7547.50 -7663.18 -7769.64 -7766.35 -7782.50 -7877.99 -8250.58 -7521.13 -4454.64 -822.57 121.08 150.98 185.71 200.95 229.01 244.21 250.44 269.24 295.26 304.64 314.99 323.46 336.45 342.43 336.74 343.04 359.90 360.31 354.24 368.78 377.06 389.39 377.08 381.73 387.11 398.61 402.86 404.69 399.33 402.67 400.84 398.54 394.74 391.44 405.34 406.62 408.01 428.79 452.86 468.41 500.59 528.00 544.30 571.54 589.38 604.83 596.52 573.00 561.65 541.78 522.54 484.01 474.11 425.35 416.79 356.46 313.61 249.89 230.25 204.48 167.93 132.92 120.57 44.54 -88.62 -586.47 -1013.59 -1134.08 -1231.22 -1287.56 -1388.08 -1741.46 -2490.72 -3224.58 -4296.88 -5231.50 -5731.41 -5735.84 -5765.98 -5749.31 -5571.56 -5170.81 -3347.55 -3108.02 -3959.61 -6712.27 -7066.19 -7184.02 -7391.98 -7731.44 -8291.16 -8564.02 -8604.34 -8564.53 -8392.89 -7055.92 -5901.31 -5198.07 -4307.61 -4117.04 -3940.23 -3861.73 -3820.98 -3817.82 -3829.60
-11420.37 -11420.25 -11359.91 -11324.70 -11325.03 -11357.38 -11341.76 -11213.97 -11004.31 -10785.85 -10640.49 -10540.35 -10470.13 -10431.57 -10527.22 -10635.01 -10729.96 -10652.29 -10408.53 -10130.88 -9649.29 -9361.63 -8681.60 -8120.57 -7912.01 -8100.00 -8400.68 -8113.19 -8191.78 -8345.98 -8158.72 -8173.81 -8580.14 -8086.19 -7740.90 -4108.13 -1911.82 -149.56 153.15 178.60 204.53 228.70 237.88 246.65 246.12 256.95 280.30 298.73 296.12 297.61 304.84 315.52 330.20 324.57 332.67 337.70 348.41 348.69 355.95 366.68 374.66 374.27 383.94 363.49 365.53 371.18 389.39 384.74 385.53 367.62 374.93 380.34 387.46 403.20 438.66 458.14 494.30 509.65 530.30 562.20 572.96 571.48 560.61 559.65 543.40 525.20 501.98 461.59 429.94 414.26 368.29 342.49 286.43 230.51 202.39 185.87 136.10 122.00 -34.09 -260.28 -886.88 -1155.46 -1139.28 -1154.14 -1207.61 -1342.29 -1491.62 -2034.08 -3064.32 -3989.02 -4591.87 -5437.88 -5657.79 -5729.29 -5767.21 -5758.08 -5659.96 -4840.18 -3222.31 -3569.76 -5549.64 -7289.49 -6883.22 -6995.79 -7501.05 -7958.58 -8484.54 -8621.69 -8624.18 -8581.57 -8462.37 -7424.01 -5576.84 -4898.97 -4169.51 -3866.84 -3728.59 -3789.40 -3806.34 -3923.86 -3923.77
-11332.33 -11317.11 -11255.41 -11237.23 -11239.09 -11279.23 -11220.31 -11191.34 -11015.43 -10855.90 -10749.92 -10637.41 -10549.68 -10505.45 -10554.25 -10624.59 -10657.48 -10583.65 -10263.54 -10020.99 -9537.43 -9125.65 -8719.75 -8518.93 -8706.44 -8866.74 -8914.86 -8976.96 -9286.06 -9164.90 -9232.28 -9298.28 -9371.65 -8929.84 -8131.29 -5578.03 -2543.48 -761.27 -242.65 137.02 163.05 175.00 216.44 233.16 244.65 245.53 250.46 242.00 260.27 257.59 275.24 276.99 296.34 291.24 291.10 312.74 321.03 317.79 333.34 342.61 367.28 348.66 346.86 346.60 345.56 350.78 353.89 359.65 364.97 350.17 351.15 363.98 373.02 388.18 429.87 441.35 473.47 495.26 507.62 527.95 553.87 555.22 554.32 547.43 523.78 493.95 478.14 452.43 399.58 357.71 321.39 319.16 249.31 219.72 194.70 144.36 120.03 68.21 -277.79 -796.99 -1165.77 -1148.92 -1155.89 -1136.97 -1231.03 -1381.11 -1506.61 -2133.41 -2937.01 -4495.71 -5172.82 -5564.74 -5716.35 -5766.98 -5769.11 -5756.72 -5481.07 -5157.06 -3881.19 -4918.34 -6362.88 -6647.72 -6506.27 -6725.56 -7101.90 -7764.20 -8244.30 -8633.36 -8624.02 -8608.07 -8301.16 -7534.56 -6179.35 -4578.93 -4039.09 -3824.11 -3785.24 -3878.61 -4001.08 -4164.05 -4164.09
-11109.59 -11109.33 -11136.73 -11113.90 -11015.34 -10807.25 -10904.45 -10993.55 -10942.62 -10833.94 -10800.22 -10641.31 -10497.56 -10536.18 -10494.15 -10475.95 -10389.64 -10279.03 -10108.46 -9683.38 -9203.36 -9078.42 -8992.24 -9056.01 -9250.93 -9667.66 -9761.91 -9960.69 -10052.15 -10436.63 -10371.93 -10177.37 -10515.09 -9958.10 -8445.17 -6398.90 -4270.72 -2597.11 -1421.45 -828.48 -720.39 122.00 155.95 179.48 198.14 192.80 211.75 215.73 211.06 241.21 248.79 241.98 237.28 260.60 271.26 293.14 296.67 297.97 303.11 308.56 317.31 321.21 325.44 320.39 321.80 329.98 330.35 345.53 333.68 328.70 342.60 348.18 356.75 375.02 408.46 425.79 448.98 471.34 493.88 510.49 530.76 542.36 535.15 519.98 472.46 458.33 454.96 429.09 392.12 355.94 317.79 239.36 222.61 182.07 164.92 126.15 111.58 2.79 -608.58 -1064.97 -1224.06 -1157.50 -1205.42 -1207.33 -1332.80 -1577.66 -1948.23 -2718.93 -3600.93 -4669.51 -5323.93 -5504.81 -5707.05 -5770.76 -5768.70 -5712.82 -5499.51 -4488.93 -4801.37 -6108.85 -6822.41 -6331.77 -6141.92 -6266.61 -6651.37 -7526.84 -7935.76 -8404.39 -8554.00 -8542.27 -8341.53 -7541.27 -5504.70 -4665.46 -4080.54 -3943.57 -3826.51 -3740.49 -3976.57 -4192.23 -4192.38
-10808.94 -10808.74 -10872.30 -10801.92 -10668.95 -10584.96 -10479.73 -10645.87 -10802.58 -10805.35 -10775.84 -10558.78 -10333.71 -10359.72 -10306.90 -10270.09 -10182.31 -9883.44 -9746.18 -9232.11 -9004.39 -9070.08 -9203.52 -9506.02 -9630.18 -10094.06 -10347.16 -10555.17 -10962.86 -10992.79 -11037.81 -11074.16 -11134.12 -10437.31 -9070.81 -7372.39 -5507.73 -4942.31 -3659.13 -3073.03 -2161.76 -612.37 -57.09 165.14 169.68 170.25 185.73 180.02 180.31 215.65 207.79 209.13 225.32 228.69 244.80 251.95 261.18 271.70 273.91 286.42 297.02 297.96 303.20 303.44 303.86 307.98 306.51 295.85 305.15 312.19 319.15 328.09 343.03 366.47 378.20 408.20 433.67 457.77 490.16 510.89 520.61 523.51 514.30 492.43 434.23 427.76 402.84 393.26 376.78 348.38 336.47 249.44 201.99 144.30 125.16 121.60 113.33 -66.96 -746.28 -1306.89 -1270.45 -1227.99 -1289.13 -1330.38 -1539.28 -1996.94 -2365.82 -3502.09 -4567.09 -5049.66 -5363.12 -5553.30 -5745.84 -5783.53 -5772.95 -5715.14 -5473.36 -4218.71 -5554.20 -7272.47 -6149.24 -5758.41 -5675.48 -5747.15 -6329.28 -6912.48 -7529.84 -7904.47 -8198.18 -8258.13 -8071.88 -7187.58 -5613.62 -4736.50 -4045.71 -3741.43 -3593.45 -3341.10 -3538.26 -4089.56 -4089.62
-10616.83 -10616.71 -10667.61 -10579.40 -10512.86 -10360.31 -10326.08 -10532.18 -10622.38 -10697.98 -10599.39 -10262.11 -9949.34 -9960.76 -10206.72 -10088.40 -9952.09 -9798.07 -9487.14 -9143.51 -9047.49 -8933.69 -9146.67 -9442.18 -9690.18 -9959.30 -10309.78 -10736.49 -10977.83 -11229.36 -11222.87 -11162.55 -11165.86 -11172.03 -10208.36 -8450.29 -6112.59 -5145.58 -4471.25 -4180.63 -3583.53 -1737.29 -324.91 -261.94 52.03 158.84 164.29 165.70 162.92 176.59 174.54 177.05 195.60 198.57 209.16 210.84 238.86 245.08 255.76 258.71 271.54 286.22 292.64 286.41 289.62 278.28 281.74 279.94 283.38 291.94 303.88 313.00 331.77 341.81 355.31 395.77 416.02 450.60 476.85 496.96 505.15 498.57 477.05 451.42 401.17 377.32 391.50 370.49 348.49 325.01 314.17 202.86 191.15 140.82 119.82 114.13 98.66 -56.88 -717.69 -1318.05 -1313.51 -1502.24 -1513.45 -1822.92 -2063.44 -2408.90 -3746.00 -4331.18 -5140.75 -5490.58 -5593.21 -5628.09 -5730.72 -5770.63 -5782.91 -5701.76 -5140.48 -5571.10 -6905.41 -7164.33 -5677.34 -5422.12 -5428.92 -5591.91 -5920.14 -6663.92 -7283.11 -7445.69 -7786.51 -7908.70 -7849.06 -6718.98 -5413.64 -4530.71 -3525.55 -3289.81 -2928.36 -2779.03 -3242.78 -4179.34 -4179.19
-10537.61 -10537.51 -10520.46 -10445.20 -10358.84 -10250.34 -10187.73 -10288.21 -10450.42 -10593.01 -10337.36 -9779.13 -9652.34 -9804.26 -10048.79 -9944.31 -9802.65 -9685.17 -9527.28 -9189.31 -8983.72 -8947.37 -9096.64 -9335.32 -9624.60 -10049.91 -10366.51 -10801.02 -11053.14 -11233.51 -11214.97 -11188.79 -11168.50 -11158.83 -10374.64 -8822.11 -6544.78 -5491.51 -4656.82 -4227.26 -3706.98 -2271.33 -1394.12 -762.16 -322.37 -93.96 54.75 138.94 149.98 139.92 128.75 124.17 135.04 153.33 188.29 193.97 211.58 226.93 238.94 243.08 252.71 255.03 270.84 260.21 267.89 262.83 265.11 262.82 270.32 276.44 291.64 291.65 319.48 334.68 346.62 379.43 407.30 418.78 451.35 475.45 485.37 482.09 466.30 437.47 406.75 362.44 353.11 347.09 311.96 285.69 256.09 194.32 187.26 134.41 103.29 87.90 -17.86 -335.29 -639.66 -1133.60 -1687.93 -1792.92 -1937.47 -2284.22 -2776.48 -3514.08 -4366.00 -5100.58 -5564.31 -5739.08 -5750.41 -5720.84 -5761.06 -5828.73 -5786.01 -5737.18 -5349.00 -6247.24 -6841.17 -6532.13 -5692.51 -5459.90 -5447.76 -5575.32 -6005.71 -6407.47 -6935.55 -7258.47 -7433.35 -7404.70 -7283.42 -6616.99 -5081.99 -4100.18 -3351.01 -2852.21 -2525.87 -2731.35 -3293.85 -4587.12 -4586.84
-10468.21 -10468.04 -10377.50 -10246.25 -10142.10 -10119.48 -10062.68 -10034.95 -10246.73 -10293.82 -9793.44 -9315.32 -9255.29 -9569.33 -9780.26 -9743.37 -9653.49 -9557.70 -9423.76 -9265.96 -8986.08 -9017.05 -9184.52 -9558.55 -9751.26 -10113.35 -10462.70 -10743.55 -11034.19 -11212.55 -11192.39 -11148.17 -11078.39 -10908.38 -9987.24 -9011.75 -7262.55 -5685.66 -4823.35 -4444.97 -3791.31 -3063.49 -1751.53 -844.42 -576.04 -345.79 -172.24 -107.72 8.52 47.09 33.91 -11.55 61.83 137.39 155.55 173.17 195.67 199.14 200.47 205.02 215.18 227.51 252.37 246.90 241.87 248.34 240.90 252.67 257.76 265.85 273.08 282.80 294.65 322.75 341.11 355.31 399.38 418.63 452.02 464.17 471.31 464.90 456.20 416.64 398.95 346.77 334.41 304.18 282.58 264.76 214.94 188.32 162.65 111.64 79.50 -166.48 -596.75 -931.48 -1144.41 -1624.29 -2632.87 -2588.33 -3168.92 -4023.72 -4082.16 -4620.81 -5082.11 -5593.47 -5649.00 -5751.86 -5756.29 -5747.41 -5744.62 -5849.59 -5724.72 -5577.75 -4961.92 -4684.41 -6472.45 -6366.36 -5735.84 -5600.88 -5602.14 -5642.49 -5958.79 -6308.04 -6906.42 -7111.09 -7283.26 -7301.37 -7220.35 -6247.21 -5313.21 -4098.93 -3299.12 -2832.39 -2754.40 -3026.40 -3704.37 -5171.87 -5171.52
-10248.48 -10248.15 -10078.24 -10001.43 -9938.33 -10001.20 -9931.69 -9896.76 -9953.39 -9898.14 -9578.86 -9170.72 -9167.81 -9266.86 -9199.14 -9119.60 -9095.14 -9050.11 -8984.25 -9113.79 -8892.25 -8977.93 -9294.17 -9585.93 -9868.75 -10136.94 -10165.89 -10462.61 -10708.05 -11055.02 -10943.70 -10867.70 -10366.41 -10339.22 -9640.53 -8753.51 -6781.33 -5943.49 -5080.17 -4498.99 -4046.06 -3309.39 -1952.65 -1378.90 -845.71 -733.37 -409.62 -423.29 -410.60 -228.65 -204.19 -233.43 -109.46 91.01 139.43 148.43 166.82 171.13 188.13 191.30 196.58 197.69 216.68 220.08 220.49 227.12 227.65 235.85 246.53 251.06 256.55 270.88 280.53 308.58 332.60 351.32 389.28 420.88 435.51 453.77 462.41 452.44 437.92 399.86 362.39 337.01 312.05 282.62 271.20 250.22 212.18 191.99 136.56 83.27 5.82 -190.82 -1291.05 -1584.89 -1851.85 -2287.64 -3258.96 -4675.91 -4988.21 -5188.37 -5117.15 -5378.66 -5604.11 -5614.91 -5586.82 -5610.65 -5634.88 -5470.24 -5379.31 -5290.44 -5176.44 -4874.09 -4679.23 -5436.18 -5975.37 -5928.32 -5760.11 -5636.09 -5684.63 -5726.83 -5804.89 -6188.95 -6441.54 -6738.72 -7055.64 -7085.33 -7114.33 -6512.58 -5532.48 -4408.17 -3792.04 -3690.89 -3656.43 -3894.66 -4621.82 -5813.78 -5813.48
-9800.43 -9800.00 -9752.88 -9647.91 -9768.04 -9815.43 -9682.17 -9417.09 -9422.42 -9269.00 -9079.94 -8851.49 -8684.93 -8825.68 -8389.21 -8256.32 -8091.98 -7915.21 -8206.61 -8220.92 -8113.60 -8469.33 -8718.09 -8856.07 -9287.58 -9052.02 -9429.50 -9620.90 -9676.94 -9785.70 -9811.63 -9511.28 -9347.80 -9314.92 -8636.33 -7834.54 -6895.23 -5485.47 -4935.25 -4282.71 -3951.25 -3196.54 -2070.67 -1595.49 -1529.96 -1178.81 -781.03 -712.89 -693.51 -606.37 -487.44 -419.13 -237.92 -8.17 123.85 125.04 136.45 152.34 164.76 170.27 180.56 182.89 187.84 201.89 207.26 219.14 223.17 224.60 226.51 236.05 244.02 255.73 278.40 302.61 318.57 344.12 369.27 408.18 426.65 453.02 454.44 440.26 420.72 393.79 368.25 329.11 286.52 256.49 236.90 215.63 199.50 182.69 130.70 100.30 -119.99 -1180.71 -1690.92 -2158.33 -3076.48 -4886.93 -5185.73 -5460.74 -5559.93 -5589.36 -5605.46 -5619.49 -5625.94 -5540.43 -5408.89 -5182.20 -4804.65 -4489.61 -4291.25 -3544.17 -3684.32 -3820.95 -5597.77 -5909.37 -5647.76 -5336.18 -5404.95 -5627.04 -5646.46 -5621.14 -5636.50 -5708.04 -5686.43 -6109.52 -6668.18 -6828.19 -7026.90 -6634.49 -5605.61 -4715.10 -4310.27 -4140.99 -4403.60 -4621.59 -5255.64 -6239.39 -6239.48
-9169.56 -9085.07 -9037.62 -9264.02 -9618.55 -9715.03 -9495.61 -9310.23 -8608.77 -8388.32 -8503.65 -8324.10 -8163.28 -7688.01 -7295.12 -6901.33 -6706.73 -6185.48 -6491.81 -6623.64 -6920.38 -7543.05 -7867.51 -8264.34 -8277.09 -8490.89 -8335.64 -8647.81 -8546.96 -8487.55 -8907.89 -8762.68 -8354.15 -8327.53 -7690.18 -7251.46 -5821.67 -5157.67 -4468.98 -4191.38 -3746.88 -3013.29 -2348.09 -2022.49 -1745.47 -1268.69 -935.89 -720.58 -622.12 -538.34 -443.19 -312.01 -248.26 -44.57 117.82 119.08 121.79 140.93 148.00 162.78 163.15 173.39 180.31 185.28 188.63 202.01 211.20 213.70 220.22 232.13 237.57 248.18 271.76 289.36 313.31 344.98 368.99 394.41 420.63 437.06 445.60 444.76 413.42 379.16 349.05 317.99 269.97 250.94 216.12 198.92 187.60 154.70 108.53 -123.82 -833.41 -1981.49 -2493.38 -2926.28 -4301.83 -4860.91 -5595.96 -5585.49 -5591.28 -5587.91 -5539.75 -5510.06 -4946.56 -4519.76 -4444.92 -4322.03 -3391.51 -2419.39 -1103.37 -2076.39 -2951.57 -5186.18 -5902.81 -5658.96 -5317.79 -4934.46 -4993.66 -5272.07 -5420.44 -5439.52 -5389.44 -5317.03 -5078.04 -5634.34 -6150.52 -6542.11 -6674.93 -6504.24 -5529.02 -5000.03 -4634.90 -4584.51 -4682.85 -4955.18 -5353.94 -5890.43 -6021.77
-8259.23 -8258.44 -8566.68 -8740.68 -9240.77 -9539.37 -9343.56 -8864.53 -8324.88 -8121.39 -8032.56 -7905.58 -7647.26 -7341.56 -6792.32 -6323.46 -6238.56 -5670.78 -5641.68 -5896.19 -6088.99 -6430.80 -7029.99 -7463.89 -7650.36 -7775.92 -7767.51 -7916.77 -8037.46 -7830.22 -7923.89 -7955.90 -7848.93 -7834.42 -7217.67 -6135.53 -5511.22 -4891.79 -4381.84 -3910.89 -3540.61 -2909.88 -2605.29 -2042.02 -1707.18 -1230.70 -932.89 -831.79 -661.80 -540.77 -444.83 -293.54 -204.10 -44.30 19.71 69.22 92.30 128.84 131.09 138.09 148.06 157.45 166.34 177.62 178.69 180.44 195.11 205.87 211.92 220.29 233.43 236.85 266.28 285.52 300.14 336.95 359.63 379.64 407.03 421.58 432.98 425.65 389.84 359.42 338.33 304.58 269.95 249.70 187.43 183.91 165.71 132.50 -29.07 -347.25 -2053.35 -2784.04 -3752.30 -4281.16 -4736.57 -5124.43 -5532.71 -5507.25 -5523.51 -5418.72 -5232.86 -4363.14 -3301.39 -2683.52 -1823.01 -579.92 -928.16 -375.65 -725.48 -927.28 -3112.80 -5128.78 -5626.40 -5314.22 -4767.25 -4553.79 -4729.71 -4956.56 -5290.61 -5327.58 -5020.81 -4470.07 -4503.97 -5373.92 -6017.44 -6532.14 -6685.69 -6480.55 -5597.36 -5167.06 -4762.81 -4770.28 -4867.20 -4924.94 -5213.24 -5103.80 -5104.85
-7444.58 -7444.37 -7861.09 -8511.95 -9124.37 -9508.87 -9368.96 -8864.75 -8403.01 -8080.44 -7961.09 -7873.41 -7686.56 -7293.85 -6896.36 -6359.41 -6033.77 -5576.05 -5566.45 -5752.73 -5840.53 -6246.18 -6755.48 -7149.40 -7312.65 -7426.30 -7635.87 -7709.90 -7671.07 -7627.48 -7669.48 -7737.04 -7731.43 -7490.07 -6993.36 -5945.33 -5213.01 -4844.40 -4345.40 -3895.40 -3398.46 -2927.80 -2538.59 -2106.66 -1695.62 -1295.89 -1125.93 -983.50 -842.44 -702.34 -515.19 -331.84 -224.23 -108.69 -21.28 38.06 100.70 107.63 125.27 135.24 142.65 151.78 154.55 160.80 168.82 173.85 188.23 196.13 199.37 213.91 231.76 234.07 263.73 275.52 299.81 328.11 352.55 387.15 401.77 409.60 412.60 409.34 378.81 359.80 336.16 301.13 305.22 345.71 186.06 167.60 134.41 111.13 -259.53 -1116.44 -2413.44 -3373.81 -4234.61 -4801.78 -5011.74 -5115.71 -5283.63 -5094.46 -4822.19 -4283.37 -3150.95 -825.91 -294.08 84.91 107.15 94.80 86.01 75.33 -562.22 -1259.45 -3610.16 -5208.05 -5242.44 -5138.04 -4944.47 -4600.64 -4668.50 -5060.65 -5327.14 -5342.86 -4957.58 -4441.13 -4672.05 -5336.55 -6251.08 -6666.36 -6706.86 -6261.60 -5693.07 -5242.42 -4866.14 -4800.48 -4779.77 -4606.77 -4518.12 -3643.77 -3644.94
-7433.87 -7434.14 -7784.47 -8418.69 -8938.67 -9313.07 -9419.61 -9142.14 -8555.87 -8195.14 -7989.58 -7842.01 -7753.07 -7543.36 -7256.46 -6678.18 -6440.40 -6095.35 -5881.83 -5776.30 -5874.99 -6146.83 -6665.98 -7009.37 -7143.26 -7268.97 -7468.14 -7647.38 -7643.38 -7629.93 -7587.00 -7683.64 -7583.18 -7512.09 -6724.56 -6299.87 -5111.41 -4703.33 -4179.13 -3713.00 -3456.66 -3115.05 -2803.97 -2183.20 -1815.35 -1631.15 -1443.10 -1223.13 -1064.36 -854.79 -579.33 -413.16 -251.87 -109.05 -50.27 -0.96 17.87 58.00 120.74 124.49 135.76 143.20 145.58 152.38 163.11 170.88 181.40 187.90 196.07 204.83 221.38 234.18 248.39 268.50 300.70 318.92 331.94 372.30 390.77 401.64 404.56 401.72 377.35 350.58 330.29 313.92 305.06 441.41 235.71 136.69 119.57 110.78 -397.24 -1210.86 -2373.97 -3039.47 -3886.06 -3970.00 -4169.34 -3722.21 -4109.31 -3557.13 -2313.47 -1345.98 -851.84 -77.73 63.86 139.24 134.68 126.16 92.43 -10.96 -812.91 -2114.91 -3798.91 -5033.79 -5258.60 -5279.69 -4945.32 -4644.25 -4798.81 -5086.53 -5362.08 -5266.10 -5139.78 -4754.29 -5264.41 -5705.14 -6084.82 -5917.39 -5535.13 -5709.85 -5277.32 -4976.88 -4646.19 -4510.73 -4425.60 -3861.99 -2932.70 -2311.33 -2311.94
-7660.65 -7649.90 -7749.22 -7969.02 -8482.33 -9010.57 -9167.95 -8866.97 -8502.78 -8109.87 -7927.43 -7732.71 -7637.17 -7609.93 -7300.70 -6947.98 -6520.15 -6218.75 -5949.25 -5719.07 -5656.46 -6003.72 -6551.73 -6654.82 -6593.12 -6705.47 -6931.03 -7107.52 -7273.35 -6984.96 -7282.89 -7301.44 -7427.89 -7488.95 -6983.04 -6304.56 -5454.74 -4437.05 -4254.75 -3860.03 -3643.03 -3329.46 -2765.64 -2391.27 -2073.32 -1921.90 -1611.46 -1390.96 -1171.95 -998.96 -856.41 -515.55 -363.12 -216.47 -96.67 -19.79 10.03 36.29 80.54 119.66 128.10 136.24 141.66 145.83 152.52 162.65 170.91 180.27 189.09 202.19 217.29 231.62 249.52 264.04 288.65 318.14 339.87 357.27 369.41 390.06 397.25 391.16 362.43 347.21 311.27 290.78 308.79 286.00 147.92 121.13 117.42 112.56 -333.08 -1430.20 -2070.60 -2617.75 -2872.71 -3003.90 -2767.29 -2600.51 -1415.34 -964.48 -894.59 -463.94 110.22 155.37 159.44 152.96 131.19 125.27 -513.13 -1310.27 -2274.27 -3800.72 -4604.00 -5095.24 -5274.57 -5300.32 -5024.13 -4652.77 -4712.37 -5029.25 -5264.83 -5322.66 -5196.45 -5184.20 -5560.18 -5580.07 -5534.02 -5061.74 -4595.55 -4647.72 -4576.33 -4134.34 -4067.22 -3891.99 -3786.15 -3394.84 -2818.26 -1829.28 -1829.24
-7091.01 -7090.11 -6751.10 -7229.51 -7234.07 -7761.64 -7907.17 -8030.57 -7725.01 -7455.03 -7016.65 -6760.72 -6780.20 -6660.22 -6527.23 -6384.55 -5895.70 -5686.56 -5456.53 -5326.66 -5110.32 -5007.29 -5371.93 -5676.39 -6134.56 -5964.01 -6063.82 -5958.75 -6076.81 -6216.14 -6098.16 -6289.19 -6408.71 -6906.53 -6467.07 -5775.28 -5339.17 -4534.84 -4052.69 -3802.75 -3623.84 -3440.15 -3148.05 -2659.43 -2543.82 -2075.55 -1957.53 -1769.56 -1456.73 -1338.70 -974.55 -687.43 -431.35 -284.60 -131.53 -54.59 -0.41 28.77 68.65 105.62 121.78 129.53 135.63 139.65 150.08 155.08 164.63 176.57 187.14 193.82 208.16 229.56 245.26 266.27 284.66 305.78 328.14 336.34 360.07 367.52 365.21 367.74 346.39 321.05 285.22 269.62 247.59 221.88 147.74 119.32 -453.29 -1000.55 -625.48 -1479.10 -1745.15 -1808.69 -1935.53 -1885.95 -1416.95 -540.18 165.48 -9.13 172.29 172.14 165.05 163.78 159.00 147.68 -0.34 -228.42 -1688.09 -2658.71 -3518.56 -4592.35 -4907.67 -5254.44 -5295.21 -5314.68 -5195.86 -4945.90 -4835.80 -5143.46 -5346.12 -5436.90 -5485.25 -5408.03 -5425.12 -5157.15 -4848.60 -4373.12 -4326.74 -4814.96 -4522.53 -4063.06 -3643.59 -3527.42 -3541.46 -3170.61 -2772.83 -2165.66 -2165.15
-6177.56 -6129.13 -6098.19 -6161.44 -6318.13 -6551.02 -6961.05 -6594.19 -6381.29 -6036.13 -5369.09 -5661.42 -5269.54 -5258.24 -4793.25 -5027.73 -4990.13 -4835.76 -4375.64 -3967.52 -3900.49 -3757.36 -3967.30 -4201.73 -4215.04 -4629.25 -4869.24 -5021.00 -5169.00 -5301.33 -5254.02 -5238.26 -5390.90 -5341.36 -5587.12 -4766.71 -4645.23 -3859.56 -3682.38 -3613.42 -3604.76 -3560.48 -3261.18 -2868.23 -2501.89 -2363.45 -2150.37 -1951.01 -1684.43 -1338.24 -1016.86 -862.35 -533.81 -327.67 -193.44 -80.44 -36.64 4.80 30.32 80.42 115.23 120.69 122.87 131.18 147.76 152.04 158.26 164.24 177.67 187.39 205.97 224.37 239.99 257.45 272.22 291.04 299.73 324.68 341.27 361.34 359.35 355.60 343.98 318.37 280.67 247.06 215.53 162.33 145.50 121.35 89.73 -1079.88 -1606.55 -1672.15 -1634.03 -1634.31 -1657.38 -1439.77 -626.28 161.22 187.76 199.15 209.27 198.73 169.67 160.89 29.34 -132.97 -800.31 -2317.57 -3828.04 -4821.16 -5097.89 -5199.21 -5251.14 -5284.04 -5310.23 -5337.85 -5352.76 -5225.98 -5187.58 -5487.73 -5659.48 -5554.35 -5392.79 -5149.90 -4720.88 -4475.81 -3971.74 -4054.56 -4343.90 -5059.60 -4718.45 -4281.65 -3692.39 -3604.95 -3557.18 -3305.75 -3045.04 -2902.01 -2901.54
-5929.82 -5944.78 -5940.89 -5860.94 -5786.48 -5498.61 -5283.91 -4994.11 -4622.28 -4301.43 -4252.98 -4006.39 -4131.00 -3785.01 -3819.40 -3623.20 -3724.77 -3696.42 -3738.47 -3663.98 -3373.53 -3008.55 -3079.59 -3655.65 -3743.57 -3969.40 -4290.77 -4343.35 -4747.19 -4815.70 -4720.66 -4623.00 -4378.79 -4163.80 -3594.01 -3843.38 -3566.10 -3600.77 -3127.91 -3435.18 -3586.25 -3603.65 -3374.11 -3132.62 -2706.14 -2414.00 -2342.94 -2110.18 -1873.41 -1545.84 -1240.64 -957.77 -644.21 -514.59 -274.03 -113.13 -81.40 -20.04 33.46 65.41 82.08 99.26 110.59 129.77 144.80 148.91 155.84 162.85 176.03 185.82 198.77 213.30 230.42 239.17 257.94 285.92 287.87 312.50 329.18 338.92 339.23 338.03 330.50 309.20 274.15 239.77 205.40 181.43 144.92 124.28 91.43 74.07 -1070.24 -1565.79 -1582.10 -1554.48 -1444.35 -993.27 -419.38 180.36 197.73 226.62 225.97 198.33 -42.97 -14.57 -687.52 -1127.49 -2347.26 -3691.00 -5382.30 -5484.42 -5308.09 -5261.98 -5266.39 -5289.03 -5311.57 -5346.30 -5370.88 -5387.41 -5416.71 -5658.14 -5717.44 -5325.33 -4843.96 -4234.32 -3844.52 -3630.33 -3614.90 -4037.56 -4792.92 -5137.59 -4586.82 -4134.70 -3781.75 -3699.06 -3634.29 -3471.61 -3450.85 -3487.89 -3487.68
-6103.28 -6103.28 -5708.03 -5635.17 -5327.16 -5043.80 -4306.64 -3981.19 -3669.63 -3554.08 -3465.14 -3277.35 -3087.26 -3010.05 -2667.84 -2755.41 -2906.42 -3109.05 -2912.04 -3007.26 -2829.89 -2739.82 -2809.17 -3045.46 -3425.78 -3470.68 -3626.76 -3651.12 -3980.02 -3786.82 -4017.42 -3692.26 -3767.44 -3394.02 -3123.07 -2944.41 -2808.90 -2454.49 -2785.74 -3499.47 -3594.32 -3602.74 -3614.28 -3442.88 -3029.06 -2876.24 -2694.76 -2364.85 -1917.10 -1707.81 -1335.39 -1166.72 -916.12 -598.08 -329.39 -152.16 -132.25 -38.08 8.95 28.79 45.81 79.42 112.63 126.18 134.82 142.30 150.80 155.87 170.61 183.14 188.27 203.17 219.60 228.80 246.17 269.76 285.05 296.27 311.00 320.89 326.07 324.02 315.39 299.59 268.17 238.05 195.89 174.60 136.73 111.78 92.52 -620.97 -1476.72 -1638.71 -1599.24 -1492.66 -1238.66 -754.90 -339.03 72.77 204.79 229.35 206.31 172.87 -765.16 -354.74 -1309.82 -2631.20 -3385.02 -4968.91 -5668.97 -5540.97 -5349.36 -5255.22 -5265.60 -5286.12 -5314.81 -5342.06 -5371.47 -5390.19 -5309.00 -5150.14 -4865.46 -4787.78 -4327.52 -3691.26 -3487.98 -3440.67 -3730.16 -4424.75 -5150.14 -4991.87 -4465.57 -3752.55 -3530.05 -3525.85 -3584.21 -3619.17 -3658.07 -3750.47 -3750.47
-5909.13 -5908.55 -5504.58 -5017.12 -4304.99 -3742.21 -3480.91 -3302.60 -3301.96 -3209.81 -3046.39 -2856.39 -2922.10 -2668.17 -2257.40 -2160.08 -2243.20 -2165.82 -2235.82 -1940.95 -1810.16 -1844.58 -2117.56 -2523.80 -2310.56 -2673.15 -2481.04 -2617.58 -2690.91 -2817.36 -2757.34 -2826.72 -2519.70 -2464.46 -2355.37 -2318.59 -2283.00 -2402.08 -2720.32 -3235.81 -3592.08 -3623.04 -3639.03 -3603.05 -3457.00 -3146.02 -2768.98 -2455.81 -2025.68 -1864.04 -1696.51 -1473.83 -1082.30 -766.03 -532.98 -328.32 -189.98 -112.83 -12.92 9.67 45.56 52.26 70.19 90.79 129.30 133.63 141.63 154.25 158.39 172.60 185.35 196.18 216.49 227.71 237.53 251.99 273.84 282.91 286.01 304.27 306.23 303.96 294.48 274.09 261.53 234.37 199.43 165.47 132.68 115.47 -13.07 -690.57 -1562.47 -1677.67 -1600.44 -1342.13 -951.57 -343.81 -278.72 32.87 112.89 -30.66 -47.92 -231.31 -1082.54 -1727.57 -2591.20 -2893.13 -3864.45 -5353.64 -5698.30 -5607.63 -5405.41 -5222.84 -5259.00 -5285.25 -5316.31 -5336.48 -5289.26 -5017.69 -4471.68 -4516.24 -4288.29 -4063.83 -3738.82 -3540.36 -3554.30 -3769.77 -4355.96 -4793.11 -5148.63 -4532.44 -3925.58 -3369.38 -3221.11 -3262.22 -3373.18 -3545.21 -3668.94 -3713.96 -3737.65
-5033.31 -5032.26 -4213.24 -3574.31 -3235.34 -3101.12 -2731.89 -2656.58 -2673.55 -2389.95 -2334.25 -2216.80 -1906.73 -1458.62 -1181.97 -1111.90 -933.67 -983.60 -797.25 -1081.29 -1143.08 -1150.73 -1309.58 -1390.54 -1565.52 -1608.09 -1193.00 -1175.46 -1491.44 -1568.41 -1533.84 -1587.78 -1765.23 -1765.41 -1768.56 -2039.88 -2097.93 -2146.65 -2215.21 -2708.29 -3083.54 -3454.28 -3653.93 -3662.56 -3658.01 -3435.34 -3163.58 -2679.71 -2189.84 -2006.17 -1829.70 -1469.00 -1277.63 -811.23 -608.12 -440.82 -280.16 -187.35 -125.48 -10.38 27.47 42.86 41.69 40.08 100.93 130.63 134.78 145.46 155.26 159.20 176.54 188.75 198.33 215.00 230.85 242.52 255.70 271.80 277.78 282.84 280.24 274.70 269.38 260.20 251.15 240.81 180.99 158.79 131.39 114.92 -100.54 -494.59 -1282.37 -1537.64 -1452.20 -1070.70 -633.91 -285.37 -148.08 -112.82 -138.97 -183.96 -276.77 -1310.50 -2349.09 -2684.42 -2883.71 -3858.51 -4632.78 -5738.53 -6092.10 -5903.37 -5378.07 -5194.95 -5259.42 -5284.15 -5304.86 -5019.83 -4695.83 -4226.72 -3673.74 -3678.55 -3836.70 -3725.86 -3631.72 -3658.47 -3949.59 -4146.05 -4693.52 -5032.33 -4904.61 -4267.19 -3470.29 -3221.62 -3240.81 -3339.43 -3444.89 -3497.44 -3606.55 -3612.24 -3612.34
-3801.38 -3620.76 -3361.38 -2924.90 -2525.94 -2137.52 -1801.54 -1574.98 -1306.43 -1333.47 -985.89 -811.00 -786.23 -713.09 -558.25 -593.13 -447.31 -415.19 -372.12 -324.88 -331.34 -340.62 -470.18 -486.52 -784.10 -922.24 -984.23 -1193.69 -1255.00 -1380.63 -1352.93 -1332.91 -1471.14 -1564.64 -1755.84 -2005.73 -2209.03 -2192.07 -2227.73 -2212.82 -2565.63 -3319.86 -3651.33 -3661.90 -3656.78 -3557.31 -3242.75 -2726.45 -2380.53 -2240.46 -1998.20 -1910.27 -1552.69 -1061.40 -850.82 -652.39 -480.70 -371.46 -196.80 -84.84 10.68 24.93 33.56 43.06 66.68 94.62 127.55 137.26 143.38 158.95 163.69 184.19 191.81 208.34 227.45 237.27 249.48 255.33 254.29 256.98 256.97 254.90 244.25 241.99 233.90 200.02 174.34 158.60 133.51 111.83 40.50 -163.76 -737.54 -1165.89 -1084.97 -739.41 -396.61 -174.95 -110.24 -131.03 -246.64 -291.39 -898.61 -2969.49 -3745.46 -3571.66 -4163.69 -5043.82 -6294.99 -6163.00 -6222.13 -6025.16 -5708.54 -5367.00 -5263.05 -5267.62 -5048.45 -4543.53 -4103.85 -3575.83 -3228.27 -3249.92 -3481.24 -3632.40 -3809.77 -4057.97 -4377.13 -4679.82 -4999.72 -5048.59 -4640.94 -4273.66 -3575.12 -3362.59 -3426.28 -3554.78 -3643.37 -3641.34 -3638.78 -3638.23 -3638.18
-2699.60 -2533.16 -2288.94 -2097.59 -1451.38 -1078.07 -679.96 -548.49 -268.64 -310.45 -343.79 -401.80 -356.47 -383.19 -324.47 -253.57 -239.62 -196.73 -179.74 -218.35 -268.34 -310.85 -338.97 -397.15 -622.45 -911.21 -1071.49 -1246.88 -1434.81 -1487.22 -1450.11 -1480.20 -1598.11 -1855.14 -2121.53 -2534.42 -2562.14 -2609.91 -2568.74 -2395.06 -2460.98 -3096.42 -3591.44 -3671.72 -3669.04 -3611.43 -3529.77 -3175.33 -2708.09 -2496.30 -2389.24 -2255.33 -1647.16 -1444.83 -1027.07 -868.92 -616.08 -523.67 -270.34 -116.04 -44.63 -1.23 25.86 40.90 43.59 37.69 103.22 127.72 138.95 147.96 164.18 171.28 187.20 202.44 212.30 234.37 242.46 242.63 240.68 242.68 238.82 226.07 226.97 216.30 209.42 184.83 162.73 135.76 123.71 87.31 61.69 -148.52 -587.04 -545.19 -615.96 -495.26 -249.17 -134.09 -153.22 -275.25 -346.17 -400.49 -1375.02 -3903.85 -5390.88 -5042.75 -5026.09 -6044.87 -6321.82 -6215.90 -6074.51 -6225.49 -6029.79 -5566.52 -5309.63 -5150.17 -4619.77 -4157.29 -3242.57 -3073.18 -2996.76 -3187.81 -3427.78 -3638.84 -4150.33 -4605.17 -5119.42 -5215.84 -5052.41 -5005.42 -4614.73 -4227.97 -3746.76 -3562.01 -3655.03 -3780.48 -3788.88 -3841.72 -3796.80 -3791.73 -3771.17
-1800.62 -1801.04 -1570.82 -1089.89 -846.97 -422.69 -155.04 -85.11 -88.58 -155.19 -250.74 -312.76 -318.94 -308.07 -275.42 -252.22 -238.91 -242.09 -221.52 -263.90 -307.16 -323.44 -359.29 -407.59 -496.65 -769.30 -1019.59 -1171.91 -1346.34 -1459.92 -1471.02 -1535.51 -1769.96 -1942.89 -2470.71 -2833.69 -3106.35 -2921.14 -2505.22 -2235.21 -2363.37 -3243.02 -3596.19 -3681.97 -3685.65 -3691.23 -3694.67 -3523.47 -3207.07 -3066.15 -2758.78 -2559.85 -2260.08 -1739.10 -1460.72 -1123.86 -810.98 -504.45 -308.07 -194.16 -88.54 -33.35 7.35 23.90 32.82 32.67 39.27 108.94 135.49 139.35 149.66 168.53 181.16 193.79 213.31 229.34 239.16 235.79 219.97 201.82 194.28 182.23 184.28 194.37 193.22 158.52 144.75 124.11 109.72 84.04 45.22 -67.51 -337.28 -367.48 -362.96 -252.92 -148.23 -173.73 -275.55 -432.45 -583.73 -2296.12 -4533.19 -6146.24 -5908.85 -5734.90 -5649.66 -6072.78 -5880.48 -5772.61 -5960.51 -6406.86 -6459.25 -6149.11 -5634.64 -4728.02 -4070.63 -3693.06 -3109.68 -3135.20 -3285.90 -3514.04 -3833.93 -4072.62 -4630.48 -5420.36 -5443.99 -5303.82 -5088.19 -4989.85 -4799.73 -4615.49 -4114.27 -3721.94 -3767.73 -3819.34 -3853.97 -3870.30 -3850.35 -3827.30 -3818.35
-1301.36 -1301.64 -849.29 -627.82 -481.11 -297.75 -192.45 -111.13 -136.30 -187.40 -273.33 -327.80 -351.31 -351.06 -343.02 -327.66 -326.51 -320.15 -301.15 -326.28 -326.77 -331.70 -373.31 -405.60 -481.25 -621.13 -780.38 -949.47 -1123.22 -1274.55 -1370.42 -1379.62 -1483.68 -1671.59 -2093.84 -2359.38 -2670.82 -2375.49 -2112.59 -1842.25 -1882.62 -2962.57 -3683.56 -3682.94 -3685.87 -3692.36 -3693.97 -3693.43 -3637.26 -3509.23 -3170.29 -2963.47 -2610.12 -2189.93 -1669.09 -1333.29 -893.02 -610.55 -449.42 -341.11 -172.70 -125.85 -64.03 -30.61 -3.10 9.55 -3.34 11.94 90.87 137.26 138.63 150.49 169.49 178.45 202.63 206.91 229.58 207.24 185.88 180.17 168.45 162.81 161.18 171.30 155.86 141.27 130.69 119.81 100.80 61.72 42.35 -68.52 -274.84 -277.53 -249.73 -194.09 -195.06 -345.63 -462.26 -660.38 -1916.15 -6356.96 -6781.44 -6534.43 -6271.87 -6133.47 -6183.13 -6088.04 -5914.97 -5909.54 -6242.24 -6834.06 -6879.72 -6415.19 -5292.80 -4249.88 -3334.30 -3278.68 -3312.72 -3520.30 -4031.01 -4188.12 -4350.91 -4680.04 -4939.89 -5310.11 -5349.41 -5141.97 -5028.34 -5016.74 -5064.69 -4795.78 -4249.47 -3871.66 -3767.86 -3805.70 -3819.41 -3768.53 -3760.14 -3698.73 -3696.42
-913.06 -913.28 -502.13 -508.99 -409.77 -343.52 -284.31 -240.36 -224.07 -249.01 -299.72 -349.06 -351.28 -357.16 -347.51 -337.40 -333.60 -333.84 -332.53 -328.55 -330.66 -334.84 -364.22 -401.40 -446.84 -444.45 -578.31 -720.25 -985.26 -1180.10 -1270.75 -1301.14 -1299.97 -1338.18 -1474.81 -1694.94 -1742.51 -1623.41 -1393.54 -1334.18 -1765.04 -3086.09 -3562.43 -3684.95 -3685.39 -3686.84 -3688.39 -3690.89 -3696.54 -3697.01 -3556.39 -3442.01 -3065.46 -2407.90 -2255.04 -1818.83 -1289.45 -863.87 -753.70 -597.60 -476.36 -387.86 -156.43 -171.74 -113.51 -90.51 -50.32 -56.32 -107.53 -53.54 136.50 144.36 156.80 177.02 174.52 177.35 173.82 165.21 163.48 158.22 149.68 137.01 133.09 130.22 125.01 128.73 124.74 76.89 65.26 50.52 39.68 -107.13 -270.00 -261.53 -259.55 -276.06 -345.21 -490.84 -618.49 -786.99 -1365.80 -6558.27 -6408.81 -5971.00 -5487.29 -5829.40 -6225.52 -6239.71 -6280.84 -6308.40 -6631.79 -7164.80 -6994.50 -6045.25 -4186.59 -3427.40 -3161.03 -3649.27 -3814.83 -4303.22 -4660.98 -4747.65 -4702.23 -4652.05 -4656.97 -4911.91 -4942.08 -5009.20 -5020.06 -5169.67 -5239.53 -4950.35 -4449.64 -3948.53 -3711.83 -3711.65 -3683.62 -3597.12 -3541.55 -3477.27 -3405.53
-559.13 -555.93 -424.51 -397.55 -405.38 -378.65 -317.07 -315.62 -311.68 -314.35 -330.46 -353.69 -353.23 -339.50 -320.89 -313.99 -319.88 -326.77 -328.86 -321.95 -327.67 -315.58 -304.46 -370.04 -383.57 -351.09 -406.70 -526.55 -829.89 -1155.21 -1284.90 -1338.76 -1341.49 -1334.80 -1360.25 -1364.33 -1252.35 -1096.94 -1192.55 -1453.97 -1827.54 -2945.04 -3363.77 -3686.34 -3685.21 -3685.40 -3685.93 -3687.38 -3689.45 -3694.41 -3650.76 -3522.54 -3160.73 -3092.36 -3052.83 -2325.11 -1644.62 -1262.01 -1153.07 -904.64 -841.54 -665.91 -377.45 -300.88 -224.05 -177.82 -137.68 -199.09 -348.82 -242.80 20.43 134.88 136.87 150.10 149.57 146.99 153.29 157.17 135.00 140.68 126.63 124.11 106.77 97.84 105.60 86.07 52.45 43.60 40.20 39.51 14.78 -204.14 -333.21 -290.13 -359.49 -478.96 -535.35 -658.84 -1096.88 -1652.93 -3693.09 -5557.15 -4746.89 -4630.25 -4453.79 -4972.32 -5470.10 -6386.49 -6876.05 -6910.76 -7142.30 -7170.72 -6019.33 -4876.05 -4094.26 -3519.29 -3701.63 -3953.21 -4216.76 -4445.20 -4659.75 -4628.25 -4601.34 -4497.60 -4320.42 -4449.41 -4736.48 -4911.55 -5026.79 -5209.76 -5348.88 -4915.15 -4266.55 -3828.66 -3596.70 -3482.32 -3350.12 -3238.70 -3180.17 -2977.42 -2977.11
-334.69 -351.20 -342.75 -327.30 -342.50 -330.88 -319.14 -322.54 -325.95 -339.88 -341.87 -337.30 -336.28 -319.40 -299.50 -296.79 -316.53 -284.41 -268.47 -246.06 -233.37 -272.02 -222.76 -286.76 -259.55 -244.11 -290.35 -491.82 -714.35 -1297.49 -1416.53 -1532.07 -1507.98 -1575.42 -1368.32 -1142.82 -937.83 -753.73 -1110.39 -1454.54 -1817.87 -2193.78 -3127.74 -3687.98 -3686.39 -3683.67 -3685.04 -3685.11 -3687.03 -3688.31 -3689.10 -3660.38 -3463.98 -3485.29 -3115.96 -2598.61 -1961.81 -1783.04 -1337.86 -1260.83 -984.84 -726.78 -515.63 -472.91 -442.01 -401.91 -321.78 -343.43 -517.02 -431.02 -277.54 -278.22 -27.65 132.41 136.83 138.38 122.95 112.84 -218.29 -94.38 -180.73 4.48 -222.54 -156.73 74.41 61.12 39.20 32.24 15.27 23.32 -107.43 -301.06 -585.88 -562.95 -523.96 -793.49 -750.91 -1134.93 -2093.35 -2771.31 -3986.12 -4139.69 -3284.10 -3096.99 -3343.11 -3920.71 -4981.83 -5852.65 -6955.21 -7149.32 -7180.36 -6646.33 -5668.87 -4396.15 -3932.76 -4217.36 -4303.00 -4430.33 -4387.60 -4375.38 -4464.39 -4412.02 -4320.88 -4177.76 -4222.56 -4419.49 -4727.98 -4973.36 -5071.45 -5220.34 -5239.68 -4718.14 -4178.99 -3539.00 -3302.17 -3060.44 -2925.39 -2764.77 -2697.03 -2696.38 -2696.31
-228.62 -237.31 -244.07 -237.71 -261.42 -252.74 -275.29 -286.61 -293.32 -338.66 -332.88 -313.78 -311.47 -311.51 -264.53 -252.17 -226.94 -199.69 -188.19 -163.05 -134.33 -168.89 -170.01 -165.34 -148.00 -149.42 -236.44 -361.91 -668.82 -1287.42 -1635.75 -1689.37 -1914.21 -1907.08 -1617.95 -955.33 -649.78 -630.76 -969.87 -1235.24 -1528.09 -1522.39 -2073.31 -3275.46 -3684.80 -3682.04 -3682.64 -3683.98 -3684.67 -3685.53 -3686.12 -3691.19 -3694.87 -3547.39 -3266.98 -3122.17 -2819.34 -2236.21 -2059.32 -1782.08 -1494.14 -1198.84 -1275.29 -1107.34 -857.04 -768.99 -868.65 -750.59 -804.18 -772.54 -917.10 -1063.09 -386.32 -410.31 -502.40 -661.99 -729.09 -1197.54 -1334.52 -1152.98 -1339.18 -1253.84 -1083.27 -944.98 -1034.90 -773.44 -422.04 -397.02 -383.25 -228.01 -626.35 -924.32 -1073.83 -880.69 -1025.39 -1264.89 -1349.86 -2087.83 -3208.34 -4265.27 -3985.14 -3618.28 -3341.32 -3306.44 -3566.46 -3868.56 -4346.75 -5082.73 -5908.37 -6744.07 -6734.84 -6126.35 -5550.81 -4668.19 -4346.17 -4589.34 -4668.18 -4504.04 -4332.81 -4139.30 -4147.83 -4226.99 -4190.84 -4140.41 -4222.79 -4514.59 -4848.14 -5117.09 -5214.39 -5248.41 -5195.12 -4923.10 -4204.07 -3347.36 -3048.39 -2742.73 -2581.41 -2593.04 -2676.21 -2774.08 -2774.31
-155.80 -155.79 -176.94 -189.81 -193.18 -205.28 -245.31 -249.48 -270.11 -301.53 -309.85 -300.76 -279.02 -260.22 -214.61 -172.05 -151.17 -133.58 -136.00 -115.15 -81.57 -108.39 -97.01 -44.52 -62.74 -99.63 -201.92 -324.06 -512.90 -1152.40 -2010.08 -2242.72 -2320.71 -2088.43 -1858.82 -1058.06 -607.57 -569.16 -938.49 -1142.67 -973.70 -1054.57 -1655.42 -2955.95 -3570.66 -3681.97 -3682.36 -3683.48 -3684.28 -3685.20 -3685.95 -3688.93 -3692.58 -3653.11 -3630.81 -3460.42 -3281.35 -2957.30 -2643.00 -2398.65 -2210.83 -1716.93 -1564.55 -1519.62 -1356.50 -1445.63 -1363.60 -1241.68 -1193.05 -1148.48 -1288.48 -1311.71 -1096.06 -1049.67 -1276.25 -1479.91 -1414.30 -1846.44 -1917.24 -2015.54 -1959.51 -1948.20 -1966.22 -1888.98 -1748.44 -1544.51 -1558.21 -1304.40 -1142.08 -1220.16 -1525.06 -1707.33 -1834.61 -2249.64 -1850.99 -2347.18 -2760.22 -3797.37 -3500.22 -4519.24 -4435.38 -4111.39 -4016.95 -4124.74 -4521.80 -4503.36 -4303.63 -4917.49 -5224.68 -5752.54 -6236.57 -6272.36 -5501.62 -5100.32 -4921.55 -4901.11 -4729.57 -4358.05 -4125.14 -4027.95 -4035.14 -4074.50 -4130.64 -4190.52 -4333.96 -4680.53 -5174.54 -5212.39 -5350.26 -5362.75 -5274.98 -4846.71 -4203.39 -3321.24 -2944.65 -2621.66 -2545.51 -2660.23 -2932.62 -3082.51 -3082.84
-151.90 -151.82 -174.74 -182.64 -185.99 -184.79 -199.98 -223.96 -251.25 -275.81 -292.55 -272.56 -235.51 -216.80 -173.86 -141.15 -126.94 -102.35 -93.80 -80.32 -59.63 -53.56 -39.32 -34.32 -42.67 -81.66 -166.99 -219.57 -408.23 -1090.19 -1976.39 -2384.95 -2680.64 -2564.37 -2228.50 -1016.34 -633.32 -612.65 -719.35 -919.24 -541.73 -708.36 -1689.47 -3243.64 -3623.70 -3683.24 -3682.99 -3682.36 -3683.51 -3685.85 -3686.69 -3688.53 -3691.64 -3694.32 -3671.83 -3660.38 -3589.34 -3331.13 -3102.52 -2788.27 -2623.02 -2256.30 -2175.27 -2001.96 -1840.85 -1950.15 -1800.00 -1608.86 -1516.66 -1470.29 -1548.71 -1526.12 -1367.09 -1449.75 -1473.44 -1370.71 -1551.52 -1741.78 -1835.41 -1814.36 -1855.15 -1873.51 -1940.04 -2015.96 -2081.14 -2026.46 -2016.37 -2036.72 -2162.22 -2167.49 -2197.78 -2409.90 -2767.87 -3125.22 -3444.24 -3439.44 -3394.38 -4546.10 -4616.02 -4642.24 -4628.41 -4501.29 -4774.34 -4993.86 -5100.88 -5005.19 -4765.97 -4610.41 -4860.51 -5280.10 -5612.56 -5908.28 -5606.02 -5284.63 -5172.95 -5043.06 -4736.28 -4436.52 -4167.07 -4013.77 -4027.57 -4098.31 -4176.04 -4219.63 -4432.24 -4761.26 -5236.36 -5406.47 -5519.60 -5526.48 -5532.14 -4956.84 -4289.07 -3476.74 -3010.17 -2952.11 -2788.22 -2922.39 -3123.86 -3333.03 -3404.08
-229.73 -229.59 -261.67 -260.95 -276.21 -265.39 -264.25 -250.39 -254.50 -266.34 -263.38 -240.24 -208.45 -196.01 -153.23 -113.63 -103.05 -86.43 -76.09 -65.82 -47.29 -34.12 -26.27 -21.94 -31.65 -67.45 -112.96 -181.43 -287.71 -913.54 -1718.66 -2222.38 -2683.12 -2594.26 -1956.43 -1111.50 -522.93 -477.73 -716.03 -641.39 -459.90 -910.46 -2077.79 -3407.02 -3688.63 -3686.29 -3685.69 -3687.68 -3687.30 -3687.21 -3689.90 -3692.92 -3693.07 -3699.34 -3657.79 -3614.97 -3495.43 -3402.00 -3351.11 -3086.99 -2815.78 -2526.42 -2526.62 -2340.43 -2122.28 -2093.61 -1986.12 -1794.47 -1730.61 -1655.20 -1507.96 -1480.59 -1181.44 -734.89 -748.87 -485.99 -574.81 -1027.18 -1325.65 -1507.70 -1647.22 -1859.47 -1908.00 -2145.28 -2348.01 -2408.05 -2425.03 -2638.71 -2556.79 -2725.75 -2782.87 -2866.69 -3258.27 -4065.13 -4337.17 -4341.16 -4466.69 -4534.51 -4654.16 -4715.95 -4756.91 -4986.87 -5063.64 -5304.80 -5586.92 -5563.82 -5165.71 -4940.21 -4871.04 -5127.41 -5577.41 -5725.31 -5571.99 -5330.06 -5205.94 -5022.93 -4750.57 -4611.21 -4302.00 -4113.53 -4072.26 -4157.13 -4207.12 -4322.07 -4582.22 -4916.57 -5374.71 -5612.29 -5622.96 -5718.72 -5689.64 -5312.16 -4394.46 -3678.52 -3423.57 -3392.43 -3387.69 -3625.75 -3613.94 -3717.50 -3717.79
-340.57 -329.08 -326.90 -330.18 -347.07 -340.85 -348.38 -328.74 -285.39 -261.18 -250.51 -230.10 -191.74 -172.51 -139.32 -117.79 -90.13 -71.31 -62.85 -46.79 -32.07 -13.34 -4.01 -7.91 -29.33 -75.81 -154.38 -191.74 -237.74 -372.64 -1472.36 -2073.41 -2430.29 -2394.94 -1876.81 -1230.11 -623.62 -643.17 -815.10 -809.91 -773.25 -1503.65 -2394.08 -3614.91 -3694.95 -3691.07 -3691.26 -3691.86 -3690.91 -3691.80 -3695.04 -3698.29 -3698.62 -3704.64 -3647.94 -3547.40 -3466.62 -3444.15 -3423.70 -3334.02 -3054.31 -2817.39 -2684.04 -2517.72 -2329.75 -2225.89 -2148.24 -2022.93 -1872.26 -1754.74 -1642.45 -1659.62 -1282.83 -726.20 -907.70 -746.31 -839.20 -1239.02 -1544.77 -1751.87 -2162.45 -2210.84 -2528.77 -2425.66 -2686.02 -2820.74 -3025.34 -3190.12 -3259.66 -3633.94 -3663.11 -3945.84 -4711.07 -4884.77 -4663.90 -4689.61 -4711.68 -4794.10 -4871.62 -4866.41 -5095.23 -5293.24 -5505.14 -5625.63 -5696.93 -5720.35 -5533.75 -5237.52 -5111.26 -5350.33 -5666.67 -5619.48 -5517.02 -5334.69 -5156.86 -5007.87 -4835.81 -4637.68 -4399.51 -4245.56 -4215.40 -4233.70 -4297.11 -4386.72 -4662.48 -4851.81 -5537.21 -5743.40 -5846.43 -5821.94 -5808.63 -5267.27 -4540.67 -3883.32 -3705.45 -3827.99 -3757.57 -3975.82 -4011.91 -4054.04 -4054.35
-489.38 -489.20 -487.34 -492.52 -469.64 -467.18 -431.64 -411.01 -332.70 -246.46 -224.43 -215.06 -180.10 -152.95 -134.80 -110.07 -84.79 -60.24 -44.80 -34.23 -20.92 11.28 14.23 7.08 -18.92 -53.69 -146.76 -255.31 -361.97 -858.05 -1655.79 -1971.31 -2185.53 -2208.30 -1739.95 -1291.75 -1181.11 -1021.63 -1423.89 -1672.47 -1806.65 -2427.47 -3210.55 -3696.12 -3698.12 -3698.59 -3697.11 -3698.43 -3698.24 -3701.33 -3702.62 -3707.62 -3710.12 -3711.19 -3465.92 -3170.37 -3160.54 -3432.72 -3446.08 -3351.75 -3194.87 -2928.22 -2898.42 -2856.28 -2596.39 -2494.74 -2381.99 -2280.61 -2342.99 -2622.59 -2584.98 -2471.90 -2449.85 -2438.71 -2155.37 -2146.33 -2152.28 -2202.08 -2250.59 -2704.08 -2655.83 -3161.24 -3152.75 -3487.22 -3659.40 -3860.79 -4270.60 -4139.35 -4336.94 -4476.80 -4416.95 -5037.57 -5286.94 -5410.00 -5314.86 -5381.15 -5246.64 -5286.01 -5200.11 -5395.50 -5606.21 -5813.22 -5873.27 -5833.26 -5722.64 -5568.40 -5458.47 -5307.22 -5394.38 -5809.74 -5946.94 -6007.81 -5771.97 -5414.15 -5170.93 -5028.24 -4839.27 -4637.71 -4483.40 -4349.55 -4315.03 -4364.37 -4410.43 -4549.36 -4848.00 -5381.00 -5731.48 -5957.43 -6092.93 -6150.16 -6017.18 -5578.98 -4537.39 -3993.88 -4028.44 -4142.81 -4185.78 -4307.98 -4325.10 -4290.65 -4290.85
-605.07 -604.94 -587.80 -563.44 -556.93 -514.96 -490.95 -428.51 -356.93 -263.17 -236.31 -200.50 -171.60 -141.83 -114.52 -96.55 -73.86 -46.16 -25.82 -18.84 1.75 26.40 37.29 29.92 2.67 -44.85 -137.87 -261.54 -426.00 -850.53 -1683.52 -2063.27 -2394.49 -2367.97 -1982.77 -1686.92 -1429.61 -1868.16 -2026.65 -2354.20 -2631.71 -3269.32 -3677.69 -3696.69 -3702.42 -3702.63 -3705.72 -3705.24 -3707.14 -3708.19 -3712.96 -3717.31 -3723.02 -3722.35 -3566.48 -3266.89 -3251.92 -3399.32 -3412.73 -3383.34 -3283.70 -3259.25 -3159.36 -3133.48 -2994.63 -2895.68 -2785.04 -2781.75 -2934.55 -3326.25 -3762.79 -3542.90 -3596.20 -3368.55 -3035.61 -3117.04 -3185.13 -3046.73 -3181.00 -3163.57 -3454.36 -3698.56 -3814.19 -4327.20 -4659.80 -5301.36 -5318.70 -5175.24 -5143.29 -5221.73 -5678.09 -5844.48 -5942.43 -5731.20 -5528.02 -5577.28 -5562.19 -5527.30 -5648.56 -5997.57 -6104.42 -6230.12 -6154.88 -5861.97 -5544.69 -5483.01 -5570.49 -5646.70 -6139.27 -6493.69 -6408.48 -6282.40 -5957.10 -5611.92 -5426.39 -5152.08 -4865.78 -4641.27 -4513.86 -4415.12 -4376.58 -4419.23 -4562.97 -4664.78 -4904.71 -5503.68 -6003.31 -6280.09 -6396.99 -6346.29 -6338.75 -5829.03 -4928.41 -4378.22 -4189.64 -4275.63 -4313.95 -4372.10 -4412.75 -4403.98 -4406.29
-668.56 -668.46 -662.00 -641.59 -598.14 -561.77 -495.48 -425.59 -364.83 -280.85 -236.85 -216.22 -171.01 -135.31 -106.63 -88.75 -52.31 -35.90 -14.73 -0.62 24.06 37.64 51.77 37.33 13.99 -35.20 -141.89 -237.65 -328.31 -546.11 -1866.13 -2672.24 -2827.48 -2851.83 -2257.35 -1926.62 -1898.58 -2157.84 -2342.14 -2594.02 -3050.73 -3655.15 -3704.11 -3711.37 -3715.81 -3714.72 -3712.90 -3712.03 -3716.24 -3715.98 -3722.85 -3721.19 -3730.03 -3735.41 -3638.14 -3462.30 -3398.71 -3402.78 -3401.80 -3373.36 -3338.05 -3315.78 -3289.97 -3287.69 -3276.30 -3184.38 -3143.30 -3119.15 -3160.65 -3600.66 -3921.95 -4116.24 -4036.53 -4064.60 -3925.47 -4051.56 -3937.56 -3931.42 -3878.88 -3946.53 -4151.48 -4979.49 -5150.30 -5965.99 -6165.72 -6440.43 -6398.55 -6131.61 -5867.33 -5676.60 -5771.53 -5917.58 -5945.13 -5909.73 -5850.19 -5658.42 -5592.06 -5616.53 -5865.53 -6097.28 -6201.54 -6217.08 -6078.11 -5806.01 -5653.06 -5838.67 -6150.86 -6718.88 -6903.31 -7202.30 -6780.93 -6393.76 -6119.97 -5689.44 -5459.83 -5160.05 -4902.41 -4713.86 -4516.37 -4429.31 -4428.00 -4458.26 -4557.80 -4813.55 -5139.84 -5597.93 -6231.29 -6426.73 -6648.24 -6625.72 -6468.18 -5671.84 -5139.91 -4522.84 -4307.08 -4321.90 -4328.55 -4419.39 -4470.22 -4473.26 -4473.37
-693.20 -693.12 -690.42 -668.32 -641.82 -589.47 -498.59 -435.33 -372.88 -306.86 -262.43 -207.22 -180.56 -134.23 -95.15 -77.07 -41.34 -19.20 -8.58 3.30 28.01 42.27 52.60 36.14 15.13 -0.58 -107.92 -224.78 -286.10 -503.97 -1494.52 -2774.33 -3200.78 -3102.82 -2658.06 -2265.67 -2074.32 -2153.40 -2290.01 -2541.39 -2885.99 -3357.64 -3462.73 -3544.93 -3669.92 -3723.64 -3722.04 -3726.24 -3727.08 -3725.78 -3733.00 -3736.68 -3680.25 -3446.93 -3145.25 -3240.30 -3404.15 -3408.75 -3406.73 -3395.47 -3365.11 -3332.23 -3314.41 -3317.77 -3308.72 -3283.44 -3265.91 -3296.52 -3435.71 -3783.53 -4054.44 -4195.35 -4329.84 -4365.81 -4401.18 -4416.57 -4610.00 -4490.12 -4595.79 -5311.08 -5733.45 -5957.41 -6248.06 -6659.48 -6780.10 -6770.23 -6660.77 -6296.66 -6030.72 -5549.14 -5583.48 -5904.40 -6117.16 -6140.90 -5989.52 -5880.21 -5818.60 -5827.83 -5940.61 -6119.94 -6222.18 -6222.78 -6192.59 -6322.28 -6315.63 -7006.88 -7150.86 -7594.27 -7800.62 -7862.99 -7148.77 -6560.15 -6153.15 -5736.19 -5404.26 -5186.89 -4921.21 -4746.47 -4551.50 -4465.96 -4458.49 -4544.38 -4638.42 -4752.85 -5094.23 -5671.26 -6212.82 -6577.96 -6718.52 -6829.19 -6726.51 -5938.54 -5247.14 -4652.44 -4420.91 -4415.21 -4456.97 -4467.23 -4465.59 -4413.37 -4392.67
-695.69 -696.58 -689.16 -665.44 -653.09 -610.87 -526.00 -472.36 -402.80 -310.72 -270.43 -232.22 -191.57 -153.98 -118.13 -90.57 -42.74 -24.27 -14.98 -2.11 15.30 35.08 37.02 27.10 7.00 -49.66 -137.04 -224.47 -297.80 -375.25 -907.72 -2566.93 -3123.65 -3267.83 -2827.91 -2481.77 -2338.79 -2375.55 -2488.01 -2514.55 -2732.61 -2872.68 -3110.75 -3234.75 -3482.25 -3715.67 -3739.22 -3735.50 -3736.96 -3741.43 -3741.56 -3664.86 -3465.71 -2860.87 -2629.57 -2717.87 -3209.28 -3416.10 -3292.46 -3210.83 -3312.51 -3317.73 -3276.53 -3293.99 -3251.70 -3196.69 -3225.31 -3290.59 -3570.72 -3869.98 -4139.25 -4346.57 -4483.84 -4505.75 -4675.68 -5049.16 -5219.55 -5439.95 -5960.47 -6028.39 -6278.15 -6470.46 -6617.73 -6839.59 -6784.50 -6839.00 -6758.69 -6512.39 -6055.77 -5789.52 -5677.03 -5862.95 -6226.22 -6268.09 -6264.25 -6208.51 -6208.59 -6132.89 -6120.03 -6192.91 -6333.27 -6409.90 -6608.22 -6920.74 -6971.59 -7648.95 -7999.88 -8401.96 -8531.32 -8153.13 -7495.23 -6732.65 -6335.16 -5748.19 -5378.29 -4975.99 -4917.39 -4702.90 -4509.16 -4430.88 -4449.03 -4499.47 -4529.89 -4681.04 -5134.68 -5598.08 -5921.67 -6437.59 -6552.09 -6778.77 -6847.27 -6230.70 -5404.53 -4682.06 -4533.43 -4508.12 -4504.99 -4479.48 -4358.48 -4219.74 -4219.69
-655.53 -661.39 -663.47 -633.82 -620.82 -570.70 -526.60 -471.76 -445.51 -353.79 -318.55 -265.95 -228.19 -188.46 -153.81 -131.55 -105.44 -39.70 -24.32 -18.76 3.79 21.25 13.46 12.54 1.38 -84.65 -167.94 -210.09 -261.43 -352.93 -503.49 -1733.78 -2340.84 -2937.55 -2905.27 -2561.95 -2298.43 -2381.87 -2482.75 -2525.47 -2374.60 -2309.51 -2470.43 -2646.83 -3220.40 -3603.20 -3749.53 -3748.44 -3750.30 -3695.28 -3674.44 -3679.80 -3100.00 -2083.07 -1918.28 -2104.23 -2883.54 -2930.94 -3124.14 -2822.03 -2621.71 -2583.18 -2955.93 -2945.13 -2916.21 -2899.17 -3018.34 -3179.04 -3507.29 -3696.37 -4001.43 -4258.01 -4432.10 -4758.01 -4908.78 -5148.66 -5255.49 -5762.18 -6056.90 -6238.91 -6309.56 -6300.53 -6229.75 -6467.70 -6312.19 -6376.30 -6324.55 -6160.11 -5859.24 -5636.25 -5563.20 -5509.26 -5952.68 -6118.81 -6182.33 -6254.42 -6160.25 -6100.01 -5970.97 -6093.64 -6289.08 -6500.11 -6853.12 -7004.39 -7373.62 -7513.20 -8025.85 -8054.86 -7628.09 -7677.01 -6992.65 -6544.88 -6097.21 -5260.87 -5160.13 -4577.93 -4344.86 -4263.07 -4007.34 -4123.74 -3828.13 -4090.56 -4162.08 -4275.56 -4757.62 -4911.93 -5437.11 -5714.32 -5867.56 -6295.78 -6166.57 -6029.88 -5456.87 -4820.47 -4561.69 -4564.88 -4545.50 -4474.24 -4410.04 -4242.36 -4242.48
-587.77 -587.74 -578.11 -579.00 -573.91 -554.99 -513.69 -482.59 -452.75 -394.84 -337.85 -282.23 -251.32 -236.45 -182.47 -154.08 -143.45 -98.10 -70.63 -41.40 0.10 8.26 5.06 -12.64 -19.66 -115.21 -154.62 -208.67 -254.13 -325.57 -467.49 -1026.60 -2188.70 -2828.25 -2698.24 -2248.42 -2132.99 -2013.85 -2176.43 -1992.33 -1965.94 -1590.78 -1899.31 -2149.82 -2743.21 -3361.66 -3698.74 -3698.37 -3671.93 -3501.37 -3406.19 -2879.20 -2549.96 -1609.36 -1210.05 -1550.35 -2130.24 -2200.43 -2134.02 -1837.02 -2142.80 -2118.08 -2558.91 -2747.05 -2737.54 -2743.35 -2914.99 -3146.88 -3306.28 -3217.18 -3641.10 -3913.51 -4395.69 -4810.93 -5080.42 -5234.12 -5240.91 -5275.06 -5602.45 -5423.38 -5383.19 -5253.02 -5224.24 -4938.98 -5001.56 -4801.71 -5193.76 -5222.15 -5152.52 -5109.30 -5120.50 -5204.87 -5429.39 -5481.63 -5373.27 -5598.36 -5368.91 -5415.40 -5440.29 -5601.01 -5894.48 -5804.84 -6131.24 -6653.79 -6831.61 -6994.05 -7113.96 -7310.87 -6657.00 -6298.88 -6003.74 -5582.66 -4886.65 -4561.22 -4053.44 -3612.88 -3671.75 -3703.03 -3425.50 -3378.47 -3490.37 -3349.75 -3467.41 -3648.45 -3604.85 -4002.75 -4101.01 -4954.80 -4857.84 -5064.42 -5288.54 -5065.12 -4977.62 -4679.55 -4579.40 -4565.54 -4526.08 -4472.07 -4418.17 -4359.29 -4359.44
