-12045.86 -12001.72 -11994.61 -11978.56 -12240.68 -12706.49 -13076.71 -14248.25 -14877.74 -15523.37 -15803.88 -15981.43 -16169.97 -16191.59 -16157.37 -16129.81 -16132.11 -16097.18 -16053.86 -16009.85 -15846.82 -15109.74 -13973.77 -12770.12 -11392.44 -11387.04 -11214.69 -12256.41 -12288.07 -12551.26 -12226.91 -11488.92 -10744.82 -10315.15 -9656.87 -9147.43 -8708.69 -8703.38 -9409.86 -8885.81 -7952.73 -10225.55 -11706.33 -12414.94 -13160.38 -13616.00 -14287.17 -14753.09 -15002.07 -15171.77 -15606.83 -15774.60 -15885.27 -15819.63 -15866.05 -15872.68 -15870.47 -15867.24 -15863.70 -15862.89 -15850.74 -15840.35 -15816.72 -15743.38 -15524.91 -15098.87 -14697.32 -13421.51 -12013.48 -9173.27 -6184.40 -4178.64 -2857.84 -1874.55 -414.14 -197.19 23.49 18.05 17.35 21.28 48.26 64.45 77.10 116.14 152.49 255.89 464.94 803.79 1126.36 1312.30 1208.99 1151.67 1317.18 1170.11 1301.49 1149.89 629.17 230.96 61.15 18.15 -7.92 -60.53 -226.63 -2386.19 -3865.10 -3345.57 -2509.05 -1824.47 -1010.24 -855.69 -1022.08 -2940.19 -7070.09 -15198.62 -19322.93 -15972.99 -14681.57 -12920.80 -9263.49 -6334.54 -4000.55 -3355.36 -3360.35 -3739.48 -4222.81 -4930.54 -5460.56 -5431.38 -5112.98 -4556.45 -3928.33 -3192.39 -2755.78 -2594.02 -2907.28 -3353.50 -3695.13 -3769.09 -3749.07 -3630.12 -3651.56
-11718.27 -11723.00 -11754.11 -11738.22 -11822.08 -12086.14 -12612.73 -13855.19 -14643.67 -15584.63 -15854.57 -16021.48 -16089.95 -16035.82 -15991.77 -16034.81 -16057.87 -16059.59 -15994.37 -15940.32 -15729.68 -14982.04 -13313.35 -11237.91 -9831.12 -9394.67 -9973.36 -10379.39 -10011.59 -10584.35 -10961.79 -10227.15 -8879.19 -8108.97 -8043.80 -7669.74 -6862.27 -7271.00 -7009.45 -6511.60 -4121.88 -8162.22 -11925.35 -12355.00 -12549.88 -12690.02 -13610.66 -14149.60 -14277.53 -14702.91 -15080.78 -15477.31 -15514.76 -15714.34 -15880.94 -15862.24 -15854.93 -15865.81 -15864.86 -15859.80 -15850.23 -15842.28 -15827.15 -15568.68 -15306.93 -15058.36 -14212.52 -12091.83 -10126.13 -8211.96 -5756.86 -3444.95 -2194.20 -674.35 -164.49 39.65 47.30 44.51 47.64 66.70 79.48 97.04 113.25 138.28 161.96 218.53 276.78 662.56 1030.69 1103.50 1412.24 1556.02 1613.93 1551.58 1484.94 1029.73 748.49 288.83 124.81 60.34 30.65 -46.81 -109.57 -3514.59 -4692.02 -4111.62 -3488.93 -2864.42 -2335.18 -1880.02 -1228.53 -1914.55 -5565.30 -14997.82 -21519.36 -17508.06 -15073.05 -13626.89 -9351.83 -7468.77 -3633.63 -3352.52 -3318.62 -3621.07 -4575.52 -5258.35 -5572.91 -5503.27 -5065.43 -4355.10 -3570.55 -3060.44 -2856.12 -2627.05 -3051.36 -3620.17 -3888.17 -3962.04 -3942.39 -3782.77 -3782.95
-11874.93 -11874.65 -11900.90 -11900.13 -11897.72 -12105.52 -12750.99 -13805.03 -15054.74 -15631.07 -15851.24 -15995.07 -15977.48 -15922.16 -15903.93 -15952.71 -16017.88 -16024.82 -15948.79 -15836.57 -15552.99 -14778.17 -12815.86 -11237.93 -8922.10 -8527.09 -8408.21 -8660.61 -8683.43 -8954.33 -8638.93 -8273.87 -7534.03 -6695.16 -5878.95 -4794.93 -5196.24 -4214.97 -3277.28 -1100.42 -849.55 -4932.83 -6457.70 -8877.66 -11604.22 -11833.73 -12308.40 -12714.02 -13403.05 -13244.47 -13830.84 -14347.14 -14705.02 -15036.30 -15559.58 -15575.91 -15854.02 -15788.54 -15497.85 -15722.54 -15783.86 -15829.43 -15567.37 -14929.93 -14532.52 -14328.47 -14572.90 -11614.22 -8706.95 -6779.36 -5385.57 -3426.18 -2215.42 -508.47 -9.25 46.12 67.67 78.38 83.94 99.35 109.05 124.26 137.51 152.70 208.02 240.63 285.74 440.63 529.13 732.20 908.55 1158.73 1320.56 1526.15 1580.50 1075.70 870.87 364.96 217.25 70.91 39.67 -25.75 -66.10 -4298.53 -5296.91 -4586.65 -4256.82 -4424.76 -4013.59 -2908.35 -2167.69 -1513.94 -3810.74 -9572.76 -15375.93 -17707.99 -18111.48 -14051.08 -9555.68 -6288.77 -4245.83 -3374.90 -3233.76 -3806.79 -4580.42 -5318.34 -5672.18 -5600.84 -5083.85 -4498.20 -3568.84 -3146.65 -2611.77 -2561.29 -2972.30 -3849.66 -4004.44 -4059.96 -3959.17 -3850.45 -3820.22
-12375.21 -12374.63 -12717.44 -12373.90 -12277.93 -12647.52 -12965.98 -14246.56 -15010.82 -15689.30 -15877.95 -15956.04 -15929.14 -15875.97 -15864.81 -15947.64 -16011.18 -16109.22 -16047.15 -15978.68 -15828.08 -14683.43 -12527.22 -10697.32 -9060.47 -8797.40 -8712.38 -8518.42 -8088.88 -7763.20 -7351.94 -6756.50 -5790.87 -4361.22 -3482.68 -3263.55 -2301.95 -1735.39 -1476.69 -114.56 -43.06 -91.11 -3118.80 -8700.44 -7503.08 -10339.52 -10741.12 -10733.19 -11378.23 -11606.74 -12538.73 -12919.02 -13318.01 -13696.60 -14124.20 -14716.53 -14658.11 -14956.87 -14891.66 -15150.26 -15047.15 -13867.85 -14322.45 -13898.58 -12984.47 -12341.22 -13177.76 -10774.45 -8363.45 -7310.46 -4747.09 -3379.44 -1103.80 24.31 32.89 51.21 78.66 94.04 110.34 128.27 137.55 148.07 164.66 197.02 224.05 256.70 282.39 339.46 408.25 480.11 572.11 733.90 939.02 1205.09 1496.13 1336.45 902.61 692.40 357.70 79.39 18.41 -16.24 -49.32 -2067.36 -2470.06 -4889.31 -4555.21 -4926.27 -4876.94 -4093.75 -3331.31 -2746.62 -1991.65 -2507.48 -3522.27 -3560.19 -10516.64 -9775.62 -9886.49 -7129.57 -3757.61 -3239.24 -3131.41 -3712.46 -4407.91 -5303.95 -5691.17 -5731.34 -5314.59 -4825.87 -3957.01 -3441.88 -2880.65 -2654.24 -3115.12 -3659.14 -3914.16 -3966.48 -3817.60 -3612.73 -3612.55
-13164.42 -13163.67 -13446.47 -13165.38 -13375.75 -13644.02 -14026.74 -14696.90 -15261.25 -15625.38 -15785.59 -15804.86 -15816.72 -15831.32 -15895.21 -16044.94 -16097.54 -16195.97 -16223.78 -16247.47 -15981.95 -15191.04 -13072.43 -11758.20 -10007.00 -9878.56 -9967.42 -9617.13 -8355.38 -7516.03 -6328.91 -5232.69 -4736.02 -2595.50 -1412.53 -671.77 -660.78 -241.07 -54.65 -57.18 -9.15 -10.29 -180.64 -1981.81 -3121.54 -5808.66 -5881.54 -7478.11 -6096.69 -7673.43 -8773.51 -7478.06 -7382.05 -12368.88 -11858.73 -11818.52 -12089.78 -12488.45 -12328.29 -12719.02 -11868.86 -12271.57 -11351.10 -11247.33 -9894.46 -8325.55 -8058.19 -8679.77 -7692.73 -6828.78 -3806.08 -1822.64 -881.45 27.88 46.13 64.32 100.39 116.56 124.04 154.70 166.41 160.59 186.53 213.49 249.75 275.62 327.95 348.52 376.73 409.84 475.62 565.13 678.19 964.31 1120.61 1293.56 1127.38 797.26 331.16 163.90 59.92 17.91 -38.60 -71.12 -1298.09 -4117.59 -4806.81 -4800.95 -4817.59 -4667.91 -4281.89 -3623.57 -2974.65 -2546.86 -2466.94 -2495.23 -3022.84 -3783.61 -6647.53 -6393.09 -4511.93 -3335.47 -3146.18 -3677.61 -4305.16 -5282.25 -5747.90 -5896.13 -5632.93 -5037.14 -4739.64 -4073.52 -3264.25 -2870.07 -3091.48 -3503.21 -3687.84 -3564.66 -3447.03 -3310.32 -3310.15
-13864.75 -13827.52 -13954.17 -14080.13 -14176.75 -14253.02 -14624.91 -15060.88 -15303.10 -15566.69 -15645.24 -15668.07 -15607.70 -15701.77 -15883.43 -16165.44 -16296.87 -16334.88 -16413.09 -16404.58 -16147.38 -15727.59 -14290.10 -12707.46 -12583.61 -11721.27 -12020.22 -11685.45 -9195.44 -7913.20 -5761.48 -4438.43 -3503.06 -1890.56 -526.12 -64.30 -39.09 -26.40 6.93 10.16 24.96 12.15 -47.33 -56.70 -424.84 -1633.22 -2441.34 -3660.53 -1566.65 -1296.76 -1696.57 -3472.41 -3912.92 -1620.14 -6949.76 -7813.90 -9578.97 -9364.49 -9575.95 -9374.47 -9030.84 -9236.62 -8022.48 -7926.16 -6193.32 -5012.72 -6237.73 -4374.03 -4800.41 -4047.61 -2190.18 -169.50 -170.91 45.06 63.18 95.83 126.42 137.47 140.70 175.11 190.77 201.78 215.72 251.03 272.80 310.47 338.70 358.63 378.46 415.31 446.03 494.50 500.88 602.37 771.84 1110.54 1234.60 916.67 621.19 160.01 106.10 61.71 -2.54 -28.69 -103.04 -2561.99 -5016.98 -4669.51 -4576.56 -4668.58 -4923.49 -5048.59 -4026.39 -3816.47 -3029.69 -2080.34 -1738.50 -2036.24 -2357.02 -4696.38 -4747.66 -3665.70 -3177.85 -3378.00 -4105.60 -4812.26 -5648.92 -5986.34 -6008.88 -5746.26 -5285.29 -4563.29 -3285.15 -2836.37 -2846.22 -3245.13 -3427.77 -3314.25 -3207.99 -3166.51 -3166.52
-14282.08 -14285.30 -14419.76 -14638.16 -14626.21 -14822.50 -15027.35 -15181.79 -15364.04 -15485.09 -15529.48 -15465.90 -15479.63 -15595.46 -15909.62 -16156.81 -16318.54 -16377.34 -16430.49 -16470.25 -16350.07 -16015.48 -15250.72 -14641.55 -14395.66 -14600.65 -14186.12 -13090.47 -10198.42 -7559.58 -6001.54 -4421.88 -2933.21 -1303.40 -84.23 -51.60 -9.71 14.09 27.16 30.58 35.16 19.64 12.76 13.17 9.07 12.07 -0.76 5.19 11.59 14.35 9.78 12.19 -845.70 -723.12 -2703.82 -3396.05 -4728.96 -8637.99 -6552.88 -6065.90 -6619.17 -5802.93 -5386.50 -3935.52 -3430.01 -2794.71 -3040.54 -615.96 -27.54 -6.21 -0.83 31.98 46.35 69.95 91.79 123.28 153.67 178.92 179.73 202.83 198.40 226.16 231.34 276.42 297.90 326.48 344.08 354.35 360.06 388.97 431.75 462.25 503.50 533.59 611.20 789.08 1086.88 1282.77 890.25 276.96 104.38 76.72 39.15 6.90 -60.11 -2878.50 -4941.82 -4878.26 -4590.13 -4661.10 -5190.21 -5453.60 -5389.17 -4958.87 -3852.30 -3179.09 -2717.56 -1929.04 -2213.13 -3271.65 -4320.45 -3826.55 -3209.58 -3274.82 -3727.44 -4808.41 -5535.01 -5970.73 -6012.44 -5982.22 -5831.10 -4987.56 -3451.28 -2549.49 -2521.80 -2914.07 -3113.80 -3112.31 -3080.97 -3091.52 -3086.01
-14532.50 -14543.11 -14687.10 -14814.51 -14946.14 -15021.63 -15112.80 -15249.96 -15385.65 -15409.71 -15401.22 -15341.76 -15355.48 -15609.25 -15897.33 -16195.59 -16294.09 -16374.06 -16398.36 -16423.53 -16384.75 -16198.20 -15845.19 -15577.77 -15492.12 -15426.31 -14928.26 -14081.15 -12180.91 -9278.16 -6120.34 -3812.47 -1579.79 -285.99 -45.08 -25.05 9.77 21.34 63.88 63.27 54.30 41.18 49.28 34.60 46.80 36.68 27.68 27.17 25.48 24.52 27.63 22.89 16.69 -29.86 -55.54 -340.17 -748.64 -3526.75 -2454.71 -672.67 -316.15 -1491.03 -2223.61 -870.91 -605.40 -482.45 -14.48 10.98 20.64 28.88 38.86 55.77 65.54 83.38 106.18 133.32 203.72 220.44 218.64 221.16 230.75 254.57 261.00 294.65 317.78 328.61 346.74 355.63 362.04 373.22 412.33 435.15 456.23 512.32 553.12 693.59 922.73 1219.40 953.90 645.11 165.87 138.44 86.45 27.07 -9.24 -1490.57 -4228.49 -4699.41 -4844.72 -4698.38 -4880.27 -5243.18 -5445.00 -5340.87 -5058.19 -4459.45 -3969.66 -3357.88 -2680.76 -2394.24 -2582.42 -3126.18 -3292.63 -3078.95 -3606.74 -4518.79 -5607.70 -5973.05 -5994.53 -5978.49 -5856.72 -4973.80 -3492.21 -2611.63 -2101.91 -2411.60 -2662.56 -2957.50 -2970.11 -3000.54 -3000.16
-14698.87 -14698.70 -14852.29 -14962.26 -15043.55 -15157.42 -15215.74 -15291.52 -15333.74 -15300.90 -15341.40 -15320.74 -15400.77 -15608.27 -15971.12 -16176.64 -16284.26 -16342.47 -16369.20 -16417.01 -16377.31 -16232.21 -15897.43 -15764.80 -15661.37 -15532.61 -15409.94 -14465.87 -13039.14 -11431.15 -5667.90 -2496.64 -398.95 -89.17 -24.86 -1.51 14.52 41.51 87.74 92.99 88.37 76.56 75.35 71.40 72.15 58.90 60.46 55.90 48.14 50.38 55.73 47.79 25.43 14.56 -16.85 -34.92 -98.11 -169.28 -85.56 -34.26 -35.11 -51.70 -51.68 -26.97 -34.25 4.98 9.12 27.43 45.06 50.94 69.40 74.19 86.59 98.87 138.04 194.61 287.92 278.03 234.81 254.52 256.06 267.56 281.50 310.76 324.51 333.74 345.76 351.52 359.90 373.47 395.97 426.71 440.46 476.05 487.47 497.79 735.71 1022.23 1067.71 621.28 264.72 187.90 150.76 82.81 53.45 17.64 -1110.34 -3812.43 -4929.15 -4984.87 -5083.57 -5153.00 -5256.60 -5460.69 -5599.08 -5482.90 -5376.79 -4958.10 -4004.96 -3191.11 -2815.60 -3787.62 -3340.49 -3124.70 -3407.75 -4462.34 -5346.07 -5876.92 -5952.14 -5944.79 -5915.90 -5311.25 -3835.11 -2716.13 -1892.79 -2043.04 -2530.69 -2813.79 -3024.94 -3025.56 -3025.68
-14856.48 -14858.11 -14946.59 -15057.23 -15150.73 -15197.19 -15233.68 -15245.94 -15226.37 -15207.38 -15232.60 -15327.40 -15506.52 -15699.46 -15942.12 -16157.25 -16301.40 -16354.46 -16381.29 -16401.92 -16321.96 -16168.44 -15735.46 -15454.02 -15277.32 -15271.40 -15131.63 -14640.41 -13519.23 -11949.16 -4800.17 -874.96 -80.97 -31.66 4.11 11.28 23.62 71.98 94.71 114.44 125.59 138.64 100.90 113.83 125.36 88.41 86.48 85.37 83.81 67.96 66.91 66.23 44.20 28.31 16.01 -12.23 -11.01 -15.97 -15.00 -14.29 -17.09 -13.68 -12.54 -1.03 11.51 17.63 35.60 42.91 60.15 72.15 87.08 96.34 110.33 137.84 198.80 243.71 358.41 338.41 285.50 286.59 301.23 276.71 305.93 322.45 330.94 338.90 346.27 350.63 358.99 370.32 376.23 393.88 424.34 456.56 463.50 465.53 563.13 727.71 979.54 888.74 1002.79 601.87 255.99 110.74 84.17 28.79 -20.89 -137.78 -1407.74 -5138.67 -5176.06 -4949.06 -5141.74 -5429.00 -5609.32 -5698.47 -5725.24 -5529.05 -4933.14 -4146.65 -3452.96 -3714.70 -3471.45 -3197.10 -3527.79 -4392.11 -5547.78 -5950.34 -5943.51 -5844.80 -5790.14 -5538.24 -3963.05 -2922.95 -1892.98 -1780.36 -2339.56 -2983.57 -3100.12 -3150.79 -3172.72
-15067.87 -15067.64 -15136.67 -15153.05 -15197.12 -15203.14 -15218.78 -15194.17 -15183.57 -15206.94 -15251.79 -15365.59 -15486.05 -15773.30 -15963.24 -16229.95 -16320.44 -16380.41 -16404.53 -16425.72 -16306.03 -15903.56 -15227.09 -14859.75 -14750.66 -14868.11 -14561.98 -14068.82 -12894.66 -11468.24 -1351.33 -87.56 -51.29 -12.77 9.68 22.22 45.54 77.58 149.80 128.58 184.89 261.78 250.06 226.66 170.82 232.39 116.51 111.50 109.58 107.88 86.15 83.61 67.50 52.32 41.75 20.57 -5.70 -6.91 -9.55 -10.36 -7.46 -4.87 -3.15 4.99 13.44 32.05 45.79 58.93 82.15 91.81 94.68 117.80 142.69 152.26 290.74 363.49 449.02 418.44 352.28 331.42 317.70 306.60 321.20 327.85 339.39 345.84 349.99 353.93 362.81 369.26 373.34 374.23 374.88 427.77 456.88 464.13 491.01 629.99 815.69 1109.74 1158.51 705.25 291.95 170.56 102.91 77.16 19.35 -224.24 -1421.56 -4526.01 -4769.12 -4738.03 -5077.23 -5355.26 -5592.49 -5749.76 -5865.19 -5759.10 -5221.72 -3726.98 -3073.28 -3367.89 -3467.04 -3389.30 -3677.03 -4614.95 -5332.81 -5935.73 -5888.04 -5795.42 -5724.08 -5417.81 -4223.81 -2655.45 -2031.36 -1934.71 -2543.36 -2933.26 -3262.78 -3374.35 -3374.57
-15243.25 -15243.08 -15234.82 -15214.72 -15203.35 -15153.68 -15119.82 -15149.12 -15245.69 -15269.06 -15350.78 -15488.75 -15586.92 -15783.72 -15978.23 -16183.94 -16340.84 -16413.02 -16464.90 -16488.44 -16268.62 -15610.65 -14835.26 -14420.26 -14220.63 -14125.60 -13880.92 -13738.87 -13058.55 -11148.60 -2706.72 -51.70 -12.80 -3.38 12.54 25.06 70.43 151.36 202.69 201.36 192.30 232.84 325.44 410.31 353.70 376.66 212.27 153.94 157.93 151.40 112.89 112.58 95.03 69.03 42.64 34.22 14.27 6.66 -7.21 -0.28 7.95 4.49 15.14 25.24 28.10 56.13 67.16 76.95 93.97 97.09 118.83 130.94 148.57 165.78 260.79 347.57 476.97 462.66 427.82 334.74 325.05 323.32 324.67 328.71 336.11 343.10 353.06 359.86 364.29 369.16 373.38 374.33 374.82 426.33 440.13 463.78 483.27 532.01 677.38 961.52 1217.98 1084.16 734.66 323.13 112.01 89.72 24.46 -230.89 -1254.74 -4494.50 -5097.19 -4757.61 -4910.05 -5077.33 -5482.96 -5729.79 -5892.28 -5850.22 -5226.13 -3602.94 -2511.53 -2402.25 -2572.08 -3249.26 -3626.16 -4199.79 -5133.19 -5662.00 -5718.99 -5516.58 -5499.71 -5271.57 -4022.00 -2991.20 -2201.83 -2081.68 -2485.52 -3015.37 -3311.96 -3451.13 -3451.21
-15293.72 -15293.65 -15277.95 -15236.52 -15164.05 -15117.09 -15079.13 -15127.34 -15295.89 -15380.48 -15449.36 -15509.74 -15663.60 -15820.85 -15964.34 -16206.40 -16349.45 -16469.66 -16555.04 -16551.57 -16355.23 -15538.24 -14871.73 -14296.52 -14050.59 -13959.28 -13870.72 -13259.44 -12701.70 -3198.80 -574.87 -20.17 -5.14 6.27 14.61 50.24 106.10 197.33 280.21 269.26 253.17 332.44 454.32 553.83 550.57 371.08 288.54 187.07 184.12 171.74 141.80 123.58 121.26 115.80 80.62 58.26 41.20 34.02 26.17 45.79 30.79 30.62 29.49 37.77 48.46 63.81 84.93 94.22 111.85 119.18 128.20 141.65 154.49 180.06 217.28 237.44 303.41 359.55 380.77 330.07 327.40 324.36 325.46 331.80 335.31 341.16 352.38 357.06 365.65 369.46 373.34 375.63 383.72 400.18 410.90 457.26 476.50 494.23 626.43 929.28 1257.49 1190.56 993.14 580.08 114.46 59.53 13.31 -17.29 -220.71 -2904.35 -5116.08 -4867.75 -4825.19 -5053.68 -5327.66 -5640.16 -5851.85 -5805.62 -5210.89 -4095.37 -2658.22 -1616.19 -2642.69 -3229.39 -3585.88 -3681.81 -4368.71 -5004.83 -5422.02 -5367.56 -5320.86 -5189.97 -4415.22 -3182.91 -2362.76 -2230.41 -2581.40 -3072.32 -3163.34 -3243.68 -3243.54
-15302.72 -15302.23 -15307.34 -15266.57 -15190.92 -15131.66 -15118.99 -15213.19 -15325.07 -15407.51 -15484.12 -15570.56 -15694.62 -15807.70 -16024.69 -16210.02 -16379.65 -16486.71 -16609.18 -16674.13 -16395.64 -15597.42 -14987.54 -14230.86 -14076.98 -14054.65 -13752.51 -11350.62 -7633.65 -2038.08 -43.43 -23.81 -6.00 3.51 9.41 47.90 100.73 170.83 240.11 305.34 283.71 369.02 520.09 657.52 627.45 442.59 312.77 264.04 209.35 200.78 179.25 148.92 139.71 127.28 114.99 82.39 64.78 59.30 61.27 58.81 54.98 37.60 51.67 56.69 77.72 98.34 99.27 107.09 128.07 133.07 139.67 148.08 157.75 187.36 204.13 248.50 277.84 328.57 331.80 328.63 326.91 323.76 326.63 334.99 340.16 345.61 354.17 358.89 365.14 372.38 376.79 378.12 381.61 393.56 406.50 419.57 445.09 459.05 520.34 694.98 1145.69 1210.99 976.15 446.30 223.10 166.42 82.72 -9.74 -73.69 -2471.45 -5142.25 -5068.69 -4900.21 -5114.06 -5426.85 -5738.59 -5804.83 -5779.40 -5494.64 -4286.43 -2478.80 -2148.62 -2086.87 -3136.24 -3328.19 -3633.69 -3891.62 -4613.82 -5002.20 -5116.96 -5078.10 -5208.22 -4713.84 -3227.01 -2538.93 -2154.81 -2368.76 -2878.27 -2992.77 -2918.55 -2870.31
-15341.56 -15341.46 -15405.54 -15404.90 -15302.09 -15271.90 -15319.79 -15308.75 -15368.21 -15436.15 -15503.59 -15583.56 -15741.66 -15865.95 -16122.56 -16233.84 -16352.89 -16453.54 -16548.37 -16622.84 -16382.36 -15657.16 -14730.47 -14240.19 -13958.57 -13985.60 -13628.98 -9692.85 -7553.45 -1497.95 -59.29 -16.43 0.04 16.10 25.59 70.74 124.57 234.36 212.78 301.65 348.13 322.78 401.71 550.04 621.72 391.06 334.87 229.68 220.12 223.99 185.35 170.20 162.46 151.77 130.99 106.78 89.29 84.22 78.17 74.15 78.72 76.29 88.58 88.90 90.27 109.20 120.30 146.81 150.44 149.69 152.38 160.74 172.23 192.70 237.75 270.61 287.38 318.01 325.37 326.58 323.92 324.89 332.31 343.18 347.44 355.34 362.30 365.73 373.38 379.75 381.14 384.63 392.66 403.62 410.31 413.48 428.26 452.16 511.72 612.03 1014.01 1269.12 1272.04 722.79 367.98 201.58 131.58 68.35 -57.14 -2782.87 -4808.83 -5366.57 -5067.51 -5221.59 -5490.73 -5694.97 -5756.61 -5725.13 -5338.38 -4895.63 -2391.93 -1809.14 -2239.43 -2756.01 -2978.66 -3582.77 -3857.84 -4552.35 -5044.34 -4968.30 -4990.15 -4962.60 -4676.95 -3549.80 -2640.18 -2135.33 -2206.98 -2498.17 -2600.73 -2561.53 -2561.42
-15417.14 -15417.02 -15550.11 -15580.69 -15576.66 -15477.37 -15513.92 -15418.71 -15390.15 -15428.76 -15467.97 -15608.25 -15741.31 -15854.41 -15965.15 -16077.27 -16191.07 -16144.71 -16162.55 -16197.47 -15888.06 -15093.12 -13981.45 -13705.03 -13363.96 -10493.56 -8170.18 -5610.38 -4205.27 -130.42 -60.96 -12.62 3.85 33.07 70.35 86.89 197.92 276.35 237.22 352.16 381.45 371.98 545.14 603.08 544.30 350.57 330.60 375.86 297.92 248.19 221.75 197.46 193.73 169.17 135.60 130.46 104.40 95.18 106.83 104.37 108.95 92.53 107.25 108.32 117.82 128.58 145.34 155.15 162.39 171.89 176.05 190.32 197.29 215.70 232.14 251.54 281.59 308.38 319.20 323.34 327.54 334.34 339.80 361.69 366.71 372.38 377.85 379.80 382.84 386.86 387.66 386.79 385.94 401.23 409.46 421.37 453.42 475.49 526.40 637.92 868.38 1278.01 1377.37 789.00 416.44 281.86 168.51 102.50 57.36 -817.54 -4035.36 -4988.48 -5144.04 -5172.91 -5456.78 -5582.17 -5688.81 -5669.64 -5476.17 -4019.35 -2563.80 -1710.98 -1769.74 -2295.28 -3038.13 -3396.53 -3859.98 -4173.02 -4465.61 -4823.18 -4955.36 -4922.73 -4726.10 -3728.81 -2615.77 -2093.53 -2012.35 -2222.46 -2353.55 -2315.85 -2315.77
-15534.32 -15534.17 -15713.14 -15790.44 -15836.25 -15794.47 -15675.22 -15606.50 -15478.20 -15431.76 -15460.43 -15646.02 -15767.64 -15881.60 -15784.58 -15755.08 -15568.56 -15395.96 -15656.95 -15501.45 -15099.83 -14178.80 -13306.48 -12297.94 -10759.75 -9146.51 -1871.43 -1219.91 -154.22 -91.70 -70.16 -13.14 15.80 52.30 95.06 93.41 160.15 303.87 433.00 426.22 559.65 414.91 503.77 653.10 588.33 385.53 490.70 458.01 331.66 254.76 247.85 211.37 211.92 197.92 194.11 175.05 134.15 140.57 136.21 135.83 151.07 137.17 133.57 142.82 147.42 153.72 176.17 173.47 174.78 188.10 188.84 195.25 208.82 220.38 235.15 261.79 289.11 302.28 311.64 320.74 330.39 338.41 346.64 372.15 375.89 386.63 393.69 394.81 395.71 399.17 392.53 389.75 386.19 390.96 400.33 421.46 454.43 472.34 498.87 547.21 690.53 1113.73 1285.03 957.55 466.92 279.61 199.52 123.27 47.66 -9.52 -1181.48 -4195.58 -5493.65 -5224.36 -5349.40 -5432.26 -5618.69 -5617.10 -5389.79 -4026.12 -2511.02 -1482.58 -1676.96 -2155.61 -2776.31 -3341.86 -3597.89 -4056.72 -4414.78 -4775.10 -4923.35 -4902.72 -4730.69 -3632.88 -2783.48 -2114.23 -1883.07 -2014.80 -2011.74 -2069.20 -2069.11
-15625.79 -15642.44 -15767.24 -15976.99 -16000.99 -16007.03 -15954.82 -15689.02 -15560.02 -15448.81 -15494.71 -15654.98 -15788.81 -15773.52 -15562.10 -15314.11 -15160.42 -15119.96 -15230.43 -14966.17 -14405.46 -13303.97 -11368.31 -9951.61 -8935.20 -5797.99 -1815.53 -177.19 -128.34 -74.55 -51.52 -17.74 25.11 53.05 103.97 210.59 202.26 264.21 511.96 578.60 729.62 663.21 585.60 615.98 590.46 488.29 586.82 528.23 405.48 358.82 262.36 214.05 224.68 223.49 240.39 197.08 175.35 163.79 167.27 163.32 159.96 186.63 153.02 167.72 188.99 182.71 198.44 206.55 200.32 214.43 203.03 207.67 217.21 229.19 242.69 263.01 275.77 292.39 307.81 318.02 333.59 339.36 347.39 375.23 384.36 401.27 414.40 418.96 415.10 411.66 402.92 397.95 389.76 387.87 395.65 426.04 447.00 464.98 496.83 531.29 588.94 1104.01 1270.80 963.73 604.21 272.28 177.43 115.24 74.11 34.59 -457.11 -2274.01 -5206.58 -5324.00 -5294.47 -5451.36 -5564.27 -5648.15 -5351.50 -4031.54 -2416.76 -1366.18 -1814.83 -1932.19 -2684.68 -3252.93 -3579.07 -3903.88 -4561.78 -4734.25 -4782.26 -4819.51 -4399.42 -3923.85 -2794.10 -2184.24 -1832.96 -1815.42 -1838.01 -1882.13 -1882.10
-15668.67 -15668.58 -15874.36 -16048.14 -16134.15 -16127.79 -16090.31 -15880.41 -15628.48 -15506.82 -15500.84 -15616.00 -15692.63 -15686.25 -15396.48 -15067.19 -14930.88 -14855.58 -14553.98 -14450.83 -13545.92 -11759.06 -9907.66 -7791.48 -6817.57 -4587.88 -1451.49 -195.07 -86.74 -27.98 -17.86 5.15 29.38 82.77 222.71 278.05 324.36 293.85 330.09 543.46 781.34 732.36 765.92 701.21 648.92 658.46 748.48 652.80 382.31 360.28 323.64 266.07 313.24 324.56 324.83 229.19 205.93 199.66 188.75 211.02 268.53 262.89 213.21 213.69 226.60 220.87 224.40 224.93 228.45 231.78 237.77 228.46 232.99 241.12 252.89 263.21 279.73 293.22 309.86 329.32 335.55 343.90 365.20 377.60 391.94 415.43 425.08 427.98 426.34 421.69 417.84 407.30 393.31 391.72 393.19 402.96 432.65 457.18 492.05 540.10 582.79 844.58 1103.33 852.39 532.68 306.56 240.66 170.63 131.85 69.59 -101.31 -1401.09 -4032.38 -5263.75 -5250.14 -5412.27 -5602.06 -5608.21 -5253.98 -4119.53 -2050.42 -1371.40 -1247.14 -1744.71 -2153.92 -3363.24 -3764.01 -3840.95 -4154.64 -4425.87 -4698.66 -4728.23 -4340.44 -3906.52 -2821.92 -2219.52 -1762.33 -1666.89 -1652.67 -1758.93 -1758.94
-15700.74 -15700.65 -15904.16 -16082.15 -16193.03 -16197.62 -16159.30 -15881.02 -15688.18 -15530.21 -15531.57 -15543.41 -15585.44 -15507.38 -15245.97 -14905.38 -14589.85 -14348.01 -13909.70 -13126.42 -11906.72 -10413.80 -7841.50 -6298.73 -6019.43 -1513.89 -209.12 -108.73 -31.14 -13.28 15.60 45.28 55.65 91.98 244.06 334.70 410.53 485.77 471.72 472.17 895.49 868.00 851.85 850.88 832.51 808.08 795.73 597.36 462.64 394.14 385.53 350.60 359.73 429.90 453.37 438.24 266.01 218.58 228.01 269.41 273.70 277.72 261.86 229.92 256.69 251.83 257.73 268.52 256.68 256.12 252.32 251.15 245.70 246.41 258.19 265.78 283.19 291.37 315.36 329.28 338.84 349.25 369.51 383.85 401.83 418.02 427.77 438.11 435.65 433.18 422.55 412.01 402.72 396.72 394.20 395.80 422.92 433.50 462.27 512.06 528.81 743.95 1014.02 862.59 410.72 262.81 240.01 183.10 124.57 70.82 -146.42 -2191.66 -5291.73 -5571.51 -5387.37 -5446.23 -5616.55 -5614.45 -5078.58 -4115.83 -1984.69 -1266.42 -1139.26 -1583.61 -2199.04 -3124.33 -3581.59 -3653.25 -3985.78 -4470.60 -4742.92 -4728.00 -4521.22 -3697.49 -2938.08 -2273.98 -1817.66 -1539.81 -1532.07 -1653.36 -1653.37
-15731.39 -15755.09 -15897.88 -16092.51 -16169.90 -16156.64 -16087.62 -15910.43 -15706.91 -15575.16 -15548.49 -15509.66 -15394.20 -15280.89 -15039.81 -14440.58 -13819.68 -12970.85 -12360.43 -11920.78 -11629.71 -8977.82 -6311.76 -5587.98 -2928.00 -226.26 -133.93 -63.70 -31.58 -11.70 14.64 51.06 57.79 120.48 176.17 229.99 390.12 499.81 601.80 645.12 880.92 830.03 858.63 802.98 777.68 771.01 762.91 639.78 563.13 492.64 428.38 416.56 409.76 510.58 528.74 471.01 309.22 283.06 348.64 374.02 310.92 309.91 311.20 279.48 289.21 285.95 294.76 282.36 272.84 277.30 268.83 261.02 260.45 265.57 265.45 277.24 281.89 295.85 321.18 328.38 345.40 362.67 374.36 388.09 407.74 422.69 434.22 448.93 450.55 442.50 422.72 417.85 408.61 397.67 395.15 397.26 405.90 421.89 438.59 462.26 527.29 549.47 686.17 820.08 531.77 250.91 195.22 152.82 118.98 72.31 44.63 -2683.01 -5174.03 -5676.02 -5528.83 -5625.02 -5702.69 -5622.80 -5125.23 -3592.25 -1974.86 -1328.19 -1255.67 -1706.12 -2688.26 -3322.47 -3444.09 -3621.40 -3945.78 -4416.09 -4640.19 -4699.04 -4578.12 -3729.72 -3066.37 -2556.39 -1768.42 -1505.77 -1456.36 -1594.52 -1594.57
-15662.93 -15662.91 -15822.14 -16009.63 -16069.37 -16019.99 -15931.60 -15817.92 -15614.47 -15501.81 -15451.92 -15375.57 -15208.04 -14704.41 -13882.75 -13043.45 -12172.97 -11807.83 -11278.96 -10812.16 -9661.67 -8196.11 -6140.17 -5203.23 -2764.00 -1129.96 -121.55 -59.88 -35.17 -15.64 -3.77 36.76 58.06 130.85 161.32 146.95 239.51 332.93 450.67 566.59 699.30 723.64 714.13 704.36 665.84 680.99 729.16 701.04 663.11 616.25 549.04 487.50 510.16 550.52 475.60 350.98 293.32 340.01 423.29 432.78 356.88 399.75 334.46 329.31 324.08 321.23 309.02 297.58 292.60 289.12 284.78 282.03 279.95 274.11 274.69 279.47 288.76 306.34 320.56 325.97 358.32 364.84 378.98 397.48 414.10 427.69 444.97 452.28 456.13 452.99 442.54 419.70 411.80 403.65 398.12 398.45 402.15 412.77 438.90 440.81 437.74 428.27 435.73 484.46 429.78 223.35 161.04 127.35 85.72 51.12 -493.87 -3050.55 -5158.38 -5471.94 -5519.44 -5670.58 -5694.80 -5492.11 -5083.88 -3263.35 -2253.30 -1321.93 -1473.87 -2053.83 -3220.31 -3394.32 -3470.74 -3651.85 -3866.21 -4255.14 -4640.38 -4697.54 -4625.56 -3753.15 -3152.85 -2624.88 -1933.03 -1413.22 -1358.89 -1479.82 -1489.56
-15468.39 -15468.45 -15629.30 -15798.09 -15841.88 -15776.54 -15625.59 -15501.73 -15449.20 -15441.35 -15353.78 -15049.72 -14281.86 -13932.60 -13015.42 -11877.25 -11243.90 -10864.41 -10656.76 -10398.45 -9477.78 -7866.07 -5906.98 -5012.44 -4048.44 -1480.81 -448.17 -75.71 -28.69 -12.09 0.92 20.55 81.33 125.84 268.50 280.05 289.28 316.99 327.27 506.10 707.71 793.39 619.17 596.40 602.65 582.25 614.02 632.45 622.06 613.04 602.41 582.05 593.54 594.47 532.98 373.43 359.75 423.13 462.56 435.06 416.60 456.87 390.77 371.96 371.38 359.58 352.90 329.20 328.11 314.50 301.15 290.09 289.45 287.47 285.10 286.31 294.42 307.89 321.02 333.27 357.60 369.32 385.20 402.31 414.97 429.51 445.17 452.65 456.12 453.15 448.66 425.54 414.45 407.06 400.08 399.33 399.99 404.88 416.13 423.05 408.23 382.66 343.42 380.18 331.21 186.36 153.39 99.38 71.66 5.76 -1935.81 -3143.86 -5402.42 -5297.81 -5570.48 -5697.76 -5657.83 -5264.81 -4549.88 -2987.08 -1493.93 -1420.14 -1450.19 -2708.25 -3276.58 -3487.90 -3524.73 -3712.05 -3880.74 -4186.23 -4576.20 -4671.86 -4459.97 -3729.00 -3187.85 -2688.57 -1769.43 -1455.46 -1174.74 -1251.70 -1251.62
-15312.91 -15312.92 -15495.07 -15650.26 -15589.36 -15428.65 -15269.37 -15181.61 -15279.90 -15294.77 -15207.80 -14635.12 -13376.06 -12087.98 -10705.91 -10441.07 -10029.16 -10316.11 -10586.28 -10401.25 -9403.45 -7695.00 -6091.57 -4731.45 -4366.27 -2180.27 -519.20 -109.15 -29.90 -12.81 8.80 28.57 70.11 159.61 200.46 307.62 391.61 443.61 466.50 594.53 733.06 772.30 637.67 531.31 543.32 547.53 568.43 571.59 567.35 576.20 576.56 592.36 614.75 593.02 498.65 384.37 391.12 524.34 521.53 455.75 501.40 489.19 464.87 408.87 383.61 382.62 376.94 352.41 339.09 331.16 312.17 315.64 303.22 292.74 290.46 295.27 299.68 308.61 320.67 338.71 366.10 376.36 391.27 401.50 423.91 437.34 446.69 454.05 453.37 449.62 441.25 428.87 418.29 410.87 404.21 402.59 402.12 404.72 406.32 403.63 393.09 377.17 357.87 271.37 191.87 182.45 124.69 91.98 52.62 6.41 -1255.40 -4217.69 -5141.80 -5197.27 -5620.53 -5640.74 -5561.47 -4995.07 -3849.45 -2285.01 -1243.14 -1377.07 -1794.46 -2897.77 -3384.47 -3515.48 -3558.81 -3704.09 -3891.63 -4241.45 -4566.39 -4627.09 -4245.90 -3608.73 -3085.69 -2384.43 -1604.55 -1224.82 -999.79 -1081.13 -1081.10
-15149.87 -15174.10 -15366.00 -15533.44 -15382.15 -15184.78 -14746.51 -14787.71 -14868.60 -15040.01 -14751.23 -13964.38 -11960.70 -10824.55 -9852.77 -9220.18 -9351.94 -10035.06 -10547.69 -10492.93 -9474.15 -7549.72 -6322.42 -4804.70 -4273.99 -2315.56 -298.05 -169.94 -57.31 -16.10 5.84 28.94 91.53 244.17 303.52 307.96 444.97 531.11 659.95 733.57 760.59 714.14 613.78 489.63 488.70 512.09 514.94 526.68 534.18 536.47 533.22 545.14 561.05 594.83 564.01 486.16 506.13 637.98 605.14 509.86 607.55 667.09 526.42 468.38 423.97 419.81 388.97 376.99 359.41 346.29 325.46 316.90 312.09 306.63 300.06 301.27 304.82 315.72 322.21 337.92 358.93 374.41 395.74 410.24 422.64 441.59 447.28 453.62 451.69 445.84 440.41 429.26 422.19 419.70 409.15 407.22 406.53 405.16 402.28 388.97 378.39 339.34 325.40 226.06 179.05 122.15 94.05 80.57 32.46 -10.80 -2148.08 -4514.05 -4767.35 -5117.93 -5485.36 -5400.53 -5199.71 -4538.49 -2574.36 -1177.10 -837.64 -915.34 -1364.29 -2010.25 -2845.71 -3557.52 -3786.16 -3874.00 -4013.20 -4242.49 -4516.20 -4549.70 -4327.30 -3673.66 -2938.18 -2167.89 -1557.02 -894.17 -953.55 -1172.60 -1172.77
-14957.44 -14957.51 -15088.63 -15118.23 -14912.81 -14518.25 -14109.71 -14098.27 -14319.39 -13839.77 -13252.22 -12357.49 -11076.16 -9397.87 -8843.56 -8465.09 -8825.33 -9568.53 -10461.94 -10425.83 -9711.40 -7624.18 -6078.67 -4831.07 -3726.30 -1806.32 -593.69 -279.18 -112.60 -44.29 6.46 29.45 89.38 213.90 341.87 365.81 517.84 637.08 780.18 760.05 638.23 489.60 511.79 514.09 476.43 476.93 477.47 467.56 478.10 495.58 488.65 519.38 524.68 552.14 584.34 532.97 591.56 727.29 702.67 669.06 705.41 682.21 555.01 478.13 474.44 450.27 409.47 394.83 384.46 357.55 341.45 331.41 318.43 314.63 305.81 305.99 313.19 323.18 326.83 344.19 355.18 374.94 397.16 411.49 421.03 438.08 445.26 450.09 445.60 439.10 434.03 429.36 429.92 435.57 425.53 417.17 409.65 411.58 401.93 348.92 336.74 289.98 261.85 213.43 139.42 88.68 85.37 31.53 -33.13 -636.99 -2672.56 -4533.08 -4901.49 -5071.99 -5253.09 -5179.24 -4753.91 -4074.42 -1897.09 -745.15 -599.48 -724.60 -1458.02 -2052.12 -2526.43 -3723.78 -3795.05 -3830.90 -3980.72 -4278.81 -4525.13 -4554.22 -4371.48 -3557.76 -2749.73 -2169.53 -967.51 -719.23 -1071.63 -1428.68 -1428.98
-14873.41 -14865.61 -14616.63 -14079.76 -13555.00 -13261.46 -12788.89 -12352.67 -12407.96 -12340.18 -11429.92 -10156.67 -9838.15 -9087.45 -8575.01 -8372.27 -8603.96 -9352.95 -10122.35 -10196.07 -9577.68 -7802.12 -6151.17 -4750.55 -4477.30 -1545.17 -366.11 -288.96 -171.44 -78.24 8.18 40.47 117.11 263.51 339.06 345.49 418.52 566.04 613.48 616.81 544.80 413.94 495.68 459.64 421.93 444.00 427.37 433.74 466.06 452.99 466.56 495.81 513.32 518.54 568.87 580.24 628.20 749.77 850.27 850.55 755.51 678.59 554.46 512.78 508.21 465.22 456.57 419.15 394.50 365.27 352.60 339.67 324.46 318.93 311.43 314.66 315.96 323.18 334.12 353.22 365.14 379.62 395.24 407.32 423.73 435.13 438.07 437.37 438.08 430.97 430.60 428.93 433.66 444.86 448.47 434.67 412.82 407.30 386.24 338.95 320.24 271.32 228.95 167.00 133.21 91.31 62.43 3.72 -38.13 -921.79 -2776.42 -4778.28 -4886.98 -5071.45 -5299.01 -5247.18 -4082.77 -3008.00 -1122.03 -643.69 -488.70 -784.22 -1183.39 -1646.56 -2758.16 -3901.54 -3779.65 -3775.43 -3906.73 -4246.75 -4556.13 -4558.92 -4486.41 -3653.28 -2531.71 -1679.46 -941.54 -729.92 -1128.69 -1645.35 -1645.62
-14422.65 -14423.09 -13620.09 -12886.04 -12171.72 -11459.87 -11084.79 -10716.30 -10483.97 -10417.03 -10238.19 -9643.80 -9233.93 -9033.33 -8834.17 -8643.11 -8798.81 -9234.27 -9765.07 -9836.17 -9182.09 -8282.57 -5987.94 -4699.18 -3926.25 -1381.33 -300.41 -290.48 -211.42 -109.58 6.51 55.07 95.16 182.31 254.80 204.91 315.98 416.72 401.49 523.41 466.61 365.53 421.70 415.80 409.19 394.12 406.56 408.56 423.41 433.92 456.43 461.85 497.15 513.19 539.05 582.29 629.41 673.93 775.70 821.83 714.35 626.36 581.28 559.74 521.74 475.55 460.94 455.70 407.61 380.15 365.84 341.14 329.74 322.52 315.26 315.62 318.83 325.43 333.56 349.57 368.30 383.33 395.90 407.01 428.78 434.85 435.99 429.73 426.84 424.70 424.00 431.33 437.43 453.08 462.63 451.39 419.31 393.29 365.48 322.53 277.02 231.14 187.52 133.74 111.58 85.88 36.55 -33.46 -207.73 -1827.82 -3835.46 -4339.49 -4384.27 -4743.64 -5235.93 -5171.28 -4008.39 -2204.29 -843.79 -512.91 -482.61 -746.92 -1191.67 -1976.03 -2823.94 -3783.88 -3805.96 -3797.98 -3955.65 -4387.50 -4557.32 -4587.66 -4284.19 -3086.61 -2102.63 -1350.06 -774.94 -911.70 -1420.21 -1568.83 -1568.80
-13127.71 -13129.48 -12547.21 -11502.05 -11013.77 -10166.00 -10008.78 -9994.15 -10021.25 -10064.42 -9884.16 -9476.70 -9434.91 -9349.72 -9117.36 -8976.14 -8830.10 -9017.52 -9312.40 -9307.36 -8893.06 -7791.54 -6213.57 -4512.06 -3617.77 -1740.74 -306.69 -279.49 -208.26 -113.26 -16.06 31.59 35.09 148.86 142.11 150.97 265.45 281.51 330.53 411.54 308.47 295.32 346.63 361.23 365.85 361.76 367.73 388.67 397.12 418.78 444.46 456.89 472.14 506.27 521.76 569.05 581.92 628.90 689.96 753.06 730.50 674.89 618.22 566.50 549.27 518.79 486.28 468.44 415.08 389.91 370.03 345.23 329.05 319.51 315.07 316.66 320.10 327.22 333.31 350.57 365.86 387.65 403.29 417.78 425.86 430.22 431.02 419.84 417.24 416.53 420.28 428.87 446.02 465.53 469.67 435.68 414.16 373.01 333.89 307.07 257.57 218.24 178.49 127.28 99.79 66.35 27.92 -244.23 -981.71 -2768.69 -3632.65 -4004.38 -4268.68 -4592.70 -5025.23 -4799.33 -3741.63 -1914.68 -782.99 -431.14 -566.20 -834.49 -1350.41 -2270.20 -3441.98 -3921.85 -3812.51 -3833.62 -4001.59 -4355.68 -4584.57 -4497.77 -4107.24 -2666.81 -1481.07 -1001.80 -913.95 -1271.55 -1425.73 -1317.30 -1317.02
-12067.45 -12069.28 -11612.09 -11016.86 -10554.36 -10036.44 -10084.36 -10278.19 -10376.85 -10447.61 -10170.68 -10024.40 -9745.73 -9784.84 -9544.78 -9204.36 -8954.18 -8918.48 -8958.71 -9032.69 -8558.72 -7602.72 -5989.60 -4659.92 -3387.04 -1763.00 -568.37 -246.96 -177.46 -80.38 -30.43 10.70 37.57 41.53 86.14 177.97 242.27 265.78 253.87 293.79 242.48 271.99 303.99 310.44 322.38 339.89 341.65 353.44 380.59 399.18 427.96 449.22 461.36 479.80 497.85 515.10 549.52 598.55 675.75 728.37 807.07 739.83 673.42 597.77 581.79 556.64 522.33 471.72 425.14 403.80 355.54 341.00 329.61 316.26 313.47 314.99 316.54 324.88 331.42 352.26 367.03 385.17 396.58 410.48 424.14 423.47 421.96 413.23 408.74 406.54 412.20 419.27 433.94 449.66 452.39 435.34 409.84 384.92 325.21 279.41 253.50 217.68 169.67 150.78 101.89 64.96 17.03 -56.22 -953.70 -2545.19 -3277.14 -4497.57 -5113.48 -5405.41 -5401.44 -4966.34 -3184.92 -1276.63 -556.78 -541.12 -711.76 -1343.13 -2263.19 -3139.48 -3550.86 -3866.91 -3832.94 -3901.11 -4075.85 -4284.93 -4580.67 -4394.26 -3410.85 -1950.96 -1117.93 -1079.90 -1277.85 -1396.93 -1577.01 -1562.06 -1562.67
-11917.70 -11917.91 -11609.90 -11287.64 -10977.32 -10802.95 -10804.17 -10909.09 -10896.23 -10824.87 -10653.34 -10530.40 -10442.10 -10258.91 -9887.04 -9257.14 -8981.25 -8913.36 -8918.92 -8876.67 -8747.49 -7727.30 -6171.24 -5046.42 -3369.28 -1225.76 -275.43 -210.20 -134.57 -74.73 -21.09 -6.71 14.63 26.87 77.04 159.01 164.33 167.68 166.49 194.48 222.38 234.02 273.28 274.48 286.83 296.51 306.66 339.87 336.61 369.26 406.58 421.17 431.92 458.62 456.76 508.34 553.45 599.47 623.16 749.07 853.86 784.24 661.40 690.01 667.89 616.16 555.47 520.54 447.23 398.96 358.25 334.84 318.62 309.73 307.29 311.27 316.26 327.34 333.91 353.08 367.48 376.03 394.71 404.93 413.27 413.93 411.44 407.44 402.28 396.62 398.12 422.76 436.91 440.16 424.54 409.79 417.37 367.66 308.71 255.89 233.04 203.11 158.66 130.03 94.86 55.38 24.86 -17.37 -1480.38 -1990.72 -3745.22 -4793.91 -5470.00 -5733.39 -5549.18 -4492.96 -2108.75 -1002.59 -587.30 -660.30 -882.22 -1720.63 -3402.32 -3820.99 -3929.78 -3756.83 -3889.50 -4089.10 -4335.38 -4516.43 -4831.90 -4491.57 -3147.85 -1585.37 -1269.52 -1333.97 -1539.68 -1719.08 -1938.10 -2456.52 -2459.20
-12008.38 -12007.78 -11809.24 -11560.19 -11473.30 -11411.65 -11401.28 -11359.54 -11364.09 -11218.79 -11016.85 -10848.94 -10747.98 -10463.09 -10026.40 -9371.13 -9016.22 -8900.03 -8910.26 -8822.83 -8323.10 -7460.79 -6354.99 -4374.06 -3207.59 -1546.77 -258.53 -210.17 -145.74 -100.83 -36.11 -6.80 -3.56 14.04 33.69 77.22 117.62 135.63 138.35 171.50 188.68 176.30 225.25 236.91 264.84 279.75 275.87 310.31 334.06 340.77 365.64 373.75 408.12 437.40 448.74 486.18 501.14 545.14 644.68 784.11 777.01 702.70 632.72 680.03 689.35 611.17 589.76 505.82 416.08 380.03 352.54 325.27 311.49 308.11 302.10 306.59 312.96 320.99 331.64 345.35 357.10 375.65 391.43 402.72 406.14 407.99 396.95 395.69 389.50 386.35 389.32 404.95 429.31 411.86 397.31 380.34 362.36 324.50 293.24 243.39 207.22 182.89 145.56 108.82 84.13 49.69 -120.64 -601.68 -1441.81 -2169.67 -3593.90 -4453.97 -5673.95 -5789.63 -5355.59 -4093.08 -2341.20 -899.04 -599.61 -712.39 -2011.55 -2281.80 -3846.77 -3856.50 -3480.31 -3488.30 -4018.70 -4321.04 -4651.72 -4897.45 -4885.27 -4112.33 -2574.68 -1559.12 -1511.88 -1788.25 -1942.36 -2258.01 -2742.71 -3403.73 -3408.74
-12046.53 -12046.25 -11919.75 -11765.73 -11655.36 -11624.53 -11637.20 -11668.53 -11546.07 -11388.78 -11288.85 -11094.13 -10957.36 -10751.27 -10079.42 -9612.92 -9248.48 -8994.82 -8916.39 -8711.33 -8087.64 -6880.87 -5786.78 -4187.01 -3870.53 -1998.34 -731.06 -240.18 -173.57 -126.79 -51.71 -20.50 -6.68 7.27 29.47 57.44 78.45 115.05 131.20 162.44 161.24 160.19 184.46 219.31 228.49 236.65 268.74 272.78 282.07 318.19 342.93 364.50 396.21 409.81 385.57 424.89 476.80 621.76 714.04 820.53 777.83 664.73 538.20 583.48 551.89 524.29 515.21 418.75 386.74 349.91 337.55 311.60 306.29 298.62 293.68 296.39 303.95 311.43 332.54 341.50 359.88 375.93 387.68 395.32 395.23 386.68 384.85 386.27 379.45 375.87 377.46 397.05 416.86 406.24 364.56 337.52 323.49 269.99 248.57 210.08 179.63 157.08 117.62 89.82 56.24 28.66 -417.55 -883.38 -1880.32 -2218.82 -3543.19 -4919.92 -5508.33 -5734.80 -5248.34 -3659.70 -2016.21 -737.30 -611.34 -732.61 -2147.80 -2989.42 -3714.05 -3798.24 -3628.20 -3751.71 -3982.99 -4937.79 -5577.69 -5294.56 -4936.01 -3757.95 -2483.75 -2161.94 -2278.53 -2317.73 -2486.87 -2866.89 -3338.80 -4026.54 -4030.03
-12070.28 -12069.48 -11999.14 -11890.10 -11861.04 -11827.11 -11775.75 -11733.42 -11595.12 -11443.07 -11371.54 -11300.15 -11122.17 -10867.84 -10286.27 -9715.01 -9348.54 -9195.37 -9060.73 -8645.00 -7234.33 -5990.07 -4876.45 -3748.24 -3648.55 -3145.59 -1605.64 -287.36 -243.70 -156.62 -60.97 -57.83 -45.98 -15.43 24.05 46.48 60.89 87.10 110.83 123.04 133.31 138.73 154.03 189.49 190.38 207.01 223.79 247.19 269.63 305.18 333.72 387.13 419.59 398.31 375.56 414.23 511.32 591.48 749.78 793.61 782.79 708.80 566.58 495.91 436.24 465.58 474.32 392.25 351.48 331.41 310.76 306.86 295.80 287.95 285.92 291.88 299.27 304.58 322.41 336.20 358.26 371.91 381.68 379.47 378.49 377.57 377.11 371.00 365.91 369.81 373.65 388.43 403.86 401.77 357.25 295.16 263.70 252.31 199.78 174.37 163.68 122.22 100.16 82.27 42.25 -78.11 -414.70 -1521.95 -1767.58 -2282.52 -3480.17 -5149.17 -5616.83 -5680.11 -5496.41 -4463.01 -1495.16 -1066.25 -702.72 -911.80 -1769.60 -2691.02 -3400.67 -3805.49 -4135.39 -4669.79 -5544.53 -6158.95 -6368.23 -6137.95 -5399.96 -3867.37 -2879.49 -2481.18 -2561.38 -2670.66 -2949.90 -3628.80 -3918.23 -4396.91 -4396.05
-12079.36 -12079.36 -12054.70 -11984.82 -11987.63 -11994.26 -11916.09 -11801.82 -11637.69 -11508.36 -11401.70 -11313.75 -11138.08 -10996.39 -10661.65 -10039.72 -9831.80 -9497.06 -9023.79 -8272.91 -7368.93 -5815.77 -4661.79 -3906.72 -3746.58 -3777.53 -2367.82 -1348.28 -330.26 -234.75 -182.98 -152.20 -108.50 -43.31 6.07 33.44 50.96 72.57 94.08 104.50 120.31 134.73 136.09 145.78 179.82 191.93 199.91 214.33 240.48 281.75 300.70 296.46 354.12 314.88 385.67 429.75 484.66 581.44 683.96 627.20 577.66 604.68 507.17 464.96 416.06 398.14 415.62 354.23 330.62 315.48 295.26 284.90 276.10 275.24 276.67 276.98 289.65 297.52 311.72 336.69 346.92 364.53 368.12 367.42 366.64 366.64 359.73 352.48 351.31 351.60 352.99 363.93 385.13 381.47 348.86 282.25 241.00 232.39 185.03 175.49 132.58 114.16 85.55 70.34 -76.56 -314.40 -1244.44 -1801.94 -1749.66 -2404.52 -3198.80 -5535.19 -5676.62 -5835.12 -5683.36 -4549.82 -2748.83 -1635.81 -1049.88 -1262.64 -1851.02 -2416.05 -3423.62 -3956.94 -4388.79 -5117.02 -6454.64 -6981.98 -7106.76 -6576.96 -5303.89 -4280.68 -3418.60 -2935.36 -2907.12 -2997.63 -3454.50 -3926.36 -4232.49 -4577.81 -4577.64
-12111.14 -12111.13 -12085.08 -12068.77 -12066.94 -12069.49 -11937.80 -11781.97 -11647.98 -11545.91 -11481.09 -11395.00 -11322.59 -11135.32 -10715.14 -10285.17 -10067.30 -9682.82 -8928.29 -8395.14 -7428.97 -6342.72 -4551.14 -4092.34 -3877.18 -4048.03 -3831.18 -3241.22 -889.67 -294.02 -261.78 -193.55 -130.31 -56.63 2.75 14.86 19.15 48.36 67.82 73.18 89.51 100.25 121.25 127.44 143.34 161.87 185.72 194.01 201.33 229.31 252.14 264.80 300.89 282.39 345.34 402.64 411.70 473.11 585.37 563.07 448.39 499.64 413.12 380.98 389.43 343.05 346.86 333.86 314.22 282.99 266.60 269.67 268.29 266.78 267.71 271.27 280.85 289.94 302.33 312.26 340.76 345.92 350.90 351.38 349.85 346.51 345.91 343.18 340.91 340.11 337.21 338.68 341.52 334.14 307.28 276.21 240.23 194.71 173.73 155.20 123.81 97.47 62.42 33.95 -463.02 -1147.22 -1654.82 -1698.78 -1742.18 -2426.92 -3430.84 -5110.03 -5854.00 -5894.82 -5805.13 -5123.49 -3887.70 -2438.16 -2020.13 -1441.11 -2015.56 -2771.16 -3628.27 -4311.80 -4600.91 -5528.37 -6925.35 -7416.53 -7382.83 -6765.83 -5512.23 -4707.89 -3968.62 -3315.64 -3290.16 -3535.74 -3913.07 -4252.83 -4476.71 -4667.19 -4667.18
-12155.20 -12155.16 -12130.68 -12131.11 -12118.69 -12100.41 -11981.11 -11876.15 -11760.61 -11617.80 -11540.53 -11511.60 -11412.04 -11215.08 -11046.68 -10572.71 -10144.16 -9901.79 -9167.94 -8574.87 -7818.79 -6422.06 -4898.22 -4205.52 -4046.65 -4079.84 -4160.86 -3458.84 -2387.00 -357.08 -340.87 -271.71 -135.26 -84.76 -24.20 -10.64 5.16 31.11 54.20 64.21 65.67 64.25 78.20 94.13 137.91 143.57 159.48 165.01 179.43 187.88 213.60 232.13 246.73 256.77 284.53 286.97 290.86 371.38 433.25 413.04 326.67 338.58 352.92 331.59 350.85 329.03 332.82 307.09 281.33 258.54 255.16 251.53 244.52 252.97 259.88 259.99 263.57 275.94 291.74 308.88 323.39 337.31 337.66 344.32 341.26 333.27 325.12 332.62 330.04 327.99 322.62 319.84 317.39 300.67 277.00 244.72 224.24 171.92 157.76 141.50 121.28 83.95 53.00 28.77 -601.10 -1313.82 -1568.49 -1541.29 -1644.06 -2822.58 -4029.19 -5036.09 -5893.23 -5951.25 -5928.39 -5727.79 -5149.83 -3408.19 -2525.17 -1991.25 -2144.83 -3438.07 -4193.98 -5039.81 -5396.46 -6223.98 -7421.92 -7572.63 -7100.54 -6580.40 -5627.88 -5124.33 -4349.80 -3722.90 -3675.70 -3880.96 -4129.90 -4377.78 -4592.89 -4717.04 -4717.13
-12182.08 -12181.99 -12172.30 -12159.79 -12157.04 -12131.17 -12077.41 -11951.42 -11807.42 -11667.34 -11611.00 -11563.90 -11511.42 -11413.03 -11149.83 -10810.99 -10433.00 -10134.12 -9652.64 -9250.09 -8192.78 -6667.49 -5467.14 -4555.37 -4241.72 -4136.35 -4160.48 -3777.36 -2972.27 -1332.33 -876.94 -302.22 -195.74 -125.96 -63.39 -56.86 -3.84 7.92 38.19 40.30 43.88 56.89 70.30 79.04 106.62 125.90 142.68 144.08 149.74 160.80 175.89 187.44 205.54 215.21 226.24 231.77 253.75 256.38 327.77 281.93 272.24 292.30 293.67 285.02 273.62 284.55 276.75 274.95 249.80 245.59 238.52 233.81 234.10 239.62 238.45 242.31 253.34 262.68 275.96 295.88 310.92 316.81 323.56 329.38 321.66 324.12 311.91 313.25 315.04 313.02 312.74 302.06 298.58 276.81 249.89 194.52 181.56 162.22 143.66 121.78 103.09 65.62 -55.16 -287.79 -1220.95 -1474.39 -1508.44 -1540.63 -1637.08 -2635.03 -4136.18 -5485.74 -5892.21 -5959.85 -5942.30 -5879.75 -5719.93 -5053.84 -3456.17 -2478.11 -1847.09 -3507.07 -4838.10 -5281.12 -6110.24 -7227.75 -7433.84 -7470.38 -7123.36 -6559.33 -6246.13 -5418.66 -4593.51 -4208.18 -4000.04 -4143.03 -4378.02 -4557.20 -4679.39 -4723.46 -4723.50
-12167.72 -12166.20 -12165.81 -12153.43 -12152.48 -12138.28 -12112.32 -11995.96 -11825.65 -11697.08 -11574.41 -11555.43 -11495.65 -11418.44 -11182.22 -10990.56 -10569.83 -10226.58 -9889.99 -9605.34 -9186.75 -7640.25 -6353.07 -5015.39 -4459.55 -4592.90 -4526.56 -4387.13 -3830.40 -2805.02 -1804.69 -1413.11 -563.76 -242.71 -209.43 -127.32 -20.52 -5.72 10.61 24.63 27.85 34.80 50.45 67.34 74.99 89.44 124.58 119.27 119.76 137.62 162.76 166.01 175.02 190.28 195.34 180.11 211.36 221.77 244.51 236.06 235.21 241.55 242.57 249.64 244.97 242.23 237.97 234.94 239.44 236.98 219.39 215.74 221.40 225.73 223.86 230.38 243.23 257.24 270.01 275.60 292.29 299.28 305.28 300.64 299.03 301.65 309.17 310.07 313.72 303.75 294.48 275.40 265.82 248.71 209.39 181.55 151.00 126.74 116.15 85.89 74.42 61.32 -0.99 -440.61 -1149.27 -1482.25 -1486.11 -1597.58 -1771.90 -2560.57 -4239.36 -5305.35 -5934.01 -5953.87 -5941.78 -5925.08 -5771.95 -5467.24 -4103.08 -2648.87 -2358.84 -4977.05 -5592.71 -6066.81 -6631.28 -7021.49 -7489.01 -7584.04 -7439.01 -6973.47 -6550.22 -5976.84 -4828.65 -4430.76 -4284.33 -4514.94 -4673.62 -4709.35 -4755.14 -4768.62 -4768.63
-12087.12 -12086.94 -12078.80 -12089.78 -12076.46 -12081.55 -12036.90 -11946.36 -11797.85 -11554.26 -11417.02 -11383.33 -11401.61 -11364.12 -11216.53 -11099.72 -10818.09 -10575.17 -10331.13 -10251.06 -9737.64 -8366.13 -7378.07 -6407.11 -5596.01 -5338.88 -5602.02 -5538.47 -4704.84 -4224.62 -3912.75 -3157.98 -2061.42 -291.71 -245.28 -199.04 -91.86 -25.29 -11.89 -0.15 3.56 10.86 20.87 46.44 61.47 66.04 86.68 95.26 98.12 103.96 123.75 125.33 131.58 150.79 155.98 157.17 169.83 157.72 183.95 183.74 206.54 213.56 218.14 217.12 214.55 221.51 231.40 221.82 214.37 207.24 204.61 204.08 203.50 199.91 213.98 219.95 230.31 245.91 259.95 261.05 274.10 280.31 290.41 283.18 284.18 289.23 291.20 306.02 313.55 299.49 283.01 256.97 234.32 200.76 186.64 154.06 145.50 122.19 99.26 69.36 50.68 43.00 -116.27 -798.03 -1357.05 -1444.73 -1467.04 -1692.77 -2193.94 -2837.47 -4499.75 -5263.40 -5911.21 -5946.20 -5937.52 -5932.74 -5872.63 -5615.46 -4179.32 -3044.08 -3781.94 -6151.37 -6658.30 -7036.50 -7462.23 -7507.00 -7831.71 -7826.62 -7772.50 -7508.81 -7223.71 -6736.01 -5120.65 -4764.64 -4640.86 -4685.39 -4728.44 -4790.18 -4818.09 -4835.35 -4835.53
-11972.75 -11968.09 -11970.40 -11989.00 -12002.76 -12004.09 -11951.55 -11860.58 -11662.63 -11397.82 -11252.13 -11208.35 -11157.85 -11133.65 -11125.40 -11090.84 -10931.63 -10806.18 -10612.81 -10423.53 -10305.81 -9534.90 -7850.04 -7310.93 -7046.20 -6962.43 -6555.16 -6715.58 -6554.03 -6018.41 -5765.64 -5558.00 -2398.74 -917.67 -273.92 -248.44 -153.36 -104.04 -88.30 -16.07 -8.41 -3.01 12.79 28.22 44.52 51.48 59.50 62.27 68.31 97.17 102.47 107.45 111.24 119.10 124.66 138.00 132.55 136.43 151.05 164.27 180.33 184.12 185.25 187.06 194.51 205.49 214.70 213.50 200.48 185.00 187.43 183.16 189.54 191.18 197.13 209.56 216.80 225.41 238.00 250.15 251.55 261.26 257.12 260.77 261.15 274.21 281.07 299.88 303.90 289.35 244.53 221.65 204.06 188.37 154.07 124.27 107.98 95.09 75.71 58.81 46.53 31.16 -125.84 -749.59 -1339.02 -1446.04 -1519.01 -1681.81 -1934.19 -2832.76 -4512.68 -5187.70 -5775.10 -5944.00 -5938.72 -5936.80 -5875.50 -5681.57 -4275.60 -3014.27 -4213.42 -7297.98 -7254.02 -7262.14 -7552.94 -7760.33 -7897.35 -8290.68 -8306.14 -8188.57 -7874.86 -7076.70 -5774.61 -5021.18 -4679.62 -4679.37 -4682.63 -4631.25 -4639.86 -4679.14 -4679.54
-11946.12 -11946.07 -11932.22 -11938.19 -11939.59 -11930.52 -11895.50 -11803.70 -11541.35 -11347.34 -11189.80 -11075.63 -11028.27 -11049.15 -11059.88 -11130.90 -11116.03 -11079.38 -10885.07 -10694.70 -10497.96 -9880.83 -9161.40 -8436.35 -7833.65 -7590.82 -7807.62 -7793.76 -7525.90 -7710.86 -7727.67 -8003.01 -6524.55 -3900.70 -950.98 -303.00 -241.45 -190.45 -114.74 -31.93 -25.94 -21.12 -6.53 1.66 -9.01 9.86 24.08 39.13 43.10 54.95 66.03 84.93 94.45 92.81 92.77 105.43 108.72 127.10 134.60 145.94 148.92 147.72 149.33 156.73 164.94 169.61 174.69 199.47 175.08 169.95 168.02 168.32 172.21 177.62 185.46 196.57 202.16 211.26 212.90 228.68 238.28 236.93 244.15 235.93 246.55 259.63 269.75 285.57 290.22 279.85 246.80 218.39 177.16 162.15 132.97 122.13 85.72 70.26 58.90 41.28 25.08 3.90 -282.72 -1254.00 -1457.94 -1456.06 -1530.94 -1588.53 -2394.82 -3048.54 -4302.83 -5658.41 -5968.79 -5949.01 -5939.32 -5930.60 -5873.20 -5548.72 -3880.63 -2840.11 -4803.89 -7541.91 -7317.50 -7238.35 -7370.98 -7759.42 -8270.72 -8425.12 -8579.42 -8483.98 -8100.85 -7361.63 -6263.73 -5028.61 -4659.57 -4434.88 -4388.30 -4313.19 -4317.19 -4217.70 -4218.08
-11990.59 -11990.52 -11948.92 -11940.33 -11941.77 -11941.92 -11918.27 -11775.60 -11560.64 -11292.14 -11177.08 -11036.26 -10999.51 -10983.96 -11031.32 -11149.45 -11202.00 -11165.69 -10918.92 -10788.47 -10403.44 -9965.08 -9232.20 -8576.72 -8167.57 -8113.94 -8063.92 -8173.95 -8274.02 -8271.12 -8319.35 -8515.97 -8951.06 -7668.03 -4898.99 -1233.34 -303.53 -252.31 -197.02 -163.07 -119.39 -79.73 -46.39 -20.19 -20.57 -16.52 -12.80 -4.61 21.60 41.54 46.66 50.67 66.68 71.09 64.42 81.29 81.86 94.01 105.74 129.34 117.69 122.20 126.59 136.70 148.82 148.83 149.72 146.06 147.71 147.09 157.44 154.56 152.35 161.84 173.24 177.38 185.00 201.24 199.86 209.44 216.08 220.82 220.78 214.47 228.13 238.37 250.34 264.77 276.25 249.08 234.19 199.93 173.63 148.35 128.85 79.83 56.82 52.50 42.68 9.54 -29.50 -560.10 -1062.92 -1434.09 -1471.27 -1486.98 -1572.77 -1923.12 -2673.42 -3407.61 -4478.81 -5410.44 -5907.64 -5907.81 -5933.43 -5909.70 -5725.79 -5319.50 -3488.96 -3244.13 -4085.81 -6831.27 -7176.02 -7282.98 -7484.15 -7814.03 -8366.63 -8631.69 -8661.83 -8614.18 -8435.65 -7086.70 -5925.01 -5212.85 -4313.69 -4116.85 -3938.02 -3857.80 -3818.15 -3817.63 -3828.87
-11996.24 -11996.13 -11934.74 -11897.24 -11896.60 -11927.68 -11911.64 -11783.19 -11572.74 -11354.02 -11208.22 -11107.77 -11037.14 -10997.92 -11092.69 -11200.41 -11292.85 -11212.70 -10966.69 -10686.47 -10200.70 -9911.35 -9224.63 -8658.17 -8444.12 -8629.22 -8923.47 -8629.55 -8698.98 -8848.34 -8671.11 -8735.15 -9175.77 -8694.78 -8302.88 -4576.91 -2341.43 -586.49 -282.23 -246.07 -215.04 -178.76 -96.33 -61.66 -53.87 -58.75 -35.62 -17.13 -8.00 16.18 25.42 30.50 35.78 34.12 37.95 47.19 64.64 66.77 79.55 89.09 84.08 90.37 112.59 93.54 102.31 113.64 129.21 123.92 127.35 118.48 132.74 137.89 140.37 143.86 162.44 168.05 169.24 177.52 185.71 192.58 194.44 189.23 182.41 181.08 194.42 198.70 221.58 247.21 250.79 245.48 218.76 182.35 142.57 111.92 93.74 61.44 43.54 38.46 17.48 -15.99 -869.39 -1325.91 -1399.52 -1404.47 -1429.47 -1534.58 -1676.34 -2217.15 -3245.91 -4169.08 -4770.60 -5611.06 -5827.91 -5894.18 -5928.32 -5913.11 -5810.76 -4983.26 -3359.46 -3701.37 -5672.94 -7404.65 -6990.57 -7096.52 -7593.21 -8043.96 -8561.87 -8693.14 -8691.35 -8638.70 -8513.50 -7463.93 -5607.30 -4926.33 -4189.38 -3883.26 -3745.36 -3800.56 -3816.77 -3939.87 -3939.77
-11904.19 -11888.41 -11824.76 -11806.61 -11807.41 -11847.28 -11787.53 -11758.87 -11582.28 -11423.06 -11317.33 -11205.28 -11118.31 -11073.60 -11122.39 -11192.98 -11225.08 -11150.01 -10826.87 -10579.81 -10093.23 -9676.58 -9266.17 -9060.53 -9242.67 -9398.90 -9440.69 -9497.13 -9798.96 -9670.43 -9735.91 -9802.50 -9882.91 -9455.52 -8663.30 -6071.86 -3013.96 -1219.93 -702.42 -306.49 -259.56 -210.86 -143.38 -132.06 -102.55 -79.18 -56.63 -54.21 -56.18 -50.74 -1.74 4.68 18.19 15.31 14.33 25.06 35.36 39.35 58.88 62.21 74.88 67.12 67.30 76.71 81.26 88.98 93.58 102.63 109.67 104.49 109.60 118.25 119.71 120.86 136.10 138.95 151.43 160.85 163.30 158.69 168.22 168.01 169.43 166.01 172.36 172.37 211.16 225.91 225.03 213.72 188.84 169.70 117.30 86.50 72.73 43.33 30.15 11.78 -6.68 -371.79 -1224.86 -1478.22 -1437.27 -1381.89 -1439.24 -1572.85 -1694.15 -2317.41 -3118.48 -4671.68 -5344.86 -5732.82 -5877.35 -5928.01 -5923.36 -5906.38 -5624.43 -5298.18 -4012.00 -5042.82 -6481.53 -6758.53 -6613.06 -6824.94 -7195.20 -7850.81 -8326.01 -8708.82 -8694.24 -8671.57 -8357.27 -7587.59 -6225.71 -4613.51 -4070.88 -3853.68 -3811.44 -3906.19 -4029.41 -4196.67 -4196.70
-11675.78 -11675.51 -11702.75 -11679.58 -11580.10 -11370.26 -11468.70 -11558.51 -11507.61 -11399.92 -11366.94 -11209.53 -11066.79 -11106.43 -11065.44 -11047.85 -10961.86 -10849.37 -10677.08 -10248.03 -9765.85 -9633.24 -9542.44 -9601.49 -9790.05 -10200.53 -10292.16 -10483.71 -10568.48 -10946.89 -10876.69 -10678.01 -11013.36 -10457.55 -8948.24 -6903.23 -4777.81 -3097.26 -1871.75 -1228.41 -1129.56 -330.18 -287.03 -232.24 -200.08 -183.47 -120.06 -90.72 -111.65 -91.74 -46.70 -36.73 -16.53 3.26 7.10 9.59 12.28 16.29 29.26 35.23 40.71 42.77 49.78 54.49 60.92 69.92 73.42 88.06 90.55 90.79 100.40 103.25 104.58 111.83 119.56 119.88 129.92 139.15 143.57 148.02 147.61 152.58 144.53 148.99 146.98 154.95 179.44 183.09 194.39 185.04 165.11 129.44 113.69 65.28 57.80 37.25 20.50 0.23 -323.61 -886.04 -1597.72 -1449.01 -1476.94 -1444.84 -1535.26 -1774.15 -2138.21 -2903.74 -3780.21 -4842.85 -5491.43 -5668.60 -5864.73 -5923.76 -5917.60 -5855.84 -5636.67 -4622.47 -4927.46 -6230.61 -6939.82 -6442.27 -6245.94 -6366.01 -6745.23 -7614.64 -8020.12 -8483.55 -8629.31 -8612.91 -8404.47 -7597.09 -5560.17 -4716.90 -4128.89 -3989.10 -3870.61 -3784.22 -4017.59 -4240.89 -4241.03
-11368.57 -11368.37 -11432.56 -11361.18 -11228.18 -11145.16 -11039.87 -11207.54 -11365.72 -11369.62 -11341.26 -11126.63 -10903.41 -10931.48 -10881.21 -10845.09 -10757.61 -10459.11 -10319.83 -9801.02 -9569.72 -9630.05 -9758.75 -10054.56 -10173.80 -10631.15 -10880.09 -11081.98 -11483.90 -11509.95 -11547.22 -11581.20 -11636.57 -10934.89 -9568.37 -7872.05 -6013.64 -5453.73 -4095.00 -3479.55 -2537.77 -1008.03 -497.65 -279.80 -265.24 -265.49 -216.60 -186.82 -190.24 -162.84 -174.56 -121.96 -77.22 -58.42 -26.63 -16.11 -5.85 0.69 4.35 13.98 23.62 27.23 34.67 42.54 46.72 49.04 54.91 50.65 67.35 76.35 76.66 84.41 88.43 96.29 95.11 104.58 114.92 117.46 130.37 132.13 127.94 129.09 130.76 128.12 129.94 133.94 142.45 153.82 157.49 145.86 136.78 111.19 67.57 43.77 33.08 24.31 20.04 -8.08 -515.19 -1482.44 -1788.69 -1539.81 -1541.01 -1553.85 -1747.44 -2199.98 -2557.68 -3687.37 -4742.36 -5219.14 -5525.65 -5710.56 -5895.98 -5930.61 -5913.80 -5851.65 -5606.17 -4345.94 -5676.99 -7390.87 -6262.18 -5868.05 -5779.65 -5846.26 -6423.91 -7002.90 -7616.33 -7987.61 -8277.65 -8334.93 -8144.68 -7258.39 -5677.92 -4795.89 -4102.86 -3800.94 -3647.51 -3398.24 -3597.00 -4153.29 -4153.34
-11170.47 -11170.35 -11222.73 -11133.73 -11068.43 -10915.99 -10883.03 -11091.92 -11182.79 -11260.41 -11163.56 -10829.07 -10519.06 -10532.67 -10781.67 -10665.63 -10530.10 -10376.64 -10063.95 -9718.35 -9620.22 -9497.67 -9705.77 -9994.33 -10236.04 -10499.81 -10845.17 -11265.06 -11503.99 -11749.60 -11739.05 -11673.91 -11673.84 -11678.34 -10713.06 -8952.64 -6617.74 -5655.84 -4993.43 -4715.77 -4099.55 -2171.18 -770.22 -725.00 -414.44 -305.97 -271.80 -240.23 -256.18 -214.07 -226.80 -196.38 -176.83 -159.55 -101.07 -67.85 -32.10 -39.90 -10.66 -8.39 2.40 17.10 24.64 26.54 31.83 32.53 39.88 38.94 47.13 57.28 66.96 72.52 77.98 73.05 80.26 91.84 91.22 98.49 99.63 109.36 111.46 105.01 104.05 100.36 106.33 101.03 111.36 115.70 110.53 107.66 98.35 64.27 49.50 25.63 14.70 4.20 -17.74 -70.76 -581.23 -1575.55 -1768.19 -1784.15 -1758.90 -2050.41 -2280.76 -2616.28 -3940.04 -4515.99 -5317.10 -5657.60 -5751.31 -5779.99 -5875.75 -5911.34 -5920.30 -5831.74 -5265.36 -5694.43 -7025.72 -7280.27 -5787.60 -5528.45 -5531.45 -5691.05 -6016.81 -6755.81 -7370.92 -7532.10 -7869.57 -7988.86 -7926.61 -6795.51 -5487.62 -4603.15 -3597.44 -3359.12 -2996.98 -2851.20 -3314.17 -4257.03 -4256.88
-11085.77 -11085.67 -11069.89 -10994.70 -10910.26 -10802.29 -10741.14 -10843.78 -11007.60 -11152.97 -10899.06 -10344.39 -10221.69 -10376.82 -10624.94 -10523.23 -10383.66 -10267.12 -10108.77 -9767.46 -9559.61 -9519.08 -9659.72 -9892.63 -10175.08 -10592.17 -10903.33 -11332.25 -11580.58 -11756.44 -11734.11 -11704.37 -11682.84 -11670.54 -10882.79 -9330.52 -7053.33 -6001.91 -5171.28 -4747.45 -4231.64 -2753.52 -1894.62 -1296.82 -792.13 -559.97 -413.53 -310.08 -293.90 -281.57 -300.86 -316.97 -302.14 -266.39 -177.49 -148.86 -115.71 -88.10 -37.57 -29.90 -14.61 -9.02 13.13 11.26 19.54 22.55 29.27 31.15 37.96 42.08 55.00 52.72 57.67 60.86 50.81 61.77 63.65 70.76 79.39 88.19 97.22 93.05 90.11 92.23 87.90 72.32 83.90 90.44 84.57 80.74 71.04 48.31 38.32 -6.79 -62.71 -112.55 -124.78 -190.66 -366.24 -1152.57 -2054.77 -2086.07 -2190.71 -2514.10 -2999.27 -3726.58 -4561.34 -5283.40 -5738.43 -5900.77 -5905.19 -5867.30 -5899.20 -5962.79 -5915.18 -5863.90 -5471.79 -6366.45 -6956.62 -6644.34 -5801.54 -5566.09 -5550.61 -5674.84 -6101.85 -6501.52 -7027.27 -7347.27 -7520.84 -7491.39 -7368.47 -6700.24 -5165.47 -4183.44 -3430.31 -2931.71 -2609.39 -2815.92 -3379.07 -4677.81 -4677.52
-11011.57 -11011.40 -10922.93 -10791.85 -10689.03 -10667.67 -10613.36 -10587.44 -10801.53 -10850.69 -10354.05 -9879.72 -9822.26 -10141.22 -10355.48 -10322.75 -10235.15 -10141.23 -10006.75 -9848.83 -9563.44 -9590.32 -9751.37 -10117.93 -10305.28 -10659.36 -11002.00 -11277.33 -11563.23 -11738.04 -11714.83 -11668.31 -11595.55 -11424.48 -10501.10 -9525.07 -7776.14 -6200.82 -5340.50 -4965.72 -4316.29 -3591.46 -2286.43 -1388.45 -1109.24 -822.42 -630.13 -553.97 -435.77 -388.61 -411.52 -452.37 -377.75 -295.98 -263.39 -218.61 -153.61 -152.81 -140.36 -126.88 -101.97 -66.53 -2.54 -1.95 1.31 14.40 10.90 21.40 26.16 31.51 33.05 36.28 35.41 37.10 40.05 34.83 49.62 57.89 61.66 63.21 63.13 70.31 75.40 63.31 69.37 60.85 60.65 73.14 59.56 48.33 33.19 27.20 9.84 -71.92 -181.43 -210.36 -412.94 -771.45 -1216.83 -1867.55 -2950.67 -2882.50 -3416.68 -4260.19 -4303.34 -4833.13 -5280.91 -5777.16 -5821.01 -5911.47 -5904.80 -5888.52 -5879.55 -5977.42 -5848.44 -5698.81 -5079.46 -4799.78 -6585.27 -6477.07 -5844.05 -5706.77 -5705.20 -5742.90 -6056.04 -6404.03 -7000.53 -7204.20 -7374.15 -7391.30 -7311.12 -6337.65 -5403.22 -4188.53 -3390.39 -2924.29 -2847.65 -3121.06 -3800.01 -5274.46 -5274.11
-10787.64 -10787.30 -10618.82 -10543.41 -10481.30 -10546.17 -10479.05 -10446.83 -10505.71 -10453.40 -10137.17 -9734.19 -9733.94 -9837.34 -9773.60 -9698.27 -9677.78 -9635.07 -9569.94 -9698.06 -9474.76 -9554.85 -9863.07 -10148.83 -10424.19 -10684.04 -10708.87 -10997.38 -11239.03 -11582.47 -11468.00 -11389.98 -10887.07 -10859.25 -10160.38 -9274.38 -7302.33 -6464.87 -5601.94 -5022.94 -4574.46 -3838.54 -2487.63 -1917.17 -1395.40 -1267.43 -882.67 -884.00 -862.02 -688.40 -669.80 -713.34 -588.60 -362.49 -290.98 -264.73 -222.88 -204.92 -168.45 -167.09 -155.28 -143.70 -79.29 -59.53 -22.57 -2.01 -4.12 7.06 14.25 11.53 17.48 15.80 18.74 19.49 15.40 22.84 36.20 38.91 37.91 39.76 47.81 52.88 50.79 49.96 47.05 45.51 46.38 29.94 30.84 34.89 12.99 -22.01 -116.26 -211.15 -238.18 -381.94 -1231.23 -1740.34 -2160.78 -2614.97 -3564.99 -4941.29 -5236.03 -5421.90 -5343.95 -5589.36 -5802.27 -5797.91 -5757.51 -5765.76 -5781.03 -5608.54 -5509.58 -5413.56 -5296.48 -4989.95 -4794.13 -5548.76 -6085.82 -6037.37 -5867.73 -5741.44 -5787.98 -5828.71 -5905.65 -6287.09 -6539.26 -6835.84 -7152.32 -7183.16 -7212.63 -6610.46 -5630.69 -4508.40 -3893.75 -3795.05 -3761.81 -4000.60 -4730.98 -5927.22 -5926.91
-10336.63 -10336.20 -10291.20 -10187.42 -10308.76 -10357.52 -10227.40 -9964.71 -9972.82 -9822.56 -9636.11 -9412.49 -9249.55 -9394.69 -8963.31 -8833.89 -8675.33 -8500.98 -8794.06 -8807.92 -8699.26 -9048.90 -9290.92 -9423.08 -9845.05 -9602.74 -9974.46 -10158.73 -10210.84 -10316.10 -10339.92 -10037.52 -9872.00 -9838.82 -9160.34 -8359.70 -7420.44 -6013.15 -5465.20 -4817.42 -4487.13 -3733.40 -2610.83 -2136.03 -2074.30 -1727.63 -1312.19 -1268.98 -1241.06 -1155.39 -1029.05 -957.04 -756.32 -481.89 -330.09 -319.50 -296.44 -265.59 -238.09 -212.69 -180.08 -157.37 -147.37 -113.47 -85.42 -15.57 -9.24 -4.79 -3.79 -10.08 -7.93 -0.65 9.47 8.71 9.61 10.51 11.53 20.29 27.22 37.40 37.07 36.84 39.71 38.72 34.94 36.29 24.67 13.10 1.52 -34.39 -66.21 -121.72 -184.32 -225.66 -384.93 -1296.71 -2063.59 -2571.40 -3449.58 -5179.42 -5454.96 -5713.16 -5804.37 -5823.37 -5825.97 -5829.94 -5824.73 -5720.92 -5577.75 -5336.42 -4945.99 -4622.90 -4417.13 -3663.19 -3798.74 -3933.39 -5707.70 -6018.63 -5756.29 -5443.74 -5511.94 -5732.77 -5750.95 -5724.60 -5738.58 -5808.48 -5787.24 -6209.96 -6768.16 -6930.11 -7129.99 -6739.30 -5714.21 -4822.05 -4420.45 -4252.41 -4519.27 -4738.75 -5374.07 -6362.85 -6362.94
-9702.58 -9618.30 -9573.26 -9801.81 -10158.74 -10256.95 -10040.45 -9856.64 -9158.73 -8941.47 -9059.73 -8883.34 -8727.19 -8256.45 -7869.65 -7480.01 -7290.63 -6773.18 -7081.45 -7213.46 -7507.97 -8124.88 -8442.81 -8832.04 -8837.52 -9044.62 -8883.73 -9188.26 -9083.22 -9020.20 -9437.44 -9290.96 -8881.85 -8855.32 -8218.44 -7779.19 -6354.03 -5692.53 -5008.52 -4730.50 -4288.87 -3557.16 -2893.13 -2568.86 -2291.47 -1814.79 -1484.32 -1266.48 -1165.23 -1076.51 -975.36 -835.50 -764.64 -546.90 -368.27 -357.54 -333.14 -292.56 -275.33 -227.89 -211.39 -181.08 -161.06 -150.23 -133.19 -70.13 -34.25 -27.09 -14.51 -15.62 -18.15 -17.54 -17.67 -14.95 -1.59 6.09 6.55 10.12 15.22 19.85 19.92 22.40 29.73 27.60 21.66 19.97 0.55 -8.04 -63.45 -81.41 -98.93 -142.26 -224.40 -480.90 -1157.94 -2212.94 -2888.53 -3285.79 -4621.75 -5161.52 -5879.15 -5844.42 -5844.65 -5834.85 -5767.53 -5723.80 -5144.54 -4694.24 -4611.10 -4474.82 -3531.80 -2550.80 -1223.65 -2192.56 -3064.19 -5294.87 -6010.44 -5766.14 -5425.12 -5041.71 -5100.82 -5378.75 -5526.54 -5545.19 -5493.61 -5419.74 -5181.69 -5738.68 -6256.51 -6648.20 -6785.58 -6615.38 -5643.55 -5116.91 -4757.11 -4706.19 -4804.60 -5081.78 -5484.07 -6023.53 -6154.60
-8790.85 -8790.06 -9101.38 -9278.30 -9781.07 -10082.01 -9889.56 -9412.51 -8874.69 -8673.63 -8589.05 -8465.63 -8211.59 -7910.04 -7366.96 -6903.33 -6821.78 -6259.83 -6232.57 -6487.70 -6678.84 -7017.57 -7610.04 -8035.28 -8214.72 -8332.86 -8318.17 -8462.06 -8576.19 -8366.15 -8456.95 -8488.08 -8381.46 -8366.39 -7749.92 -6670.40 -6049.11 -5432.20 -4926.39 -4458.97 -4091.38 -3462.98 -3157.31 -2593.75 -2256.51 -1779.89 -1479.90 -1375.81 -1200.83 -1075.07 -974.60 -815.15 -721.01 -552.39 -483.19 -422.71 -384.95 -319.10 -306.98 -288.18 -261.80 -228.94 -195.66 -164.79 -157.55 -154.80 -114.78 -47.87 -38.17 -40.71 -35.76 -36.93 -35.09 -32.66 -24.54 -15.79 -8.77 -7.21 -1.87 -0.90 5.72 8.22 14.93 11.81 4.43 -7.79 -37.45 -80.97 -113.01 -119.04 -126.96 -154.86 -364.72 -696.22 -2390.52 -3096.85 -4109.33 -4639.38 -5113.02 -5511.21 -5867.78 -5817.69 -5819.01 -5685.82 -5485.09 -4583.14 -3495.59 -2864.61 -1983.85 -732.21 -1068.41 -505.85 -846.29 -1041.64 -3223.31 -5236.06 -5732.27 -5420.02 -4873.55 -4661.00 -4837.79 -5065.08 -5398.61 -5435.13 -5128.76 -4578.61 -4612.79 -5482.46 -6128.43 -6648.19 -6801.83 -6598.66 -5718.83 -5289.50 -4892.07 -4905.28 -5002.68 -5061.31 -5350.89 -5245.40 -5246.44
-7978.61 -7978.40 -8398.18 -9052.09 -9668.77 -10054.32 -9917.56 -9415.70 -8955.81 -8637.43 -8518.95 -8434.67 -8251.38 -7864.82 -7471.90 -6940.56 -6618.71 -6167.08 -6159.57 -6347.51 -6433.56 -6835.78 -7338.17 -7725.74 -7881.11 -7987.19 -8188.32 -8258.69 -8215.79 -8167.51 -8207.34 -8273.11 -8267.34 -8028.61 -7531.32 -6486.79 -5757.34 -5390.75 -4894.99 -4449.97 -3955.80 -3485.76 -3097.85 -2663.76 -2251.12 -1848.76 -1675.95 -1528.51 -1383.96 -1240.03 -1047.50 -856.86 -744.40 -621.51 -526.20 -458.38 -391.85 -376.90 -325.65 -299.09 -283.23 -235.86 -214.15 -205.43 -196.74 -193.72 -150.62 -102.90 -87.61 -64.05 -88.12 -103.72 -94.77 -79.02 -63.64 -56.19 -40.02 -20.87 -42.36 -23.99 -10.28 -3.18 -2.49 -16.20 -33.47 -43.86 -75.25 -93.79 -98.67 -125.50 -152.23 -184.60 -574.62 -1428.13 -2734.72 -3700.32 -4601.04 -5180.13 -5443.11 -5700.44 -5737.80 -5507.09 -5186.00 -4571.74 -3415.24 -1063.52 -494.94 -96.89 -52.86 -54.97 -52.97 -57.64 -682.89 -1373.13 -3718.81 -5314.18 -5347.65 -5244.03 -5051.22 -4709.06 -4777.63 -5170.84 -5438.34 -5454.45 -5070.21 -4553.87 -4785.27 -5454.04 -6370.57 -6787.47 -6831.60 -6390.95 -5826.75 -5378.70 -5006.90 -4943.82 -4923.59 -4753.08 -4663.77 -3793.73 -3794.90
-7972.59 -7972.86 -8325.52 -8964.38 -9485.66 -9865.31 -9972.29 -9698.68 -9112.85 -8755.80 -8552.68 -8408.56 -8323.63 -8119.12 -7836.05 -7263.08 -7030.76 -6690.73 -6479.23 -6376.66 -6472.65 -6741.63 -7255.05 -7590.57 -7716.75 -7836.21 -8029.56 -8199.15 -8192.08 -8175.79 -8131.09 -8227.05 -8126.25 -8055.27 -7269.56 -6847.87 -5661.83 -5256.24 -4736.12 -4273.58 -4019.52 -3679.12 -3369.52 -2746.87 -2376.38 -2189.12 -1996.48 -1772.06 -1610.38 -1395.33 -1113.41 -942.92 -775.49 -624.90 -560.97 -505.49 -483.94 -439.48 -361.58 -333.50 -304.81 -276.49 -262.67 -235.08 -215.25 -203.54 -179.68 -167.59 -138.65 -134.42 -143.65 -144.13 -146.26 -119.51 -94.00 -93.32 -87.68 -68.40 -78.58 -72.38 -32.71 -32.51 -34.94 -71.96 -89.94 -86.37 -91.18 -69.84 -104.40 -163.32 -191.46 -192.02 -696.10 -1513.41 -2724.10 -3441.45 -4520.61 -4539.36 -4032.54 -3285.18 -4257.63 -3707.72 -2240.55 -1234.96 -933.96 -258.24 -138.28 -45.05 -27.97 -25.93 -46.79 -141.59 -933.82 -2229.68 -3909.71 -5141.36 -5365.37 -5386.53 -5053.56 -4754.34 -4911.60 -5199.86 -5476.20 -5381.38 -5257.17 -4873.23 -5384.58 -5826.31 -6210.48 -6048.28 -5671.40 -5847.34 -5419.89 -5123.88 -4797.64 -4665.05 -4579.52 -4019.18 -3091.87 -2469.07 -2469.67
-8206.27 -8196.79 -8298.85 -8521.30 -9039.34 -9569.00 -9729.01 -9429.98 -9068.81 -8678.10 -8497.67 -8306.17 -8213.72 -8189.04 -7886.01 -7538.96 -7116.00 -6817.92 -6553.44 -6324.30 -6262.09 -6605.04 -7147.28 -7246.20 -7177.29 -7281.11 -7500.50 -7669.03 -7829.39 -7540.18 -7833.14 -7851.58 -7977.22 -8038.28 -7536.42 -6859.64 -6011.99 -5000.84 -4819.34 -4429.00 -4210.89 -3899.44 -3335.43 -2961.37 -2638.23 -2484.92 -2168.89 -1943.96 -1719.54 -1541.21 -1396.39 -1049.65 -893.31 -741.51 -617.43 -530.92 -499.38 -469.35 -420.51 -346.78 -329.14 -308.29 -288.89 -274.01 -264.18 -233.25 -218.15 -205.97 -190.95 -177.94 -171.97 -176.74 -164.38 -143.43 -130.34 -117.35 -107.87 -94.70 -97.00 -98.27 -72.63 -85.82 -84.36 -88.03 -90.73 -93.46 -93.38 -100.36 -145.96 -203.11 -226.49 -211.68 -677.11 -1837.47 -2491.12 -3181.61 -3413.73 -2923.14 -934.29 -689.33 -1250.38 -469.18 -444.49 -295.66 -4.21 -16.82 -34.78 -48.47 -38.15 -31.17 -657.78 -1444.35 -2400.72 -3918.75 -4717.60 -5205.52 -5383.60 -5409.09 -5136.05 -4766.59 -4828.27 -5146.54 -5384.26 -5443.25 -5318.85 -5307.60 -5688.59 -5712.96 -5668.09 -5201.05 -4740.11 -4796.13 -4730.20 -4294.68 -4227.54 -4056.63 -3952.53 -3558.47 -2982.11 -1993.97 -1993.93
-7646.04 -7645.14 -7315.36 -7792.89 -7805.81 -8332.72 -8483.21 -8606.55 -8303.79 -8035.27 -7601.97 -7349.05 -7370.95 -7254.34 -7124.53 -6984.22 -6501.64 -6295.07 -6068.67 -5938.94 -5722.64 -5618.17 -5977.23 -6275.90 -6724.10 -6547.15 -6641.54 -6532.94 -6645.95 -6779.51 -6661.75 -6851.66 -6971.37 -7465.37 -7031.71 -6341.11 -5906.41 -5104.46 -4623.35 -4376.41 -4201.56 -4018.45 -3725.74 -3233.55 -3117.86 -2642.09 -2520.03 -2327.61 -2008.13 -1886.29 -1517.24 -1226.94 -965.14 -817.12 -660.57 -581.27 -517.67 -486.92 -436.25 -375.81 -358.21 -332.31 -316.68 -308.64 -288.58 -268.88 -249.45 -229.99 -226.97 -219.84 -191.12 -184.97 -173.34 -172.05 -163.78 -155.39 -136.79 -129.79 -125.38 -134.28 -127.47 -104.39 -97.22 -99.94 -92.29 -97.09 -116.40 -136.87 -163.44 -238.05 -737.83 -1195.48 -1030.02 -2019.10 -2358.20 -2332.65 -1869.28 -926.26 6.32 18.05 83.49 -0.28 84.99 85.16 70.09 42.81 -9.65 -39.57 -177.36 -390.64 -1836.10 -2796.30 -3649.15 -4715.44 -5026.33 -5369.68 -5409.94 -5429.74 -5311.81 -5064.25 -4956.41 -5267.10 -5471.45 -5564.26 -5614.50 -5543.70 -5561.28 -5298.23 -4992.20 -4520.42 -4485.02 -4978.77 -4689.02 -4231.78 -3819.42 -3703.69 -3718.48 -3343.33 -2944.55 -2335.95 -2335.44
-6746.05 -6699.87 -6674.36 -6742.79 -6903.50 -7139.13 -7548.83 -7187.55 -6976.59 -6633.53 -5973.07 -6262.56 -5875.95 -5865.68 -5407.82 -5641.72 -5606.43 -5454.59 -5001.68 -4597.20 -4526.90 -4380.58 -4587.30 -4814.19 -4823.07 -5227.57 -5460.30 -5606.83 -5749.66 -5878.80 -5831.22 -5814.62 -5964.47 -5916.39 -6160.88 -5349.26 -5225.81 -4442.03 -4266.92 -4199.25 -4188.88 -4144.64 -3844.91 -3448.67 -3077.32 -2938.38 -2716.95 -2511.69 -2241.61 -1889.01 -1563.25 -1408.66 -1077.98 -867.00 -732.17 -614.71 -570.01 -525.46 -499.02 -433.30 -390.17 -368.83 -354.60 -333.12 -311.15 -298.26 -290.33 -274.67 -265.43 -246.53 -225.44 -207.54 -214.25 -200.61 -192.83 -180.52 -173.82 -152.50 -153.49 -142.10 -139.57 -133.83 -127.16 -124.40 -105.51 -130.57 -153.19 -190.80 -214.89 -273.54 -314.19 -1242.13 -2067.84 -2404.28 -1604.26 -695.44 -419.13 20.43 69.24 42.58 106.11 139.94 136.54 129.94 73.40 51.78 -90.59 -297.44 -999.67 -2482.68 -3978.60 -4965.12 -5235.87 -5328.67 -5378.25 -5408.43 -5430.36 -5458.85 -5475.23 -5351.28 -5313.81 -5617.74 -5793.66 -5691.44 -5531.54 -5292.08 -4866.59 -4624.40 -4128.92 -4219.24 -4512.90 -5233.70 -4897.40 -4460.78 -3877.48 -3791.73 -3743.53 -3487.14 -3222.52 -3075.81 -3075.33
-6515.25 -6533.01 -6533.15 -6459.59 -6389.46 -6108.51 -5897.69 -5611.38 -5242.55 -4922.35 -4872.49 -4629.07 -4750.89 -4411.03 -4443.47 -4253.69 -4359.52 -4335.60 -4377.43 -4304.09 -4012.50 -3647.51 -3713.11 -4280.87 -4368.06 -4589.19 -4899.19 -4950.07 -5341.79 -5408.33 -5313.91 -5215.44 -4973.46 -4757.72 -4193.82 -4436.58 -4160.32 -4190.09 -3725.17 -4034.17 -4182.01 -4201.29 -3967.49 -3722.46 -3293.92 -2993.12 -2919.74 -2680.58 -2437.46 -2104.03 -1796.10 -1509.66 -1193.50 -1067.49 -827.40 -661.32 -629.92 -563.72 -507.65 -469.35 -447.18 -419.99 -397.88 -354.09 -326.20 -320.11 -311.73 -304.71 -292.09 -275.67 -260.56 -254.97 -248.82 -242.23 -228.26 -196.19 -197.90 -177.14 -166.48 -171.88 -172.54 -162.93 -146.09 -138.32 -151.90 -152.30 -167.70 -190.66 -243.58 -274.28 -347.02 -348.48 -1211.23 -1663.64 -1001.67 -14.09 20.71 99.74 155.20 99.55 225.01 244.05 202.97 154.58 83.01 -2.34 -729.24 -1360.63 -2559.49 -3874.81 -5540.86 -5635.65 -5454.49 -5404.23 -5401.09 -5419.79 -5439.89 -5474.10 -5502.42 -5521.23 -5553.78 -5798.74 -5856.52 -5470.51 -4994.18 -4388.56 -4002.74 -3796.15 -3786.17 -4211.86 -4978.46 -5325.76 -4781.86 -4329.77 -3975.71 -3894.03 -3825.83 -3655.44 -3632.58 -3662.62 -3662.40
-6708.88 -6708.89 -6323.74 -6249.35 -5945.85 -5665.51 -4941.19 -4620.71 -4315.72 -4198.33 -4109.87 -3923.74 -3743.59 -3660.89 -3328.22 -3411.27 -3561.93 -3764.90 -3576.40 -3667.59 -3491.98 -3398.25 -3466.46 -3697.72 -4067.32 -4108.15 -4257.43 -4278.13 -4597.52 -4406.29 -4627.85 -4307.68 -4375.84 -4005.89 -3731.83 -3554.35 -3422.33 -3075.78 -3397.61 -4114.83 -4210.02 -4209.55 -4220.40 -4047.74 -3626.40 -3469.30 -3281.11 -2945.53 -2487.06 -2275.34 -1898.34 -1728.60 -1476.56 -1160.20 -891.97 -712.47 -695.60 -598.68 -546.63 -522.48 -500.77 -450.21 -403.22 -373.52 -355.05 -346.68 -338.18 -330.72 -312.79 -294.36 -285.59 -279.34 -271.95 -258.94 -251.73 -232.34 -225.63 -209.87 -202.37 -202.04 -192.25 -177.02 -174.99 -161.46 -177.39 -182.67 -192.56 -213.52 -248.15 -258.15 -302.20 -259.38 -587.65 -305.47 -334.16 -10.46 27.65 156.76 283.04 306.41 363.29 265.18 149.58 106.97 67.43 33.21 -1323.60 -2946.77 -3650.52 -5152.14 -5832.30 -5699.58 -5504.54 -5401.90 -5407.83 -5429.33 -5454.39 -5481.89 -5513.47 -5530.56 -5454.73 -5300.66 -5020.64 -4943.25 -4487.09 -3861.06 -3659.73 -3617.96 -3911.77 -4618.48 -5348.39 -5192.28 -4669.62 -3958.63 -3733.98 -3725.72 -3780.34 -3804.43 -3840.47 -3922.58 -3922.58
-6537.89 -6537.33 -6137.63 -5655.89 -4954.52 -4400.75 -4141.67 -3969.00 -3962.80 -3874.33 -3718.75 -3534.49 -3590.32 -3337.12 -2937.27 -2838.71 -2922.65 -2849.99 -2917.97 -2629.22 -2500.85 -2533.49 -2799.42 -3195.22 -2983.88 -3329.91 -3137.27 -3267.01 -3335.19 -3457.07 -3394.62 -3460.32 -3158.41 -3100.38 -2991.52 -2952.51 -2914.96 -3030.65 -3348.86 -3865.03 -4215.32 -4246.15 -4259.69 -4220.07 -4069.25 -3751.31 -3365.90 -3050.11 -2613.47 -2448.55 -2275.88 -2050.58 -1656.10 -1341.55 -1110.73 -906.29 -769.33 -690.27 -579.55 -561.03 -511.46 -501.09 -467.73 -437.84 -380.24 -371.23 -360.69 -344.10 -335.93 -317.22 -307.91 -306.65 -296.59 -276.08 -268.41 -272.18 -250.43 -234.41 -227.66 -212.96 -220.45 -215.57 -207.01 -202.59 -196.02 -201.05 -196.58 -208.26 -211.40 -209.89 -229.36 -201.60 -201.44 -106.94 -35.15 10.94 167.92 580.19 497.87 390.60 409.45 199.84 119.40 79.08 60.54 -580.28 -2343.15 -3295.85 -4133.07 -5540.04 -5866.78 -5774.00 -5567.58 -5383.51 -5415.91 -5437.43 -5464.19 -5485.07 -5437.43 -5172.55 -4631.30 -4675.46 -4453.03 -4233.13 -3918.85 -3724.31 -3742.76 -3965.76 -4559.73 -4999.19 -5360.53 -4744.66 -4139.51 -3583.77 -3429.98 -3466.45 -3567.79 -3731.56 -3845.51 -3880.27 -3902.53
-5687.78 -5686.75 -4882.10 -4257.01 -3919.07 -3783.61 -3426.03 -3353.94 -3367.38 -3089.39 -3033.53 -2917.66 -2613.74 -2175.26 -1900.67 -1826.97 -1653.65 -1699.09 -1515.87 -1793.05 -1853.41 -1861.27 -2015.01 -2092.19 -2258.10 -2294.83 -1886.35 -1869.18 -2172.06 -2243.81 -2205.95 -2258.54 -2431.43 -2430.82 -2431.41 -2693.25 -2752.58 -2803.93 -2870.66 -3361.43 -3733.27 -4101.74 -4297.37 -4298.10 -4293.98 -4058.45 -3780.84 -3287.90 -2791.10 -2602.93 -2422.06 -2056.36 -1869.13 -1396.84 -1199.05 -1036.58 -872.42 -782.10 -717.69 -593.54 -548.39 -520.97 -513.05 -507.70 -427.95 -384.88 -377.26 -363.61 -346.86 -336.23 -317.82 -314.24 -304.87 -295.86 -288.89 -282.66 -270.76 -258.25 -245.31 -244.53 -254.88 -240.62 -223.19 -201.02 -200.94 -200.76 -181.77 -184.44 -146.44 -119.93 -94.01 -71.33 -45.43 -42.82 -9.81 56.07 445.92 958.11 1034.73 496.22 222.38 116.01 92.04 40.18 -0.00 -1083.12 -2773.99 -4327.87 -4885.04 -5920.29 -6266.95 -6076.44 -5550.95 -5364.87 -5425.99 -5447.62 -5468.05 -5183.34 -4860.16 -4392.29 -3844.36 -3849.80 -4012.48 -3912.20 -3821.60 -3854.96 -4157.50 -4356.36 -4911.18 -5253.20 -5129.33 -4490.15 -3689.73 -3439.41 -3451.62 -3542.13 -3632.91 -3678.78 -3775.45 -3764.51 -3764.63
-4483.42 -4307.24 -4054.44 -3628.22 -3236.69 -2857.15 -2529.05 -2299.86 -2037.09 -2063.32 -1732.32 -1559.88 -1534.48 -1455.49 -1301.25 -1334.14 -1192.43 -1155.91 -1111.62 -1069.62 -1078.29 -1090.01 -1212.02 -1228.68 -1507.86 -1643.41 -1706.42 -1911.96 -1961.78 -2083.28 -2043.57 -2028.85 -2161.60 -2251.53 -2450.03 -2693.90 -2895.74 -2877.73 -2906.95 -2887.64 -3239.50 -3988.01 -4309.47 -4318.05 -4304.81 -4202.03 -3873.00 -3353.58 -3000.53 -2856.93 -2615.11 -2525.76 -2163.78 -1674.09 -1462.90 -1266.77 -1095.49 -984.12 -801.88 -682.42 -575.89 -551.50 -535.22 -513.88 -475.93 -436.27 -393.83 -375.69 -368.32 -341.92 -340.13 -326.69 -314.71 -303.20 -297.90 -289.83 -282.61 -285.06 -282.34 -275.68 -269.69 -247.93 -214.27 -153.55 -136.32 -93.16 -112.68 -114.15 -84.91 -58.97 -13.69 -13.33 5.83 -6.89 16.74 231.10 836.05 1063.72 1037.63 361.88 128.57 88.03 52.77 -37.69 -1606.59 -3365.86 -4782.69 -5419.98 -6498.03 -6347.68 -6401.95 -6207.96 -5892.72 -5548.07 -5437.55 -5444.49 -5221.29 -4718.94 -4278.80 -3751.09 -3411.71 -3439.02 -3678.39 -3829.75 -4013.09 -4270.00 -4595.75 -4904.72 -5230.60 -5280.91 -4873.23 -4503.34 -3799.78 -3576.35 -3633.77 -3751.06 -3823.22 -3808.36 -3793.77 -3772.54 -3772.50
-3410.76 -3249.70 -3016.44 -2830.39 -2196.45 -1831.93 -1439.53 -1312.34 -1043.11 -1083.97 -1120.25 -1177.60 -1138.75 -1161.44 -1100.21 -1039.06 -1025.06 -975.79 -958.45 -1004.43 -1039.42 -1093.47 -1103.17 -1164.71 -1393.77 -1674.14 -1827.26 -1995.87 -2185.65 -2227.64 -2193.97 -2216.05 -2332.00 -2578.84 -2835.85 -3249.11 -3270.42 -3320.53 -3283.92 -3102.86 -3158.94 -3786.72 -4280.11 -4353.19 -4348.81 -4277.13 -4195.26 -3828.95 -3351.53 -3137.15 -3023.41 -2884.86 -2272.15 -2076.04 -1651.86 -1498.64 -1240.39 -1149.81 -886.98 -724.98 -645.67 -589.27 -550.99 -524.07 -506.67 -507.35 -422.52 -395.38 -379.67 -362.52 -346.07 -342.68 -323.65 -312.10 -312.18 -288.87 -292.47 -302.15 -309.18 -289.77 -273.20 -243.63 -222.98 -108.56 -72.56 -48.22 -43.51 -28.20 7.14 47.15 54.20 43.49 34.62 107.30 189.69 619.28 1022.13 855.74 346.36 95.70 78.85 42.55 -22.88 -902.99 -4528.26 -4385.00 -5466.79 -6277.80 -6527.58 -6397.55 -6258.01 -6416.91 -6220.58 -5755.90 -5496.72 -5336.80 -4806.92 -4345.65 -3433.58 -3266.14 -3196.06 -3390.16 -3636.91 -3852.93 -4372.69 -4832.59 -5352.34 -5454.32 -5289.78 -5244.14 -4849.04 -4459.50 -3966.87 -3770.22 -3848.75 -3961.28 -3955.69 -3981.96 -3928.77 -3899.00 -3882.95
-2547.70 -2548.10 -2325.28 -1864.34 -1622.59 -1209.56 -951.66 -888.00 -893.24 -960.58 -1057.81 -1127.95 -1138.48 -1123.75 -1099.02 -1065.99 -1051.22 -1058.27 -1027.12 -1071.13 -1123.33 -1133.04 -1181.37 -1214.39 -1300.54 -1565.33 -1811.21 -1968.61 -2131.80 -2232.08 -2240.96 -2288.27 -2529.19 -2708.06 -3227.08 -3584.61 -3858.88 -3661.79 -3236.31 -2970.77 -3093.93 -3971.07 -4315.07 -4398.17 -4393.83 -4385.89 -4384.34 -4203.37 -3871.80 -3730.59 -3419.51 -3214.37 -2911.30 -2391.08 -2109.76 -1770.52 -1457.98 -1141.81 -939.00 -814.30 -695.78 -629.98 -573.99 -544.91 -523.57 -514.08 -496.35 -416.56 -384.64 -374.95 -361.91 -339.07 -325.18 -318.35 -312.24 -299.14 -310.17 -317.42 -319.09 -308.64 -284.67 -254.44 -175.54 -86.19 -38.94 -10.93 7.81 38.80 58.71 74.83 106.48 112.52 125.55 313.21 508.20 947.66 1039.70 557.48 118.35 47.17 2.74 -33.35 -1005.91 -3986.90 -7012.91 -6392.08 -6033.36 -6288.94 -6062.68 -5958.36 -6154.72 -6604.35 -6658.21 -6347.55 -5832.01 -4925.08 -4268.67 -3890.57 -3311.62 -3343.28 -3498.34 -3732.43 -4059.30 -4300.45 -4866.14 -5665.62 -5689.10 -5551.95 -5332.61 -5232.31 -5033.72 -4841.02 -4329.96 -3921.56 -3948.25 -3986.27 -3996.69 -3994.39 -3955.88 -3913.78 -3898.11
-2079.32 -2079.58 -1645.33 -1433.33 -1281.53 -1127.68 -1029.89 -946.47 -985.15 -1031.48 -1120.12 -1182.15 -1206.60 -1203.78 -1200.06 -1182.14 -1187.03 -1173.29 -1144.81 -1180.53 -1177.73 -1184.17 -1223.40 -1257.19 -1327.37 -1455.95 -1612.66 -1775.88 -1946.71 -2092.57 -2177.99 -2188.69 -2286.22 -2467.75 -2881.93 -3145.39 -3448.84 -3158.60 -2887.17 -2608.31 -2653.31 -3723.70 -4442.75 -4419.83 -4421.53 -4413.18 -4404.74 -4400.80 -4337.30 -4197.48 -3855.58 -3643.64 -3281.38 -2867.05 -2337.62 -2000.89 -1551.35 -1261.41 -1090.05 -969.78 -787.01 -726.11 -654.38 -600.63 -562.06 -538.43 -542.10 -518.75 -431.07 -377.30 -371.71 -352.90 -330.55 -325.08 -320.60 -324.34 -314.29 -338.09 -349.92 -335.71 -326.87 -263.56 -100.51 -43.45 -10.61 0.92 27.75 62.83 72.67 260.28 182.41 225.80 340.37 890.92 1020.30 1284.19 1036.49 344.31 155.46 45.55 -10.34 -1121.17 -3654.75 -6708.09 -6848.86 -6697.87 -6432.82 -6268.64 -6089.08 -6101.28 -6442.76 -7040.46 -7085.37 -6619.86 -5498.69 -4456.15 -3545.44 -3491.83 -3531.72 -3740.28 -4260.04 -4420.63 -4588.05 -4928.06 -5190.80 -5562.57 -5603.56 -5395.22 -5275.96 -5259.43 -5293.75 -5013.14 -4449.28 -4052.51 -3925.25 -3946.07 -3941.39 -3858.52 -3838.30 -3750.81 -3746.02
-1721.62 -1721.82 -1331.79 -1336.26 -1253.68 -1202.66 -1151.40 -1113.47 -1099.53 -1131.71 -1189.91 -1243.76 -1232.99 -1247.32 -1234.29 -1225.22 -1216.96 -1216.14 -1223.83 -1215.47 -1214.05 -1215.58 -1249.46 -1276.24 -1323.36 -1316.76 -1448.46 -1585.87 -1840.07 -2037.47 -2116.48 -2145.57 -2144.44 -2176.96 -2308.54 -2520.44 -2563.54 -2439.37 -2203.20 -2141.72 -2566.19 -3877.25 -4342.06 -4463.63 -4457.63 -4452.51 -4440.29 -4431.75 -4413.05 -4414.78 -4262.90 -4150.28 -3766.62 -3102.03 -2945.80 -2500.76 -1963.98 -1524.72 -1401.45 -1233.76 -1095.45 -990.29 -744.14 -743.10 -671.63 -631.42 -584.79 -586.61 -622.50 -563.99 -376.96 -362.20 -344.56 -336.14 -365.72 -359.73 -396.26 -412.51 -401.01 -398.60 -378.77 -293.20 -93.07 16.53 11.84 16.24 36.41 324.05 460.87 848.14 723.31 788.24 935.94 1694.69 2225.69 1987.80 1356.00 710.06 237.76 85.20 3.09 -4469.10 -6008.89 -6605.72 -6022.17 -6093.52 -6400.77 -6405.97 -6459.51 -6508.95 -6837.96 -7375.92 -7205.08 -6257.88 -4401.75 -3645.29 -3382.23 -3877.71 -4045.55 -4541.35 -4905.81 -4995.72 -4958.06 -4909.66 -4916.99 -5171.84 -5199.98 -5261.25 -5262.69 -5404.16 -5455.29 -5152.04 -4634.97 -4116.00 -3848.12 -3826.09 -3776.88 -3661.96 -3588.02 -3504.73 -3424.30
-1397.36 -1393.56 -1274.34 -1260.42 -1274.43 -1257.74 -1206.24 -1220.35 -1218.37 -1226.57 -1245.29 -1271.80 -1272.13 -1264.43 -1242.51 -1237.82 -1241.87 -1247.97 -1245.70 -1232.87 -1246.37 -1235.61 -1221.95 -1278.45 -1284.25 -1257.77 -1311.75 -1425.67 -1722.82 -2039.83 -2168.30 -2208.69 -2212.69 -2199.05 -2221.09 -2218.06 -2102.96 -1942.76 -2033.10 -2299.07 -2664.41 -3769.96 -4188.47 -4488.17 -4488.82 -4468.09 -4465.33 -4457.20 -4447.49 -4427.65 -4385.07 -4254.94 -3880.14 -3809.37 -3765.04 -3023.29 -2330.57 -1932.62 -1811.39 -1544.25 -1464.91 -1272.19 -968.85 -871.94 -781.10 -719.68 -666.42 -720.52 -867.28 -764.46 -516.18 -421.41 -428.66 -433.07 -429.69 -465.93 -491.49 -503.04 -502.22 -481.09 -425.38 -357.69 16.84 56.20 79.69 74.55 340.78 742.85 1191.86 1398.47 1527.38 2039.27 2025.37 2301.48 2467.66 1678.12 1368.35 804.70 202.61 -23.23 -3092.05 -5633.82 -5048.96 -5366.51 -4720.49 -5163.07 -5634.75 -6566.51 -7070.60 -7116.33 -7354.51 -7385.04 -6236.12 -5095.97 -4314.78 -3747.08 -3934.96 -4189.51 -4459.37 -4690.70 -4914.81 -4889.15 -4863.08 -4760.96 -4585.34 -4713.23 -4993.08 -5159.18 -5263.09 -5432.11 -5553.53 -5100.89 -4426.33 -3968.67 -3710.48 -3571.80 -3407.63 -3275.61 -3202.54 -2966.29 -2965.96
-1200.61 -1216.94 -1220.25 -1222.37 -1247.37 -1241.81 -1244.39 -1254.23 -1262.44 -1280.75 -1280.08 -1280.75 -1282.89 -1264.96 -1243.29 -1244.26 -1258.14 -1227.75 -1213.01 -1186.76 -1175.80 -1207.86 -1164.08 -1220.37 -1196.19 -1180.59 -1218.01 -1414.65 -1638.28 -2211.18 -2327.25 -2443.14 -2408.07 -2473.66 -2256.64 -2028.64 -1820.56 -1636.25 -1988.93 -2322.23 -2679.35 -3051.85 -3975.94 -4534.20 -4516.24 -4505.25 -4489.85 -4487.02 -4466.66 -4457.71 -4451.94 -4413.98 -4205.14 -4220.16 -3838.54 -3306.36 -2655.09 -2465.89 -1995.50 -1909.68 -1607.06 -1331.92 -1100.69 -1042.34 -993.14 -937.12 -845.86 -862.02 -1039.39 -975.19 -845.59 -849.40 -691.90 -582.31 -571.22 -606.72 -600.49 -552.58 -921.66 -861.49 -623.37 -292.14 23.29 85.84 102.75 118.00 748.60 1145.94 2190.26 2430.57 2382.90 2169.65 1919.26 1435.69 1876.68 1066.12 848.20 274.96 -105.18 -1296.13 -4252.49 -4676.85 -3800.80 -3317.14 -3528.29 -4086.42 -5158.16 -6041.66 -7158.00 -7358.75 -7395.20 -6864.41 -5890.47 -4622.19 -4164.21 -4456.98 -4546.76 -4680.32 -4644.99 -4637.08 -4729.82 -4681.59 -4590.72 -4447.84 -4488.76 -4679.69 -4981.32 -5213.39 -5298.77 -5427.74 -5426.84 -4878.56 -4319.66 -3646.82 -3387.10 -3118.27 -2951.29 -2768.30 -2680.77 -2657.83 -2657.74
-1119.18 -1128.30 -1147.21 -1153.13 -1182.91 -1192.07 -1217.92 -1231.79 -1246.24 -1296.73 -1296.87 -1278.91 -1276.56 -1273.66 -1225.69 -1212.60 -1190.91 -1163.18 -1151.42 -1125.06 -1095.74 -1125.67 -1123.63 -1115.87 -1098.66 -1099.02 -1181.30 -1305.27 -1609.21 -2219.55 -2564.88 -2612.58 -2834.15 -2823.98 -2532.48 -1863.51 -1557.43 -1532.92 -1869.15 -2137.25 -2412.91 -2401.67 -2952.55 -4136.68 -4539.01 -4524.80 -4512.80 -4501.95 -4492.83 -4480.41 -4470.97 -4460.59 -4462.69 -4297.74 -4003.84 -3847.92 -3530.32 -2928.41 -2723.51 -2430.63 -2116.82 -1802.24 -1855.88 -1672.54 -1404.08 -1302.67 -1387.65 -1264.27 -1327.28 -1327.71 -1522.00 -1440.03 -471.32 -677.07 -590.35 -244.55 -267.93 -225.33 -1164.29 -1256.71 -624.55 -165.80 65.16 110.36 311.71 729.05 1357.31 1690.79 2245.05 2271.37 1852.51 1533.75 1249.94 875.92 373.98 260.04 75.65 -12.86 -1650.66 -4642.27 -4480.53 -3980.87 -3644.72 -3502.14 -3735.46 -4035.46 -4532.30 -5279.44 -6116.60 -6956.97 -6954.10 -6349.88 -5777.86 -4899.33 -4584.59 -4836.21 -4921.16 -4764.33 -4597.41 -4412.13 -4423.57 -4501.18 -4464.37 -4410.24 -4484.78 -4769.58 -5092.65 -5344.31 -5422.99 -5438.61 -5355.64 -5066.49 -4318.91 -3430.59 -3108.84 -2771.15 -2584.17 -2575.17 -2635.97 -2712.49 -2712.70
-1067.25 -1067.22 -1103.39 -1124.28 -1134.54 -1157.04 -1199.34 -1206.86 -1236.96 -1270.40 -1280.69 -1273.83 -1252.19 -1234.20 -1189.66 -1145.58 -1125.44 -1106.83 -1108.84 -1085.99 -1050.64 -1075.86 -1060.58 -1009.01 -1023.09 -1057.23 -1156.17 -1275.48 -1461.63 -2096.50 -2949.61 -3179.81 -3254.40 -3014.67 -2783.99 -1981.26 -1526.65 -1484.60 -1849.77 -2049.77 -1877.54 -1950.19 -2545.78 -3836.17 -4443.86 -4542.18 -4535.66 -4520.86 -4508.92 -4499.29 -4489.49 -4475.87 -4471.93 -4415.51 -4381.37 -4190.87 -3999.59 -3653.42 -3316.08 -3044.24 -2843.16 -2316.26 -2148.16 -2084.52 -1897.20 -1971.46 -1877.11 -1744.33 -1697.27 -1700.43 -1621.91 -1030.60 -135.32 -426.22 -288.43 -40.66 -36.02 -40.19 -301.54 -444.10 -116.88 233.19 560.15 729.52 769.08 931.98 962.56 1457.46 1378.51 1209.42 887.00 809.27 713.12 135.99 95.79 -26.27 -753.37 -1712.18 -1638.10 -5096.55 -4795.67 -4328.57 -4179.37 -4283.95 -4689.21 -4685.44 -4496.16 -5124.94 -5437.57 -5970.30 -6459.52 -6498.20 -5735.09 -5340.81 -5171.48 -5156.78 -4995.98 -4630.71 -4401.77 -4306.64 -4314.51 -4352.81 -4405.70 -4452.50 -4589.28 -4926.12 -5397.15 -5430.51 -5535.89 -5533.91 -5420.40 -4964.19 -4297.76 -3378.37 -2979.29 -2629.50 -2535.45 -2621.96 -2870.75 -3003.94 -3004.26
-1080.26 -1080.16 -1114.18 -1128.26 -1137.44 -1143.13 -1164.36 -1190.86 -1223.03 -1250.58 -1269.37 -1251.01 -1214.53 -1195.65 -1152.12 -1119.49 -1105.23 -1079.15 -1069.62 -1054.81 -1031.64 -1024.36 -1006.82 -999.83 -1005.32 -1041.03 -1123.31 -1172.55 -1358.57 -2036.55 -2918.70 -3324.36 -3617.46 -3497.36 -3158.29 -1942.29 -1557.89 -1532.57 -1638.53 -1832.15 -1452.93 -1613.70 -2587.82 -4133.09 -4507.68 -4556.83 -4545.82 -4535.97 -4522.12 -4513.05 -4500.66 -4490.97 -4480.89 -4468.30 -4428.67 -4405.28 -4316.83 -4034.43 -3781.01 -3437.72 -3252.15 -2855.87 -2747.51 -2556.66 -2381.92 -2463.44 -2296.90 -2070.18 -1918.64 -1743.22 -1157.06 -761.27 257.18 342.06 132.13 230.06 123.42 300.66 435.43 467.01 645.85 756.75 764.38 659.64 466.25 554.50 583.63 576.50 466.29 512.93 366.18 178.66 94.58 -835.69 -971.09 -702.19 -844.60 -3931.84 -5142.19 -5176.00 -4871.68 -4690.54 -4927.00 -5160.49 -5282.28 -5198.50 -4973.10 -4822.38 -5076.59 -5502.12 -5838.93 -6142.86 -5845.35 -5533.51 -5428.75 -5307.11 -5009.79 -4713.17 -4448.22 -4297.07 -4308.26 -4374.66 -4443.29 -4478.50 -4677.49 -4995.43 -5450.95 -5600.28 -5687.13 -5677.50 -5639.79 -5052.11 -4357.82 -3516.01 -3024.22 -2943.23 -2755.65 -2866.68 -3053.95 -3248.16 -3315.67
-1171.25 -1171.10 -1211.95 -1215.86 -1235.89 -1229.04 -1230.97 -1219.81 -1226.61 -1241.41 -1239.69 -1218.27 -1186.40 -1174.63 -1131.38 -1091.32 -1080.88 -1063.01 -1051.21 -1039.66 -1019.00 -1003.78 -992.30 -984.64 -992.03 -1023.73 -1065.97 -1129.75 -1234.09 -1857.93 -2656.80 -3158.63 -3617.19 -3524.38 -2883.95 -2036.79 -1445.61 -1398.10 -1633.81 -1557.14 -1371.43 -1815.85 -2978.19 -4300.49 -4574.13 -4561.78 -4551.12 -4541.03 -4534.42 -4516.34 -4508.39 -4498.01 -4486.64 -4480.69 -4421.17 -4365.94 -4215.26 -4103.81 -4032.80 -3742.28 -3444.81 -3123.40 -3098.16 -2894.66 -2645.20 -2604.13 -2433.51 -2151.99 -1908.70 -1396.59 -322.82 314.23 773.90 1238.77 1212.35 1423.91 1711.19 1324.54 1487.22 1214.05 1068.16 975.96 815.58 260.81 106.66 42.09 111.30 91.94 171.25 173.16 91.40 97.52 -1398.40 -3782.92 -4090.16 -3440.41 -2986.01 -3856.62 -5491.70 -5030.66 -4954.71 -5144.06 -5224.48 -5484.31 -5785.54 -5769.38 -5379.23 -5158.84 -5094.88 -5355.21 -5810.40 -5964.54 -5819.08 -5585.49 -5470.64 -5295.98 -5033.22 -4895.05 -4586.72 -4397.64 -4353.95 -4427.84 -4470.24 -4567.89 -4811.36 -5131.28 -5568.92 -5781.35 -5777.96 -5837.69 -5790.40 -5389.49 -4445.21 -3704.51 -3425.17 -3369.21 -3349.52 -3560.81 -3539.32 -3627.20 -3627.50
-1291.43 -1280.15 -1282.07 -1288.84 -1308.08 -1304.20 -1314.09 -1296.49 -1255.09 -1232.64 -1223.53 -1203.66 -1166.90 -1147.27 -1114.08 -1092.51 -1065.51 -1045.39 -1034.91 -1016.72 -999.57 -977.97 -963.82 -965.65 -981.80 -1025.29 -1098.94 -1134.55 -1174.41 -1306.23 -2403.93 -2999.80 -3357.37 -3319.32 -2796.99 -2148.42 -1540.12 -1557.58 -1728.11 -1720.63 -1680.35 -2404.73 -3291.94 -4504.36 -4575.80 -4564.76 -4553.66 -4547.46 -4532.80 -4522.27 -4510.81 -4500.49 -4489.77 -4480.37 -4410.73 -4292.72 -4191.36 -4147.09 -4101.28 -3988.47 -3681.96 -3416.43 -3258.47 -3068.92 -2850.93 -2717.73 -2496.36 -2143.86 -1571.72 -886.03 276.27 917.62 1348.25 1604.70 1688.33 1575.47 1725.89 1456.08 1337.41 1069.79 506.94 447.92 28.23 62.73 -110.88 -104.30 -318.21 -113.26 -63.68 -1052.73 -1696.45 -2898.80 -4402.11 -5178.04 -5431.18 -5125.64 -4876.13 -5537.66 -5315.54 -5117.91 -5265.74 -5454.64 -5689.15 -5825.42 -5905.67 -5937.82 -5756.19 -5465.39 -5342.59 -5585.74 -5908.26 -5866.65 -5772.71 -5598.07 -5428.25 -5284.79 -5119.88 -4924.01 -4683.78 -4526.44 -4488.27 -4497.39 -4547.69 -4621.46 -4879.52 -5060.63 -5714.76 -5898.97 -5977.95 -5933.01 -5893.11 -5320.15 -4571.83 -3895.74 -3696.00 -3799.19 -3714.92 -3915.85 -3941.33 -3970.37 -3970.68
-1445.92 -1445.74 -1445.83 -1451.06 -1429.63 -1428.09 -1393.22 -1373.39 -1295.90 -1211.09 -1190.30 -1183.73 -1148.99 -1123.86 -1106.06 -1081.01 -1055.35 -1029.89 -1013.67 -1000.55 -984.98 -947.40 -941.12 -943.15 -965.49 -994.45 -1084.12 -1184.19 -1283.41 -1779.12 -2575.36 -2887.25 -3100.65 -3121.63 -2650.43 -2200.39 -2085.90 -1930.36 -2328.74 -2572.69 -2704.21 -3320.98 -4100.82 -4579.55 -4572.82 -4562.27 -4553.05 -4544.63 -4531.05 -4519.46 -4511.83 -4502.38 -4492.10 -4479.81 -4221.02 -3912.41 -3881.56 -4128.03 -4122.99 -3999.00 -3817.39 -3525.59 -3473.10 -3400.03 -3105.63 -2950.38 -2631.99 -2251.36 -1570.65 -1124.10 -365.92 516.48 696.97 657.84 957.17 706.31 784.51 720.70 664.50 78.56 98.88 -310.47 -651.79 -1021.53 -1222.84 -1365.16 -2352.65 -1821.99 -2294.10 -3906.88 -3203.64 -5158.10 -5224.58 -5736.83 -5621.93 -5839.89 -5737.89 -5599.41 -5455.34 -5577.65 -5782.63 -5993.53 -6073.20 -6046.50 -5940.93 -5795.91 -5687.28 -5541.71 -5633.93 -6055.05 -6197.05 -6267.46 -6036.78 -5686.26 -5448.92 -5311.75 -5125.85 -4923.61 -4766.39 -4623.66 -4579.96 -4615.68 -4648.55 -4765.66 -5046.58 -5555.66 -5889.70 -6095.82 -6208.75 -6237.45 -6078.18 -5624.87 -4558.64 -3996.42 -4019.16 -4117.86 -4151.37 -4261.90 -4269.00 -4222.08 -4222.29
-1564.10 -1563.97 -1546.03 -1521.28 -1513.15 -1472.16 -1446.83 -1385.08 -1312.04 -1223.69 -1195.10 -1160.49 -1131.83 -1105.32 -1080.15 -1062.10 -1041.29 -1012.62 -991.03 -982.93 -958.76 -929.82 -911.99 -914.73 -937.41 -978.91 -1064.45 -1181.21 -1340.06 -1760.00 -2590.86 -2969.07 -3294.57 -3267.66 -2880.88 -2582.70 -2329.26 -2763.45 -2923.75 -3246.77 -3520.78 -4154.22 -4556.76 -4566.56 -4566.84 -4556.51 -4549.69 -4535.59 -4529.58 -4519.09 -4506.72 -4500.01 -4490.34 -4483.67 -4309.16 -3995.91 -3968.15 -4093.22 -4081.87 -4025.94 -3905.39 -3850.82 -3722.96 -3659.53 -3486.38 -3276.16 -2951.23 -2730.11 -2201.87 -1704.03 -1354.69 -622.74 -79.19 135.29 347.59 170.47 161.26 108.67 11.58 9.98 -317.91 -620.13 -1289.19 -2115.63 -2696.34 -3724.79 -4180.83 -4145.58 -4540.98 -5110.57 -5800.71 -5997.24 -6171.49 -5969.76 -5767.07 -5828.47 -5793.15 -5735.59 -5845.15 -6176.28 -6288.24 -6438.15 -6373.64 -6087.00 -5778.12 -5719.74 -5812.11 -5893.22 -6392.85 -6751.43 -6668.46 -6548.91 -6231.77 -5891.77 -5711.27 -5438.31 -5153.14 -4923.89 -4792.04 -4684.17 -4632.24 -4661.02 -4779.31 -4868.27 -5092.49 -5663.75 -6139.29 -6398.04 -6481.89 -6420.09 -6398.59 -5867.80 -4948.87 -4387.54 -4182.97 -4259.84 -4288.57 -4337.87 -4371.90 -4357.12 -4360.59
