-5102.82 -5113.69 -5114.18 -5092.01 -5067.63 -5025.62 -5033.28 -5060.18 -5144.02 -5207.58 -5191.23 -5198.67 -5185.34 -5166.84 -5145.01 -5134.88 -5141.56 -5143.70 -5160.16 -5140.61 -5067.76 -4827.97 -4119.52 -3262.27 -2283.36 -2184.42 -2144.33 -2624.96 -2736.46 -2970.74 -2818.12 -2365.00 -1898.46 -1672.76 -1384.64 -952.79 -777.36 -747.15 -811.66 -854.45 -1024.27 -1167.16 -1405.55 -1595.44 -2029.31 -2483.42 -2989.09 -3264.10 -3331.04 -3334.23 -3423.64 -3460.82 -3489.34 -3468.01 -3465.50 -3460.46 -3405.52 -3326.86 -3243.32 -3201.38 -3211.33 -3248.22 -3310.43 -3330.13 -3317.24 -3307.92 -3315.38 -3306.37 -3297.84 -3280.01 -3115.04 -2951.62 -2838.42 -2735.11 -1915.48 -1445.81 -994.43 -705.67 -546.07 -414.60 -258.12 -155.20 -26.05 120.78 151.95 161.16 163.91 193.80 242.58 278.76 280.55 272.92 277.15 297.69 311.03 435.43 1045.62 2832.34 3642.91 5277.38 6967.51 7867.03 6215.00 4205.21 2348.89 2040.04 894.64 491.30 318.92 254.75 181.83 47.71 -66.48 -281.65 -633.12 -1040.89 -1147.33 -1860.07 -2563.20 -2903.66 -3337.79 -3619.23 -3733.77 -3809.39 -3813.77 -3812.63 -3790.67 -3756.01 -3752.10 -3759.64 -3775.73 -3808.03 -3857.00 -3882.77 -3890.52 -3891.81 -3892.32 -3893.68 -3893.98 -3894.41 -3894.27
-5306.20 -5282.52 -5245.64 -5230.92 -5182.22 -5171.50 -5166.20 -5191.85 -5184.69 -5279.81 -5282.95 -5261.68 -5254.07 -5275.79 -5317.79 -5272.32 -5288.60 -5253.05 -5243.61 -5218.11 -5098.17 -4814.75 -3786.36 -2446.18 -1645.73 -1487.42 -1733.70 -1968.14 -2015.58 -2307.51 -2398.73 -1968.17 -1333.02 -1050.35 -883.52 -667.48 -325.82 -373.09 -391.44 -619.22 -655.14 -990.62 -1241.16 -1240.58 -1319.78 -1668.00 -2270.63 -2609.06 -2768.02 -2938.94 -3156.20 -3331.54 -3304.90 -3428.06 -3449.22 -3453.15 -3429.77 -3331.33 -3268.54 -3225.88 -3235.68 -3300.37 -3324.73 -3335.29 -3326.71 -3312.31 -3292.85 -3313.39 -3290.53 -3035.51 -2935.21 -2606.53 -2375.85 -2196.03 -2043.45 -1444.80 -911.70 -719.12 -641.35 -396.80 -113.94 72.65 152.96 251.62 268.27 246.18 276.37 251.96 266.43 280.70 294.90 309.67 285.48 300.77 308.50 386.65 589.70 1893.61 2441.65 2900.26 3965.45 6396.71 6495.39 4688.85 4080.42 3188.75 1360.73 684.32 475.82 348.71 195.22 142.56 70.63 -65.39 -383.37 -686.14 -1065.90 -1485.68 -2257.23 -2608.97 -3263.32 -3557.48 -3796.94 -3812.42 -3807.28 -3790.45 -3772.28 -3727.69 -3724.08 -3724.40 -3744.44 -3780.48 -3812.52 -3884.41 -3888.39 -3889.61 -3890.38 -3891.08 -3891.34 -3892.16 -3892.23
-5465.87 -5465.69 -5390.96 -5367.77 -5344.19 -5353.27 -5367.16 -5356.73 -5407.20 -5405.42 -5384.14 -5367.12 -5419.18 -5417.32 -5415.67 -5384.82 -5351.47 -5418.56 -5397.17 -5316.42 -5130.56 -4830.21 -3737.90 -2723.46 -1404.74 -1280.69 -1267.92 -1401.60 -1551.27 -1794.76 -1797.17 -1478.10 -1183.72 -813.90 -511.86 -96.80 -22.16 106.22 25.35 -119.28 -295.92 -826.67 -890.15 -578.77 -631.03 -903.74 -1489.89 -1911.98 -2294.96 -2106.90 -2197.23 -2470.48 -2678.20 -2899.74 -3261.26 -3353.92 -3416.66 -3313.24 -3215.37 -3249.32 -3282.24 -3309.80 -3309.84 -3311.47 -3252.71 -3139.34 -3182.43 -2744.86 -2555.76 -2287.14 -1886.88 -1926.62 -1902.83 -1416.78 -1095.03 -847.20 -373.96 -179.22 -50.15 139.73 227.15 231.39 282.23 297.77 296.48 290.54 278.99 272.60 278.41 287.17 311.63 324.57 288.37 290.01 307.95 331.27 445.40 1231.13 1289.36 2087.24 3503.14 6117.40 7176.76 6762.29 5052.60 3327.13 2088.88 1451.01 832.50 352.44 246.90 184.14 102.23 0.96 -240.50 -522.55 -845.57 -1309.33 -2112.69 -2714.19 -3090.97 -3398.97 -3742.21 -3798.29 -3813.12 -3805.05 -3757.46 -3720.92 -3716.19 -3718.61 -3743.61 -3767.90 -3841.56 -3874.22 -3887.81 -3887.88 -3888.11 -3889.03 -3889.43 -3890.21 -3890.31
-5557.39 -5557.27 -5549.29 -5495.68 -5464.56 -5444.42 -5439.67 -5471.10 -5531.17 -5533.87 -5508.66 -5494.21 -5519.87 -5541.72 -5540.18 -5585.43 -5581.80 -5644.73 -5537.27 -5489.53 -5351.26 -4886.46 -3627.60 -2498.47 -1532.02 -1431.43 -1413.60 -1473.34 -1407.74 -1493.22 -1583.01 -1446.62 -997.25 -473.64 -67.95 113.97 270.91 369.88 258.67 221.78 123.44 -201.91 -272.47 -58.87 -12.71 -563.04 -1185.19 -1423.82 -1431.10 -1445.37 -1653.28 -1710.06 -1898.89 -2099.25 -2707.26 -3126.54 -3146.64 -3133.15 -3149.66 -3145.73 -3055.79 -2833.16 -3131.79 -3126.64 -2915.21 -2713.42 -2705.97 -2125.34 -2068.83 -1515.16 -1421.31 -1276.24 -884.42 -590.63 -266.72 35.89 236.96 252.53 258.46 278.48 285.41 292.88 290.93 282.19 277.35 275.78 268.21 259.43 273.91 288.13 298.11 299.86 277.50 276.90 317.39 332.96 346.83 506.06 2145.91 3148.20 4230.31 5113.30 7300.62 7296.70 5879.25 3927.30 3242.07 2583.33 1767.17 533.49 267.84 230.83 177.72 45.31 -88.85 -130.50 -559.84 -1075.67 -2091.82 -2791.51 -3266.26 -3523.29 -3695.25 -3788.19 -3800.55 -3789.44 -3750.00 -3721.27 -3710.76 -3712.65 -3734.12 -3772.22 -3835.17 -3877.60 -3886.72 -3885.78 -3885.98 -3887.05 -3887.19 -3888.48 -3888.54
-5567.55 -5567.50 -5559.24 -5550.48 -5538.43 -5525.17 -5526.45 -5579.69 -5642.62 -5659.24 -5635.00 -5653.11 -5639.97 -5667.85 -5690.82 -5693.19 -5685.98 -5709.95 -5697.27 -5665.94 -5509.39 -5184.73 -3866.38 -2966.46 -1899.11 -1870.84 -2011.52 -2015.50 -1625.68 -1527.65 -1479.59 -1200.38 -882.43 -73.06 206.22 391.71 471.00 585.30 496.09 372.29 242.87 140.71 63.29 143.12 131.02 -111.14 -711.96 -1020.77 -742.35 -1255.60 -1308.81 -1130.34 -1097.89 -1796.99 -1872.72 -2083.74 -2186.46 -2224.52 -2044.26 -2244.54 -1878.15 -2325.67 -2265.98 -2510.06 -2182.83 -1764.80 -1447.37 -1388.62 -1233.70 -1185.97 -920.97 -635.16 -371.58 -281.54 173.36 261.21 280.24 318.13 315.58 302.38 291.32 287.92 278.80 262.44 245.56 244.15 250.10 256.39 266.94 280.75 289.75 285.97 278.96 290.71 313.02 336.88 349.12 398.53 1877.43 2372.24 2684.15 3755.02 6341.53 7520.95 7133.25 5127.39 3272.33 2285.43 2078.71 1193.89 299.37 238.00 216.45 96.79 22.59 -55.50 -310.04 -664.72 -1503.53 -2263.89 -2917.82 -3527.10 -3731.73 -3783.52 -3796.71 -3788.98 -3747.31 -3705.86 -3700.05 -3705.92 -3718.80 -3752.85 -3820.15 -3874.42 -3883.13 -3883.80 -3884.23 -3884.95 -3885.90 -3886.89 -3886.95
-5541.17 -5543.73 -5540.76 -5535.07 -5531.00 -5529.97 -5532.91 -5597.80 -5652.80 -5694.72 -5689.63 -5700.05 -5703.01 -5709.77 -5732.43 -5769.69 -5785.47 -5792.93 -5793.54 -5743.35 -5628.52 -5453.38 -4623.09 -3536.56 -3467.98 -2981.96 -3277.55 -3208.98 -2312.82 -2031.19 -1614.19 -1007.20 -549.37 53.09 223.74 314.22 440.50 675.30 798.84 652.13 460.82 258.54 241.64 227.09 225.71 197.10 -32.91 -481.48 -202.74 -433.63 -536.31 -695.73 -968.88 -955.27 -1355.35 -1336.53 -1229.32 -1144.12 -1133.96 -1004.01 -1119.54 -1352.79 -1427.95 -1738.29 -1521.18 -1266.26 -1232.21 -1038.61 -1033.19 -972.78 -674.84 -109.69 66.57 180.17 313.73 390.06 335.94 335.65 324.82 305.38 281.92 272.84 254.28 234.16 226.87 243.99 253.72 259.96 264.84 272.02 275.15 275.04 272.25 287.15 317.47 330.45 333.05 380.36 695.43 1446.31 1288.28 2769.36 4940.40 6129.74 7150.58 6300.37 4767.45 2620.67 2501.95 2736.26 891.20 307.42 231.99 206.78 122.03 80.69 -60.80 -520.27 -890.54 -1764.39 -2697.21 -3423.24 -3702.22 -3774.85 -3790.91 -3783.72 -3738.08 -3691.77 -3682.33 -3688.50 -3703.07 -3742.40 -3827.04 -3864.58 -3882.87 -3882.77 -3883.05 -3883.00 -3883.65 -3885.14 -3885.21
-5524.88 -5525.04 -5522.64 -5518.56 -5518.63 -5522.59 -5537.68 -5584.72 -5658.41 -5690.85 -5712.30 -5717.20 -5714.20 -5725.32 -5752.28 -5775.31 -5803.38 -5806.72 -5800.62 -5806.24 -5768.66 -5649.54 -5249.05 -4893.98 -4790.62 -5064.17 -4888.81 -4055.76 -3029.38 -2345.65 -1831.72 -1419.84 -1048.72 -512.25 204.94 305.20 427.99 607.76 827.93 768.43 518.28 341.78 320.74 261.07 249.43 235.58 210.64 154.03 192.58 180.38 86.60 46.66 -656.21 -983.23 -1074.70 -961.43 -836.56 -694.70 -622.42 -785.47 -877.18 -942.44 -1133.24 -1234.80 -1243.11 -1074.22 -1005.76 -900.60 -731.92 -494.71 -255.21 250.15 257.87 291.33 467.44 590.79 466.05 371.32 322.57 285.63 276.32 256.17 237.85 221.70 229.98 247.46 261.83 267.72 270.48 268.94 269.95 268.16 271.54 274.49 293.15 320.90 328.75 354.72 400.00 819.46 2327.83 3518.30 3438.64 4190.01 5711.46 7119.55 5393.96 4623.47 3300.50 2773.92 1332.11 339.26 291.44 239.59 207.92 156.50 -22.34 -307.59 -702.06 -1392.06 -2140.36 -2734.36 -3583.90 -3751.76 -3765.61 -3756.41 -3727.53 -3685.85 -3675.23 -3679.09 -3692.45 -3735.49 -3821.22 -3873.80 -3881.52 -3881.63 -3881.80 -3881.75 -3883.01 -3883.75 -3883.84
-5521.56 -5520.73 -5518.02 -5515.39 -5512.63 -5514.30 -5533.52 -5593.81 -5680.09 -5705.34 -5721.22 -5720.29 -5718.03 -5727.64 -5747.33 -5783.11 -5801.46 -5797.15 -5797.23 -5801.88 -5798.05 -5783.22 -5725.09 -5621.49 -5622.19 -5628.68 -5447.03 -5235.94 -4522.31 -3544.54 -2273.32 -1506.73 -840.45 -271.60 245.82 273.92 410.14 534.59 760.16 785.49 665.27 496.28 345.04 295.16 297.31 327.38 261.55 268.52 253.94 249.97 247.92 244.16 111.85 -467.19 -542.50 -364.12 -339.59 -316.49 -350.26 -500.17 -535.52 -715.33 -854.98 -977.71 -1051.36 -964.51 -920.62 -849.57 -633.63 -288.93 72.23 257.60 339.52 421.68 498.42 660.39 520.67 351.96 317.51 274.47 257.43 251.07 228.48 223.99 236.23 260.14 272.78 283.21 277.01 265.98 264.09 263.15 260.37 268.54 292.50 315.14 319.18 338.15 357.91 369.62 2251.81 2897.64 2348.04 3049.52 4168.48 6394.96 6769.73 5038.21 3278.83 1883.60 1258.16 343.44 326.19 269.91 238.51 164.09 73.15 -130.42 -523.17 -1094.03 -1599.36 -2363.65 -3312.83 -3621.33 -3764.48 -3764.75 -3717.82 -3691.04 -3671.53 -3675.91 -3692.90 -3748.01 -3825.99 -3863.92 -3876.79 -3878.92 -3880.78 -3880.99 -3881.19 -3882.84 -3883.37
-5534.68 -5534.60 -5542.51 -5534.20 -5518.40 -5528.78 -5545.27 -5586.67 -5676.08 -5709.25 -5719.21 -5716.54 -5715.53 -5721.78 -5743.07 -5771.61 -5791.76 -5786.66 -5793.18 -5785.47 -5784.61 -5790.78 -5771.52 -5769.59 -5761.27 -5750.83 -5742.98 -5687.31 -5583.43 -5111.45 -2672.74 -1241.58 -348.21 -27.32 244.48 275.48 346.09 434.40 637.68 712.83 588.21 402.38 433.91 382.96 330.43 400.90 499.28 436.76 324.94 282.59 279.25 254.23 189.11 -6.55 -105.03 -65.11 28.12 53.25 -0.08 -150.29 -227.01 -374.45 -635.71 -858.69 -870.35 -824.03 -848.59 -701.80 -127.41 138.60 256.36 278.66 452.97 546.51 636.35 578.71 444.27 348.27 306.29 257.92 250.49 227.52 225.76 234.87 241.36 266.10 281.23 293.52 282.05 265.55 263.88 262.54 259.54 268.94 282.97 283.67 299.81 321.69 341.24 389.86 812.10 1314.03 1502.01 1979.89 3907.39 6128.64 7502.58 3978.10 2837.81 2408.13 2750.62 1323.34 369.98 284.77 225.11 177.43 97.02 -94.42 -419.71 -953.73 -1379.63 -2145.79 -2903.21 -3549.60 -3763.02 -3790.35 -3764.73 -3705.50 -3695.75 -3683.71 -3703.92 -3754.35 -3824.70 -3863.84 -3873.95 -3876.67 -3879.53 -3879.62 -3880.09 -3881.76 -3881.83
-5603.45 -5593.91 -5591.12 -5595.66 -5618.15 -5572.54 -5614.85 -5626.30 -5672.52 -5701.48 -5701.62 -5699.75 -5697.41 -5703.78 -5717.15 -5740.43 -5731.09 -5752.32 -5755.76 -5748.37 -5742.68 -5768.20 -5771.97 -5749.95 -5747.88 -5762.34 -5784.74 -5853.39 -6072.19 -5241.77 -2312.54 -528.42 -37.59 152.71 229.28 255.46 334.90 396.01 532.54 690.01 682.24 493.03 514.12 565.82 743.34 738.48 887.92 656.19 546.12 346.41 332.51 308.43 263.55 251.91 244.43 176.42 222.99 188.66 157.25 87.27 -42.91 -124.62 -286.73 -615.01 -523.58 -651.73 -640.13 -336.20 16.07 196.89 290.34 461.45 528.37 613.25 686.98 582.98 416.39 334.86 324.01 258.08 241.18 228.25 219.65 225.60 240.39 264.04 286.35 294.45 278.44 268.88 261.79 260.21 258.78 265.64 268.40 271.94 280.44 292.20 310.75 347.13 338.44 541.48 1263.99 2027.36 3019.72 6656.36 7348.43 7050.85 5917.65 3040.96 3078.31 1283.95 431.36 289.04 240.67 223.52 146.20 -11.52 -267.64 -601.48 -1282.02 -2083.86 -2947.38 -3568.60 -3778.09 -3811.52 -3799.67 -3752.72 -3732.28 -3758.81 -3742.15 -3786.01 -3838.53 -3858.71 -3865.87 -3872.81 -3877.19 -3878.80 -3878.97 -3879.19 -3879.08
-5733.43 -5733.26 -5739.69 -5707.16 -5687.59 -5692.57 -5688.37 -5686.76 -5687.50 -5680.52 -5681.22 -5677.38 -5669.90 -5670.99 -5671.76 -5671.31 -5682.42 -5671.06 -5683.31 -5668.86 -5674.89 -5655.49 -5641.44 -5628.13 -5645.26 -5691.95 -5791.69 -5893.30 -5581.00 -4457.23 -557.38 4.06 70.08 183.66 235.84 288.08 402.10 482.71 472.22 674.03 665.26 554.73 782.54 853.76 956.50 687.35 1007.66 859.94 821.98 652.58 549.65 404.37 406.19 320.96 260.47 248.85 241.95 241.22 209.81 160.72 162.65 141.08 -111.23 -262.76 -176.04 -185.95 -227.60 132.04 241.95 329.82 357.28 494.57 613.96 664.23 646.85 547.11 443.67 341.44 314.19 247.44 237.05 230.79 227.46 234.66 241.63 256.74 278.89 278.20 260.40 254.53 252.46 254.80 256.92 258.20 263.31 263.81 271.44 279.74 286.92 308.77 329.90 469.40 1553.46 2456.34 2920.21 4592.27 6265.07 7197.90 6295.11 4760.33 2033.96 1133.86 410.61 305.18 244.02 222.41 161.43 27.74 -129.69 -647.47 -1203.00 -2181.95 -2805.78 -3524.29 -3794.26 -3805.80 -3809.24 -3814.73 -3819.49 -3809.32 -3837.18 -3830.94 -3849.91 -3858.01 -3864.79 -3872.24 -3876.12 -3877.05 -3877.29 -3877.70 -3877.77
-5832.47 -5832.34 -5825.47 -5817.97 -5825.59 -5816.97 -5807.82 -5749.88 -5685.36 -5666.37 -5651.66 -5648.08 -5644.88 -5636.15 -5626.41 -5614.22 -5612.36 -5603.93 -5582.20 -5587.05 -5577.86 -5567.88 -5533.60 -5533.18 -5519.20 -5532.28 -5638.27 -5861.29 -5679.98 -4014.73 -806.35 99.90 197.74 224.36 262.93 304.61 448.34 702.43 773.93 783.13 748.84 626.54 882.75 1078.09 1091.61 1185.77 1242.15 1190.99 972.91 846.16 813.95 566.19 430.82 330.75 323.90 302.51 276.27 269.62 245.57 233.87 240.83 190.76 176.95 35.50 62.82 238.36 236.69 269.62 337.22 429.66 461.14 517.18 548.40 479.23 505.64 581.16 416.73 346.95 283.63 241.45 225.27 221.92 229.36 232.24 239.10 246.74 270.26 264.28 251.46 243.83 248.43 250.81 254.27 255.58 255.44 256.59 269.87 274.09 278.09 278.01 295.79 340.20 1035.90 2008.73 2287.58 2990.58 4613.10 6239.66 6311.73 5101.26 2271.12 1161.94 553.39 283.90 250.03 225.03 148.58 69.92 -177.71 -641.10 -1257.57 -2475.74 -2844.03 -3673.22 -3785.07 -3798.15 -3810.28 -3817.78 -3821.67 -3826.94 -3834.06 -3839.86 -3847.00 -3856.56 -3865.97 -3872.33 -3874.77 -3876.14 -3876.69 -3877.02 -3877.09
-5858.52 -5858.45 -5855.54 -5854.09 -5851.47 -5847.79 -5827.13 -5779.82 -5690.25 -5659.08 -5640.41 -5638.39 -5633.98 -5623.72 -5609.19 -5586.65 -5571.08 -5560.76 -5560.90 -5554.41 -5548.18 -5531.63 -5511.39 -5488.10 -5480.00 -5481.90 -5528.84 -5734.73 -5594.06 -835.61 30.66 174.68 228.77 254.01 277.02 392.33 527.50 707.65 812.13 813.57 853.62 794.16 846.80 1100.24 1278.97 1348.97 1539.93 1440.62 1190.28 1143.91 879.34 700.57 563.68 592.80 472.55 377.76 329.02 311.39 269.96 252.51 251.57 251.93 230.45 213.56 268.85 296.35 312.67 345.16 359.73 369.49 363.46 361.71 404.54 344.89 464.62 552.76 517.18 391.57 285.53 241.74 235.63 228.50 225.99 231.17 236.61 236.77 252.38 261.14 257.81 244.56 244.58 247.95 250.26 253.95 254.41 258.12 259.18 264.44 272.93 282.33 285.72 355.67 636.84 1346.47 1279.22 1818.38 3340.26 4957.20 5313.83 3527.01 2072.08 1599.15 1384.66 310.85 265.25 219.94 165.79 6.56 -351.36 -771.79 -1353.29 -2422.53 -3489.45 -3784.78 -3780.08 -3791.13 -3811.77 -3823.60 -3826.01 -3828.14 -3833.93 -3840.01 -3845.10 -3853.53 -3861.24 -3869.85 -3873.49 -3875.51 -3875.74 -3876.28 -3876.34
-5848.57 -5850.02 -5850.34 -5850.87 -5851.83 -5849.70 -5824.47 -5772.98 -5704.51 -5655.92 -5636.62 -5632.82 -5629.44 -5622.57 -5602.21 -5583.13 -5566.92 -5559.96 -5557.61 -5554.60 -5543.20 -5522.28 -5503.92 -5465.66 -5467.91 -5445.61 -5387.33 -4992.49 -4307.76 -1646.39 91.28 172.82 248.24 270.65 292.28 356.66 442.10 516.23 627.03 544.62 662.73 907.90 929.22 1116.85 1313.71 1546.84 1639.67 1662.54 1471.25 1166.58 940.08 792.83 777.13 669.28 530.49 372.39 348.88 328.52 293.04 269.09 278.03 260.01 277.69 283.92 324.05 335.38 314.95 298.36 257.68 272.61 266.34 270.81 310.01 275.93 355.64 463.89 470.68 337.84 254.39 232.65 226.78 227.09 226.10 231.27 233.56 233.83 237.73 247.16 253.48 248.00 239.62 242.09 245.96 249.12 249.76 251.63 256.05 260.99 266.97 285.23 298.71 319.95 389.70 751.95 969.46 2298.47 3442.72 6217.37 5525.61 3499.38 3152.84 2877.09 1919.34 328.86 263.93 228.95 195.63 107.10 -166.59 -521.24 -1506.69 -3532.01 -3582.65 -3788.75 -3782.79 -3791.53 -3809.93 -3821.60 -3827.48 -3830.29 -3833.08 -3837.23 -3843.62 -3853.96 -3858.63 -3867.53 -3871.50 -3873.57 -3874.58 -3875.16 -3875.24
-5817.06 -5817.02 -5811.29 -5814.90 -5822.44 -5816.56 -5773.14 -5752.42 -5686.53 -5637.63 -5625.53 -5626.50 -5620.95 -5613.07 -5593.86 -5584.68 -5574.15 -5567.12 -5566.25 -5559.73 -5555.83 -5534.61 -5495.03 -5455.16 -5338.67 -5333.72 -5133.66 -3680.46 -3048.28 -922.37 26.03 196.34 274.95 305.55 310.85 433.27 488.09 628.79 513.77 509.94 740.79 839.79 955.61 1174.86 1317.82 1457.46 1575.74 1602.70 1456.93 1272.93 914.76 771.64 654.92 592.27 477.09 401.50 382.90 345.85 323.51 315.61 341.85 353.24 378.10 383.84 366.96 291.37 268.46 237.15 223.96 236.91 245.41 250.31 254.51 259.30 276.17 298.88 338.39 257.88 248.36 234.77 222.77 229.74 231.17 230.88 231.90 232.72 232.91 233.48 236.26 238.96 239.08 240.35 244.60 247.68 248.93 249.26 257.38 263.81 267.19 281.48 303.48 317.48 325.79 903.69 1986.33 2530.48 4500.71 6432.67 5570.60 4188.68 3903.99 3284.43 1935.86 513.69 284.60 243.28 220.45 152.75 -144.18 -329.36 -1394.62 -2693.85 -3711.67 -3766.50 -3786.54 -3813.35 -3819.91 -3825.10 -3827.57 -3828.17 -3835.37 -3841.18 -3846.47 -3852.58 -3860.04 -3867.33 -3870.47 -3873.38 -3873.77 -3874.24 -3874.31
-5725.48 -5725.47 -5699.60 -5733.75 -5729.78 -5743.10 -5700.09 -5701.12 -5662.23 -5601.39 -5599.73 -5605.86 -5606.54 -5605.50 -5599.12 -5591.93 -5586.97 -5591.67 -5593.29 -5586.14 -5579.66 -5530.69 -5363.41 -5354.41 -4999.66 -4297.48 -3480.32 -2025.72 -1533.24 -605.13 -101.86 201.02 271.01 332.31 359.69 425.80 617.39 711.23 768.96 658.00 767.31 1023.08 1163.51 1190.06 1250.79 1263.15 1378.02 1365.12 1255.71 1148.89 1001.92 704.69 573.14 521.82 464.37 437.35 418.75 353.63 379.98 406.70 413.64 499.89 536.81 443.42 327.35 264.55 258.79 232.04 229.25 229.75 229.94 236.16 238.70 241.74 237.48 242.53 253.89 235.55 239.80 243.39 235.53 238.30 230.54 230.45 231.56 232.52 233.19 233.20 234.75 236.62 237.48 239.98 242.38 246.29 248.14 248.50 247.69 256.63 269.09 277.25 295.15 314.80 325.18 765.77 1713.99 2182.17 4158.74 6651.93 8586.06 7800.83 3491.50 2160.35 1241.36 915.22 276.54 250.64 217.36 154.41 82.41 -340.98 -1019.85 -2289.54 -3011.36 -3601.67 -3784.13 -3812.49 -3822.41 -3823.77 -3824.17 -3829.25 -3838.36 -3845.65 -3849.55 -3852.68 -3859.46 -3863.99 -3870.80 -3872.64 -3872.82 -3873.11 -3873.17
-5572.46 -5572.50 -5583.92 -5589.71 -5590.58 -5594.13 -5613.71 -5586.14 -5572.15 -5573.59 -5573.28 -5582.80 -5578.40 -5586.00 -5600.19 -5608.28 -5622.31 -5634.80 -5618.33 -5603.41 -5558.27 -5388.33 -5121.85 -4851.59 -3875.62 -3504.88 -1992.11 -953.08 -211.15 11.94 186.34 242.92 290.58 445.93 492.85 453.69 512.47 672.18 769.88 968.74 1001.29 982.96 1138.96 1123.10 1157.67 1141.25 1156.93 1246.56 1135.89 1024.95 959.52 714.64 598.60 537.53 477.36 467.49 487.18 512.58 434.20 640.45 621.76 714.73 564.38 384.22 306.22 262.32 253.92 230.42 225.16 225.53 227.01 228.24 229.12 230.41 228.67 230.21 227.54 226.99 230.02 238.13 232.47 227.68 230.15 231.33 231.75 231.90 232.88 233.09 234.27 235.31 235.65 238.09 241.57 244.62 247.15 247.75 247.91 256.11 263.81 273.04 288.83 300.72 314.24 514.21 1500.47 2106.06 2897.89 4249.19 7625.25 7243.16 4268.70 2493.34 1638.66 936.34 274.14 248.79 213.52 110.61 24.71 -291.03 -664.13 -1768.99 -2641.58 -3346.97 -3676.82 -3809.44 -3820.05 -3818.16 -3817.79 -3827.28 -3842.11 -3846.84 -3850.02 -3853.54 -3859.07 -3863.63 -3867.53 -3871.10 -3871.58 -3872.15 -3872.22
-5457.61 -5466.39 -5470.35 -5496.89 -5493.60 -5494.50 -5482.96 -5520.80 -5529.57 -5542.47 -5541.36 -5549.52 -5557.39 -5566.62 -5592.94 -5621.10 -5634.46 -5640.36 -5635.58 -5509.24 -5385.67 -5006.57 -4057.10 -3400.75 -2871.99 -1778.94 -1437.93 -354.41 8.72 244.32 243.88 315.11 453.82 683.32 682.71 540.36 593.27 594.54 875.40 1018.41 1185.87 1218.45 1167.02 1085.77 1049.03 1063.96 1059.70 1108.65 1011.25 837.14 810.23 678.04 577.50 546.94 494.88 494.24 561.78 607.25 623.22 840.66 834.69 772.72 558.03 351.67 273.59 259.84 252.34 239.28 225.65 225.89 225.76 225.88 225.81 226.28 225.16 226.33 226.50 228.96 227.01 225.57 224.97 229.44 230.46 231.29 231.34 231.38 233.17 233.11 233.69 234.17 235.00 236.50 239.20 242.28 246.28 247.11 247.65 251.45 262.20 273.39 283.10 298.00 302.97 490.93 983.96 1237.28 2467.44 4580.20 6861.18 6484.97 4028.37 2472.36 2122.25 850.06 346.97 239.62 209.08 92.47 -10.75 -278.24 -654.30 -1477.29 -2640.68 -2825.94 -3558.67 -3792.52 -3783.90 -3807.57 -3816.12 -3823.72 -3825.61 -3837.88 -3850.01 -3854.77 -3860.37 -3865.13 -3868.75 -3870.02 -3870.75 -3871.04 -3871.11
-5416.01 -5415.96 -5420.07 -5423.91 -5422.16 -5436.26 -5440.58 -5464.86 -5500.37 -5523.80 -5534.93 -5541.18 -5546.91 -5561.30 -5590.05 -5606.61 -5621.11 -5608.58 -5379.39 -5194.34 -4677.01 -4029.80 -3227.06 -1961.18 -1388.88 -915.34 -1000.29 -561.61 149.51 257.56 349.93 530.98 655.21 840.99 654.00 537.24 757.82 583.65 655.70 896.34 1164.32 1212.51 1144.18 1032.34 991.23 990.39 1006.49 1023.84 786.00 780.47 682.76 634.18 564.29 547.51 548.02 560.85 591.71 708.81 850.93 969.14 854.11 663.95 469.45 325.57 273.24 258.85 253.42 240.57 231.15 225.70 225.64 225.67 225.52 225.86 226.08 225.87 225.64 229.34 227.45 224.94 225.74 230.72 231.28 231.08 231.04 231.22 232.40 232.49 232.21 232.85 233.76 235.32 238.69 242.02 244.34 247.03 248.96 252.99 269.66 280.95 287.89 297.26 310.14 512.60 1294.97 1634.94 2526.95 4539.42 6030.64 6036.84 4177.44 1373.67 1270.51 510.66 341.60 257.19 206.02 76.00 -108.14 -454.96 -953.19 -1079.00 -1704.15 -2522.75 -2938.35 -3677.35 -3779.64 -3791.21 -3805.41 -3807.43 -3814.34 -3828.63 -3851.80 -3860.11 -3865.43 -3869.16 -3869.57 -3869.83 -3870.42 -3870.71 -3870.78
-5406.22 -5406.15 -5408.00 -5410.74 -5411.86 -5418.02 -5424.95 -5463.18 -5491.18 -5520.32 -5530.46 -5535.58 -5545.08 -5551.95 -5558.86 -5563.10 -5426.83 -5274.60 -4828.50 -3961.39 -3048.47 -2812.22 -1972.04 -1325.65 -1069.59 -686.50 -339.27 -101.55 320.72 326.91 421.23 605.55 845.79 910.66 734.94 690.49 793.29 640.31 678.56 792.25 1197.34 1189.30 1085.77 994.64 924.78 928.60 914.00 887.95 753.43 731.25 679.68 640.87 595.78 568.13 572.42 603.83 666.20 811.27 937.88 995.40 784.37 557.39 402.73 326.65 289.66 258.80 254.89 241.44 230.83 226.05 225.37 225.50 225.81 225.82 225.91 226.04 227.08 227.77 227.72 226.99 226.23 228.81 230.58 231.18 231.28 231.45 231.59 231.38 231.90 232.13 233.02 234.05 237.20 240.24 242.70 246.04 252.23 254.74 267.08 284.48 292.18 308.21 318.62 482.06 1378.85 1054.63 1662.98 2929.59 5545.70 7053.53 3724.83 1685.91 1627.37 1151.52 309.97 252.63 215.17 112.21 -193.61 -487.97 -1128.13 -1433.05 -1795.03 -2370.49 -2860.32 -3445.27 -3725.63 -3781.98 -3798.32 -3803.20 -3809.50 -3816.08 -3846.71 -3860.98 -3865.86 -3869.45 -3870.05 -3870.10 -3870.10 -3870.34 -3870.42
-5410.15 -5409.63 -5412.85 -5416.88 -5420.27 -5425.05 -5434.99 -5460.54 -5492.11 -5511.38 -5522.83 -5522.45 -5510.56 -5484.15 -5469.71 -5209.88 -4877.60 -4084.94 -3449.62 -2808.94 -2541.99 -1437.29 -1255.75 -946.51 -716.49 -259.54 167.95 238.55 442.51 541.82 505.67 786.05 937.29 856.64 936.40 767.77 897.30 887.41 742.07 948.04 1163.40 1205.19 1112.68 1052.85 953.69 860.01 835.92 817.48 741.48 704.82 689.15 676.98 640.58 603.93 609.02 619.57 637.69 763.54 895.46 932.45 792.23 590.21 509.15 385.49 274.40 260.91 255.57 241.60 231.80 228.63 225.61 225.75 225.99 226.33 226.15 225.97 227.04 227.94 228.48 227.70 229.44 231.06 230.95 231.25 231.09 231.01 230.71 230.75 231.12 231.75 232.53 233.14 235.59 239.23 240.42 245.01 251.17 256.99 263.20 281.12 301.25 311.64 336.52 383.31 805.49 1690.82 2944.07 4456.44 5785.70 6605.47 4871.23 3240.09 2077.57 1403.32 328.00 253.00 220.56 146.89 -194.40 -671.56 -1175.03 -1719.01 -1959.49 -2549.33 -3054.14 -3418.84 -3625.83 -3778.13 -3789.86 -3797.65 -3798.33 -3815.07 -3843.06 -3858.67 -3866.69 -3868.97 -3869.12 -3869.10 -3869.31 -3869.72 -3869.79
-5444.09 -5443.99 -5451.29 -5442.28 -5443.58 -5450.84 -5460.74 -5472.41 -5481.71 -5492.96 -5486.25 -5461.40 -5412.17 -5200.72 -4765.73 -4281.56 -3514.79 -3015.58 -2318.49 -1741.36 -1274.60 -984.65 -807.78 -644.69 -351.47 -19.83 222.36 399.89 581.71 706.44 648.40 855.95 992.54 1049.90 1009.14 852.43 1012.56 1062.97 937.88 1066.54 1254.61 1234.36 1124.22 1026.09 939.27 839.74 811.71 775.41 737.76 714.38 698.03 681.18 651.35 625.28 631.34 636.28 640.03 740.06 825.48 956.72 901.16 608.95 387.42 312.38 274.54 260.39 255.94 249.22 239.35 229.17 225.79 225.52 225.93 225.85 225.13 226.06 226.74 226.68 227.90 228.35 230.91 232.00 230.85 230.32 229.76 230.35 230.46 230.52 230.63 231.10 231.75 233.13 235.02 238.30 240.82 245.73 249.63 256.93 271.63 281.77 291.79 314.92 349.88 376.03 637.42 1431.76 3036.05 5122.02 6603.26 5652.13 3652.69 2994.55 1971.53 1288.21 313.13 261.90 211.78 39.98 -228.45 -713.74 -1039.99 -1768.35 -2262.49 -2641.58 -3212.54 -3482.43 -3684.55 -3758.72 -3774.07 -3784.33 -3798.29 -3808.77 -3844.46 -3858.32 -3866.06 -3868.29 -3868.07 -3868.01 -3868.27 -3868.56 -3868.60
-5509.18 -5509.06 -5509.12 -5505.49 -5501.18 -5504.97 -5510.67 -5505.70 -5491.73 -5488.19 -5452.91 -5330.07 -4933.52 -4757.41 -4224.87 -3490.37 -2909.15 -2052.52 -1608.42 -1400.66 -1075.95 -853.50 -688.61 -556.15 -291.34 156.25 264.97 450.05 757.97 839.26 806.48 801.36 950.71 985.21 1103.97 1037.95 1134.02 1188.48 1114.07 1147.39 1252.98 1226.93 1074.78 983.27 933.13 888.24 800.51 761.49 732.03 710.51 691.73 672.04 661.30 641.43 655.48 658.48 673.19 734.19 806.09 902.50 807.02 531.59 442.55 363.51 324.97 283.66 258.30 254.68 246.07 231.57 226.39 225.87 225.62 225.13 225.91 226.50 226.68 226.60 227.54 228.26 227.68 229.80 228.92 229.11 228.73 229.64 230.20 230.31 230.50 230.68 231.05 232.60 234.15 237.03 243.07 246.50 248.12 253.93 266.74 272.04 281.93 296.61 339.19 408.38 1508.32 2577.10 2762.36 4981.74 6503.79 6118.42 4018.67 3124.73 1353.23 626.63 334.95 254.94 209.76 89.16 -130.20 -558.26 -857.43 -1524.18 -1817.79 -2503.38 -3066.78 -3526.18 -3735.16 -3764.90 -3769.23 -3772.24 -3782.48 -3808.92 -3837.38 -3860.01 -3865.80 -3867.14 -3866.94 -3866.72 -3866.62 -3867.27 -3867.34
-5569.57 -5569.45 -5568.99 -5566.28 -5585.96 -5595.47 -5581.51 -5573.71 -5529.50 -5551.77 -5471.57 -5186.51 -4542.51 -3787.63 -2988.77 -2778.69 -2424.47 -2111.25 -1623.27 -1345.26 -1051.21 -822.95 -686.18 -495.57 -144.21 234.10 426.87 614.14 806.25 760.82 702.39 797.83 835.14 908.49 966.75 1069.38 1188.49 1263.99 1266.02 1304.57 1287.89 1209.33 1183.30 1091.88 928.71 890.83 793.28 739.48 718.50 694.29 678.52 665.44 660.45 656.86 663.20 677.89 695.19 754.26 803.64 904.13 860.42 678.73 641.10 399.90 343.02 317.98 271.86 251.80 238.62 232.65 226.49 226.39 225.69 225.47 225.74 225.52 226.18 226.81 227.40 227.92 227.87 227.71 226.77 228.36 228.66 228.79 229.45 229.72 229.85 230.25 230.82 231.66 233.92 237.26 242.04 246.21 248.49 260.70 266.23 270.60 282.97 294.26 311.43 544.21 2262.56 2895.66 4377.90 5462.74 6359.96 5266.54 4014.12 3235.68 1723.08 653.89 312.00 257.80 239.88 114.57 -3.21 -263.06 -643.51 -1302.94 -1619.40 -2342.99 -2883.83 -3432.23 -3663.85 -3747.05 -3761.80 -3760.16 -3766.52 -3793.55 -3843.82 -3862.78 -3864.13 -3864.88 -3865.14 -3865.38 -3865.40 -3865.71 -3865.79
-5633.85 -5632.42 -5635.20 -5639.85 -5657.67 -5668.50 -5734.49 -5715.72 -5663.80 -5670.52 -5457.26 -5134.39 -4132.94 -3398.83 -2879.53 -2662.56 -2536.43 -2302.88 -1857.49 -1349.80 -1077.86 -865.25 -712.07 -411.62 -65.35 281.63 453.21 750.79 924.05 671.67 720.14 855.60 887.97 1020.33 1089.78 1090.87 1176.53 1228.47 1333.37 1326.67 1289.83 1262.37 1146.47 995.30 916.44 825.10 777.63 735.44 715.70 682.54 675.85 664.31 662.44 668.76 683.22 714.82 753.64 831.30 864.27 862.93 1012.70 1062.01 705.22 557.78 445.66 351.66 261.02 253.14 239.86 237.36 229.77 227.38 226.14 225.12 225.43 225.58 225.80 226.29 227.47 228.46 228.53 228.13 227.78 229.16 228.89 228.64 228.84 229.38 229.44 229.86 230.65 232.44 235.16 238.35 242.78 244.73 247.42 265.79 270.49 277.23 286.35 298.01 308.22 728.65 1651.06 2780.64 4843.46 6493.46 6538.35 4673.32 2691.86 3456.64 1466.85 395.84 302.79 248.79 205.67 148.83 -29.20 -135.72 -482.19 -767.76 -1350.98 -2190.30 -2759.82 -3384.13 -3686.80 -3758.12 -3757.24 -3749.92 -3764.91 -3787.63 -3831.63 -3855.80 -3861.70 -3862.62 -3863.77 -3864.07 -3864.41 -3864.91 -3864.99
-5767.66 -5767.46 -5772.30 -5767.03 -5771.11 -5790.21 -5803.35 -5767.64 -5722.18 -5438.29 -5087.34 -4619.09 -4001.39 -3234.71 -2980.15 -2857.02 -2843.40 -2627.29 -1973.39 -1319.61 -1005.51 -711.71 -567.97 -151.62 45.52 221.91 375.87 744.37 828.77 592.33 647.37 671.08 678.50 824.62 1028.18 1096.74 1247.68 1275.49 1321.69 1338.48 1278.46 1112.16 1016.60 942.80 976.13 869.43 775.16 727.22 712.11 693.88 680.32 662.32 663.46 672.86 695.35 716.83 845.18 912.96 971.82 935.83 1021.86 1085.74 878.99 721.85 600.58 465.03 308.78 258.94 252.44 242.87 234.16 227.82 226.05 225.32 224.91 225.44 225.71 225.47 226.38 228.52 229.02 228.79 228.07 229.04 228.93 228.44 228.57 228.94 229.17 229.67 230.66 232.62 234.45 240.14 243.51 245.85 249.63 261.27 270.32 285.17 294.22 304.35 515.08 887.88 1567.59 2126.41 3141.89 5218.13 5862.21 4104.22 1905.60 1209.72 840.87 340.28 271.32 242.18 198.56 147.18 22.36 -135.40 -342.53 -680.20 -1627.41 -2323.10 -2700.86 -3395.89 -3599.82 -3760.10 -3771.39 -3756.88 -3772.57 -3795.67 -3838.37 -3856.90 -3859.95 -3861.23 -3862.90 -3862.70 -3863.49 -3863.98 -3864.06
-5975.99 -5970.08 -5884.22 -5763.14 -5754.02 -5761.95 -5669.75 -5365.20 -5172.61 -4822.90 -4337.30 -3773.83 -3698.53 -3376.45 -3404.48 -3179.28 -3148.92 -2922.33 -2254.31 -1325.18 -804.43 -430.73 -183.85 9.47 92.98 226.97 424.80 761.79 669.46 527.47 505.84 629.56 744.74 749.78 855.87 1036.87 1180.32 1284.65 1368.66 1369.22 1311.32 1172.83 1009.10 913.85 844.08 849.87 746.57 714.26 700.76 682.17 678.50 665.82 666.35 682.22 732.37 774.77 895.34 988.85 1083.93 1034.95 1047.10 1129.45 987.61 776.30 720.81 569.43 465.51 285.77 258.29 246.69 239.47 234.56 228.48 225.25 225.00 224.67 225.28 225.48 226.81 227.88 229.16 229.53 229.34 229.16 228.68 228.22 228.28 228.59 229.11 229.57 230.48 232.53 234.24 239.03 242.36 251.24 259.78 265.22 272.94 277.27 292.51 417.67 706.48 1931.81 2443.31 3534.57 4506.93 5563.34 6250.54 3979.46 2496.28 1888.80 826.00 314.09 271.65 237.09 204.71 147.03 41.74 -74.48 -316.52 -823.46 -1463.23 -2040.41 -2794.10 -3467.08 -3710.96 -3784.13 -3789.10 -3788.13 -3791.75 -3826.67 -3846.15 -3854.27 -3857.21 -3860.63 -3861.85 -3862.02 -3862.65 -3863.89 -3863.97
-5775.58 -5775.75 -5424.55 -5340.40 -5240.66 -4958.64 -4794.16 -4460.42 -4163.23 -3956.26 -3913.13 -3697.40 -3629.87 -3685.15 -3713.60 -3645.04 -3482.86 -3045.85 -2373.86 -1508.64 -497.91 -311.29 -64.97 85.45 200.66 284.36 426.90 577.87 587.12 494.74 503.47 705.44 876.81 1056.15 958.86 996.98 1140.85 1272.99 1354.12 1271.17 1261.82 1166.36 1024.05 931.48 897.41 814.52 735.33 689.71 683.90 679.08 673.39 669.36 663.64 668.96 718.50 776.36 828.57 917.15 1045.12 1113.56 1114.78 1148.00 979.30 738.84 568.38 448.92 431.28 364.07 283.23 256.62 251.16 243.82 235.08 226.74 224.71 224.59 224.93 225.46 227.29 228.09 228.47 229.58 229.33 228.92 227.97 227.92 228.14 228.70 229.37 229.45 230.59 232.67 234.44 238.56 242.97 250.62 263.12 279.02 282.25 279.89 310.66 530.98 1386.05 2114.50 2494.29 3738.47 4923.16 6192.83 5754.28 4171.43 2810.21 2131.16 540.11 290.30 243.15 233.77 218.49 184.11 123.06 -42.21 -366.94 -832.54 -1428.21 -2215.96 -2827.58 -3343.38 -3691.70 -3788.09 -3797.30 -3804.51 -3807.06 -3822.39 -3841.19 -3850.87 -3856.31 -3858.81 -3860.63 -3861.32 -3861.97 -3862.60 -3862.68
-4610.73 -4612.33 -4561.29 -4309.31 -4350.02 -3933.14 -3914.31 -3815.46 -3811.80 -3815.73 -3853.12 -3835.45 -3902.44 -3902.84 -3857.17 -3843.18 -3661.42 -3316.50 -2512.89 -1785.15 -570.55 -214.28 -29.52 107.13 224.45 288.36 374.43 412.82 490.35 578.89 661.38 704.58 826.00 1078.81 1208.23 1259.85 1289.45 1328.31 1318.47 1154.26 1109.06 1193.42 1157.53 1075.88 940.15 811.33 740.44 690.54 686.19 673.65 670.56 664.21 663.58 664.76 700.08 768.59 816.30 1001.79 1084.10 1185.43 1209.31 1052.67 879.23 632.94 539.53 562.94 550.65 458.22 322.46 283.41 258.39 255.03 242.62 235.99 228.63 225.28 223.99 224.15 225.31 228.09 228.71 229.88 228.60 228.16 227.94 228.11 228.41 229.06 229.22 229.93 231.51 233.55 237.98 241.19 244.87 251.70 267.96 294.94 302.96 299.32 445.65 1187.83 1963.02 1790.16 2860.33 4363.50 5370.53 5237.10 4601.16 2930.62 2239.11 1254.54 504.95 293.76 244.59 237.13 225.94 190.20 122.91 -136.82 -476.70 -942.51 -1556.46 -2421.72 -3082.16 -3531.54 -3778.79 -3800.40 -3800.70 -3805.12 -3809.60 -3814.68 -3833.27 -3846.44 -3854.36 -3858.12 -3860.08 -3861.14 -3861.78 -3861.99 -3862.08
-3719.51 -3721.03 -3767.61 -3827.76 -3734.46 -3692.33 -3679.55 -3736.14 -3874.49 -3956.53 -3970.33 -4014.73 -4018.76 -4023.56 -3979.29 -3914.65 -3816.92 -3539.77 -3171.30 -1950.27 -669.84 -87.16 55.97 148.79 251.88 317.23 329.80 396.22 521.31 676.45 840.51 875.62 1012.87 1182.31 1293.07 1234.22 1236.84 1301.32 1251.89 1148.68 990.64 1083.16 1230.48 1092.11 953.84 766.92 714.72 683.70 675.99 664.28 665.63 660.57 658.75 667.75 689.64 744.17 863.35 953.95 1094.91 1208.95 1191.87 985.62 843.93 688.94 840.06 847.48 678.75 472.76 367.40 330.56 309.55 266.29 255.51 248.51 238.03 230.00 225.33 224.95 225.33 226.02 229.16 230.00 229.30 228.32 227.93 228.04 228.06 228.28 228.73 229.68 232.98 235.12 240.31 242.84 245.55 248.79 278.58 295.87 314.75 413.71 623.06 1439.47 2607.64 2577.42 4239.88 5390.45 5542.73 5197.54 4050.89 1954.83 1376.52 674.09 335.83 292.54 249.60 244.48 227.85 180.00 83.03 -88.03 -410.42 -1012.40 -1665.52 -2801.35 -3202.03 -3668.65 -3775.33 -3788.57 -3804.83 -3804.66 -3808.89 -3823.79 -3839.72 -3850.31 -3854.57 -3857.57 -3859.95 -3860.67 -3860.98 -3861.40 -3861.49
-3680.52 -3680.43 -3692.36 -3685.02 -3701.73 -3718.07 -3754.30 -3830.28 -3956.36 -4024.17 -4069.97 -4085.64 -4098.25 -4079.47 -4020.66 -3914.76 -3802.71 -3628.21 -3346.40 -1896.74 -1355.02 -256.20 29.20 144.03 251.83 305.52 325.93 404.00 496.75 532.18 825.30 909.95 1021.36 1096.43 1259.23 1123.52 1146.74 1120.39 1061.71 1028.76 995.96 1109.09 1230.88 1047.77 911.45 733.35 686.83 667.69 657.14 653.11 657.79 651.20 654.62 679.10 687.11 711.88 750.28 840.25 986.78 1180.19 1165.11 917.69 843.38 895.08 1035.42 917.53 614.10 553.84 535.78 458.69 379.79 344.68 312.56 256.30 254.80 239.32 233.33 227.68 225.74 227.31 232.50 231.14 229.66 228.62 227.92 227.79 227.63 227.80 228.35 230.65 232.48 238.55 239.91 240.68 245.18 271.78 277.98 309.54 324.30 525.86 1411.15 1837.79 2524.10 4047.34 6433.59 5884.80 4787.69 3439.07 2180.53 2220.49 1019.49 429.35 333.25 275.25 251.71 243.92 221.39 166.28 53.77 -163.93 -461.09 -1090.86 -1938.53 -2972.62 -3590.42 -3719.16 -3786.69 -3791.55 -3807.18 -3808.30 -3818.61 -3833.06 -3838.27 -3848.82 -3854.52 -3856.24 -3859.19 -3859.94 -3860.19 -3860.40 -3860.49
-3809.70 -3808.92 -3807.39 -3795.16 -3807.34 -3823.47 -3839.60 -3909.11 -4007.53 -4088.11 -4103.67 -4109.68 -4114.30 -4083.07 -4030.46 -3930.85 -3818.54 -3685.15 -3243.31 -2421.14 -842.39 -107.64 18.76 179.62 234.85 289.06 320.35 322.02 328.50 437.33 642.15 749.85 757.71 1008.98 1109.77 858.09 968.09 947.64 920.55 784.16 834.56 1046.01 1149.45 1058.41 868.75 789.19 650.33 625.16 636.31 630.96 637.30 631.73 638.14 665.92 687.94 693.87 746.75 929.41 1142.34 1235.14 1213.68 1062.21 1090.64 1114.63 998.02 731.69 582.04 714.15 761.48 717.37 667.20 522.56 337.17 269.16 256.44 248.95 241.06 232.94 227.11 229.41 233.14 231.69 230.59 228.87 227.82 227.50 227.18 227.40 228.13 230.22 233.11 237.08 237.14 239.15 258.91 290.62 299.65 320.73 372.21 1068.17 2483.70 3023.94 4237.95 5249.30 7744.13 6585.67 4723.82 2017.20 1485.84 1643.89 766.37 432.77 292.27 260.22 252.21 247.75 234.47 169.05 70.15 -194.07 -695.83 -1000.27 -2104.59 -3184.15 -3655.54 -3730.94 -3801.70 -3805.45 -3810.73 -3814.37 -3820.20 -3833.56 -3842.87 -3848.40 -3853.91 -3856.26 -3857.92 -3859.15 -3859.76 -3860.24 -3860.34
-3888.50 -3888.68 -3880.48 -3885.25 -3873.10 -3869.94 -3891.51 -3994.41 -4044.62 -4121.59 -4141.81 -4134.57 -4129.49 -4116.60 -4021.09 -3941.13 -3831.03 -3508.07 -3123.44 -2437.03 -1146.35 -217.01 -17.95 140.92 154.18 277.48 306.66 320.10 354.56 398.92 514.07 441.39 528.38 903.30 1015.20 761.24 590.90 675.46 698.60 568.34 735.26 957.96 953.52 935.22 914.41 763.90 609.56 588.34 589.73 607.32 616.72 622.74 626.28 657.77 688.57 694.48 723.48 927.64 1020.26 1113.71 1192.04 1182.66 1133.18 1065.02 1004.27 838.34 820.55 971.24 960.32 946.83 839.61 567.91 446.83 308.90 277.40 257.05 251.99 241.89 235.12 231.97 232.36 231.65 230.14 228.86 227.54 227.11 226.96 227.09 228.40 229.89 232.99 237.04 238.00 250.33 299.63 312.94 335.86 341.26 498.62 1545.47 2613.09 3138.75 5777.52 6680.47 6385.90 4689.15 2867.36 2320.48 1115.09 683.47 382.01 288.89 263.75 253.40 251.13 243.42 234.32 144.21 12.60 -188.97 -687.89 -1166.92 -2148.60 -2895.04 -3684.26 -3746.24 -3788.59 -3807.66 -3806.09 -3814.29 -3818.87 -3831.92 -3841.01 -3845.65 -3853.30 -3856.20 -3857.69 -3858.70 -3859.15 -3859.57 -3859.67
-3987.66 -3989.23 -3989.60 -3972.44 -3989.77 -3957.26 -3969.44 -4022.95 -4074.70 -4142.75 -4200.65 -4208.32 -4192.23 -4153.98 -4050.04 -3905.81 -3713.29 -3386.14 -2986.28 -2291.62 -460.20 -144.21 8.90 62.11 94.64 189.29 282.88 315.17 316.40 333.27 410.93 443.56 569.26 730.28 916.34 700.19 529.35 682.75 600.93 494.69 566.16 674.54 712.63 763.69 702.36 681.36 568.83 561.89 563.15 581.04 597.64 617.75 635.29 673.05 690.37 693.53 743.64 778.40 877.65 967.81 1208.20 1200.45 1080.02 967.49 865.82 924.32 938.26 991.65 1057.07 1045.83 931.60 770.75 539.91 357.80 282.94 258.96 256.70 253.77 240.35 234.09 231.27 229.62 228.62 227.66 226.78 226.84 226.99 227.17 228.96 232.61 237.65 241.49 240.83 266.77 301.15 325.00 340.41 603.40 1166.94 1395.07 1825.41 4128.38 5330.87 6479.15 4733.69 2784.06 2474.46 2527.80 1103.00 388.94 303.17 287.21 266.19 252.85 250.31 241.38 202.13 163.23 1.81 -269.57 -646.30 -1186.35 -1973.73 -2731.80 -3488.85 -3736.47 -3778.87 -3802.73 -3807.96 -3811.77 -3814.07 -3824.61 -3836.48 -3848.06 -3851.67 -3855.19 -3857.47 -3857.93 -3858.48 -3859.54 -3859.64
-4113.91 -4114.03 -4096.79 -4082.01 -4084.22 -4087.97 -4115.11 -4153.41 -4242.87 -4273.93 -4261.10 -4246.48 -4224.54 -4210.69 -4111.64 -3861.82 -3648.86 -3254.19 -2486.16 -1609.97 -489.91 -99.74 -34.59 20.87 57.09 94.34 225.98 289.06 312.18 325.64 336.28 359.78 401.71 531.12 637.52 418.07 416.10 553.29 581.95 467.48 421.50 501.58 509.19 574.22 634.45 542.42 533.99 534.72 527.37 555.01 586.18 604.37 628.17 665.09 689.21 697.40 756.15 837.13 894.77 1029.46 1177.88 1202.61 1116.29 1029.59 873.38 832.09 940.92 892.34 838.37 810.65 868.04 797.34 532.84 455.62 328.89 266.40 263.81 259.71 250.24 233.99 243.56 238.80 226.30 226.42 226.38 226.49 226.57 227.22 228.65 236.87 242.43 244.34 243.51 265.20 312.88 343.17 529.40 670.61 1641.35 2120.22 2975.69 4601.90 6590.98 6722.28 3725.74 3305.24 2139.68 1905.11 796.28 387.33 354.71 290.41 280.61 251.77 248.08 227.43 188.02 155.21 -46.72 -386.08 -737.40 -1085.06 -2034.49 -2720.05 -3471.27 -3714.14 -3793.88 -3797.54 -3808.20 -3811.98 -3815.45 -3822.27 -3834.97 -3846.33 -3850.98 -3854.19 -3856.84 -3858.04 -3858.44 -3859.12 -3859.22
-4187.04 -4186.98 -4166.68 -4162.90 -4152.87 -4150.29 -4156.24 -4214.91 -4276.51 -4305.66 -4309.78 -4304.77 -4295.60 -4243.80 -4105.58 -3864.92 -3595.10 -3112.93 -2100.34 -1591.01 -700.26 -204.59 -52.85 -17.51 20.30 40.87 172.04 250.68 302.42 313.20 314.74 320.50 328.01 413.15 450.47 392.59 364.99 371.34 423.01 418.14 365.97 368.75 395.70 458.95 522.28 496.23 482.35 509.41 517.84 541.08 565.90 593.67 622.68 661.57 689.70 700.98 756.90 898.74 1017.81 1081.24 1103.31 1112.14 1010.18 902.89 879.49 746.94 837.71 853.86 722.42 688.28 758.49 725.66 552.84 413.29 389.61 337.77 276.27 278.13 292.73 297.05 253.64 253.27 224.92 224.92 225.64 225.62 225.66 226.15 229.76 235.87 243.18 247.59 248.98 262.41 321.41 346.74 616.64 1809.66 2006.16 2833.17 4550.49 6656.93 7044.35 5147.24 3404.32 2122.67 1798.66 1093.40 512.14 374.30 353.40 310.25 273.17 250.64 244.97 213.60 178.64 44.73 -95.22 -429.08 -714.39 -1134.59 -1914.12 -2864.80 -3429.20 -3764.96 -3794.95 -3791.05 -3800.80 -3809.90 -3821.66 -3830.70 -3833.39 -3843.57 -3848.38 -3851.85 -3856.53 -3858.47 -3858.56 -3858.91 -3859.00
-4205.25 -4205.16 -4194.26 -4187.78 -4180.67 -4169.42 -4196.53 -4233.55 -4278.71 -4323.01 -4326.99 -4321.07 -4302.57 -4229.71 -4152.08 -3862.05 -3531.76 -3183.27 -2255.51 -1659.47 -906.10 -342.21 -157.18 -69.32 -39.01 19.95 94.00 250.52 259.69 269.55 277.98 291.68 318.48 329.36 327.06 330.72 333.53 341.15 353.74 360.96 353.15 351.25 357.68 388.40 425.55 425.27 450.39 469.91 506.19 536.61 551.31 600.32 626.09 656.85 694.60 711.79 783.01 925.23 1030.35 1037.15 958.06 933.21 953.72 829.83 869.17 763.61 747.18 692.27 694.12 623.12 665.52 656.73 570.64 490.72 475.91 528.69 472.52 461.13 429.02 320.12 272.19 246.11 224.51 224.54 224.86 224.64 224.73 225.79 229.00 237.44 243.53 248.90 252.06 267.26 321.32 369.85 926.19 2720.19 2975.10 3987.81 6051.81 7058.89 5940.21 4275.71 3115.37 1900.87 1500.94 487.14 386.93 362.44 340.55 322.49 272.84 250.47 248.68 226.96 164.26 -17.08 -204.48 -476.86 -830.56 -1475.04 -2165.96 -3216.43 -3690.02 -3810.76 -3787.28 -3769.10 -3776.18 -3786.01 -3801.59 -3820.18 -3831.95 -3841.74 -3849.51 -3851.03 -3855.11 -3858.51 -3858.53 -3858.57 -3858.66
-4206.29 -4206.18 -4197.90 -4192.85 -4181.71 -4175.50 -4185.37 -4231.93 -4283.95 -4323.15 -4321.74 -4313.37 -4297.87 -4251.03 -4105.98 -3894.84 -3645.17 -3392.71 -2747.97 -2225.19 -1154.01 -777.15 -522.78 -226.65 -195.87 -302.36 14.13 132.26 171.83 199.37 219.55 277.10 297.96 299.67 317.73 303.36 326.34 317.35 339.37 319.90 317.82 334.30 332.62 360.36 378.51 385.74 417.36 440.39 498.21 533.38 561.58 606.79 633.99 696.01 745.50 769.84 792.59 931.41 1034.29 925.07 874.76 876.39 807.26 736.38 697.94 688.49 609.93 623.74 635.67 574.24 606.04 633.36 597.26 571.74 524.32 488.67 451.30 457.07 439.19 375.17 272.16 242.65 224.07 224.22 224.06 224.17 224.17 225.40 228.48 238.64 245.87 253.25 255.17 267.58 361.31 1167.71 2034.22 2149.17 3387.67 5581.15 5697.89 5653.98 4692.74 3574.48 2088.24 1677.71 893.80 384.00 381.57 361.55 334.07 304.99 284.04 250.28 249.66 220.56 165.36 72.56 -95.95 -307.81 -732.03 -1594.56 -2524.78 -3180.26 -3732.12 -3810.70 -3795.92 -3754.55 -3759.69 -3773.44 -3799.58 -3834.42 -3845.16 -3846.58 -3849.61 -3851.02 -3854.73 -3857.90 -3858.52 -3858.37 -3858.46
-4188.68 -4186.51 -4178.68 -4168.36 -4165.18 -4153.05 -4162.70 -4203.67 -4255.09 -4311.08 -4301.64 -4296.70 -4264.83 -4211.97 -4067.99 -3915.77 -3693.46 -3454.67 -3012.40 -2592.14 -2165.43 -1512.70 -1117.98 -577.51 -350.66 -449.19 -415.47 -396.75 -369.76 -68.45 98.81 93.12 218.28 261.69 260.87 257.97 277.06 260.40 258.86 273.32 286.45 299.90 312.71 353.66 366.13 372.04 413.19 449.44 540.36 576.42 591.42 635.58 650.06 704.78 747.34 896.70 965.96 1030.26 1046.86 861.69 814.15 842.42 781.30 744.54 659.25 619.27 594.99 568.83 572.19 552.17 513.52 557.75 488.76 414.27 437.35 388.29 331.30 363.77 288.53 231.67 226.27 239.14 231.67 223.54 223.19 223.29 223.66 223.83 225.62 237.45 249.12 273.43 286.17 347.42 852.35 1484.80 2501.87 2641.74 3459.69 6486.59 6047.97 3970.49 2414.74 2506.07 1664.28 1231.84 699.79 375.20 367.57 347.56 319.99 302.12 281.05 250.89 242.89 210.53 123.13 40.45 -125.79 -455.34 -862.22 -1957.27 -2970.21 -3472.55 -3707.51 -3815.09 -3801.59 -3792.36 -3813.26 -3828.81 -3824.35 -3835.36 -3847.40 -3849.42 -3848.16 -3856.17 -3858.00 -3857.95 -3858.46 -3858.20 -3858.28
-4122.69 -4122.53 -4116.74 -4115.41 -4097.60 -4097.40 -4089.12 -4162.30 -4207.01 -4213.01 -4206.56 -4210.74 -4215.00 -4178.44 -4067.98 -3995.82 -3892.83 -3772.41 -3508.87 -3287.69 -2627.32 -1899.83 -1409.57 -934.43 -566.97 -538.05 -484.15 -479.29 -550.15 -331.86 -161.59 -82.76 62.62 233.75 243.35 244.82 253.57 258.00 258.06 256.83 266.84 276.65 283.82 312.81 348.61 366.21 382.59 479.00 538.12 595.31 656.30 738.06 786.59 862.02 814.55 986.25 1055.41 1023.30 952.51 869.37 802.73 775.24 773.41 742.84 692.36 658.38 624.50 542.87 521.95 493.87 461.11 473.01 417.75 353.31 342.60 284.56 271.13 246.39 242.61 220.55 218.02 232.18 229.38 222.23 222.53 222.98 223.43 223.72 226.23 237.71 249.69 272.17 355.93 774.45 1191.58 2025.66 2149.75 2892.94 4689.53 6391.74 6138.86 3412.24 1981.03 1270.26 1627.96 923.75 368.46 365.42 354.42 337.59 312.12 299.81 286.40 253.10 247.36 209.15 140.86 41.15 -217.80 -397.69 -1070.10 -2163.50 -3173.54 -3747.65 -3771.77 -3829.11 -3819.80 -3830.28 -3838.29 -3841.56 -3838.99 -3839.60 -3849.70 -3849.32 -3849.64 -3857.60 -3857.12 -3858.58 -3858.47 -3858.05 -3858.13
-4027.16 -4023.94 -4033.26 -4031.73 -4035.77 -4032.65 -4030.47 -4049.51 -4106.44 -4143.55 -4136.55 -4127.42 -4107.00 -4086.97 -4060.20 -4031.76 -3975.95 -3932.04 -3813.05 -3408.99 -3211.83 -2506.03 -1380.35 -976.46 -527.86 -377.99 -380.74 -338.36 -349.23 -325.74 -182.45 -79.53 69.62 180.30 208.00 219.19 246.38 254.07 253.32 254.54 255.22 254.91 262.41 293.71 331.64 356.40 366.59 405.52 440.68 575.05 665.06 707.14 885.10 981.64 1013.49 1072.41 1052.09 989.08 893.27 781.98 744.53 715.48 706.59 726.54 722.36 676.29 613.80 571.68 513.40 462.08 439.66 408.11 362.88 329.16 300.71 262.16 251.33 229.66 222.75 219.04 217.47 227.88 225.67 220.96 221.38 221.95 222.28 224.15 226.32 237.39 258.04 278.86 469.39 960.65 1818.10 2925.11 3929.43 4484.80 5746.23 6512.18 5938.49 3120.45 2141.44 1021.14 922.23 657.73 357.44 354.69 346.95 323.77 301.45 295.22 271.12 256.66 248.12 209.38 134.10 40.84 -208.08 -423.95 -936.02 -2549.85 -3359.45 -3780.26 -3837.06 -3835.24 -3834.44 -3838.96 -3839.54 -3843.05 -3848.32 -3852.80 -3854.41 -3855.90 -3855.41 -3857.17 -3857.16 -3858.57 -3858.10 -3857.94 -3858.02
-3971.41 -3971.32 -3978.58 -3969.68 -3950.64 -3945.84 -3971.92 -3990.33 -4051.50 -4082.29 -4082.56 -4065.89 -4050.08 -4050.71 -4050.66 -4069.45 -4072.83 -4066.66 -4001.04 -3800.66 -3531.94 -2690.85 -1777.31 -1146.42 -571.50 -371.00 -294.69 -284.54 -302.53 -334.35 -248.45 -84.28 67.05 105.99 152.81 183.45 224.40 244.66 248.90 252.63 253.08 254.14 255.62 279.62 298.20 329.76 355.55 380.35 446.51 516.25 544.93 574.17 814.58 945.45 1112.68 1118.37 974.69 873.33 831.34 750.45 723.43 686.26 656.62 647.04 640.54 594.26 553.14 556.07 467.18 426.49 413.25 375.69 352.51 319.09 293.69 254.31 245.33 222.00 216.42 215.69 216.25 216.10 218.64 219.90 220.36 220.27 221.49 222.67 226.46 234.09 256.87 289.82 660.66 1661.47 1961.58 2842.78 4802.44 5951.78 6437.96 5279.20 4133.98 3084.39 2706.58 1040.36 440.24 351.65 350.73 349.57 330.46 313.12 301.31 277.46 255.46 257.05 250.64 215.88 151.65 35.24 -158.81 -356.71 -1014.21 -1877.77 -3380.46 -3792.81 -3834.57 -3837.68 -3840.45 -3841.97 -3845.11 -3849.55 -3851.80 -3854.94 -3854.60 -3854.87 -3856.88 -3859.37 -3859.20 -3858.29 -3857.87 -3857.93 -3858.01
-3956.83 -3956.75 -3953.98 -3947.40 -3941.53 -3935.74 -3940.86 -3979.53 -4030.45 -4063.01 -4055.64 -4043.16 -4031.89 -4027.37 -4044.81 -4075.75 -4088.01 -4082.20 -4001.21 -3930.92 -3442.81 -2803.72 -1834.18 -1078.78 -493.36 -397.05 -323.62 -370.63 -402.98 -428.66 -490.32 -336.75 -170.77 84.50 140.89 182.67 201.81 219.24 239.01 241.08 246.80 250.65 253.93 266.02 283.21 336.98 345.53 351.99 465.50 582.79 629.55 718.28 701.97 958.50 1114.92 1055.83 916.39 863.74 767.76 734.68 702.94 680.09 626.28 597.37 563.15 534.27 493.41 455.42 431.20 416.85 398.43 371.88 337.25 317.02 274.15 248.25 237.40 223.04 216.11 213.97 214.72 215.85 218.21 218.93 219.30 219.27 220.11 224.18 230.83 250.91 268.28 553.08 1414.53 2647.03 2642.45 4694.98 6209.06 7011.05 5891.62 3536.09 2376.48 2172.38 1774.84 682.87 341.25 340.49 337.49 335.15 323.69 313.97 299.95 284.13 256.68 256.97 250.15 217.68 133.18 52.10 -104.47 -237.99 -627.81 -1273.16 -2821.90 -3668.13 -3820.26 -3838.77 -3844.00 -3845.19 -3846.98 -3850.50 -3852.76 -3855.01 -3855.24 -3856.59 -3858.71 -3859.82 -3859.34 -3858.43 -3858.41 -3858.11 -3858.12
-3957.78 -3957.72 -3953.10 -3948.85 -3945.78 -3938.40 -3945.72 -3982.20 -4034.32 -4060.22 -4054.03 -4039.73 -4029.29 -4023.74 -4052.42 -4079.81 -4092.40 -4076.60 -4007.04 -3863.31 -3282.77 -2864.92 -1835.54 -1052.02 -663.35 -681.98 -874.42 -724.30 -712.96 -788.96 -811.78 -742.66 -454.97 67.43 77.40 138.61 167.27 193.88 213.17 225.64 236.96 243.08 251.75 256.42 259.03 280.04 358.90 400.68 433.95 614.14 730.92 911.14 812.64 970.57 1116.87 1042.04 885.76 862.78 792.37 699.60 652.82 641.33 614.95 560.63 524.09 488.86 461.12 444.51 424.80 414.12 385.33 345.60 331.95 316.60 270.22 246.11 231.46 220.68 215.60 213.52 213.85 215.10 216.10 217.08 218.11 218.62 219.73 224.37 237.51 248.51 295.04 635.69 957.86 1867.83 3205.31 4767.60 7222.17 7024.52 5744.97 4101.78 2699.71 2264.66 1991.43 433.44 333.34 328.73 326.78 319.67 302.92 297.01 292.13 276.76 261.06 256.32 250.74 226.36 177.50 47.47 -101.88 -316.13 -659.86 -1260.39 -3106.11 -3539.23 -3806.44 -3831.33 -3848.66 -3848.11 -3849.27 -3851.79 -3853.91 -3855.31 -3855.95 -3857.05 -3856.89 -3858.17 -3859.73 -3859.26 -3858.98 -3858.24 -3858.31
-3992.95 -3998.66 -4002.14 -3986.28 -3979.82 -3961.49 -3984.96 -3997.28 -4052.54 -4067.59 -4066.38 -4053.76 -4049.03 -4036.88 -4054.39 -4087.64 -4095.80 -4087.11 -3994.86 -3797.13 -3343.32 -2624.14 -1872.35 -1362.14 -1238.06 -1224.18 -1223.53 -1336.57 -1524.72 -1423.20 -1614.44 -1637.97 -889.29 -181.56 21.07 112.54 152.65 179.61 193.17 206.24 223.05 231.85 246.57 255.46 259.11 269.85 368.18 533.95 502.77 531.13 769.22 957.85 1020.51 1083.00 1118.16 1045.35 948.71 808.04 760.31 690.99 638.56 631.62 610.78 549.86 523.41 469.82 454.82 443.85 428.55 410.68 382.09 339.55 330.03 311.25 245.76 231.68 224.33 217.37 214.17 212.86 213.05 214.14 214.70 216.30 217.57 218.12 223.38 228.64 241.79 257.84 348.12 456.51 1250.15 2288.54 3180.96 5177.82 6498.94 5895.53 4039.60 3238.19 1749.38 1742.48 548.36 340.97 325.69 321.12 318.50 307.13 301.93 283.21 277.37 270.60 250.24 249.35 235.97 198.43 138.81 87.07 -299.56 -597.63 -1007.80 -2138.70 -2815.00 -3631.57 -3838.40 -3842.56 -3847.31 -3852.23 -3851.98 -3853.71 -3856.13 -3857.73 -3857.21 -3855.33 -3855.51 -3856.86 -3859.83 -3859.61 -3859.17 -3858.52 -3858.59
-4110.97 -4111.00 -4088.57 -4068.82 -4084.90 -4136.35 -4087.74 -4071.03 -4102.92 -4105.10 -4098.54 -4083.80 -4077.38 -4068.42 -4078.33 -4104.27 -4111.69 -4085.24 -4049.34 -3856.95 -3511.02 -2786.44 -2234.67 -1925.38 -1796.93 -1915.13 -2011.00 -2139.80 -2163.21 -2436.21 -2457.48 -2296.48 -1806.29 -99.92 40.47 82.69 116.60 153.15 165.58 172.19 162.91 175.98 194.88 239.48 256.43 291.17 353.58 551.49 680.30 673.66 690.68 874.79 1090.17 1109.52 1124.49 931.98 965.91 875.03 815.98 707.48 639.24 618.19 589.27 548.11 518.96 468.88 450.54 446.51 414.91 397.02 364.63 338.81 316.21 280.68 247.03 231.89 216.73 213.53 213.29 213.08 212.80 212.96 213.67 215.00 216.37 217.80 225.55 236.66 247.54 266.72 439.87 1493.06 1330.63 3244.70 4525.20 6510.49 7089.59 6484.25 3585.61 2494.02 2399.11 979.40 510.84 350.88 317.69 309.58 300.29 291.45 286.92 279.64 267.50 259.65 245.61 235.72 214.53 149.28 69.88 -38.32 -493.68 -982.82 -1371.25 -2605.06 -3587.90 -3709.06 -3837.10 -3841.83 -3847.77 -3854.10 -3854.72 -3855.91 -3857.83 -3858.09 -3859.00 -3858.42 -3858.84 -3858.20 -3860.26 -3860.34 -3859.48 -3858.93 -3859.00
-4271.18 -4271.17 -4239.64 -4255.39 -4253.85 -4234.37 -4245.80 -4198.74 -4165.33 -4155.68 -4144.37 -4125.33 -4113.23 -4106.15 -4123.59 -4124.41 -4126.66 -4112.85 -4082.39 -3894.08 -3659.56 -3263.92 -2938.85 -2746.02 -2667.44 -3037.97 -3101.57 -3088.86 -3193.59 -3116.60 -3302.18 -3367.47 -2519.20 -706.11 4.96 22.58 80.61 113.03 96.60 88.11 111.30 138.07 164.67 227.45 253.48 319.02 415.56 491.71 778.50 913.61 884.73 950.34 1072.28 1005.92 836.66 719.37 940.35 923.63 838.66 752.03 729.70 657.47 578.94 544.58 512.74 483.30 448.14 418.20 394.71 379.25 336.64 321.90 301.88 247.77 237.19 220.91 214.86 213.39 212.89 212.70 212.28 212.50 213.38 214.05 216.50 217.11 231.63 237.11 253.63 270.16 713.76 1563.95 2317.69 3393.64 5266.84 7666.81 7175.62 5525.73 3880.28 2838.89 2494.24 953.23 439.06 321.40 313.24 304.38 292.49 283.33 275.28 271.11 258.69 255.70 242.81 227.35 187.50 129.85 31.82 -317.20 -751.73 -1280.49 -2043.49 -2789.21 -3578.74 -3793.58 -3824.01 -3839.65 -3850.70 -3854.94 -3856.34 -3858.25 -3858.48 -3858.96 -3859.24 -3859.36 -3859.98 -3860.12 -3859.97 -3860.19 -3860.14 -3859.48 -3859.55
-4353.12 -4353.06 -4331.17 -4333.94 -4322.91 -4329.33 -4309.54 -4242.12 -4220.42 -4180.75 -4165.10 -4149.26 -4140.51 -4137.79 -4136.21 -4144.63 -4139.79 -4133.91 -4099.12 -4056.17 -3970.97 -3627.08 -3462.67 -3329.17 -3380.49 -3444.82 -3529.52 -3505.46 -3646.53 -3637.65 -3715.09 -3766.05 -3220.31 -2363.41 -1081.45 -196.23 16.15 69.51 26.33 36.96 44.78 75.45 109.37 91.93 251.83 290.19 406.57 563.92 782.08 910.53 1013.57 1065.58 1002.75 848.50 687.02 576.12 762.75 685.48 674.84 752.95 809.73 695.57 600.95 555.62 491.85 465.88 443.45 414.25 381.55 350.81 322.32 310.03 285.24 251.91 247.27 224.52 216.65 213.45 212.24 211.76 211.87 212.06 213.45 215.34 220.62 228.78 234.89 249.22 276.66 401.80 894.22 1954.05 2601.37 4816.41 6687.29 7482.17 6304.44 4173.94 2489.32 1913.26 1466.85 416.77 327.46 315.20 308.14 302.82 288.29 280.10 269.75 261.77 255.06 255.68 240.79 222.94 187.33 61.30 -273.61 -597.54 -1059.21 -1567.33 -2697.42 -3377.00 -3777.54 -3793.89 -3819.75 -3834.21 -3844.51 -3851.14 -3857.24 -3858.58 -3858.58 -3859.34 -3859.52 -3859.52 -3860.01 -3860.58 -3860.60 -3860.33 -3860.10 -3860.15 -3860.22
-4360.51 -4360.44 -4356.68 -4354.38 -4350.67 -4346.36 -4333.52 -4267.82 -4236.39 -4190.92 -4176.53 -4163.31 -4151.79 -4149.14 -4152.03 -4161.08 -4158.85 -4153.78 -4146.18 -4105.09 -4077.89 -3998.44 -3814.68 -3772.80 -3767.41 -3804.12 -3802.38 -3847.56 -3824.20 -3826.09 -3846.81 -3869.43 -3704.70 -3270.09 -1497.64 -921.93 -114.26 -62.21 -101.73 -92.59 -29.11 -26.02 -26.81 -14.37 210.61 255.13 275.06 448.68 614.15 869.68 889.36 969.64 898.25 690.95 656.36 455.23 452.17 521.85 432.57 595.32 725.57 751.01 688.03 588.01 496.89 468.06 438.25 401.09 369.50 344.07 315.52 300.72 263.44 253.74 227.63 216.38 211.75 211.76 211.80 211.44 211.41 211.48 211.31 214.50 218.51 225.36 242.99 249.86 282.10 785.35 1537.68 1670.73 2929.09 4695.68 6755.60 6343.97 4363.10 3135.82 2617.55 2564.35 734.96 438.11 325.75 315.88 306.53 297.58 283.24 266.81 252.55 254.15 255.46 248.03 231.78 206.38 107.15 32.87 -254.31 -1110.00 -1541.69 -2073.12 -3093.67 -3626.85 -3805.69 -3830.09 -3829.51 -3826.89 -3833.88 -3838.40 -3854.69 -3856.63 -3858.33 -3859.36 -3859.74 -3860.19 -3860.18 -3860.87 -3861.23 -3860.64 -3860.49 -3860.89 -3860.96
-4343.76 -4343.67 -4349.24 -4345.39 -4343.94 -4341.02 -4323.43 -4281.77 -4216.24 -4186.16 -4170.99 -4163.59 -4159.55 -4155.58 -4160.07 -4168.54 -4169.53 -4164.18 -4155.31 -4151.56 -4088.39 -4037.98 -3940.89 -3918.29 -3893.96 -3931.06 -3945.79 -3942.20 -3917.45 -3903.06 -3894.85 -3905.78 -3840.70 -3704.19 -2416.86 -1756.64 -909.94 -440.91 -351.38 -205.53 -194.29 -177.44 -86.88 -18.95 93.61 250.03 269.05 354.93 568.37 788.32 676.07 804.31 671.43 502.16 498.20 422.99 390.55 415.76 317.60 365.67 478.51 549.11 640.94 611.55 568.03 467.44 456.88 405.58 358.98 337.43 303.84 280.19 260.27 240.16 221.22 213.48 210.39 211.43 211.44 211.21 211.03 210.74 210.59 210.79 219.37 232.77 241.91 255.89 325.55 547.02 1079.62 2133.58 3119.90 4916.08 7934.66 6134.75 5096.51 2206.05 1528.09 1881.78 349.16 342.26 316.24 293.80 298.79 286.00 268.97 250.79 253.34 252.63 245.19 230.12 212.47 156.82 21.83 -151.18 -458.73 -752.95 -1719.92 -2143.15 -3131.57 -3646.48 -3807.82 -3828.13 -3827.89 -3828.03 -3840.22 -3846.56 -3851.89 -3854.58 -3857.09 -3858.85 -3859.59 -3860.26 -3860.63 -3861.56 -3861.82 -3861.20 -3861.16 -3861.67 -3861.73
-4290.76 -4290.62 -4291.21 -4293.09 -4276.89 -4273.56 -4276.52 -4243.92 -4205.09 -4161.01 -4151.81 -4148.27 -4148.52 -4140.36 -4137.90 -4144.62 -4156.87 -4154.12 -4151.12 -4151.64 -4123.49 -4064.89 -3991.79 -3967.28 -3956.83 -3969.48 -3969.93 -3962.05 -3959.52 -3938.25 -3932.81 -3922.17 -3926.93 -3830.07 -3408.63 -2885.81 -1491.02 -1107.34 -616.14 -307.70 -338.96 -259.46 -209.30 -117.94 81.93 217.34 248.75 324.23 511.01 514.08 621.88 734.17 507.15 334.41 396.17 331.38 292.91 271.49 275.12 296.27 336.76 360.58 479.30 576.44 605.51 529.68 464.14 385.70 364.46 329.00 303.67 284.95 250.63 226.61 217.81 214.85 210.58 211.36 210.91 210.55 210.55 210.38 210.16 212.04 226.31 231.99 249.40 285.33 628.84 1259.98 1536.90 2036.17 4155.47 6358.63 7259.26 5435.97 4396.91 2836.83 1924.29 1001.69 327.68 264.78 266.25 262.89 267.15 256.23 247.52 247.23 247.32 240.66 233.48 209.77 168.87 71.75 -36.69 -370.64 -550.72 -895.00 -1494.37 -2693.24 -3348.02 -3759.49 -3812.75 -3817.47 -3819.74 -3832.66 -3843.65 -3847.67 -3851.95 -3852.09 -3854.02 -3856.22 -3857.77 -3860.33 -3861.33 -3861.90 -3862.48 -3862.52 -3862.93 -3862.47 -3862.53
-4160.55 -4160.37 -4181.53 -4151.85 -4142.71 -4134.21 -4121.95 -4112.22 -4113.62 -4095.00 -4080.91 -4081.95 -4076.07 -4098.82 -4081.23 -4092.81 -4111.07 -4106.27 -4113.91 -4106.62 -4088.21 -4045.16 -3992.80 -3968.57 -3963.30 -3962.34 -3969.34 -3983.90 -4005.57 -4021.50 -4032.68 -4046.57 -4007.11 -3912.53 -3603.63 -3050.07 -2280.05 -1238.30 -814.16 -504.03 -414.82 -326.10 -246.87 -143.88 44.27 219.30 255.79 257.99 365.11 400.33 616.02 592.89 438.74 297.77 297.00 270.52 257.82 259.66 263.32 262.67 284.48 303.61 318.79 469.40 576.53 575.13 432.35 386.02 362.31 333.58 307.47 289.56 242.64 220.82 215.19 212.03 214.94 211.93 209.86 210.23 210.19 210.07 210.07 210.77 223.42 238.90 257.55 297.60 1441.81 2512.70 2878.53 2979.56 5323.14 6622.28 5942.06 2986.54 2207.23 2320.29 2062.13 419.59 309.90 251.60 249.62 247.34 244.43 241.10 243.67 239.41 241.38 228.36 182.52 122.09 78.46 -61.51 -385.74 -568.82 -965.23 -1279.54 -1881.44 -2894.50 -3531.23 -3768.59 -3802.18 -3803.38 -3810.59 -3838.14 -3841.59 -3845.94 -3850.84 -3854.05 -3853.39 -3853.34 -3858.42 -3861.32 -3861.84 -3862.55 -3862.87 -3863.56 -3864.09 -3863.35 -3863.41
-4000.97 -3992.79 -4002.43 -4022.66 -4039.60 -4019.91 -4020.82 -4026.96 -4005.46 -3994.32 -4012.58 -4002.66 -4009.42 -3988.33 -4010.67 -4022.56 -4044.80 -4031.64 -4039.80 -4038.73 -4026.10 -4008.54 -3972.30 -3956.96 -3953.83 -3956.08 -3963.00 -3987.77 -4045.55 -4111.31 -4107.45 -4123.68 -4098.27 -4039.23 -3817.06 -3240.99 -2345.47 -1556.95 -835.60 -532.85 -397.59 -315.97 -215.05 -100.10 24.80 221.98 246.87 252.92 302.76 376.48 470.89 333.43 337.54 270.89 261.17 251.16 251.33 256.30 257.87 259.62 264.17 284.52 305.07 362.90 503.02 550.17 466.73 384.09 357.09 338.94 311.26 281.63 240.55 219.67 210.94 212.65 217.42 215.06 209.73 209.97 209.81 209.86 209.97 210.59 221.54 241.81 268.72 700.98 1656.06 2449.83 4283.92 5238.00 7700.56 7335.74 5207.90 3250.82 1722.52 1460.07 537.96 373.94 260.85 249.32 245.28 242.56 234.80 230.94 207.70 221.60 223.81 201.92 127.82 80.94 -84.74 -215.00 -514.08 -1092.83 -1311.82 -1661.65 -1940.08 -3097.13 -3494.08 -3746.52 -3780.56 -3786.86 -3799.26 -3823.74 -3839.69 -3842.89 -3847.69 -3856.60 -3859.72 -3859.11 -3862.69 -3862.54 -3862.92 -3863.14 -3863.74 -3865.04 -3865.25 -3864.58 -3864.44
-3920.40 -3920.32 -3938.74 -3933.88 -3923.16 -3938.73 -3932.72 -3937.89 -3947.85 -3956.89 -3959.98 -3957.26 -3953.75 -3957.88 -3977.21 -4000.82 -4017.95 -4017.20 -4016.78 -4017.87 -4006.49 -3996.72 -3973.67 -3958.99 -3959.07 -3957.64 -3969.90 -3999.68 -4073.79 -4157.16 -4169.28 -4171.97 -4173.78 -4119.31 -3873.63 -3291.44 -2732.02 -1710.41 -880.54 -493.58 -374.59 -300.49 -261.42 -82.13 29.07 179.54 234.53 243.04 262.16 278.38 286.38 268.92 251.72 246.22 239.48 239.64 240.96 252.63 250.33 207.17 242.89 254.34 275.27 345.51 438.99 541.72 544.44 418.57 380.28 339.96 310.38 281.71 241.13 217.83 214.15 212.49 217.75 215.31 211.03 209.70 209.72 209.75 210.00 211.11 227.14 241.35 277.66 1004.15 1763.28 2522.75 4709.55 6081.72 6741.54 6634.41 4855.13 3688.48 1805.71 1250.19 420.09 277.82 247.47 237.33 236.83 235.45 227.47 211.23 180.97 174.83 173.46 144.26 46.67 -74.67 -139.12 -342.91 -843.20 -1434.96 -1986.97 -2270.16 -2502.17 -2900.51 -3548.46 -3709.06 -3762.10 -3771.02 -3774.56 -3806.72 -3829.31 -3841.65 -3848.43 -3853.66 -3856.58 -3861.41 -3863.70 -3863.44 -3863.82 -3864.33 -3865.00 -3865.89 -3865.87 -3865.58 -3865.64
-3909.98 -3909.92 -3911.80 -3912.78 -3913.14 -3913.74 -3919.75 -3931.25 -3944.44 -3953.54 -3953.22 -3954.19 -3954.34 -3963.77 -3978.79 -4000.76 -4009.89 -4017.72 -4020.04 -4022.65 -4016.33 -4001.06 -3980.39 -3973.08 -3975.35 -3972.37 -3982.29 -4016.10 -4110.97 -4186.97 -4195.39 -4191.27 -4185.33 -4159.32 -4001.22 -3469.64 -2809.63 -2171.62 -1048.94 -658.73 -358.12 -304.37 -209.79 -78.46 42.70 163.70 213.12 236.27 238.95 237.14 183.48 113.56 90.07 124.55 207.84 227.86 230.75 233.32 238.45 134.68 141.24 252.39 277.21 298.59 381.62 451.31 564.14 523.35 460.97 351.88 316.24 283.05 251.37 222.44 211.75 213.67 217.21 210.44 209.39 209.46 209.40 209.56 212.22 214.24 230.81 250.77 274.93 608.28 2407.60 3123.69 4411.90 4969.54 5051.28 4146.06 3602.26 2833.59 1700.96 663.42 275.84 250.24 242.29 224.90 220.47 204.82 192.13 178.70 158.31 142.32 119.11 54.11 -58.14 -178.22 -362.75 -482.85 -986.61 -1756.81 -2291.79 -2736.60 -2922.61 -3263.11 -3544.59 -3719.60 -3741.46 -3750.38 -3757.95 -3805.84 -3827.75 -3833.73 -3843.92 -3847.96 -3846.53 -3861.05 -3865.60 -3865.37 -3865.22 -3865.63 -3865.41 -3866.39 -3866.52 -3866.92 -3866.98
-3924.11 -3924.06 -3919.96 -3924.75 -3920.54 -3933.54 -3929.10 -3944.51 -3949.56 -3956.54 -3959.78 -3961.27 -3964.15 -3972.88 -3986.82 -4009.74 -4022.39 -4027.96 -4029.82 -4033.46 -4028.50 -4019.01 -4003.40 -3992.89 -3994.62 -4000.52 -4005.07 -4041.33 -4106.20 -4155.37 -4209.42 -4206.16 -4202.76 -4196.96 -3985.93 -3810.78 -3015.43 -2350.15 -1361.50 -710.28 -482.06 -311.84 -243.31 -89.54 18.30 95.08 154.11 124.49 90.21 20.86 26.23 -19.77 -43.35 6.61 110.06 192.05 186.87 193.55 131.94 26.11 92.46 189.67 214.50 260.50 337.40 372.46 427.54 498.95 477.06 428.26 397.52 295.72 279.99 242.87 214.33 209.69 219.58 210.30 209.17 209.20 209.13 209.26 211.19 212.42 221.08 254.79 311.21 355.21 2774.93 3594.34 3306.24 2883.79 1999.56 2074.40 2181.72 2042.44 460.20 292.17 258.07 242.12 238.42 210.04 189.48 161.82 125.74 105.17 94.60 90.80 -24.17 -128.59 -218.62 -407.80 -526.05 -789.67 -1174.95 -1820.43 -2624.54 -2972.87 -3220.93 -3469.11 -3651.75 -3695.76 -3730.78 -3739.16 -3743.14 -3789.92 -3824.37 -3837.72 -3850.43 -3854.47 -3859.51 -3859.70 -3867.97 -3867.69 -3867.00 -3867.54 -3867.01 -3867.62 -3868.28 -3868.28 -3868.34
-3978.34 -3987.18 -3985.94 -3978.85 -3985.13 -3978.85 -3975.78 -3967.70 -3969.14 -3960.53 -3961.45 -3962.15 -3965.02 -3971.48 -3989.17 -3999.04 -4016.77 -4024.50 -4023.50 -4027.67 -4034.24 -4035.54 -4034.90 -4052.59 -4058.61 -4056.15 -4056.16 -4098.10 -4137.32 -4208.98 -4217.98 -4214.83 -4209.38 -4203.95 -4137.08 -3872.10 -3485.01 -2299.24 -1953.72 -1307.35 -711.64 -411.70 -221.89 -115.42 -29.58 -14.02 -38.04 -26.64 -67.68 -99.44 -141.56 -134.59 -180.15 -110.17 21.66 138.16 76.74 95.15 52.16 -4.04 29.23 48.90 129.58 217.62 275.57 297.38 305.78 386.68 464.03 469.47 431.17 335.73 291.09 260.56 221.38 219.27 220.39 213.25 209.63 208.96 209.02 208.93 209.71 211.23 223.38 242.71 298.26 349.82 1535.04 2284.08 2814.01 2749.01 1410.57 1053.66 1473.19 634.98 339.49 255.62 242.50 223.01 198.66 170.90 161.68 134.77 13.07 -59.40 -173.52 -219.77 -219.42 -216.35 -504.89 -712.31 -949.21 -1342.57 -1666.67 -2120.97 -2907.74 -3298.99 -3611.25 -3647.55 -3696.20 -3704.30 -3711.93 -3722.63 -3752.46 -3803.35 -3855.61 -3855.21 -3868.51 -3868.17 -3867.31 -3863.65 -3871.28 -3870.29 -3868.92 -3869.34 -3868.96 -3868.81 -3869.16 -3869.63 -3869.69
-4107.15 -4107.21 -4150.59 -4101.37 -4144.45 -4116.16 -4121.88 -4046.02 -4001.28 -3960.42 -3948.37 -3945.88 -3951.96 -3954.08 -3965.12 -3984.56 -3983.58 -3989.05 -3997.67 -4006.32 -4021.55 -4069.19 -4102.12 -4117.39 -4096.73 -4118.16 -4123.91 -4155.59 -4188.17 -4225.78 -4232.12 -4224.28 -4218.83 -4201.29 -4134.86 -3864.90 -3627.04 -3070.48 -2113.98 -1622.51 -1124.24 -761.39 -493.68 -225.17 -403.41 -100.33 -195.10 -291.83 -229.10 -211.27 -219.57 -256.54 -237.61 -135.81 -78.78 -39.25 -37.58 -38.24 -42.30 -45.30 -66.03 -52.08 -19.40 105.28 218.19 255.72 291.01 300.76 361.25 393.84 475.48 423.73 328.52 257.98 222.58 227.86 224.11 220.77 208.73 208.57 208.30 208.60 208.39 208.01 216.81 239.42 270.57 286.24 736.10 1032.69 1475.66 999.66 917.98 638.35 642.30 264.61 256.99 234.73 196.48 156.73 133.16 95.94 32.80 7.21 -126.02 -210.16 -278.40 -309.74 -401.16 -606.04 -918.92 -1014.25 -1253.80 -1899.04 -2125.79 -2724.95 -3318.64 -3607.83 -3640.07 -3674.64 -3693.26 -3699.70 -3701.92 -3715.66 -3748.01 -3877.86 -3889.99 -3873.05 -3869.38 -3868.35 -3870.41 -3875.47 -3875.73 -3872.42 -3872.27 -3871.14 -3870.78 -3870.47 -3870.72 -3871.04 -3871.10
-4255.83 -4264.27 -4268.49 -4264.55 -4268.39 -4266.82 -4220.49 -4143.66 -4050.93 -3957.96 -3934.17 -3935.75 -3937.20 -3940.84 -3942.68 -3950.04 -3958.99 -3962.06 -3957.60 -3965.06 -3998.11 -4063.45 -4126.45 -4202.08 -4221.26 -4215.43 -4217.30 -4219.26 -4228.82 -4240.08 -4239.99 -4231.14 -4222.66 -4216.47 -4151.74 -4050.56 -3758.48 -3284.89 -3017.37 -2216.01 -1513.92 -1239.02 -1003.85 -899.22 -643.77 -581.40 -441.81 -376.83 -329.21 -244.50 -276.99 -286.03 -224.81 -152.73 -133.00 -109.04 -110.46 -105.86 -99.13 -79.24 -86.56 -80.76 -53.37 34.34 112.02 182.54 241.18 284.62 295.74 326.38 402.81 433.13 365.71 287.78 227.97 214.53 213.90 219.24 207.27 207.77 207.70 207.67 207.25 206.81 218.06 239.74 251.92 265.34 272.79 399.45 413.24 539.23 365.21 383.27 270.74 251.21 243.41 219.19 173.32 76.30 28.57 -17.04 -170.81 -229.35 -212.58 -336.96 -490.37 -606.45 -845.65 -1099.47 -1445.93 -1643.52 -2023.41 -2487.31 -2961.72 -3149.75 -3443.27 -3670.57 -3691.79 -3701.18 -3693.16 -3683.69 -3677.50 -3700.09 -3775.61 -3876.92 -3891.54 -3885.12 -3874.43 -3873.82 -3880.86 -3881.70 -3878.19 -3875.58 -3874.02 -3873.99 -3874.07 -3872.96 -3872.39 -3872.53 -3872.59
-4330.23 -4332.23 -4328.24 -4333.37 -4338.55 -4341.08 -4309.78 -4171.82 -4066.05 -3946.54 -3932.39 -3933.04 -3934.62 -3936.40 -3935.54 -3938.36 -3942.16 -3943.27 -3946.43 -3954.88 -3990.37 -4095.70 -4176.28 -4245.06 -4257.93 -4267.91 -4262.17 -4262.56 -4251.85 -4250.73 -4247.30 -4236.19 -4231.96 -4216.71 -4167.96 -4035.61 -3897.41 -3549.97 -3260.06 -2938.91 -2345.31 -2268.66 -1831.20 -1570.14 -1417.84 -857.77 -765.39 -601.29 -481.15 -338.95 -280.34 -284.29 -247.66 -204.33 -162.08 -139.57 -143.76 -114.22 -108.78 -108.08 -113.69 -114.94 -86.11 -15.26 34.72 83.64 149.23 221.48 258.78 255.75 302.84 308.51 331.67 301.26 213.11 211.06 204.91 207.77 206.45 206.45 206.47 206.37 206.17 206.44 211.16 233.90 245.91 249.72 262.06 279.98 311.35 307.82 286.16 266.55 260.03 242.78 227.10 191.70 158.02 70.73 -8.93 -110.49 -282.03 -403.68 -497.19 -495.71 -757.97 -825.00 -1203.63 -1409.01 -1905.27 -2276.08 -2671.19 -2986.03 -3134.85 -3388.92 -3590.98 -3698.91 -3718.73 -3721.52 -3700.10 -3675.89 -3673.52 -3708.73 -3761.69 -3879.21 -3899.55 -3887.76 -3868.22 -3872.81 -3881.68 -3882.89 -3881.05 -3879.48 -3877.06 -3876.89 -3876.16 -3874.02 -3874.15 -3874.08 -3874.14
-4344.33 -4344.27 -4343.08 -4348.18 -4352.97 -4354.18 -4313.85 -4201.62 -4074.79 -3953.51 -3941.18 -3940.00 -3945.11 -3944.07 -3947.82 -3945.11 -3945.13 -3946.01 -3950.75 -3960.42 -3993.94 -4092.29 -4171.43 -4252.05 -4269.79 -4278.17 -4278.04 -4275.88 -4267.12 -4260.64 -4250.75 -4246.33 -4235.96 -4225.79 -4167.27 -4091.73 -4003.63 -3879.96 -3667.11 -3476.76 -3407.08 -2829.77 -2736.87 -2593.45 -1968.67 -1498.55 -1100.79 -869.42 -558.82 -474.63 -295.97 -292.10 -276.67 -235.15 -200.26 -159.48 -181.70 -155.36 -167.84 -157.31 -153.04 -128.85 -79.05 -21.20 -9.07 0.65 40.41 83.11 168.71 208.84 249.48 268.90 270.61 267.68 214.23 210.81 205.02 203.41 204.42 205.06 205.46 205.32 205.03 205.04 205.28 211.05 226.27 234.84 242.44 233.57 263.32 264.20 252.30 251.33 243.50 223.66 204.22 164.08 109.26 8.75 -90.46 -251.20 -376.92 -502.75 -681.03 -694.11 -827.99 -1166.79 -1379.29 -1734.45 -2132.92 -2633.79 -2909.44 -3058.19 -3285.96 -3587.19 -3678.35 -3711.97 -3729.47 -3727.49 -3705.98 -3700.89 -3703.48 -3712.74 -3789.60 -3856.44 -3862.52 -3873.75 -3870.58 -3874.94 -3884.84 -3884.57 -3885.19 -3884.16 -3881.84 -3879.02 -3877.90 -3876.98 -3876.78 -3875.68 -3875.74
-4337.35 -4337.27 -4341.97 -4345.06 -4348.25 -4345.47 -4298.55 -4195.12 -4068.78 -3971.99 -3954.71 -3955.83 -3950.92 -3952.79 -3964.18 -3960.42 -3958.90 -3962.71 -3960.94 -3973.24 -4007.72 -4109.63 -4205.93 -4250.73 -4270.75 -4278.68 -4276.35 -4275.69 -4271.20 -4265.06 -4257.42 -4250.91 -4241.83 -4231.11 -4192.31 -4065.27 -4015.36 -3947.68 -3849.51 -3772.59 -3581.75 -3509.69 -3432.52 -3174.91 -2772.43 -2106.20 -1519.86 -1308.98 -945.15 -728.53 -421.13 -307.56 -295.75 -281.44 -275.53 -229.60 -229.74 -210.95 -214.91 -245.53 -169.09 -135.56 -88.97 -64.43 -27.12 -10.87 8.39 52.87 90.78 143.35 179.93 245.58 262.08 224.39 204.69 190.56 198.63 201.74 202.34 203.87 203.97 203.84 203.39 201.64 201.16 199.27 209.34 210.98 211.98 211.87 226.99 233.38 244.45 234.25 222.00 196.04 178.62 131.37 117.39 18.85 -54.60 -240.42 -387.86 -555.11 -682.50 -809.57 -956.30 -1153.28 -1462.16 -1828.21 -2232.94 -2578.39 -2926.10 -3183.78 -3358.16 -3604.16 -3711.83 -3725.64 -3732.53 -3739.53 -3744.36 -3743.92 -3760.59 -3771.94 -3849.88 -3893.45 -3882.41 -3873.40 -3877.63 -3877.96 -3885.51 -3888.05 -3888.09 -3887.77 -3884.75 -3883.23 -3881.72 -3879.02 -3878.35 -3877.66 -3877.41
-4286.87 -4286.72 -4257.38 -4241.95 -4282.04 -4299.26 -4244.28 -4195.92 -4104.97 -4010.74 -3982.07 -3987.06 -3994.95 -4016.03 -4027.20 -4024.82 -4041.53 -4022.87 -4033.21 -4021.65 -4055.12 -4107.08 -4191.34 -4232.74 -4255.44 -4253.96 -4243.71 -4241.27 -4250.69 -4254.10 -4250.38 -4246.38 -4238.29 -4223.54 -4194.93 -4113.80 -4067.69 -4007.91 -3998.60 -3972.78 -3944.20 -3924.54 -3907.36 -3698.49 -3575.46 -2839.18 -2369.40 -1864.33 -1404.44 -1027.00 -664.07 -370.40 -451.52 -294.64 -287.75 -268.74 -243.84 -271.78 -319.44 -333.52 -237.34 -158.05 -127.40 -92.67 -46.75 -13.31 11.13 60.02 105.64 114.41 137.69 156.30 188.37 178.33 181.77 188.00 194.77 199.72 201.26 202.22 202.18 201.79 201.24 199.83 198.02 197.62 196.55 199.02 191.72 189.58 194.65 201.69 200.44 203.45 191.40 178.05 163.04 127.42 110.83 71.47 20.84 -109.04 -347.22 -580.13 -774.55 -875.15 -988.60 -1257.68 -1552.18 -1962.87 -2477.69 -2725.50 -3127.30 -3367.08 -3541.17 -3682.03 -3726.97 -3745.83 -3749.27 -3751.86 -3761.69 -3785.34 -3816.23 -3837.75 -3858.51 -3864.09 -3867.17 -3871.97 -3885.21 -3887.52 -3887.48 -3886.34 -3888.97 -3888.45 -3887.37 -3885.56 -3882.78 -3880.87 -3880.47 -3879.10 -3879.16
-4157.17 -4141.36 -4147.86 -4144.85 -4160.70 -4148.49 -4144.19 -4140.53 -4079.03 -4054.27 -4073.62 -4079.60 -4079.37 -4075.81 -4094.41 -4107.14 -4128.16 -4113.21 -4108.62 -4126.93 -4149.37 -4155.89 -4175.08 -4171.56 -4203.48 -4198.86 -4193.30 -4198.92 -4218.63 -4229.98 -4238.46 -4231.01 -4224.51 -4214.51 -4193.07 -4147.79 -4114.13 -4096.31 -4074.31 -4069.45 -4067.47 -4067.46 -4027.02 -3935.60 -3655.83 -3437.42 -2845.41 -2513.00 -2074.82 -1771.24 -1387.53 -1312.43 -1167.51 -788.61 -504.25 -526.55 -333.80 -507.85 -734.07 -619.19 -398.89 -221.47 -168.22 -98.67 -57.07 -25.57 8.11 58.74 89.17 124.82 138.50 152.78 163.93 176.54 181.35 187.52 195.99 197.73 199.13 199.76 200.18 199.94 198.75 198.43 196.80 194.87 195.29 193.54 190.96 187.65 184.93 185.95 176.36 180.29 175.06 162.09 158.14 135.81 119.34 81.17 19.10 -78.17 -295.13 -556.05 -846.77 -1014.24 -1283.30 -1525.33 -2043.43 -2216.38 -2710.61 -3086.15 -3336.93 -3479.60 -3599.97 -3714.61 -3743.95 -3751.67 -3751.75 -3756.88 -3774.80 -3790.07 -3826.17 -3851.05 -3860.11 -3858.51 -3864.28 -3868.03 -3875.18 -3888.85 -3890.65 -3888.07 -3888.66 -3889.47 -3888.94 -3888.25 -3885.23 -3882.87 -3881.72 -3880.93 -3880.99
-4009.16 -3989.50 -4024.70 -4028.01 -4024.42 -4018.27 -4029.96 -4050.57 -4100.33 -4120.99 -4131.14 -4131.01 -4142.83 -4142.61 -4178.97 -4226.18 -4252.12 -4246.67 -4246.77 -4265.16 -4209.89 -4204.64 -4170.12 -4141.30 -4131.94 -4130.72 -4137.96 -4154.71 -4173.79 -4198.46 -4206.07 -4206.80 -4201.59 -4197.27 -4189.11 -4168.37 -4153.58 -4153.34 -4168.81 -4155.56 -4146.61 -4121.94 -4091.98 -3995.93 -3922.81 -3709.63 -3599.06 -3290.27 -2867.74 -2630.29 -2270.65 -2010.99 -1731.94 -1946.19 -1214.40 -1394.04 -935.60 -1626.50 -1194.92 -1012.58 -796.64 -397.88 -215.68 -129.82 -61.41 -39.57 17.58 47.83 82.04 116.72 148.79 155.68 168.00 176.96 179.49 186.58 194.43 197.61 198.63 198.49 198.47 197.95 197.71 196.33 195.96 194.12 193.52 190.89 189.31 186.15 183.42 181.20 175.18 173.04 170.32 163.50 156.39 140.57 119.72 73.32 39.46 -35.30 -239.42 -516.78 -1100.68 -1161.48 -1493.93 -1940.69 -2157.44 -2505.67 -2772.75 -3340.66 -3481.15 -3573.14 -3665.83 -3728.25 -3747.46 -3753.06 -3757.13 -3765.53 -3781.38 -3801.08 -3843.09 -3858.20 -3879.35 -3874.26 -3867.47 -3871.61 -3871.33 -3879.05 -3892.36 -3890.09 -3890.17 -3891.93 -3891.30 -3890.96 -3886.98 -3886.14 -3884.50 -3883.16 -3882.88
-3929.97 -3929.93 -3934.01 -3934.98 -3951.60 -3956.08 -3981.80 -4023.94 -4099.34 -4141.59 -4156.28 -4168.24 -4172.65 -4179.62 -4238.77 -4262.42 -4297.61 -4301.78 -4294.39 -4291.68 -4279.14 -4212.30 -4149.44 -4105.80 -4102.08 -4106.72 -4112.53 -4122.76 -4151.56 -4188.81 -4197.82 -4200.91 -4195.40 -4193.13 -4191.14 -4193.22 -4200.23 -4190.64 -4185.06 -4190.87 -4180.45 -4156.74 -4103.21 -4040.53 -3999.83 -3923.29 -3885.62 -3745.85 -3426.84 -3376.25 -3221.89 -2983.44 -2820.80 -2845.09 -2729.81 -2652.54 -2771.53 -2365.45 -2189.44 -1640.58 -1083.95 -656.97 -282.38 -174.19 -103.37 -42.42 11.55 51.95 84.84 106.88 138.38 158.90 168.75 175.70 181.06 183.54 191.55 200.29 202.50 199.40 197.20 196.17 196.00 195.68 194.96 192.86 191.74 189.52 187.22 185.73 181.88 180.48 176.44 173.84 170.54 164.85 155.49 146.14 129.14 73.25 20.88 -58.95 -208.49 -578.18 -1334.62 -1443.35 -1602.18 -2111.45 -2664.74 -2988.04 -3183.67 -3426.69 -3565.42 -3673.73 -3705.15 -3725.61 -3750.17 -3756.50 -3769.08 -3782.28 -3792.21 -3823.34 -3856.43 -3873.14 -3885.75 -3887.52 -3876.60 -3872.85 -3883.93 -3891.74 -3892.84 -3889.92 -3890.76 -3893.24 -3892.76 -3892.38 -3889.37 -3887.47 -3886.03 -3885.13 -3885.16
-3919.40 -3919.34 -3927.57 -3925.55 -3932.95 -3942.11 -3968.49 -4034.21 -4082.10 -4147.85 -4164.77 -4173.64 -4179.51 -4200.02 -4233.98 -4275.78 -4310.44 -4317.37 -4315.39 -4303.21 -4288.74 -4218.25 -4146.86 -4109.80 -4098.67 -4099.44 -4107.46 -4119.26 -4150.82 -4178.51 -4197.13 -4201.07 -4199.42 -4197.31 -4198.47 -4203.02 -4211.51 -4215.69 -4212.79 -4208.40 -4208.70 -4171.31 -4100.62 -4044.75 -4031.90 -4026.72 -3988.22 -3983.98 -3909.13 -3821.00 -3799.94 -3696.25 -3496.55 -3595.09 -3482.53 -3546.28 -3364.33 -3230.27 -2771.09 -2306.04 -1640.08 -977.88 -602.30 -288.38 -154.67 -65.73 7.83 57.26 93.59 118.67 130.63 145.34 161.12 171.76 186.02 190.15 188.35 202.88 211.38 204.28 197.93 195.08 194.92 194.72 192.92 191.42 190.15 188.76 186.68 184.39 181.74 179.46 176.36 172.24 169.62 166.79 158.35 141.16 112.46 45.56 -25.05 -155.42 -369.93 -675.00 -1307.90 -1512.37 -2289.82 -2677.84 -2863.46 -3218.06 -3413.14 -3608.77 -3669.47 -3706.79 -3728.76 -3739.47 -3799.45 -3798.10 -3814.12 -3805.04 -3831.42 -3850.33 -3872.10 -3883.91 -3889.07 -3879.26 -3877.37 -3878.39 -3883.71 -3891.80 -3894.32 -3891.46 -3892.32 -3894.13 -3894.56 -3894.31 -3892.58 -3890.39 -3888.42 -3887.30 -3887.08
-3926.63 -3926.56 -3934.29 -3929.19 -3935.84 -3950.01 -3973.97 -4026.67 -4101.87 -4138.36 -4179.35 -4190.58 -4186.23 -4210.24 -4237.77 -4279.51 -4301.88 -4310.66 -4303.19 -4298.52 -4282.10 -4217.90 -4150.86 -4110.65 -4104.89 -4105.59 -4125.30 -4127.63 -4156.72 -4187.84 -4199.46 -4204.86 -4205.34 -4205.28 -4207.28 -4212.02 -4219.81 -4219.59 -4216.12 -4216.77 -4210.48 -4182.05 -4130.82 -4089.68 -4092.69 -4109.58 -4105.51 -4105.79 -4054.92 -4100.62 -4059.26 -4087.38 -4038.85 -4000.59 -3984.45 -3911.87 -3942.47 -3631.40 -3345.97 -2930.36 -2354.77 -1903.20 -967.46 -602.83 -236.96 -61.92 15.08 49.42 95.46 106.58 127.57 141.36 154.01 172.98 180.31 188.23 190.76 211.49 215.03 211.66 200.07 193.90 193.22 192.48 191.51 189.90 189.45 186.49 185.35 183.95 181.50 178.66 175.94 172.65 168.74 165.56 157.30 141.86 91.39 22.48 -29.92 -244.81 -479.10 -1120.39 -1486.23 -2057.52 -2764.97 -2973.54 -3150.63 -3415.18 -3556.97 -3695.24 -3695.05 -3736.32 -3751.38 -3773.56 -3841.32 -3847.83 -3845.38 -3856.24 -3875.86 -3876.07 -3878.67 -3883.66 -3892.22 -3883.40 -3887.33 -3884.49 -3886.71 -3891.18 -3893.82 -3894.69 -3894.87 -3895.42 -3896.44 -3895.85 -3894.72 -3892.38 -3890.54 -3888.89 -3889.00
-3961.81 -3956.11 -3963.30 -3964.91 -3957.02 -3968.27 -3993.77 -4062.56 -4124.37 -4188.94 -4216.01 -4217.87 -4226.12 -4242.97 -4243.97 -4252.73 -4255.54 -4256.42 -4265.17 -4270.36 -4231.04 -4217.12 -4177.62 -4154.54 -4135.66 -4165.08 -4175.67 -4163.87 -4174.88 -4197.12 -4205.34 -4206.79 -4208.37 -4207.32 -4206.15 -4203.85 -4196.56 -4202.74 -4204.08 -4188.84 -4186.65 -4176.98 -4176.29 -4143.96 -4176.60 -4153.63 -4171.12 -4193.57 -4190.48 -4153.96 -4156.23 -4127.57 -4116.89 -4111.17 -4094.62 -4066.05 -4046.40 -3896.35 -3768.96 -3363.10 -3104.31 -2699.83 -1691.51 -1000.50 -583.21 -101.88 15.69 44.67 49.05 78.71 103.03 115.60 119.61 127.89 165.93 161.90 188.33 201.39 199.52 202.81 192.31 190.87 190.43 189.61 189.04 186.98 184.69 183.80 182.39 181.35 179.42 175.98 174.52 172.18 166.63 157.55 148.43 129.61 58.40 -18.80 -193.02 -287.82 -467.23 -1085.48 -1695.68 -2272.89 -2706.65 -3257.63 -3494.05 -3591.75 -3716.73 -3753.50 -3744.96 -3766.45 -3770.58 -3817.34 -3856.77 -3879.17 -3868.48 -3874.14 -3887.59 -3893.22 -3885.21 -3886.96 -3892.36 -3886.93 -3885.26 -3884.51 -3887.54 -3893.01 -3885.96 -3893.81 -3897.26 -3897.69 -3897.40 -3897.55 -3897.08 -3894.49 -3893.13 -3890.86 -3890.93
-4029.75 -4021.07 -4025.70 -4028.26 -4035.01 -4035.55 -4085.02 -4149.84 -4221.85 -4281.82 -4275.86 -4296.95 -4307.32 -4284.35 -4258.70 -4186.63 -4186.69 -4168.35 -4160.06 -4165.62 -4164.69 -4197.43 -4230.25 -4220.06 -4248.64 -4261.51 -4241.34 -4234.82 -4234.59 -4208.43 -4208.07 -4209.02 -4210.04 -4208.86 -4191.83 -4170.15 -4155.19 -4116.60 -4112.97 -4135.05 -4136.72 -4167.28 -4215.72 -4265.82 -4214.53 -4207.69 -4220.38 -4212.25 -4190.35 -4178.60 -4163.06 -4130.78 -4123.15 -4114.57 -4079.40 -4067.09 -4068.56 -4013.52 -3803.18 -3667.12 -3374.03 -2625.81 -1793.15 -1563.01 -861.58 -142.78 -38.77 -3.51 17.89 56.13 75.18 79.11 87.95 91.40 122.37 139.89 147.84 171.48 173.83 181.63 182.49 186.44 186.19 186.57 186.90 185.49 182.80 181.70 179.78 178.43 176.09 174.80 171.95 168.99 163.83 149.40 137.51 93.07 13.29 -61.74 -238.50 -428.95 -768.59 -1420.81 -1841.78 -2431.41 -3123.75 -3462.20 -3618.59 -3704.94 -3757.07 -3764.25 -3770.65 -3778.10 -3809.84 -3857.25 -3890.85 -3895.24 -3892.91 -3897.53 -3902.15 -3902.60 -3897.23 -3897.21 -3892.16 -3885.45 -3884.73 -3883.19 -3881.01 -3890.38 -3886.12 -3891.51 -3897.64 -3899.12 -3899.24 -3899.76 -3899.24 -3897.40 -3895.68 -3892.85 -3892.91
-4087.01 -4082.89 -4083.53 -4088.02 -4084.95 -4112.25 -4130.64 -4188.06 -4284.79 -4349.55 -4379.63 -4385.53 -4377.51 -4345.31 -4251.52 -4135.08 -4098.30 -4064.61 -4058.17 -4063.76 -4092.16 -4161.17 -4255.12 -4288.34 -4319.48 -4323.92 -4321.66 -4316.07 -4280.06 -4228.97 -4212.64 -4208.85 -4212.55 -4210.62 -4185.69 -4123.28 -4082.62 -4057.60 -4055.69 -4045.00 -4093.88 -4149.70 -4202.98 -4242.33 -4258.15 -4222.83 -4212.30 -4206.90 -4232.51 -4225.56 -4140.12 -4095.06 -3911.61 -4037.54 -4061.06 -4045.42 -4040.49 -4001.27 -3882.14 -3790.62 -3449.97 -3025.93 -2798.39 -2012.77 -987.04 -360.39 -115.46 -35.77 -19.31 5.72 33.51 36.64 53.65 49.05 43.25 44.58 88.16 126.16 146.86 159.71 175.36 177.89 182.52 183.54 182.56 182.13 180.04 177.71 175.98 176.35 173.26 170.16 167.11 165.69 157.88 136.18 108.24 76.37 -77.17 -217.28 -469.50 -689.99 -987.98 -1573.34 -2170.02 -2833.69 -3312.35 -3550.00 -3713.38 -3743.55 -3768.21 -3781.09 -3790.23 -3793.24 -3818.21 -3852.05 -3881.56 -3896.80 -3900.14 -3908.17 -3907.50 -3905.50 -3902.13 -3897.73 -3896.37 -3887.33 -3888.54 -3890.80 -3886.12 -3880.61 -3875.98 -3880.00 -3893.20 -3899.88 -3900.27 -3901.35 -3901.96 -3899.55 -3898.07 -3894.92 -3894.98
-4107.83 -4107.76 -4111.11 -4114.13 -4118.02 -4128.86 -4165.87 -4202.60 -4340.06 -4378.09 -4394.75 -4406.27 -4399.01 -4364.49 -4275.69 -4108.02 -4039.45 -4025.70 -4023.32 -4031.46 -4069.27 -4146.73 -4274.38 -4343.51 -4361.50 -4363.94 -4363.22 -4347.26 -4302.81 -4237.93 -4213.74 -4213.53 -4215.14 -4205.79 -4191.52 -4123.50 -4070.89 -4040.09 -4036.21 -4043.20 -4070.75 -4156.35 -4284.64 -4265.51 -4271.00 -4247.83 -4215.83 -4198.81 -4180.14 -4040.43 -3777.57 -3631.38 -3479.07 -3652.29 -3578.07 -3948.79 -3975.62 -3979.29 -3922.46 -3735.40 -3557.40 -3192.88 -2832.58 -2026.85 -992.28 -470.53 -178.75 -74.05 -55.85 -49.52 -3.75 17.06 6.16 -12.99 -72.13 -19.05 73.50 109.30 135.19 147.47 166.35 171.54 174.28 176.99 178.54 177.16 175.44 173.65 173.15 171.50 168.90 166.52 158.20 144.88 142.02 119.76 51.08 -6.01 -55.25 -376.08 -743.57 -1076.19 -1285.54 -1702.59 -2301.67 -2909.15 -3419.00 -3722.89 -3764.20 -3775.53 -3779.17 -3781.61 -3797.76 -3812.11 -3841.73 -3865.12 -3894.73 -3910.17 -3916.52 -3920.23 -3914.53 -3913.47 -3901.97 -3887.30 -3889.82 -3894.72 -3897.86 -3897.36 -3885.52 -3877.18 -3874.12 -3880.91 -3892.05 -3901.74 -3902.42 -3903.92 -3903.68 -3902.57 -3899.62 -3897.09 -3897.16
-4108.99 -4108.92 -4112.31 -4115.46 -4120.41 -4135.46 -4162.91 -4224.48 -4324.05 -4380.50 -4402.14 -4408.15 -4403.84 -4365.98 -4244.02 -4100.93 -4042.10 -4019.18 -4017.91 -4024.25 -4086.74 -4161.36 -4292.26 -4346.57 -4369.06 -4374.42 -4373.00 -4348.45 -4312.08 -4244.85 -4217.12 -4216.64 -4221.47 -4218.30 -4206.46 -4123.66 -4078.80 -4038.87 -4045.43 -4051.85 -4079.91 -4168.33 -4267.81 -4292.82 -4293.89 -4284.59 -4244.68 -4203.53 -4050.05 -3637.68 -3207.75 -2670.56 -2472.41 -2792.20 -3043.65 -3302.50 -3601.42 -3692.98 -3649.57 -3455.17 -3257.93 -2788.77 -2024.44 -1508.17 -997.35 -387.92 -200.40 -118.90 -103.36 -205.22 -165.01 -140.65 -153.45 -192.72 -191.96 -123.43 9.66 77.32 113.50 135.40 147.61 160.14 164.78 171.14 170.18 171.42 170.20 169.63 167.06 167.00 163.08 156.41 144.15 133.39 110.57 64.81 17.53 -88.03 -141.28 -335.66 -674.23 -1010.58 -1420.17 -2063.90 -2539.36 -3163.54 -3675.47 -3771.45 -3787.15 -3790.76 -3790.53 -3795.20 -3801.66 -3827.05 -3855.71 -3895.41 -3919.80 -3922.26 -3927.98 -3929.69 -3923.09 -3910.17 -3877.12 -3863.47 -3865.31 -3884.80 -3901.72 -3897.04 -3889.10 -3881.01 -3883.79 -3883.63 -3897.99 -3908.35 -3905.01 -3905.84 -3905.34 -3904.37 -3902.00 -3899.58 -3899.44
-4100.55 -4100.50 -4099.13 -4105.27 -4110.22 -4126.69 -4145.78 -4210.02 -4295.92 -4367.70 -4380.62 -4392.39 -4378.53 -4349.91 -4230.40 -4094.38 -4050.35 -4034.89 -4036.38 -4037.06 -4082.82 -4167.47 -4297.57 -4335.49 -4365.21 -4374.53 -4372.85 -4345.62 -4296.89 -4258.26 -4220.17 -4218.08 -4224.69 -4223.75 -4200.27 -4151.32 -4102.63 -4084.98 -4082.41 -4088.36 -4114.01 -4226.61 -4297.11 -4287.24 -4289.69 -4283.25 -4286.57 -4145.84 -3862.46 -2973.14 -2227.65 -1773.51 -1698.86 -1863.91 -2283.99 -2648.27 -3020.04 -3049.13 -2884.95 -2738.53 -2594.63 -2163.33 -1584.96 -1204.11 -567.14 -353.70 -161.80 -146.60 -263.35 -563.78 -719.09 -690.80 -512.92 -495.60 -422.77 -207.17 -113.50 26.32 73.35 111.61 127.24 150.75 158.12 164.21 155.07 156.93 160.15 160.91 161.16 159.31 151.73 144.46 126.17 80.50 63.63 15.92 -96.56 -150.35 -242.89 -485.73 -784.99 -1258.41 -1576.32 -2431.66 -2996.63 -3318.31 -3704.77 -3796.78 -3796.17 -3795.38 -3796.09 -3808.76 -3825.53 -3844.92 -3880.97 -3916.47 -3934.80 -3935.97 -3935.57 -3933.37 -3928.26 -3893.47 -3874.06 -3861.82 -3872.74 -3889.01 -3915.08 -3918.79 -3898.96 -3898.23 -3892.82 -3897.07 -3906.30 -3911.84 -3909.64 -3908.11 -3907.69 -3906.95 -3905.13 -3901.72 -3901.78
-4067.33 -4072.11 -4076.29 -4080.65 -4085.85 -4097.24 -4117.30 -4175.61 -4244.81 -4287.59 -4313.64 -4301.24 -4315.46 -4278.02 -4199.97 -4141.99 -4075.89 -4071.84 -4096.09 -4094.37 -4138.42 -4208.39 -4289.03 -4321.15 -4338.07 -4349.62 -4344.86 -4335.30 -4274.16 -4234.67 -4213.19 -4209.30 -4219.62 -4219.85 -4214.19 -4197.27 -4184.25 -4182.80 -4180.77 -4183.58 -4204.46 -4262.80 -4295.63 -4302.28 -4291.70 -4268.43 -4151.51 -4067.08 -3308.60 -2555.38 -1710.55 -1315.85 -1209.04 -1247.53 -1468.66 -2120.83 -2357.01 -2415.65 -2177.88 -1775.61 -1523.76 -1241.86 -1063.66 -734.37 -304.88 -171.26 -87.42 -164.72 -518.71 -969.01 -1486.66 -1612.03 -1285.71 -744.14 -657.77 -386.47 -180.41 -45.94 43.56 57.42 70.20 123.86 133.22 148.62 143.19 144.75 150.47 151.47 149.48 136.08 122.51 95.45 86.20 44.69 27.66 -45.18 -112.60 -251.45 -372.96 -624.08 -1065.63 -1604.28 -2184.41 -2950.89 -3283.38 -3600.95 -3797.24 -3798.13 -3799.42 -3797.01 -3802.85 -3829.86 -3858.44 -3868.95 -3899.72 -3921.16 -3939.77 -3943.35 -3940.07 -3936.12 -3933.96 -3898.15 -3874.46 -3869.09 -3889.89 -3907.65 -3945.74 -3949.83 -3938.47 -3927.86 -3925.25 -3922.65 -3916.66 -3916.56 -3912.76 -3910.04 -3909.37 -3909.08 -3907.38 -3904.15 -3904.21
-4007.11 -4007.09 -4008.85 -4005.40 -4023.42 -4032.39 -4045.61 -4067.13 -4100.41 -4122.22 -4140.18 -4180.57 -4163.02 -4183.15 -4166.21 -4151.47 -4167.23 -4171.98 -4152.76 -4179.86 -4182.15 -4242.71 -4262.30 -4286.82 -4297.29 -4293.63 -4304.79 -4274.04 -4218.30 -4202.42 -4190.47 -4190.55 -4199.76 -4207.48 -4228.90 -4262.12 -4328.00 -4281.05 -4302.34 -4340.41 -4321.63 -4322.29 -4335.31 -4323.33 -4263.84 -4055.77 -3861.42 -3445.88 -2679.89 -1780.48 -1336.19 -891.57 -771.92 -929.47 -1284.23 -1261.95 -1540.13 -1480.45 -1314.21 -1256.22 -852.59 -721.10 -491.46 -185.22 -54.86 -47.16 -78.76 -210.68 -822.32 -1651.35 -2035.52 -2097.16 -1897.25 -1434.31 -917.77 -524.90 -257.08 -164.57 -73.66 -19.56 34.06 62.50 97.50 96.18 108.61 118.97 128.81 134.63 122.74 100.37 111.38 52.26 58.02 -6.13 -95.35 -308.84 -403.68 -560.18 -563.72 -818.25 -1418.28 -1776.54 -2550.01 -3128.29 -3349.49 -3607.93 -3797.38 -3799.95 -3803.33 -3802.35 -3809.34 -3834.15 -3864.60 -3894.41 -3921.86 -3940.79 -3947.40 -3947.46 -3944.99 -3942.82 -3939.97 -3909.50 -3886.84 -3885.89 -3925.23 -3944.23 -3950.38 -3957.28 -3957.55 -3953.56 -3949.16 -3937.69 -3925.51 -3919.68 -3918.10 -3915.52 -3915.12 -3912.96 -3909.92 -3906.68 -3906.75
-3961.51 -3961.47 -3966.62 -3975.04 -3974.38 -3992.11 -3994.37 -4001.23 -3997.44 -4039.78 -4003.72 -4005.22 -3992.67 -4045.18 -4129.75 -4165.89 -4226.74 -4246.32 -4245.52 -4235.74 -4233.63 -4253.97 -4245.23 -4244.22 -4253.96 -4256.19 -4251.48 -4237.94 -4206.72 -4179.17 -4170.59 -4173.52 -4180.36 -4195.89 -4237.62 -4337.66 -4368.90 -4360.43 -4352.34 -4418.61 -4379.21 -4331.15 -4347.26 -4204.20 -4066.90 -3683.83 -3228.79 -2533.72 -2133.77 -1505.41 -899.16 -669.82 -567.72 -625.69 -690.62 -867.76 -861.92 -915.37 -803.70 -625.48 -567.17 -298.27 -214.01 -48.94 -30.49 -27.95 -139.91 -383.44 -1195.07 -2250.40 -2998.66 -2580.03 -2274.88 -1765.70 -1045.91 -904.89 -545.74 -312.00 -214.37 -100.92 -89.69 4.57 46.36 55.27 79.70 92.60 101.10 102.45 74.68 51.29 36.41 3.29 -21.53 -31.14 -282.76 -433.53 -628.97 -780.01 -1030.56 -1547.53 -1611.70 -2089.92 -2800.20 -3476.23 -3678.30 -3763.25 -3809.63 -3810.65 -3814.91 -3818.87 -3824.89 -3848.55 -3889.58 -3927.12 -3940.51 -3947.82 -3954.12 -3952.34 -3950.81 -3948.41 -3936.09 -3913.16 -3893.61 -3897.02 -3936.66 -3944.99 -3956.97 -3965.09 -3961.74 -3960.02 -3958.56 -3946.88 -3936.72 -3928.40 -3922.53 -3920.69 -3917.63 -3914.75 -3912.05 -3909.49 -3909.38
-3948.96 -3948.90 -3953.96 -3957.68 -3964.12 -3965.94 -3966.42 -3961.82 -3951.68 -3954.18 -3968.90 -3967.26 -3977.11 -4005.84 -4095.41 -4182.22 -4263.29 -4274.23 -4291.67 -4291.72 -4280.83 -4272.43 -4244.84 -4236.35 -4234.20 -4235.38 -4231.69 -4219.50 -4201.25 -4176.38 -4165.49 -4169.07 -4178.55 -4188.68 -4265.04 -4352.93 -4420.94 -4449.63 -4455.18 -4453.96 -4411.96 -4333.75 -4251.17 -4021.72 -3447.88 -2952.43 -2515.10 -2038.04 -1326.43 -1095.80 -700.32 -610.83 -525.94 -520.35 -583.99 -649.37 -678.05 -669.43 -584.93 -418.18 -321.22 -207.97 -50.20 -29.42 -18.02 -23.92 -189.90 -833.90 -1532.63 -2631.26 -3136.54 -2912.71 -2487.11 -2118.42 -1780.95 -1656.10 -933.44 -650.88 -455.07 -302.49 -262.52 -68.51 -64.98 -33.46 -12.90 13.21 24.46 -32.96 -39.77 -115.99 -56.69 -117.74 -169.49 -115.85 -441.43 -774.47 -1081.82 -1104.24 -1691.82 -1993.00 -2224.39 -2521.08 -3245.69 -3614.44 -3752.94 -3812.77 -3825.79 -3825.91 -3824.21 -3836.14 -3856.35 -3884.01 -3900.43 -3934.13 -3949.38 -3955.31 -3956.80 -3956.07 -3951.81 -3950.11 -3930.23 -3915.87 -3901.48 -3917.56 -3948.35 -3951.08 -3968.37 -3967.56 -3969.45 -3966.84 -3960.77 -3950.66 -3945.14 -3936.06 -3927.50 -3922.51 -3920.78 -3917.49 -3914.70 -3912.00 -3912.07
-3953.02 -3952.95 -3957.78 -3958.00 -3963.19 -3965.11 -3967.07 -3959.35 -3949.74 -3947.22 -3952.02 -3958.66 -3970.75 -4015.88 -4101.74 -4188.97 -4277.02 -4293.33 -4302.07 -4303.35 -4295.50 -4283.34 -4256.36 -4241.06 -4238.35 -4237.34 -4235.69 -4222.86 -4205.75 -4177.56 -4168.11 -4172.98 -4184.35 -4195.08 -4258.98 -4360.34 -4438.25 -4440.70 -4450.38 -4438.97 -4406.40 -4198.84 -4002.62 -3172.29 -2842.10 -2364.98 -1814.64 -1175.41 -942.86 -810.84 -599.01 -561.42 -574.17 -583.17 -710.00 -678.85 -564.15 -502.21 -441.15 -342.08 -331.86 -249.62 -114.34 -39.82 -63.77 -137.08 -242.64 -1125.43 -2236.61 -2944.92 -3176.32 -3125.37 -2890.95 -2675.96 -2339.94 -1689.96 -1219.50 -931.16 -687.30 -640.26 -462.54 -235.39 -179.43 -183.64 -162.34 -130.33 -159.25 -110.21 -182.62 -268.70 -263.25 -483.66 -599.17 -610.78 -777.02 -1154.71 -1631.00 -1885.99 -2199.94 -2550.26 -2912.58 -2989.81 -3293.21 -3751.60 -3800.66 -3837.17 -3837.93 -3835.98 -3844.58 -3874.48 -3876.41 -3906.09 -3933.83 -3958.40 -3961.14 -3960.58 -3961.01 -3958.45 -3955.96 -3953.31 -3934.99 -3915.03 -3903.36 -3908.39 -3970.99 -3976.07 -3969.28 -3968.90 -3971.82 -3969.85 -3966.24 -3956.63 -3950.61 -3944.01 -3932.69 -3925.70 -3922.28 -3919.95 -3917.27 -3914.75 -3914.80
-3968.57 -3966.96 -3975.05 -3976.09 -3979.52 -3986.48 -3981.60 -3979.07 -3972.24 -3953.73 -3972.90 -3972.43 -3991.32 -4024.71 -4109.91 -4201.31 -4273.79 -4300.99 -4309.24 -4312.46 -4306.44 -4287.28 -4263.85 -4251.88 -4245.31 -4248.13 -4243.90 -4235.94 -4208.86 -4192.08 -4175.76 -4182.53 -4187.88 -4202.65 -4261.92 -4360.09 -4445.77 -4456.86 -4462.22 -4444.32 -4430.92 -4209.07 -3659.55 -3221.96 -2174.72 -1461.24 -1039.34 -911.58 -759.78 -636.68 -551.92 -624.58 -742.45 -978.46 -958.29 -1011.11 -756.21 -504.26 -563.39 -540.82 -425.74 -358.25 -449.38 -430.79 -608.86 -807.28 -1248.42 -1720.29 -2750.37 -3181.16 -3276.28 -3358.32 -3317.46 -2981.95 -2635.29 -2188.42 -1821.97 -1160.32 -988.01 -886.64 -677.76 -459.81 -340.86 -346.70 -327.32 -325.81 -339.88 -337.68 -367.56 -441.12 -759.77 -987.34 -1013.67 -1560.64 -1713.44 -1687.75 -2082.04 -2338.99 -2843.74 -2985.22 -3356.18 -3514.44 -3767.97 -3801.86 -3810.92 -3843.45 -3844.73 -3853.32 -3863.28 -3891.95 -3919.48 -3931.47 -3945.68 -3961.50 -3966.06 -3964.98 -3964.45 -3962.43 -3964.59 -3962.85 -3943.67 -3924.40 -3918.51 -3927.30 -3972.71 -3970.94 -3973.72 -3981.95 -3981.22 -3975.89 -3970.89 -3966.05 -3959.86 -3949.27 -3938.00 -3931.42 -3924.32 -3921.83 -3919.43 -3917.50 -3917.57
-4016.03 -4012.48 -4017.41 -4005.66 -4012.01 -4029.51 -4035.04 -4024.14 -4018.43 -4005.64 -4044.87 -4025.38 -4043.89 -4066.88 -4130.10 -4219.32 -4278.16 -4300.40 -4309.88 -4311.53 -4310.04 -4292.91 -4276.48 -4261.93 -4258.72 -4255.42 -4255.54 -4247.08 -4230.82 -4205.78 -4200.95 -4207.77 -4223.29 -4231.63 -4270.07 -4360.42 -4438.39 -4443.40 -4451.07 -4442.66 -4282.16 -3965.08 -3222.70 -2546.69 -1548.49 -1178.24 -952.62 -819.49 -755.50 -728.73 -653.95 -790.27 -1177.82 -1641.39 -1677.50 -1548.80 -1079.48 -973.43 -706.69 -874.44 -1110.60 -1386.47 -1413.54 -1453.25 -1597.90 -1683.30 -1830.55 -2442.05 -3077.18 -3518.19 -3643.40 -3657.01 -3569.16 -3411.48 -2828.71 -2379.70 -1895.40 -1363.48 -1431.58 -1239.36 -1040.96 -859.69 -699.42 -666.47 -678.03 -660.93 -697.74 -731.22 -721.58 -857.76 -1246.87 -1805.60 -2209.00 -2673.20 -2624.14 -2413.93 -2676.29 -2749.96 -3177.26 -3490.51 -3782.82 -3829.91 -3877.37 -3889.33 -3886.09 -3866.21 -3864.93 -3880.88 -3897.18 -3926.43 -3952.37 -3959.06 -3963.46 -3969.03 -3966.68 -3968.41 -3970.88 -3970.76 -3976.73 -3977.12 -3989.41 -3967.94 -3948.02 -3946.44 -3960.54 -3978.16 -3985.04 -3984.49 -3983.73 -3978.71 -3975.08 -3969.54 -3965.84 -3957.43 -3935.57 -3932.18 -3928.96 -3924.96 -3922.97 -3920.28 -3920.35
