-4843.76 -4851.45 -4869.25 -4923.47 -4937.26 -4962.03 -4998.41 -5064.12 -5099.69 -5156.24 -5183.48 -5220.56 -5246.49 -5272.63 -5321.99 -5368.91 -5398.60 -5416.78 -5423.82 -5320.01 -5217.65 -4887.90 -4051.71 -3573.94 -3294.70 -2223.82 -864.46 120.50 148.08 196.51 211.64 275.29 358.65 340.52 386.56 448.45 484.85 510.02 569.49 648.95 754.76 787.78 749.23 791.56 868.60 878.52 792.60 744.01 660.41 596.96 514.05 477.26 455.51 444.01 428.99 425.22 414.63 414.91 427.45 458.48 432.18 406.91 372.32 376.01 369.74 352.11 342.01 329.73 321.26 325.72 323.60 326.80 334.78 346.66 353.54 365.75 374.00 387.71 405.57 415.64 444.73 455.79 467.62 495.90 510.67 523.67 549.59 561.11 570.99 580.95 582.73 583.06 560.54 539.66 521.03 494.18 469.68 451.63 463.91 489.34 517.03 580.31 806.73 821.02 554.15 287.29 183.34 107.78 -1555.47 -3392.40 -4337.66 -4555.59 -4713.97 -4899.92 -5156.74 -5546.64 -5560.96 -5547.44 -5247.79 -3900.63 -2153.19 -678.34 -460.31 -431.46 -576.76 -835.46 -1016.18 -1351.48 -2231.27 -2738.37 -2953.02 -3436.85 -3963.44 -4134.21 -4163.92 -4143.93 -4130.97 -4124.26 -4125.80 -4121.52 -4121.59
-4841.49 -4841.41 -4864.76 -4889.49 -4909.21 -4959.53 -4977.65 -5039.90 -5109.09 -5166.94 -5194.34 -5220.69 -5245.31 -5277.63 -5329.17 -5365.27 -5393.92 -5396.85 -5204.74 -5034.32 -4591.45 -4054.50 -3407.99 -2277.67 -1744.48 -1258.91 -442.41 71.21 168.55 200.02 236.58 318.64 401.90 432.25 395.42 445.91 502.78 509.32 583.78 670.14 794.80 837.92 859.81 829.81 855.70 804.85 756.57 728.75 611.56 591.20 537.16 510.18 483.71 469.12 453.68 461.75 445.91 440.64 490.42 527.87 488.53 438.56 401.66 387.65 378.35 362.24 354.65 341.17 336.29 333.50 334.23 333.54 338.00 344.67 354.49 360.26 375.28 388.50 403.47 420.62 430.66 458.71 479.58 490.05 510.55 527.50 546.35 564.99 576.85 587.96 596.08 596.41 578.63 552.32 535.50 494.67 477.48 461.08 461.66 473.44 485.88 489.79 697.81 835.89 502.30 214.31 157.42 114.05 -1404.62 -3589.62 -4458.03 -4594.41 -4669.52 -4902.74 -5144.20 -5435.88 -5524.31 -5477.98 -5123.72 -3948.60 -1632.29 -860.85 -427.16 -399.79 -427.38 -707.36 -1034.97 -1214.21 -1705.89 -2144.75 -2685.32 -3273.00 -3917.21 -4127.57 -4162.84 -4149.09 -4136.10 -4130.42 -4124.69 -4119.47 -4119.54
-4869.79 -4869.70 -4893.20 -4907.80 -4933.21 -4976.21 -5005.35 -5068.59 -5119.51 -5175.61 -5205.36 -5232.30 -5259.66 -5286.12 -5312.00 -5334.70 -5231.09 -5113.64 -4726.58 -3965.00 -3157.36 -3033.67 -2455.08 -1719.40 -1260.65 -179.88 68.18 159.82 203.52 231.87 339.18 401.26 413.43 491.06 430.82 473.79 535.97 509.39 577.36 613.39 764.67 820.05 916.72 870.61 796.06 740.29 701.35 675.11 631.72 595.55 565.08 538.60 500.03 480.60 484.88 493.12 464.82 483.50 562.31 549.47 496.45 470.15 428.84 398.73 395.80 374.04 365.69 354.15 345.54 343.42 340.83 341.19 340.90 342.91 354.40 360.63 375.38 384.07 402.01 416.87 429.60 447.16 468.61 489.05 507.00 525.77 543.67 565.02 584.37 598.45 600.57 602.52 583.23 545.45 529.58 509.45 480.23 457.68 446.70 446.01 441.13 411.76 544.71 670.38 320.90 176.51 162.51 110.03 -1970.05 -4213.30 -4511.87 -4670.27 -4801.75 -4983.17 -5180.53 -5396.73 -5504.96 -5432.94 -4910.89 -3899.85 -1510.61 -653.74 -357.73 -374.09 -418.55 -581.88 -827.01 -966.64 -1487.09 -2251.19 -2908.02 -3051.62 -3833.20 -4147.40 -4163.18 -4147.00 -4137.28 -4127.22 -4122.20 -4117.25 -4117.32
-4909.22 -4908.45 -4926.12 -4955.18 -4983.58 -5016.15 -5043.11 -5095.90 -5141.22 -5183.90 -5213.54 -5236.33 -5244.03 -5235.07 -5240.78 -5033.48 -4765.30 -4089.32 -3536.21 -2975.16 -2735.01 -1589.68 -1172.08 -696.23 -298.47 137.49 163.62 184.59 227.85 279.26 347.09 448.72 474.84 589.73 571.26 486.27 560.13 597.30 585.45 653.47 705.15 819.70 903.13 879.43 793.84 733.69 709.20 677.82 642.76 602.81 574.40 555.58 529.04 508.41 512.10 512.38 500.19 554.57 646.34 584.60 508.67 476.00 433.29 408.59 406.32 394.21 383.15 362.20 354.37 354.30 347.37 346.42 349.72 350.78 353.33 362.46 368.98 383.26 400.45 412.26 435.36 452.87 458.93 482.84 506.52 529.76 544.11 572.40 588.18 598.72 605.42 604.94 587.86 544.25 530.86 513.18 489.40 451.95 434.90 425.86 400.11 372.99 386.04 329.63 212.83 164.34 140.22 84.21 -1270.77 -3825.35 -4431.17 -4652.68 -4864.78 -4999.76 -5181.97 -5364.97 -5470.60 -5397.19 -4918.46 -3283.78 -1457.68 -549.26 -352.87 -360.76 -444.88 -550.19 -666.97 -961.58 -1435.06 -2154.85 -2546.82 -3147.70 -3908.38 -4135.60 -4162.27 -4151.45 -4136.34 -4127.70 -4120.94 -4117.30 -4117.38
-4976.01 -4975.90 -5004.59 -5011.10 -5026.52 -5065.74 -5099.08 -5127.65 -5163.00 -5193.00 -5199.89 -5195.08 -5165.93 -5004.20 -4651.54 -4253.16 -3602.92 -3166.63 -2554.63 -2059.50 -1615.07 -1202.88 -243.65 132.91 162.62 159.36 192.93 237.90 295.47 368.40 358.25 454.21 522.44 653.83 652.11 545.37 639.92 687.24 658.63 694.38 804.25 864.72 886.46 852.57 785.30 734.14 695.61 663.95 628.52 610.44 588.38 564.73 541.01 531.12 531.95 532.28 541.91 586.04 637.72 582.43 524.76 477.20 468.41 440.79 423.13 413.96 389.72 373.03 368.37 360.71 355.03 353.28 354.41 353.85 359.32 362.97 370.99 385.13 398.64 403.40 438.67 448.93 456.88 482.96 497.60 523.19 547.13 565.73 586.40 598.42 603.08 599.90 587.30 559.39 530.11 512.47 473.62 451.67 416.14 383.70 360.12 336.90 360.04 382.25 221.91 141.21 111.75 84.25 -1023.23 -3744.35 -4790.52 -4796.80 -4875.88 -4947.72 -5162.51 -5284.72 -5353.06 -5175.87 -4847.92 -2900.45 -1758.86 -455.52 -308.46 -325.37 -426.30 -534.77 -707.72 -1023.20 -1321.41 -1873.70 -2611.44 -3098.40 -3984.64 -4122.53 -4161.64 -4150.79 -4139.49 -4129.96 -4125.25 -4119.51 -4119.10
-5071.00 -5070.86 -5089.11 -5104.53 -5115.35 -5142.70 -5173.38 -5186.41 -5188.08 -5202.47 -5185.21 -5097.12 -4775.70 -4635.11 -4193.83 -3581.18 -3089.16 -2324.43 -1932.29 -1788.27 -1593.34 -1265.76 -270.67 134.07 167.72 192.64 212.91 231.73 279.02 390.89 425.95 421.77 568.21 657.14 755.89 656.77 722.77 797.45 745.95 684.86 781.75 890.70 889.99 820.72 766.62 719.57 677.02 660.70 628.88 613.74 595.03 565.99 556.52 551.47 552.78 556.70 582.88 615.96 611.90 567.34 527.82 491.75 471.16 454.71 442.39 423.11 413.77 392.76 383.12 371.45 364.17 359.06 360.71 360.49 361.85 364.20 373.37 384.14 397.19 407.05 422.82 440.21 452.99 475.05 490.52 515.50 533.75 557.38 582.75 600.20 602.89 593.70 577.17 563.49 522.62 508.29 481.26 455.54 417.63 379.63 328.34 291.33 281.36 252.62 233.47 153.59 115.99 82.58 -588.90 -4042.19 -4907.10 -4760.67 -4931.74 -4987.70 -5096.40 -5180.16 -5269.39 -4952.38 -4300.07 -2584.83 -804.37 -374.15 -274.91 -332.57 -436.10 -589.11 -767.96 -1013.05 -1339.91 -1792.09 -2522.67 -3227.52 -3731.76 -4106.66 -4162.29 -4152.77 -4139.36 -4133.46 -4127.18 -4122.05 -4122.13
-5158.07 -5157.93 -5176.88 -5186.36 -5235.11 -5264.68 -5265.85 -5269.64 -5239.23 -5282.07 -5223.08 -4995.18 -4442.56 -3802.51 -3124.52 -2955.94 -2668.96 -2399.70 -1964.23 -1795.99 -1637.11 -1260.69 -296.28 141.21 175.02 203.95 226.03 261.61 342.13 431.64 491.96 484.59 511.33 631.47 756.40 745.24 859.15 871.62 831.17 754.40 824.37 936.55 902.74 816.13 742.36 715.75 680.66 649.23 631.56 612.03 598.56 580.23 572.69 568.05 563.98 569.91 588.19 639.31 616.21 563.53 537.28 512.07 490.75 464.06 452.37 429.27 417.21 399.76 388.80 382.28 368.85 370.32 364.96 362.18 362.85 365.55 371.63 380.05 390.77 400.13 416.85 429.75 450.75 461.49 499.73 513.31 538.40 565.86 585.69 598.22 598.26 593.89 575.47 561.28 532.15 509.38 489.42 453.08 428.86 376.73 351.10 316.73 313.42 270.42 213.49 171.59 117.11 89.65 -860.98 -2722.39 -3652.85 -4576.79 -4992.43 -5043.13 -5066.08 -5135.14 -5138.80 -4671.93 -3546.62 -1953.88 -655.01 -277.77 -254.89 -359.24 -475.71 -634.37 -807.99 -1074.05 -1368.75 -1890.84 -2666.82 -3116.70 -3771.00 -4072.17 -4161.95 -4151.21 -4141.62 -4137.59 -4132.10 -4126.54 -4126.63
-5245.99 -5245.96 -5265.44 -5289.81 -5327.71 -5351.59 -5443.11 -5432.33 -5391.44 -5413.13 -5229.20 -4948.35 -4041.49 -3405.24 -2950.60 -2761.60 -2699.01 -2550.10 -2203.91 -1837.60 -1559.97 -787.17 -90.47 161.52 193.67 237.62 264.05 310.26 383.67 520.04 562.31 556.15 610.14 670.14 730.59 739.05 914.49 987.16 868.33 893.70 977.69 978.26 878.34 777.43 737.21 701.86 674.03 648.24 630.22 603.74 594.57 582.68 580.61 576.92 576.39 592.40 634.71 658.07 615.28 581.89 569.78 529.31 510.26 477.93 463.21 454.57 424.74 413.49 400.50 391.77 377.56 371.84 368.95 366.32 364.94 365.51 369.02 376.85 385.96 395.55 406.74 424.48 451.75 466.36 489.29 507.57 524.85 565.02 570.91 580.83 584.98 581.90 569.01 556.26 532.40 513.21 493.62 445.38 429.09 396.75 368.87 346.55 339.61 267.67 214.07 167.16 117.71 61.63 -202.99 -691.18 -2741.90 -4548.17 -4763.78 -5014.51 -5063.60 -5065.41 -4869.73 -4218.67 -2260.16 -853.70 -337.76 -241.10 -246.24 -344.10 -479.40 -709.52 -1149.62 -1413.63 -1582.97 -2003.96 -2898.15 -3546.11 -3973.78 -4117.64 -4162.12 -4156.84 -4147.05 -4143.20 -4143.56 -4140.12 -4140.21
-5400.72 -5400.51 -5422.45 -5432.14 -5453.82 -5492.19 -5521.65 -5496.63 -5460.56 -5190.20 -4849.76 -4419.72 -3830.25 -3111.99 -2895.52 -2800.55 -2854.45 -2742.46 -2281.63 -1692.34 -1137.15 -218.72 151.13 170.83 218.29 259.54 272.78 304.39 359.78 464.68 501.67 537.27 557.10 585.14 648.73 717.78 892.68 1031.06 1025.93 970.05 976.64 893.57 814.22 773.75 727.25 680.15 657.76 636.61 622.78 608.53 592.78 582.24 583.13 586.92 605.98 612.70 687.91 696.09 667.07 644.69 604.52 545.86 526.54 483.40 463.55 462.26 440.83 433.17 415.73 397.50 387.52 379.57 373.38 370.38 367.16 367.06 371.10 377.12 382.56 393.61 403.88 418.08 442.51 458.25 473.04 504.79 519.16 556.85 559.66 570.78 574.36 573.28 562.72 546.53 524.76 501.61 484.03 443.25 426.06 354.81 337.47 327.02 303.83 245.42 194.66 174.92 135.70 -46.05 -363.97 -952.48 -2416.28 -4527.18 -4569.20 -4895.45 -4991.58 -4923.80 -4449.86 -3723.67 -1585.49 -427.71 -241.18 -176.96 -266.77 -365.20 -454.58 -812.12 -1104.57 -1686.11 -1966.79 -2409.69 -3355.17 -3868.52 -4119.64 -4173.04 -4161.08 -4159.91 -4153.13 -4153.73 -4152.61 -4151.17 -4151.26
-5627.50 -5622.55 -5553.99 -5450.11 -5459.02 -5480.76 -5403.22 -5109.85 -4923.27 -4584.07 -4109.01 -3562.36 -3492.38 -3198.70 -3217.09 -3039.00 -3038.90 -2897.95 -2409.15 -1347.51 -521.84 141.53 160.89 194.17 215.20 257.69 293.11 343.20 355.07 405.79 427.04 495.09 538.80 563.42 598.99 690.56 793.69 913.18 959.80 879.48 894.99 908.77 778.12 730.31 715.29 663.43 628.00 613.65 610.13 586.28 584.49 582.75 587.02 600.26 629.75 636.23 703.21 737.14 752.87 727.77 661.23 570.00 548.49 501.10 480.90 464.97 463.39 442.06 421.96 403.00 394.19 385.52 378.63 373.78 369.07 370.46 371.79 375.60 383.80 395.02 403.69 412.50 427.68 449.40 465.20 490.12 505.65 518.05 549.27 563.14 565.59 562.17 554.60 538.88 511.44 494.22 463.61 428.24 396.16 352.30 325.25 285.54 257.63 206.46 174.41 145.02 -72.14 -129.01 -420.13 -1396.27 -2348.93 -4254.12 -4346.58 -4701.01 -4983.17 -4932.10 -3731.15 -2624.43 -830.63 -364.18 -153.32 -173.36 -216.44 -292.97 -501.18 -948.13 -1402.20 -1816.13 -2130.21 -2751.51 -3594.37 -4069.29 -4170.98 -4173.15 -4164.49 -4164.55 -4162.69 -4165.88 -4162.81 -4170.35 -4170.45
-5443.31 -5443.46 -5109.06 -5041.37 -4958.39 -4689.85 -4539.41 -4216.45 -3927.66 -3729.66 -3691.59 -3481.79 -3419.65 -3479.34 -3508.05 -3444.85 -3307.71 -2957.61 -2423.34 -1465.15 -84.36 139.09 164.93 196.28 221.96 271.52 326.79 358.83 382.97 424.68 431.36 514.81 586.63 672.82 654.37 686.27 752.57 814.98 860.81 749.59 761.40 830.49 791.24 712.08 685.52 622.90 611.27 587.62 583.56 576.17 573.78 574.22 588.26 598.41 626.72 653.83 689.59 762.50 820.40 814.62 703.27 626.26 558.49 526.58 509.25 478.29 468.01 465.78 438.24 416.19 403.04 389.98 383.33 377.00 371.46 371.39 373.25 376.81 382.65 390.60 403.25 413.93 427.43 439.13 466.05 485.95 499.15 512.72 532.72 549.73 550.16 553.87 548.87 534.70 512.13 494.41 437.58 417.47 373.46 338.56 337.30 263.87 206.34 177.80 148.14 127.89 -347.71 -739.03 -897.84 -1933.23 -3354.04 -3868.24 -4234.85 -4696.68 -4900.73 -4819.41 -3565.82 -1799.82 -549.89 -243.08 -120.42 -158.48 -204.52 -284.34 -456.88 -818.53 -1387.46 -2072.36 -2599.34 -3349.72 -3622.47 -4033.00 -4168.16 -4164.86 -4166.30 -4173.96 -4176.23 -4176.76 -4185.38 -4182.68 -4182.78
-4292.99 -4294.57 -4257.37 -4024.77 -4075.73 -3679.64 -3671.11 -3583.81 -3584.01 -3596.84 -3640.88 -3625.99 -3697.69 -3699.21 -3651.69 -3639.92 -3470.60 -3182.69 -2360.60 -1435.09 -157.30 142.85 162.95 205.02 226.44 252.47 300.07 361.03 394.78 432.67 454.45 532.70 590.30 691.97 791.32 811.99 852.62 834.60 797.83 705.31 696.73 731.07 763.99 719.79 648.92 594.17 583.27 572.17 571.56 565.80 567.79 571.31 581.96 594.09 623.13 661.14 667.40 731.57 796.94 806.61 694.47 610.48 574.06 531.06 531.04 502.28 482.07 471.99 443.30 430.40 413.65 395.23 385.51 379.84 374.47 373.76 376.05 378.96 382.70 391.10 401.98 417.43 433.49 445.59 460.89 482.90 493.79 509.50 514.02 530.49 533.32 536.67 533.76 524.63 504.78 438.71 422.08 389.38 333.45 311.44 322.20 259.74 190.50 156.25 133.85 -130.71 -673.09 -1301.86 -1534.16 -2435.83 -3228.68 -3812.26 -4571.47 -4992.17 -5052.84 -4382.85 -3179.50 -1472.22 -438.24 -108.72 -103.51 -149.98 -193.22 -269.54 -395.95 -815.57 -1532.74 -2499.55 -3021.88 -3503.81 -3879.66 -3955.44 -4178.60 -4174.68 -4179.03 -4184.36 -4186.87 -4190.42 -4193.69 -4196.93 -4197.04
-3414.38 -3415.88 -3479.02 -3554.78 -3473.90 -3448.32 -3444.69 -3511.73 -3659.96 -3747.96 -3764.38 -3813.14 -3820.42 -3827.01 -3781.06 -3717.05 -3621.24 -3389.68 -3072.28 -1393.69 -91.61 147.65 169.25 202.83 225.78 250.54 279.42 332.04 372.66 416.64 457.43 529.48 603.83 687.66 803.42 748.93 736.94 769.84 702.07 703.27 641.76 669.08 713.56 673.11 633.98 586.04 577.14 561.07 559.82 555.45 563.99 568.61 575.73 586.12 615.09 630.32 650.80 691.26 786.53 767.37 688.09 613.64 609.50 545.59 542.27 518.01 495.01 478.94 453.55 439.67 412.49 396.83 388.16 380.84 377.44 375.55 376.40 378.64 382.58 393.36 404.12 416.55 428.06 441.06 464.34 474.71 488.52 500.96 508.46 512.26 517.04 513.95 517.73 508.78 485.86 442.61 416.08 398.96 366.99 313.76 247.49 247.20 161.43 147.38 124.39 -172.75 -1054.56 -1536.43 -1517.06 -2015.73 -2811.04 -4292.79 -5175.53 -5180.61 -5005.48 -4507.40 -2651.26 -840.87 -162.12 -76.66 -95.62 -164.89 -210.95 -312.86 -400.11 -917.17 -1629.94 -2777.64 -3506.02 -3685.48 -3953.21 -4087.70 -4185.66 -4186.06 -4192.51 -4195.98 -4198.95 -4199.89 -4208.51 -4210.21 -4210.32
-3386.54 -3386.42 -3413.71 -3417.31 -3452.22 -3483.29 -3529.33 -3614.65 -3749.40 -3822.38 -3874.97 -3895.19 -3913.10 -3894.63 -3835.72 -3731.46 -3624.75 -3481.30 -3249.18 -1421.05 -635.44 110.65 160.91 186.46 224.07 234.17 271.01 330.91 365.50 374.46 428.80 463.72 509.22 540.49 711.99 689.50 638.79 601.30 582.89 626.25 628.57 641.17 679.63 616.45 578.05 543.45 544.01 549.23 545.12 547.30 559.80 563.93 567.42 579.38 579.44 623.34 660.74 704.72 763.74 759.13 702.59 644.93 606.69 571.81 549.67 533.82 500.47 481.41 460.47 444.46 418.00 401.36 392.17 384.84 382.86 378.97 379.67 381.94 385.99 397.09 407.43 413.72 432.11 442.80 453.53 471.40 484.47 492.45 496.48 499.78 498.77 504.34 510.06 502.60 478.67 419.90 409.13 372.47 336.63 309.79 240.66 215.05 163.78 130.04 103.56 -229.63 -868.87 -1320.13 -1449.31 -1599.11 -3323.27 -4400.35 -5090.74 -5271.98 -5074.20 -3948.36 -1638.32 -587.63 -110.44 -57.14 -102.70 -180.85 -211.48 -309.16 -512.95 -937.14 -1981.26 -2806.21 -3793.06 -3936.06 -4098.55 -4194.06 -4195.58 -4200.30 -4202.93 -4207.53 -4208.11 -4215.81 -4218.37 -4221.99 -4222.11
-3526.23 -3525.39 -3537.76 -3540.41 -3564.91 -3598.90 -3623.23 -3702.23 -3809.45 -3898.99 -3918.48 -3927.66 -3938.24 -3907.53 -3853.61 -3756.37 -3646.80 -3531.74 -3171.78 -2279.27 -257.51 140.25 155.77 195.61 220.61 233.80 271.45 293.82 327.52 336.65 368.22 426.02 446.29 501.29 524.75 516.04 575.10 546.58 537.19 525.51 538.70 554.88 561.33 542.01 535.97 531.08 531.15 535.08 539.77 541.27 550.67 552.84 563.60 575.20 582.73 607.03 664.01 707.70 770.13 800.04 741.55 657.73 651.01 618.32 566.51 548.26 526.74 480.16 472.51 450.96 435.18 409.50 392.34 387.23 383.82 382.05 381.53 384.80 389.83 401.48 408.40 420.85 438.05 448.95 459.73 474.27 479.94 483.39 485.21 484.97 485.48 490.82 494.57 488.28 450.97 420.28 397.73 370.08 299.69 269.92 213.31 191.64 156.13 104.52 93.85 -74.33 -782.83 -1378.44 -1360.34 -1702.04 -3145.34 -4019.27 -5236.36 -5311.78 -4807.20 -3562.79 -1855.54 -468.04 -112.50 -43.86 -108.38 -152.60 -218.30 -315.06 -544.07 -915.48 -2087.43 -2766.92 -3543.82 -4056.43 -4161.86 -4199.40 -4202.90 -4208.59 -4211.46 -4216.27 -4221.12 -4229.13 -4233.16 -4236.84 -4237.01
-3614.55 -3614.72 -3618.44 -3639.71 -3637.98 -3650.49 -3683.29 -3800.15 -3854.80 -3941.01 -3967.69 -3962.95 -3962.23 -3950.68 -3857.55 -3780.90 -3670.66 -3377.77 -3050.13 -2248.80 -637.18 133.42 147.31 185.15 193.31 230.05 244.08 266.13 293.54 313.17 350.39 365.03 385.02 431.38 451.31 475.81 483.01 491.81 499.26 489.22 501.41 512.19 502.71 514.87 519.64 522.74 529.43 525.68 530.95 537.39 543.28 550.61 560.16 572.41 582.99 606.49 659.68 710.44 740.34 794.98 758.89 731.18 735.60 626.43 603.64 569.00 554.42 537.69 492.51 485.53 462.35 411.06 396.27 387.89 385.15 383.57 384.23 386.11 394.90 404.26 415.14 427.75 439.60 446.90 464.06 469.33 473.87 479.64 478.24 474.99 474.64 478.44 479.28 469.43 430.94 401.62 358.11 388.32 310.59 232.18 193.52 170.80 127.23 63.27 -83.49 -712.17 -1417.53 -1382.56 -1429.97 -1835.88 -3111.99 -4503.56 -5094.03 -5285.30 -4770.49 -3147.72 -1526.55 -253.23 -66.07 -40.92 -104.52 -155.33 -255.02 -344.75 -639.60 -975.94 -1584.77 -2651.99 -3573.33 -3945.06 -4193.93 -4204.62 -4212.00 -4217.96 -4221.38 -4222.88 -4233.37 -4240.04 -4245.22 -4251.46 -4251.56
-3722.81 -3724.75 -3736.98 -3734.35 -3766.88 -3742.17 -3768.18 -3832.33 -3889.57 -3967.12 -4037.89 -4051.61 -4039.32 -4003.98 -3898.66 -3756.14 -3568.16 -3257.58 -2901.21 -2155.97 -38.32 136.27 149.95 166.94 175.92 202.51 231.24 256.91 272.70 295.39 344.00 345.50 355.66 376.73 417.49 436.35 447.66 448.25 452.55 462.91 469.93 471.14 474.29 486.17 492.11 505.73 508.75 511.56 521.87 531.59 535.52 550.62 564.10 576.02 585.46 590.21 640.55 673.35 732.10 761.81 828.50 874.14 766.72 686.37 628.27 611.12 609.40 615.84 533.71 509.97 473.55 425.08 397.98 390.36 387.20 383.98 384.50 387.48 395.62 401.93 417.54 427.55 435.30 444.61 457.44 466.11 469.71 468.64 468.21 466.04 462.20 459.92 459.57 444.66 422.69 374.31 343.81 286.90 239.18 183.10 176.39 136.51 122.12 -22.49 -806.43 -1433.56 -1380.35 -1308.76 -1381.19 -1938.01 -3105.51 -4693.96 -5194.08 -5238.14 -5022.18 -3948.48 -967.97 -528.14 -110.30 -64.41 -106.11 -175.12 -267.03 -345.72 -600.14 -1056.65 -1506.22 -2566.29 -3453.86 -3724.92 -3981.09 -4204.19 -4214.08 -4226.34 -4229.21 -4232.68 -4244.04 -4256.27 -4259.65 -4265.86 -4265.89
-3858.31 -3858.46 -3850.83 -3854.66 -3868.05 -3885.96 -3927.88 -3974.96 -4076.43 -4115.64 -4107.02 -4098.85 -4081.60 -4074.77 -3979.15 -3732.67 -3521.47 -3139.05 -2403.98 -1509.56 -241.86 95.26 143.01 153.95 166.93 187.65 215.97 234.48 253.69 276.22 294.68 313.07 331.25 353.55 380.30 401.18 422.05 433.36 433.65 441.81 446.40 450.66 450.17 457.89 479.93 486.21 493.51 503.18 510.33 525.25 534.18 545.00 564.75 574.20 586.97 591.17 636.43 672.82 718.26 754.67 804.67 811.32 734.71 693.94 635.88 621.33 623.58 619.03 600.20 555.08 459.12 418.25 399.14 392.61 387.08 383.39 384.00 388.36 394.92 410.58 420.07 429.90 438.76 449.98 457.99 461.70 462.81 461.55 460.67 453.35 450.65 450.98 446.76 435.60 410.30 375.54 339.59 271.61 219.89 187.60 166.72 129.52 49.79 -302.82 -1334.75 -1340.92 -1289.90 -1284.35 -1378.85 -2148.92 -3019.63 -5046.80 -5200.83 -5358.10 -5184.65 -4003.44 -2158.76 -1057.67 -344.51 -141.52 -140.03 -171.94 -271.71 -378.32 -663.30 -1016.66 -1726.99 -2512.70 -3390.04 -3681.61 -4094.23 -4203.76 -4221.07 -4233.90 -4237.98 -4242.02 -4255.38 -4264.99 -4270.52 -4279.03 -4279.09
-3941.48 -3941.44 -3931.89 -3943.03 -3944.87 -3952.95 -3976.22 -4045.49 -4117.08 -4153.06 -4166.54 -4171.49 -4168.13 -4120.43 -3985.34 -3749.22 -3486.61 -3011.56 -2027.17 -1528.31 -571.44 -142.83 139.86 144.86 161.57 179.42 193.08 205.74 239.86 261.18 271.21 293.74 319.14 342.26 364.23 380.67 384.14 412.38 413.24 403.93 408.99 415.32 437.32 442.71 460.00 468.32 480.89 499.10 505.95 522.23 533.55 546.57 562.46 574.50 586.06 590.64 635.29 673.30 735.25 760.68 733.93 730.28 678.03 648.13 638.08 599.05 565.17 574.34 544.71 512.30 462.71 423.78 401.01 392.57 385.41 381.61 383.83 389.18 396.05 403.86 419.70 426.17 441.82 447.81 460.20 460.51 460.42 459.03 452.25 447.90 441.96 434.90 423.52 411.18 388.09 365.17 329.53 249.30 221.93 200.66 163.66 116.62 -38.61 -725.47 -1207.56 -1231.98 -1251.03 -1262.40 -1474.45 -2417.63 -3605.93 -4937.50 -5328.77 -5370.64 -5268.18 -4553.85 -3299.43 -1798.99 -1274.18 -179.20 -200.57 -195.49 -253.96 -449.52 -654.88 -1200.93 -1960.94 -2842.49 -3396.91 -3846.94 -4130.33 -4220.56 -4228.35 -4239.04 -4245.45 -4256.01 -4266.83 -4275.93 -4283.87 -4290.85 -4290.93
-3970.61 -3970.54 -3972.47 -3980.71 -3980.88 -3981.29 -4024.88 -4073.37 -4126.78 -4183.38 -4198.43 -4200.32 -4186.32 -4124.59 -4050.10 -3768.30 -3437.37 -3097.09 -2186.72 -1603.12 -840.79 -301.30 -29.69 126.94 149.11 172.71 175.55 200.07 207.54 228.34 247.77 265.83 304.59 318.78 328.92 345.15 365.99 383.93 393.18 386.23 383.91 384.86 400.91 417.38 450.41 455.02 473.73 488.87 502.02 517.51 530.67 539.82 557.36 573.34 587.47 612.84 661.40 686.40 729.50 726.85 671.12 637.70 639.76 614.47 588.79 569.48 548.09 505.11 492.79 471.98 465.63 426.82 393.83 386.71 381.91 377.67 380.81 385.54 392.65 408.18 421.26 431.56 442.53 447.82 459.77 462.59 462.40 458.30 450.09 440.37 432.61 418.62 401.31 388.45 370.85 327.99 273.37 213.22 200.38 171.36 139.06 115.07 -217.03 -816.14 -1172.14 -1207.49 -1219.48 -1262.84 -1437.04 -2606.60 -3941.40 -4767.07 -5350.34 -5398.46 -5399.64 -5184.78 -4609.15 -2785.61 -1761.14 -814.80 -244.15 -228.05 -314.85 -591.53 -967.27 -1544.37 -2449.53 -3234.87 -3489.74 -3923.43 -4213.68 -4220.56 -4230.32 -4242.65 -4252.31 -4262.92 -4271.60 -4281.13 -4290.25 -4297.90 -4297.98
-3983.92 -3983.84 -3988.43 -3989.40 -3995.23 -4000.70 -4021.59 -4081.03 -4144.10 -4192.80 -4206.55 -4206.25 -4197.04 -4157.49 -4020.87 -3815.96 -3569.85 -3324.81 -2686.13 -2170.54 -1098.88 -710.90 -452.47 -106.55 41.02 142.36 166.39 177.22 195.24 215.06 222.68 251.80 278.11 298.92 305.32 312.46 339.26 345.81 368.82 369.84 369.96 382.59 391.20 405.07 428.86 446.05 465.28 477.09 494.87 500.89 523.98 537.35 553.25 572.18 592.53 623.45 667.85 700.41 714.13 663.75 638.74 618.81 603.92 576.23 531.42 519.26 496.29 490.08 463.61 445.61 427.56 402.34 389.96 378.42 373.64 372.90 377.29 381.02 387.81 406.60 424.77 431.80 442.59 450.99 464.64 465.78 465.95 465.32 461.76 439.41 424.65 395.84 380.22 348.80 336.48 284.63 232.96 208.95 185.25 147.81 134.77 31.47 -432.06 -961.51 -1149.31 -1190.86 -1199.50 -1290.95 -1427.12 -2536.94 -3881.24 -5091.04 -5342.32 -5417.71 -5434.62 -5385.66 -5221.01 -4544.81 -2846.07 -1703.44 -463.62 -323.69 -384.89 -575.56 -1266.12 -2099.98 -2425.08 -3663.98 -3819.14 -3972.54 -4209.43 -4223.57 -4234.76 -4241.81 -4253.40 -4263.37 -4275.19 -4284.23 -4294.46 -4300.67 -4300.76
-3980.21 -3979.24 -3979.91 -3981.27 -3990.06 -3988.73 -4007.39 -4061.51 -4130.66 -4190.71 -4197.07 -4198.66 -4178.55 -4134.53 -3991.32 -3852.35 -3631.25 -3400.29 -2962.44 -2549.32 -2138.47 -1509.77 -1084.60 -435.58 -73.77 -57.21 147.23 149.70 165.63 188.84 209.84 223.90 252.33 271.48 281.09 290.75 313.15 316.42 323.31 341.83 350.83 363.42 378.62 398.49 407.61 419.00 460.97 465.79 486.20 497.43 512.60 537.51 544.28 572.80 588.79 647.29 696.13 715.18 708.46 620.35 594.27 593.77 567.04 549.44 513.00 486.60 477.63 459.82 448.23 434.02 411.97 398.57 382.01 371.79 364.41 365.93 371.42 379.02 390.51 404.15 419.29 431.35 445.31 462.53 471.97 472.68 470.06 468.11 464.06 442.47 415.02 373.17 350.35 331.05 278.47 259.70 223.46 183.30 154.49 131.78 124.04 -168.47 -503.56 -895.90 -1089.69 -1165.57 -1216.37 -1321.66 -1569.35 -2657.22 -4238.83 -5029.41 -5362.29 -5422.70 -5452.10 -5464.18 -5313.13 -4977.12 -3507.29 -1766.84 -567.87 -359.07 -496.74 -782.87 -1234.67 -1960.94 -2619.40 -3543.49 -4046.77 -4205.56 -4211.69 -4221.48 -4234.17 -4241.69 -4251.18 -4261.07 -4274.82 -4282.87 -4292.77 -4298.32 -4298.41
-3929.51 -3929.36 -3930.72 -3941.53 -3934.96 -3945.00 -3952.03 -4033.54 -4089.18 -4111.46 -4117.58 -4128.10 -4140.14 -4110.11 -4013.44 -3947.91 -3855.10 -3735.12 -3477.25 -3258.72 -2609.23 -1910.18 -1465.73 -987.49 -415.74 -179.21 52.67 133.07 151.73 166.28 187.11 208.56 216.20 245.85 265.24 277.25 286.08 300.24 311.79 323.09 333.06 343.12 352.47 377.85 398.76 404.88 439.76 464.15 472.27 492.57 510.52 532.09 547.40 580.43 607.56 648.96 716.87 722.64 672.62 603.21 580.36 558.23 545.06 514.52 496.19 482.30 465.71 434.90 423.79 414.73 402.99 386.03 372.35 360.82 361.03 362.08 366.55 378.34 386.82 402.85 417.06 432.65 449.95 468.59 476.64 481.06 480.13 470.19 462.79 436.77 406.40 363.59 330.46 277.33 253.34 221.50 216.70 172.51 126.85 24.06 -207.94 -623.91 -855.19 -1013.37 -1102.47 -1142.11 -1229.26 -1403.92 -2054.74 -3027.33 -4567.77 -5156.48 -5381.88 -5424.39 -5450.50 -5480.22 -5426.64 -5142.91 -3564.15 -2269.58 -660.23 -425.80 -576.50 -1013.67 -1464.37 -2276.90 -3101.84 -3561.87 -4153.49 -4206.15 -4211.76 -4219.78 -4234.68 -4240.88 -4249.45 -4259.16 -4269.90 -4280.19 -4286.73 -4294.43 -4294.52
-3851.17 -3849.53 -3863.08 -3875.03 -3884.20 -3891.29 -3904.21 -3934.49 -4001.46 -4054.01 -4059.64 -4056.58 -4047.80 -4037.95 -4017.41 -3995.89 -3945.58 -3905.96 -3793.65 -3392.61 -3202.98 -2509.62 -1431.30 -1055.21 -678.95 -434.93 -173.16 53.91 138.02 152.56 171.83 177.92 198.12 218.14 230.50 247.70 266.78 282.60 281.86 306.26 314.58 324.04 340.26 361.46 385.00 401.36 422.44 447.82 462.10 491.37 502.36 529.69 567.92 582.94 631.80 692.08 734.83 724.38 662.83 604.55 568.65 540.21 523.94 499.61 486.12 469.39 439.33 424.99 415.47 393.45 382.28 366.55 357.76 351.86 351.25 357.81 364.22 377.21 384.97 399.78 412.33 434.82 445.52 470.85 482.94 490.71 488.59 461.62 428.74 409.31 366.02 328.86 304.17 268.04 228.97 195.35 160.06 137.39 12.53 -269.65 -578.28 -828.07 -982.95 -1030.52 -1078.59 -1135.52 -1264.49 -1423.25 -1827.24 -3272.92 -4925.78 -5231.24 -5382.19 -5416.51 -5451.05 -5486.92 -5436.74 -5224.88 -3701.00 -2214.04 -828.94 -572.90 -698.81 -1048.53 -1732.28 -2514.85 -2762.23 -3518.98 -4061.94 -4192.87 -4211.66 -4219.85 -4228.61 -4238.21 -4245.18 -4256.73 -4260.56 -4272.68 -4279.37 -4287.47 -4287.55
-3815.40 -3815.32 -3826.72 -3830.08 -3825.60 -3828.95 -3858.00 -3889.89 -3964.70 -4004.37 -4016.27 -4012.80 -4003.76 -4013.20 -4024.07 -4049.66 -4061.18 -4058.86 -3999.19 -3802.76 -3536.83 -2698.12 -1793.05 -1178.81 -664.66 -551.55 -477.79 -362.27 28.20 -4.20 143.24 150.41 171.22 186.12 207.13 218.54 231.06 254.68 273.11 289.07 296.06 309.02 319.77 343.58 367.17 379.48 399.77 432.40 442.38 475.65 486.40 525.58 570.17 595.91 680.67 743.41 722.62 660.18 624.19 575.70 554.84 527.11 505.53 474.97 464.98 443.02 424.40 420.18 396.67 380.62 369.98 354.08 348.84 344.51 345.08 353.00 359.37 374.35 382.46 402.85 416.04 432.43 447.53 471.97 486.77 493.56 485.48 473.20 411.19 380.26 350.36 392.79 284.80 223.87 202.91 191.06 129.75 -26.99 -173.65 -583.54 -895.64 -940.52 -1000.11 -1077.59 -1139.07 -1176.48 -1268.71 -1336.08 -2309.77 -3543.46 -4771.82 -5384.96 -5394.76 -5411.54 -5442.33 -5475.01 -5427.05 -5066.04 -3289.81 -1916.28 -652.71 -512.62 -810.21 -1161.73 -1472.30 -2165.34 -3281.98 -3723.05 -4159.71 -4204.00 -4209.36 -4216.78 -4222.19 -4233.57 -4241.27 -4247.02 -4255.69 -4265.11 -4272.82 -4280.06 -4280.15
-3821.97 -3821.91 -3825.19 -3828.09 -3827.76 -3831.90 -3847.20 -3895.81 -3957.11 -4005.44 -4008.20 -4001.04 -3998.15 -4005.89 -4026.12 -4065.59 -4084.53 -4084.40 -4013.03 -3942.08 -3458.30 -2825.49 -1856.74 -1109.70 -549.45 -469.40 -469.91 -566.22 -517.01 -506.34 -299.91 95.27 103.72 170.71 187.68 209.59 217.74 231.07 253.33 263.09 274.66 291.90 308.79 320.59 349.55 368.91 379.65 398.49 427.76 471.44 496.07 536.59 570.49 608.36 677.12 735.11 723.86 676.45 586.14 564.72 544.96 524.26 481.35 468.44 453.87 433.03 416.84 394.49 382.70 370.96 360.24 349.65 336.17 334.64 341.18 345.37 354.44 366.20 376.41 398.71 420.22 435.55 457.67 477.37 483.30 484.03 470.01 418.40 403.33 343.91 305.20 363.13 276.36 182.17 159.58 126.25 63.02 -145.57 -426.05 -845.86 -932.03 -979.58 -1029.31 -1092.45 -1170.12 -1210.10 -1277.38 -1602.01 -2505.00 -3518.49 -4666.57 -5299.32 -5401.91 -5413.26 -5440.33 -5443.51 -5240.31 -4773.32 -2845.08 -1762.70 -461.61 -476.16 -766.87 -1343.18 -1766.80 -2206.99 -3140.44 -3817.88 -4183.64 -4204.91 -4207.62 -4215.07 -4219.97 -4225.23 -4235.06 -4241.16 -4246.97 -4258.25 -4263.82 -4268.77 -4269.96
-3843.66 -3843.61 -3843.76 -3852.08 -3855.68 -3858.56 -3871.80 -3916.93 -3980.46 -4012.95 -4019.51 -4014.76 -4010.81 -4013.91 -4050.87 -4087.24 -4104.96 -4093.18 -4030.24 -3890.46 -3315.79 -2901.63 -1871.83 -1089.23 -704.38 -729.32 -936.83 -808.02 -845.81 -1001.90 -808.30 -421.79 27.74 162.43 163.64 181.87 196.59 213.34 225.97 240.47 257.24 273.76 288.61 308.25 326.26 340.55 365.76 390.57 413.48 462.29 497.23 526.86 582.22 623.48 680.73 715.12 681.96 635.04 582.33 556.45 525.56 495.16 476.03 450.69 431.86 421.15 410.58 390.47 371.18 353.49 341.81 330.63 327.00 326.61 334.77 340.77 349.65 358.70 373.24 398.78 416.35 438.88 457.07 469.26 485.31 482.54 465.42 429.72 390.68 354.51 380.01 267.22 222.16 156.55 120.10 104.57 -59.91 -362.35 -777.95 -960.38 -1003.62 -1040.36 -1035.28 -1115.95 -1160.12 -1244.89 -1339.65 -1800.41 -2819.49 -4089.15 -4790.74 -5343.95 -5406.65 -5417.54 -5436.31 -5444.64 -5329.40 -4381.42 -2659.20 -1280.53 -543.14 -564.29 -952.60 -1413.92 -2262.90 -2952.60 -3708.42 -4144.54 -4194.40 -4205.51 -4206.93 -4211.50 -4217.87 -4220.73 -4228.14 -4232.31 -4236.11 -4247.08 -4255.81 -4259.22 -4259.31
-3900.30 -3908.25 -3919.56 -3905.37 -3907.70 -3895.35 -3928.89 -3945.61 -4013.88 -4039.88 -4046.35 -4041.97 -4047.42 -4037.55 -4063.01 -4105.33 -4117.61 -4113.88 -4028.78 -3831.67 -3384.63 -2668.40 -1920.70 -1412.73 -1290.56 -1278.22 -1279.57 -1397.42 -1606.06 -1560.87 -1788.49 -1766.77 -389.01 101.33 149.55 169.66 185.68 196.79 205.47 218.74 236.31 244.68 267.48 292.54 322.59 336.96 358.90 377.05 415.99 435.07 511.10 571.53 632.49 680.23 660.46 650.91 629.83 564.41 552.92 553.17 515.34 477.49 467.59 439.44 423.98 415.06 401.58 382.52 364.90 340.49 332.54 321.93 319.69 319.64 324.60 329.27 341.13 355.18 366.71 384.39 406.23 434.44 448.59 463.93 480.49 471.28 445.76 425.57 383.16 362.40 423.19 345.26 205.98 131.11 112.21 22.40 -389.21 -1199.83 -1032.38 -1092.20 -1068.82 -1089.51 -1126.10 -1111.68 -1188.34 -1290.52 -1377.01 -2026.27 -2805.79 -4525.31 -5251.19 -5394.72 -5409.48 -5421.32 -5451.79 -5432.62 -5100.21 -4716.03 -2111.10 -662.73 -476.00 -703.14 -939.61 -1496.34 -2412.14 -3464.23 -3848.11 -4181.41 -4199.24 -4203.63 -4205.84 -4207.67 -4211.63 -4219.41 -4222.81 -4225.82 -4231.53 -4235.06 -4242.55 -4246.36 -4246.44
-4040.87 -4040.91 -4020.65 -4005.02 -4029.50 -4097.82 -4049.33 -4037.51 -4079.55 -4090.61 -4093.31 -4086.40 -4087.15 -4081.83 -4098.67 -4132.77 -4145.61 -4123.21 -4089.63 -3901.79 -3563.38 -2839.10 -2291.17 -1984.93 -1857.87 -1977.46 -2073.53 -2202.54 -2238.59 -2546.31 -2626.46 -2373.06 -1604.20 121.00 139.97 150.42 166.60 179.64 192.26 199.56 209.95 222.30 244.20 261.26 297.54 319.18 339.57 368.08 407.24 440.43 509.59 578.70 675.75 652.87 646.76 572.04 566.11 529.66 494.21 510.04 479.80 485.84 457.17 426.90 416.99 402.25 383.02 379.91 342.07 328.53 323.26 313.58 310.41 312.83 316.93 321.25 333.19 348.97 366.26 379.07 401.95 413.52 440.51 451.00 453.74 447.87 424.63 390.82 356.92 386.11 339.04 244.73 203.02 112.77 101.02 -153.68 -776.83 -1221.11 -1122.48 -1111.42 -1108.24 -1119.78 -1168.74 -1179.61 -1281.84 -1440.55 -1872.46 -2694.29 -3675.16 -4802.95 -5331.29 -5372.94 -5411.45 -5436.93 -5454.57 -5366.67 -5075.48 -3873.72 -1686.71 -708.14 -478.70 -654.58 -1123.87 -1529.12 -2309.58 -3341.73 -3643.36 -4071.53 -4200.16 -4202.53 -4204.83 -4207.24 -4203.95 -4209.47 -4215.09 -4217.29 -4221.27 -4225.03 -4233.47 -4234.50 -4234.58
-4223.76 -4223.76 -4194.89 -4218.42 -4223.94 -4206.81 -4229.74 -4185.70 -4156.00 -4160.18 -4154.05 -4140.22 -4133.44 -4132.77 -4160.05 -4162.42 -4167.55 -4161.47 -4132.18 -3949.14 -3716.86 -3324.67 -3002.30 -2814.60 -2737.44 -3112.61 -3176.87 -3162.87 -3270.57 -3200.02 -3450.83 -3544.72 -2510.15 -547.77 127.95 137.81 150.02 159.19 169.26 177.78 195.52 210.98 235.08 259.46 278.54 298.31 326.49 364.39 409.95 437.34 516.89 593.40 649.45 589.79 530.27 492.86 512.34 484.86 463.03 468.76 445.84 441.79 433.32 417.79 410.49 379.36 373.50 341.91 324.58 318.85 306.67 305.45 304.92 308.31 309.68 316.61 328.28 348.84 366.46 382.48 397.78 409.47 428.10 431.98 433.53 434.23 372.66 357.29 327.90 307.38 286.94 238.12 196.70 117.52 -284.54 -747.14 -882.28 -1195.05 -1122.78 -1112.92 -1137.88 -1179.25 -1253.57 -1326.98 -1469.29 -1936.31 -2256.32 -3437.03 -4573.13 -5135.19 -5293.62 -5361.48 -5416.92 -5444.34 -5460.54 -5361.93 -4993.32 -3280.81 -1574.64 -668.53 -495.12 -628.92 -1126.04 -2016.07 -2547.27 -3235.17 -3801.63 -4070.50 -4198.90 -4202.96 -4203.71 -4203.35 -4201.36 -4205.46 -4210.42 -4210.47 -4216.29 -4217.43 -4219.50 -4223.36 -4223.44
-4327.00 -4326.95 -4306.43 -4318.28 -4307.32 -4323.62 -4308.15 -4243.44 -4227.82 -4197.69 -4186.94 -4174.92 -4173.08 -4176.54 -4178.72 -4192.44 -4188.90 -4187.96 -4156.92 -4117.52 -4032.92 -3694.63 -3532.77 -3402.70 -3457.10 -3523.76 -3610.16 -3585.95 -3729.93 -3725.76 -3818.03 -3918.80 -3338.25 -2435.73 -1152.52 -90.82 120.51 142.54 147.16 161.79 172.98 186.52 222.36 234.32 260.60 283.22 314.27 341.78 378.35 412.71 530.91 585.67 574.81 498.59 465.72 449.96 457.63 433.68 444.96 427.04 413.58 437.50 437.28 410.55 382.75 362.04 351.78 332.67 317.29 307.91 303.40 301.74 302.11 301.24 303.90 318.65 326.19 345.66 365.78 380.77 392.41 406.14 415.42 412.44 400.13 386.50 368.64 321.93 308.18 294.69 225.02 194.27 182.43 9.91 -537.66 -975.95 -1157.78 -1145.18 -1122.22 -1146.23 -1230.05 -1459.19 -1496.76 -1977.64 -2276.78 -2552.63 -3882.66 -4355.76 -4971.24 -5254.23 -5353.97 -5379.24 -5428.74 -5451.71 -5460.37 -5337.52 -4463.46 -3673.04 -1746.75 -673.05 -616.82 -981.22 -1371.18 -2237.08 -2761.21 -3371.12 -3794.67 -4068.16 -4200.26 -4204.41 -4202.86 -4199.71 -4195.95 -4197.93 -4202.65 -4203.96 -4208.05 -4207.04 -4210.00 -4212.43 -4212.51
-4354.29 -4354.23 -4353.00 -4356.10 -4353.17 -4357.99 -4349.52 -4290.97 -4261.03 -4218.43 -4210.95 -4204.33 -4195.15 -4197.53 -4204.98 -4219.19 -4218.81 -4216.82 -4211.71 -4171.81 -4149.16 -4072.77 -3890.02 -3850.23 -3847.63 -3887.77 -3887.59 -3935.08 -3912.07 -3917.19 -3946.42 -3988.05 -3834.63 -3400.19 -1655.27 -947.76 56.83 85.45 85.17 108.34 155.00 169.03 181.26 195.72 232.78 247.16 270.29 318.67 361.97 420.47 479.62 483.51 490.89 435.15 433.47 410.84 408.13 403.60 400.95 383.22 380.45 380.12 404.55 381.83 368.74 352.05 340.47 324.56 311.00 303.92 300.58 295.49 296.79 298.40 300.18 315.20 324.68 335.08 360.87 382.62 393.31 404.03 404.46 402.06 389.20 365.49 329.70 307.68 269.10 246.94 195.93 177.56 159.56 -85.35 -629.00 -913.92 -1064.06 -1136.99 -1168.46 -1269.03 -1639.62 -1810.27 -1980.16 -2512.88 -3294.12 -3994.60 -4561.53 -5100.30 -5334.72 -5429.06 -5422.55 -5426.75 -5454.45 -5464.02 -5454.93 -5391.68 -4770.77 -2683.42 -1567.98 -566.49 -775.92 -1150.38 -1467.86 -2396.61 -3085.51 -3571.92 -4097.43 -4202.47 -4204.74 -4203.82 -4199.31 -4196.26 -4191.31 -4189.32 -4195.29 -4198.49 -4200.87 -4201.54 -4202.70 -4203.41 -4203.48
-4355.86 -4355.78 -4361.37 -4363.03 -4366.57 -4367.27 -4352.51 -4316.01 -4256.80 -4230.23 -4219.81 -4216.91 -4216.02 -4215.66 -4222.69 -4233.84 -4236.13 -4232.60 -4225.78 -4225.33 -4163.53 -4114.47 -4018.79 -3999.23 -3976.13 -4016.90 -4034.72 -4033.13 -4009.92 -3997.44 -3991.35 -4008.06 -3954.38 -3832.77 -2580.77 -1943.07 -963.47 -406.06 -255.03 21.62 109.87 140.62 175.55 188.93 208.88 209.23 254.67 307.94 336.81 381.31 416.35 417.32 420.86 395.92 371.02 367.44 386.05 368.49 358.67 357.65 354.03 349.36 362.18 362.06 356.07 340.96 324.00 319.85 305.55 299.70 291.34 289.22 290.23 295.06 300.46 308.83 323.70 335.25 362.30 372.92 389.44 396.07 397.71 390.84 376.70 347.14 328.02 290.26 244.84 197.54 177.87 151.32 119.60 -91.61 -534.03 -1011.16 -1116.67 -1278.21 -1511.11 -1943.10 -3077.81 -2861.25 -3330.47 -4077.51 -4637.56 -5034.95 -5173.35 -5439.13 -5436.59 -5537.57 -5558.51 -5498.42 -5422.48 -5404.88 -5336.49 -5130.65 -4136.67 -2530.65 -995.80 -609.45 -803.56 -1172.73 -1655.19 -2404.32 -3230.80 -3733.84 -4159.33 -4205.92 -4205.23 -4203.39 -4198.10 -4192.96 -4189.40 -4187.10 -4186.73 -4192.55 -4195.25 -4195.19 -4197.14 -4196.87 -4196.94
-4319.54 -4319.41 -4323.20 -4326.87 -4316.04 -4317.10 -4319.47 -4290.74 -4254.92 -4214.33 -4208.72 -4208.34 -4210.33 -4207.19 -4208.71 -4217.01 -4230.80 -4228.73 -4228.23 -4228.46 -4202.73 -4144.97 -4073.27 -4050.41 -4040.89 -4056.74 -4058.86 -4054.65 -4054.54 -4034.80 -4031.58 -4022.67 -4033.11 -3938.82 -3531.60 -3017.17 -1658.68 -1328.20 -775.83 -27.25 10.25 99.10 132.19 155.71 191.76 203.07 237.21 266.19 298.16 314.82 364.73 384.81 334.42 342.19 340.21 325.41 334.34 327.27 336.17 331.33 331.92 326.37 321.11 324.36 343.11 332.20 313.67 305.74 303.48 290.43 284.20 283.37 284.98 290.90 300.17 308.12 323.61 341.20 353.57 372.54 384.23 391.59 389.73 372.51 346.04 336.90 313.62 283.00 232.77 190.10 153.47 118.02 -7.15 -429.38 -1216.30 -1216.67 -1358.86 -1734.09 -2206.64 -2961.49 -3959.16 -4598.45 -4797.11 -5031.16 -5177.07 -5331.32 -5446.00 -5585.18 -5216.03 -5071.58 -5339.92 -5203.38 -5015.43 -4766.59 -4630.51 -4037.91 -3709.28 -1951.64 -814.58 -764.45 -967.61 -1543.94 -2138.48 -2576.61 -3184.52 -3864.17 -4167.80 -4206.47 -4202.99 -4200.20 -4195.08 -4190.03 -4187.35 -4184.23 -4184.03 -4185.02 -4189.97 -4189.57 -4189.15 -4190.93 -4191.00
-4203.97 -4203.80 -4225.56 -4201.60 -4196.52 -4190.47 -4180.95 -4172.73 -4174.51 -4159.71 -4148.36 -4151.64 -4148.45 -4171.52 -4158.58 -4170.76 -4190.68 -4186.97 -4194.45 -4187.98 -4170.15 -4127.44 -4076.13 -4052.73 -4048.53 -4049.76 -4058.73 -4076.92 -4101.26 -4120.03 -4133.70 -4150.34 -4112.49 -4020.03 -3713.83 -3165.53 -2418.08 -1408.57 -1023.58 -554.22 -451.15 -350.32 -18.08 135.04 170.08 192.20 213.52 218.73 268.23 278.55 300.76 298.85 280.81 288.67 292.08 293.33 300.87 309.86 311.50 304.19 308.36 299.64 294.72 297.34 308.33 326.71 304.42 296.81 289.69 283.03 280.57 278.93 280.55 287.02 294.70 306.42 320.29 338.26 352.17 380.09 385.80 389.65 385.74 356.27 333.02 319.58 282.83 276.61 194.67 162.32 118.50 112.46 -73.56 -308.34 -742.28 -1477.82 -1960.48 -2873.75 -3529.18 -4694.60 -4953.72 -5120.41 -5333.87 -5437.24 -5559.96 -5653.15 -5656.75 -5760.52 -4455.01 -3165.84 -3094.18 -3523.67 -3403.69 -2237.76 -2291.16 -2234.36 -1655.82 -1009.46 -791.84 -798.73 -1124.40 -1771.19 -2236.01 -2924.94 -3438.27 -4002.96 -4154.64 -4188.99 -4200.22 -4198.96 -4196.34 -4191.83 -4186.34 -4184.07 -4183.01 -4183.98 -4185.74 -4186.57 -4185.52 -4186.63 -4186.70
-4058.98 -4052.24 -4063.46 -4083.43 -4102.04 -4085.43 -4088.10 -4094.25 -4078.76 -4069.81 -4087.43 -4079.88 -4087.90 -4071.08 -4094.35 -4107.48 -4129.82 -4118.25 -4125.63 -4124.42 -4111.39 -4092.83 -4056.89 -4041.88 -4039.82 -4043.23 -4052.15 -4080.28 -4141.39 -4211.40 -4210.58 -4229.45 -4206.68 -4149.41 -3927.34 -3352.34 -2459.57 -1674.30 -984.50 -734.43 -631.10 -500.26 -175.14 44.39 162.24 190.00 196.02 193.34 224.68 237.17 252.49 227.87 242.93 257.10 273.52 267.28 269.48 279.81 278.82 288.34 277.73 282.79 277.99 275.44 272.50 289.04 292.13 282.93 282.60 280.50 273.34 272.78 277.33 283.84 293.72 308.55 322.01 332.47 354.20 372.11 384.05 388.98 385.91 352.47 317.63 279.02 260.06 222.19 180.23 165.16 117.59 98.39 -334.71 -1039.68 -1544.42 -2120.82 -3085.52 -3733.57 -4623.16 -4816.19 -5272.44 -5369.96 -5521.03 -5747.89 -5023.78 -4447.67 -4633.38 -2955.87 -1659.24 -251.64 -245.04 -439.51 137.60 126.20 -279.23 -1152.12 -958.37 -861.27 -835.80 -985.41 -1347.69 -2125.59 -2636.38 -3183.05 -3561.34 -3937.41 -4123.21 -4182.66 -4198.83 -4199.46 -4197.22 -4192.08 -4186.06 -4183.28 -4182.08 -4181.94 -4183.17 -4182.47 -4181.74 -4182.88 -4183.39
-3991.45 -3991.38 -4008.24 -4006.87 -3999.04 -4013.13 -4010.32 -4017.27 -4028.41 -4038.10 -4044.27 -4042.12 -4040.05 -4045.42 -4066.70 -4089.80 -4106.23 -4106.60 -4105.90 -4106.37 -4094.10 -4083.48 -4059.61 -4044.68 -4045.22 -4044.84 -4058.68 -4090.92 -4169.55 -4256.86 -4273.12 -4278.92 -4284.08 -4232.62 -3987.18 -3405.80 -2846.00 -1823.07 -994.24 -619.50 -520.91 -479.99 -391.92 34.97 142.64 162.54 180.75 181.93 188.62 188.78 194.73 208.42 224.08 236.54 225.52 232.99 241.76 257.54 252.00 238.50 243.63 252.86 258.82 257.76 249.17 245.65 264.92 272.74 265.51 262.13 266.40 269.88 276.08 283.32 289.38 306.05 318.45 329.41 349.80 363.81 381.21 384.09 370.48 343.43 317.79 270.64 264.87 228.44 174.88 151.43 107.88 85.82 -1093.25 -1568.86 -2439.09 -2970.73 -4225.82 -4620.81 -4921.82 -5143.26 -5358.74 -5537.25 -5696.52 -4762.11 -2554.19 -1692.74 -2760.05 -1480.73 154.16 170.86 149.65 160.72 151.61 156.50 134.41 -109.96 -672.46 -957.55 -1082.06 -1272.70 -1873.12 -2301.40 -3052.31 -3571.88 -3785.03 -4046.84 -4137.73 -4180.65 -4203.93 -4200.89 -4197.49 -4191.97 -4186.06 -4183.80 -4179.64 -4179.32 -4180.03 -4180.99 -4181.71 -4181.20 -4181.26
-3991.11 -3991.05 -3993.03 -3995.12 -3999.25 -3997.87 -4004.07 -4017.35 -4032.11 -4043.02 -4042.17 -4043.78 -4044.68 -4055.14 -4071.34 -4094.16 -4103.10 -4110.45 -4112.34 -4114.15 -4106.19 -4089.51 -4067.28 -4059.19 -4061.77 -4059.36 -4071.16 -4106.87 -4205.61 -4285.96 -4298.04 -4299.24 -4297.03 -4275.01 -4118.67 -3588.17 -2927.50 -2286.98 -1158.83 -768.49 -477.11 -446.36 -341.42 -28.67 133.13 146.78 152.84 162.06 164.33 157.78 160.04 169.76 179.60 206.77 205.19 217.23 226.08 217.83 227.49 227.97 230.12 236.60 231.48 229.19 234.45 234.01 250.34 249.47 250.91 257.54 261.55 263.80 275.63 279.68 292.07 307.17 320.33 338.66 354.55 366.30 374.69 376.93 356.83 335.97 311.44 271.21 243.56 255.27 162.66 136.30 105.43 -526.71 -1453.41 -1860.63 -2359.47 -3767.83 -4607.83 -4949.77 -4995.23 -5120.01 -5290.42 -5003.71 -3890.51 -1461.39 -343.97 12.69 126.79 160.67 179.84 200.03 202.21 202.25 187.23 168.71 150.05 117.23 -20.80 -842.89 -1301.17 -1709.90 -2076.73 -2669.06 -3139.90 -3671.17 -3955.96 -4115.23 -4186.20 -4206.45 -4205.62 -4200.04 -4197.50 -4191.59 -4186.51 -4182.86 -4180.43 -4180.92 -4180.73 -4178.07 -4179.56 -4179.94 -4180.01
-4014.72 -4014.68 -4009.93 -4017.09 -4011.31 -4027.43 -4020.48 -4038.35 -4041.77 -4049.67 -4053.12 -4055.49 -4059.54 -4069.01 -4083.52 -4106.65 -4120.30 -4125.17 -4126.00 -4129.17 -4120.94 -4109.64 -4092.14 -4080.12 -4081.45 -4087.87 -4093.57 -4132.38 -4199.84 -4252.52 -4312.73 -4315.22 -4315.40 -4313.02 -4106.61 -3932.98 -3137.18 -2469.98 -1476.09 -820.29 -593.17 -442.35 -386.88 -91.11 125.39 135.00 149.36 142.61 142.73 142.29 148.45 147.86 155.41 174.80 186.73 200.95 193.11 195.63 199.01 194.74 210.55 215.06 214.23 218.83 223.30 222.40 228.74 235.76 243.48 250.01 254.52 262.02 269.33 277.23 295.48 310.72 315.31 343.33 359.48 364.90 370.65 369.56 344.37 306.72 273.18 245.34 199.03 304.53 178.79 115.23 -285.57 -934.57 -1423.21 -1750.22 -2406.92 -3298.14 -4166.00 -4155.39 -4182.14 -3303.46 -3489.87 -2816.32 -1254.25 115.66 152.01 160.18 170.22 185.19 212.70 233.18 244.29 231.31 202.45 174.70 160.65 123.91 -266.74 -1011.82 -1640.06 -1975.07 -2492.08 -2766.81 -3291.31 -3883.76 -4048.52 -4107.52 -4168.84 -4201.73 -4204.86 -4201.81 -4197.70 -4191.09 -4187.26 -4185.29 -4181.97 -4184.56 -4181.87 -4178.79 -4179.34 -4179.97 -4180.04
-4078.45 -4088.37 -4087.74 -4079.57 -4084.66 -4077.18 -4073.22 -4064.64 -4066.13 -4057.03 -4057.95 -4059.39 -4062.79 -4069.50 -4088.40 -4099.47 -4117.19 -4123.95 -4123.24 -4125.65 -4130.34 -4128.62 -4125.79 -4142.62 -4147.58 -4144.97 -4145.86 -4190.45 -4231.59 -4308.72 -4321.82 -4321.98 -4321.82 -4321.27 -4258.20 -3996.35 -3610.08 -2422.66 -2076.03 -1425.68 -824.73 -530.98 -357.27 -270.83 -18.95 23.70 103.67 118.29 78.72 127.84 119.25 134.37 134.63 138.86 144.18 166.30 163.24 167.72 175.71 174.74 183.51 193.46 202.18 203.68 204.17 207.52 216.52 229.45 238.45 244.67 251.07 258.87 269.29 276.13 289.41 311.07 321.33 336.71 348.71 360.80 366.49 363.03 331.78 305.97 258.00 224.58 198.30 192.46 121.04 109.24 -116.41 -753.91 -1309.50 -1659.22 -2086.06 -2727.13 -3026.62 -3076.27 -2665.69 -2020.30 -729.25 27.85 104.39 149.35 189.98 203.17 213.11 248.52 288.65 269.48 242.57 212.41 190.72 163.69 149.57 118.75 -279.09 -1457.84 -2172.37 -2528.09 -2816.42 -3029.36 -3376.93 -3816.49 -4108.72 -4140.39 -4177.93 -4196.11 -4204.54 -4200.76 -4198.49 -4195.03 -4191.73 -4188.24 -4183.12 -4187.84 -4184.24 -4179.81 -4179.88 -4180.89 -4180.95
-4216.82 -4216.89 -4262.51 -4209.60 -4253.15 -4221.95 -4226.17 -4147.71 -4101.83 -4059.55 -4047.50 -4045.28 -4052.38 -4055.56 -4067.69 -4087.37 -4087.51 -4092.71 -4100.37 -4107.32 -4119.99 -4165.53 -4196.00 -4209.67 -4187.17 -4209.15 -4215.93 -4250.61 -4285.66 -4326.65 -4336.19 -4334.54 -4334.46 -4320.26 -4258.38 -3991.26 -3754.30 -3197.66 -2237.52 -1743.78 -1240.36 -876.05 -608.95 -358.33 -531.50 -163.65 -319.04 -324.49 -156.69 -164.11 -85.95 -89.34 122.55 124.45 131.39 132.27 147.28 150.08 157.09 158.55 164.55 175.30 181.09 180.92 190.02 197.63 206.36 225.22 230.23 233.69 246.55 257.08 266.37 278.44 289.11 305.97 318.04 326.35 341.42 347.19 349.06 351.37 328.33 295.66 249.65 228.54 195.31 168.15 120.86 105.76 -347.99 -1238.52 -1338.91 -1493.05 -1654.64 -1767.31 -1922.48 -1832.37 -1125.44 -325.18 141.68 136.27 184.57 216.90 236.95 242.20 255.12 300.06 291.49 248.24 208.54 198.67 182.48 141.47 128.93 90.82 -604.17 -2239.78 -2552.45 -2927.34 -3305.20 -3480.63 -3733.38 -4023.29 -4122.33 -4171.44 -4178.91 -4186.10 -4204.44 -4201.60 -4203.03 -4198.22 -4196.35 -4190.90 -4188.94 -4192.11 -4186.03 -4182.10 -4181.26 -4182.40 -4182.47
-4374.15 -4383.32 -4388.18 -4382.39 -4383.99 -4378.84 -4328.24 -4249.15 -4154.47 -4059.38 -4035.28 -4036.53 -4039.18 -4044.27 -4048.76 -4056.06 -4065.31 -4068.40 -4064.66 -4071.38 -4101.74 -4164.27 -4225.25 -4298.46 -4318.11 -4313.11 -4316.99 -4319.65 -4331.11 -4345.37 -4350.71 -4346.12 -4342.23 -4339.68 -4276.93 -4178.95 -3887.47 -3413.61 -3145.33 -2339.43 -1631.64 -1353.05 -1116.05 -1011.46 -764.12 -700.16 -576.11 -531.44 -500.17 -424.82 -449.37 -448.22 -9.93 108.93 40.53 97.67 94.52 117.64 119.88 131.13 147.97 160.13 166.11 173.31 185.84 189.88 195.52 203.88 218.86 228.13 242.02 253.89 264.16 275.93 286.83 298.77 303.65 319.04 330.09 343.74 344.32 343.50 331.99 303.88 258.09 217.13 188.69 147.52 123.01 105.92 77.83 -1151.97 -1672.00 -1571.59 -1562.01 -1593.99 -1597.00 -1346.96 -59.40 144.82 192.50 210.67 239.58 252.17 269.51 281.17 285.03 274.96 243.33 212.61 178.01 169.58 147.52 125.29 112.07 84.78 -1130.92 -2488.10 -3005.05 -3355.04 -3401.24 -3644.05 -3917.07 -4025.17 -4131.30 -4163.43 -4183.98 -4189.25 -4205.49 -4210.39 -4209.47 -4199.84 -4197.91 -4195.51 -4187.62 -4192.14 -4188.20 -4184.30 -4183.54 -4184.52 -4184.58
-4457.17 -4459.79 -4454.69 -4457.67 -4459.45 -4459.17 -4423.94 -4280.66 -4172.35 -4050.61 -4035.21 -4035.78 -4037.93 -4041.72 -4042.45 -4046.97 -4052.02 -4054.19 -4056.79 -4064.59 -4098.16 -4201.41 -4279.66 -4346.99 -4362.75 -4371.22 -4359.76 -4357.78 -4354.85 -4366.06 -4363.03 -4356.52 -4352.18 -4337.10 -4302.09 -4165.97 -4027.39 -3679.36 -3387.78 -3063.43 -2464.47 -2383.56 -1939.91 -1674.24 -1520.30 -959.26 -863.78 -710.97 -601.39 -490.78 -433.60 -446.62 -299.18 -424.06 -378.77 -280.64 -212.21 -123.88 73.50 116.73 119.82 129.25 138.81 164.65 181.50 186.16 194.98 201.01 215.51 224.74 234.24 246.52 258.13 263.43 277.67 294.71 295.29 311.16 322.13 328.52 329.61 328.92 318.88 300.90 262.22 218.61 196.44 176.35 129.92 110.93 63.20 -10.08 -1300.22 -1617.89 -1548.01 -1491.76 -1348.67 -631.68 50.92 198.74 268.59 286.47 298.50 307.46 280.75 263.12 247.82 251.38 224.86 198.35 151.83 129.40 118.73 97.50 90.40 73.45 -147.18 -2235.83 -2818.54 -3252.25 -3542.63 -3777.89 -3878.52 -4061.13 -4118.18 -4166.75 -4194.04 -4209.02 -4218.33 -4214.50 -4209.57 -4204.96 -4202.53 -4197.28 -4192.41 -4195.10 -4189.22 -4185.86 -4186.34 -4187.95 -4188.01
-4480.18 -4480.12 -4477.61 -4478.42 -4479.22 -4477.02 -4432.49 -4315.27 -4185.17 -4060.36 -4046.96 -4044.95 -4051.15 -4051.69 -4058.17 -4057.35 -4058.30 -4060.17 -4067.32 -4075.47 -4108.73 -4204.62 -4283.29 -4363.97 -4382.18 -4371.44 -4360.43 -4361.74 -4361.10 -4364.03 -4358.19 -4345.20 -4339.78 -4329.89 -4304.72 -4225.88 -4136.12 -4010.77 -3795.29 -3601.23 -3528.58 -2945.24 -2845.90 -2696.40 -2067.28 -1591.65 -1192.23 -961.95 -661.31 -586.28 -429.58 -413.73 -409.98 -388.28 -338.16 -339.26 -331.11 -281.29 -175.41 4.52 115.74 122.82 135.59 149.97 166.98 177.81 189.77 196.84 209.65 223.36 227.15 239.46 251.03 256.71 268.95 283.42 291.32 298.62 308.58 314.79 318.47 316.69 307.39 289.65 255.88 229.17 193.73 168.65 132.68 110.85 94.54 -298.53 -1546.32 -1651.48 -1544.52 -1382.35 -1059.92 -205.21 179.11 281.57 337.65 339.72 309.79 287.59 249.92 225.43 196.02 203.50 180.15 167.37 143.61 117.67 111.50 95.57 78.26 -553.55 -1268.99 -2218.18 -3090.40 -3348.01 -3708.27 -3928.64 -4028.58 -4062.99 -4125.47 -4160.40 -4188.13 -4213.41 -4219.13 -4216.83 -4209.79 -4207.80 -4206.27 -4203.85 -4201.87 -4196.33 -4191.70 -4191.51 -4191.18 -4192.29 -4192.35
-4482.47 -4482.40 -4484.06 -4484.72 -4484.71 -4476.39 -4422.58 -4314.03 -4181.50 -4081.83 -4063.56 -4063.89 -4058.24 -4062.12 -4076.48 -4076.35 -4076.18 -4082.88 -4081.71 -4095.94 -4130.97 -4231.61 -4325.96 -4369.13 -4381.19 -4365.63 -4358.29 -4363.25 -4356.62 -4354.13 -4350.16 -4342.90 -4332.60 -4329.06 -4316.44 -4204.65 -4150.13 -4079.87 -3980.14 -3901.24 -3703.28 -3627.18 -3541.19 -3276.43 -2869.84 -2197.40 -1608.68 -1396.84 -1027.49 -807.87 -511.53 -398.23 -394.09 -367.63 -356.84 -327.73 -338.66 -317.18 -284.21 -113.77 116.02 122.52 134.29 142.60 161.52 170.37 182.91 195.76 200.74 214.80 223.47 233.45 246.36 254.29 261.49 267.03 282.20 287.93 289.68 302.38 301.98 299.94 292.42 271.62 254.04 226.14 201.27 162.17 133.07 118.46 91.04 -261.73 -1416.26 -1602.88 -1480.92 -1163.11 -714.82 72.14 197.35 315.90 340.44 326.78 304.07 269.61 243.69 199.76 162.61 157.34 162.68 156.79 125.47 114.21 109.03 94.00 -100.53 -877.55 -1825.38 -2354.51 -3143.88 -3419.64 -3716.65 -4000.28 -4072.73 -4104.87 -4132.34 -4150.93 -4188.34 -4208.26 -4213.84 -4218.44 -4215.16 -4210.56 -4207.17 -4207.24 -4204.66 -4201.15 -4197.13 -4195.41 -4194.33 -4196.61 -4196.93
-4441.66 -4441.52 -4411.11 -4395.07 -4426.58 -4437.09 -4376.40 -4323.13 -4226.00 -4127.41 -4095.02 -4098.69 -4107.37 -4131.51 -4145.46 -4145.97 -4166.03 -4149.65 -4162.77 -4150.35 -4183.96 -4235.75 -4318.30 -4359.81 -4378.14 -4368.35 -4356.68 -4363.02 -4352.31 -4343.66 -4343.31 -4337.65 -4326.76 -4321.14 -4311.64 -4257.22 -4215.33 -4155.03 -4145.57 -4109.34 -4083.99 -4055.77 -4024.23 -3802.13 -3672.33 -2928.28 -2455.40 -1950.73 -1470.81 -1104.49 -743.23 -445.33 -521.16 -368.84 -366.22 -441.29 -380.00 -366.83 -358.03 -280.77 34.20 120.75 127.86 134.52 155.70 171.73 176.32 187.67 200.50 204.58 216.23 224.27 233.60 244.15 251.88 257.59 265.77 276.18 282.42 286.03 282.66 277.34 269.20 254.66 239.29 226.10 185.99 159.65 135.57 124.55 95.20 -52.32 -698.07 -1421.22 -1310.88 -855.27 -346.82 56.39 189.61 266.14 282.43 281.33 256.11 222.55 203.87 178.25 148.16 125.41 131.26 116.64 106.72 105.56 89.18 -116.30 -433.72 -1566.34 -1981.93 -2524.39 -2834.34 -3474.13 -3758.45 -3955.31 -4074.28 -4123.89 -4139.15 -4156.21 -4194.28 -4205.70 -4215.75 -4214.51 -4213.46 -4214.21 -4211.61 -4211.87 -4208.20 -4203.20 -4199.15 -4197.73 -4199.30 -4201.24 -4201.30
-4322.26 -4307.01 -4311.14 -4304.70 -4313.20 -4298.65 -4287.84 -4274.97 -4207.44 -4178.00 -4196.06 -4199.67 -4199.37 -4196.00 -4216.94 -4232.67 -4258.12 -4245.77 -4242.55 -4264.44 -4287.96 -4295.21 -4311.77 -4307.79 -4336.69 -4333.45 -4328.69 -4339.14 -4344.48 -4340.13 -4345.44 -4338.48 -4320.19 -4317.38 -4293.26 -4302.76 -4257.30 -4248.52 -4193.33 -4195.34 -4184.89 -4178.65 -4151.61 -4052.71 -3757.38 -3533.03 -2933.75 -2596.70 -2132.71 -1854.18 -1479.76 -1408.68 -1284.69 -975.02 -791.20 -833.79 -656.01 -553.28 -439.77 -368.47 -131.47 -67.19 57.06 134.85 152.01 161.60 169.32 180.32 187.80 204.02 206.03 217.03 224.81 236.04 242.76 248.10 254.94 260.03 263.10 265.28 265.54 262.70 256.33 246.99 229.77 200.80 183.48 165.15 138.33 124.88 109.22 88.50 -198.35 -882.04 -844.53 -465.62 -49.54 145.18 205.00 231.53 228.10 229.54 206.73 172.40 159.81 137.10 124.17 121.30 111.82 107.86 91.48 81.81 -147.11 -397.11 -834.98 -1719.35 -2335.74 -2771.75 -2913.16 -3443.25 -3854.98 -4016.73 -4090.72 -4120.69 -4137.97 -4165.67 -4193.76 -4205.22 -4208.91 -4212.39 -4214.68 -4215.93 -4216.15 -4212.46 -4209.90 -4207.08 -4204.62 -4203.81 -4204.46 -4205.75 -4205.81
-4185.10 -4167.43 -4196.86 -4197.90 -4185.82 -4176.81 -4181.77 -4197.06 -4237.84 -4254.01 -4260.53 -4257.31 -4269.78 -4269.36 -4308.59 -4359.64 -4390.24 -4387.03 -4389.73 -4412.30 -4354.54 -4352.39 -4312.67 -4283.33 -4273.17 -4269.86 -4276.05 -4295.60 -4323.83 -4338.49 -4335.99 -4325.14 -4319.12 -4301.69 -4286.58 -4280.36 -4258.22 -4241.35 -4219.13 -4212.86 -4197.33 -4178.05 -4158.23 -4087.99 -4022.51 -3823.98 -3705.28 -3419.34 -2983.90 -2781.54 -2442.13 -2170.38 -1986.35 -2130.22 -1385.96 -1375.51 -928.37 -749.95 -499.93 -440.80 -347.85 -212.47 -27.22 116.55 145.02 146.69 163.44 171.77 181.29 188.84 204.25 204.28 215.74 226.22 228.58 243.61 244.63 247.96 245.46 251.97 254.13 245.92 246.59 224.84 221.93 195.30 176.80 153.64 138.25 114.34 99.27 81.92 14.17 7.12 -160.43 -107.70 134.32 207.91 188.59 162.31 172.38 200.97 187.88 156.68 124.09 126.60 117.98 111.70 108.53 97.73 85.24 -156.55 -537.17 -836.18 -1275.32 -1873.43 -2487.13 -2756.46 -3208.92 -3581.92 -3877.84 -4039.07 -4097.97 -4114.89 -4131.53 -4152.88 -4192.76 -4203.86 -4207.71 -4212.49 -4218.37 -4218.41 -4216.94 -4215.50 -4213.71 -4211.60 -4208.29 -4211.17 -4210.19 -4210.90 -4210.06
-4119.02 -4118.97 -4119.00 -4117.34 -4124.79 -4124.57 -4142.76 -4179.78 -4247.17 -4283.39 -4293.43 -4304.30 -4309.11 -4315.40 -4379.17 -4402.19 -4442.29 -4451.25 -4443.96 -4443.97 -4434.48 -4366.46 -4305.87 -4256.61 -4250.52 -4253.34 -4258.18 -4272.20 -4306.36 -4322.70 -4316.91 -4315.88 -4314.22 -4303.78 -4284.61 -4270.35 -4246.04 -4233.54 -4221.30 -4212.06 -4195.25 -4176.24 -4157.79 -4108.57 -4073.41 -3973.44 -3919.78 -3831.26 -3552.98 -3558.43 -3446.10 -3232.64 -3114.53 -2826.04 -2225.10 -1709.93 -1191.99 -764.81 -706.26 -593.56 -407.26 -266.55 -68.44 80.11 138.68 143.56 150.16 166.70 176.65 181.18 189.05 199.40 206.29 214.29 216.18 227.51 231.05 235.88 231.73 224.43 228.09 220.46 220.49 218.62 213.63 178.24 163.64 146.36 131.07 116.61 84.78 73.88 64.02 70.50 91.78 156.82 205.56 191.70 143.01 102.73 80.78 121.47 127.04 111.24 106.10 110.02 110.90 101.38 92.97 77.77 51.45 -272.99 -700.95 -1247.82 -1437.42 -1991.28 -2530.62 -2785.92 -3202.85 -3546.26 -3773.16 -4031.98 -4097.73 -4115.92 -4132.86 -4153.11 -4177.77 -4202.88 -4212.92 -4214.77 -4216.04 -4216.96 -4215.76 -4218.07 -4215.02 -4213.90 -4213.67 -4216.28 -4214.75 -4215.22 -4215.78
-4119.83 -4119.76 -4120.75 -4118.60 -4115.89 -4125.06 -4144.06 -4198.77 -4245.74 -4301.31 -4313.73 -4321.84 -4326.53 -4346.06 -4382.38 -4426.17 -4467.25 -4475.09 -4472.51 -4467.48 -4452.49 -4383.36 -4311.19 -4275.08 -4265.05 -4261.88 -4273.59 -4282.47 -4319.52 -4314.61 -4316.74 -4319.62 -4316.81 -4304.56 -4283.79 -4269.83 -4244.62 -4235.93 -4227.02 -4211.05 -4199.45 -4177.12 -4142.61 -4091.36 -4045.61 -3942.97 -3891.98 -3819.51 -3738.19 -3669.03 -3563.88 -3507.29 -3360.24 -3150.49 -2280.69 -1905.82 -1344.16 -1064.10 -937.28 -735.98 -463.32 -264.39 -174.70 9.50 109.95 141.49 145.90 153.88 165.03 171.96 171.51 179.51 193.86 199.92 205.00 203.88 223.50 214.98 207.17 210.90 209.55 206.83 199.03 202.49 183.30 161.73 154.29 141.57 125.49 103.86 81.75 67.56 66.81 96.74 135.37 173.22 180.18 136.80 89.75 26.29 15.97 14.57 61.55 64.24 80.04 89.63 40.55 25.27 61.81 -0.37 -181.42 -763.95 -1038.66 -1343.61 -1602.61 -1882.10 -2823.17 -3118.60 -3517.87 -3735.06 -3980.75 -4037.59 -4098.83 -4111.99 -4132.59 -4159.85 -4180.36 -4197.39 -4211.73 -4213.15 -4212.43 -4214.84 -4216.34 -4219.21 -4219.29 -4217.40 -4219.46 -4221.47 -4220.56 -4220.48 -4219.78
-4138.73 -4138.65 -4145.04 -4130.23 -4133.61 -4142.78 -4160.75 -4206.65 -4273.66 -4307.46 -4343.22 -4353.29 -4343.26 -4369.47 -4396.13 -4440.67 -4463.93 -4476.75 -4473.66 -4470.46 -4454.90 -4391.79 -4333.72 -4292.93 -4300.14 -4306.39 -4318.00 -4317.86 -4304.05 -4318.65 -4323.81 -4323.74 -4320.10 -4307.04 -4285.42 -4264.97 -4245.88 -4236.53 -4219.66 -4208.77 -4197.57 -4172.34 -4144.97 -4096.19 -4017.07 -3954.61 -3900.12 -3852.64 -3750.75 -3684.59 -3575.34 -3454.15 -3368.58 -3107.16 -2712.62 -2262.96 -1780.96 -1330.49 -1132.66 -860.75 -593.75 -467.90 -237.83 -122.17 -6.99 84.37 143.75 147.38 154.76 157.88 168.22 173.82 182.74 186.22 180.25 185.57 185.46 182.55 186.47 188.82 188.31 182.15 175.71 168.64 162.61 153.07 150.24 117.89 106.25 95.78 78.78 73.43 78.01 122.04 155.95 157.23 125.36 85.29 50.10 -6.30 -24.51 -48.32 -44.48 24.96 -40.47 0.75 -82.62 -133.35 -115.52 -281.23 -595.56 -1175.56 -1188.14 -1552.81 -1870.08 -2178.02 -2886.25 -3480.89 -3613.26 -3966.05 -4080.22 -4091.28 -4108.71 -4116.03 -4127.95 -4170.58 -4184.14 -4198.50 -4205.68 -4208.28 -4209.58 -4211.89 -4216.51 -4219.94 -4221.77 -4221.41 -4223.75 -4224.81 -4226.42 -4222.78 -4222.37
-4185.51 -4177.83 -4184.04 -4180.18 -4161.71 -4171.14 -4189.50 -4254.76 -4311.07 -4369.08 -4390.12 -4390.56 -4397.80 -4416.97 -4416.70 -4427.20 -4430.57 -4434.32 -4443.43 -4448.88 -4416.81 -4411.94 -4372.04 -4351.16 -4342.60 -4352.00 -4348.42 -4326.94 -4308.00 -4319.83 -4325.08 -4325.56 -4319.53 -4303.19 -4287.50 -4267.78 -4254.40 -4235.19 -4219.03 -4205.85 -4192.15 -4170.92 -4145.12 -4095.78 -4043.50 -3978.68 -3946.90 -3841.56 -3723.05 -3620.83 -3543.95 -3396.85 -3280.52 -3072.97 -2936.68 -2534.15 -1973.03 -1555.28 -1297.87 -929.67 -806.35 -687.47 -408.53 -181.32 -101.86 29.86 137.22 140.54 139.79 145.56 156.09 158.88 162.24 170.34 173.05 168.60 169.94 169.90 168.73 174.40 167.27 167.77 156.28 148.60 140.80 126.48 104.32 98.67 94.77 86.81 85.95 108.34 127.64 151.92 152.26 107.71 69.04 52.18 0.92 -44.34 -143.06 -198.52 -217.48 -180.68 -334.78 -317.11 -385.86 -614.88 -665.35 -719.45 -1216.50 -1530.88 -1700.51 -2120.35 -2212.03 -2653.54 -3113.80 -3559.84 -3788.78 -3948.37 -4087.80 -4101.56 -4114.97 -4121.67 -4139.03 -4162.35 -4185.66 -4197.76 -4200.51 -4203.95 -4208.18 -4213.83 -4220.01 -4222.08 -4223.19 -4225.12 -4228.54 -4227.93 -4229.56 -4223.49 -4223.55
-4264.37 -4253.91 -4257.26 -4253.92 -4255.66 -4252.00 -4298.92 -4355.18 -4422.37 -4477.45 -4464.49 -4482.88 -4492.87 -4468.41 -4441.74 -4371.95 -4370.23 -4354.63 -4348.20 -4354.80 -4359.33 -4404.26 -4410.71 -4372.80 -4363.94 -4369.01 -4352.70 -4336.48 -4338.80 -4321.13 -4324.45 -4326.45 -4323.11 -4309.90 -4284.76 -4267.86 -4252.27 -4226.99 -4208.75 -4200.60 -4190.78 -4181.27 -4157.09 -4109.60 -4094.43 -4039.02 -3943.00 -3861.58 -3769.17 -3668.59 -3539.66 -3362.93 -3200.27 -3048.78 -2863.16 -2549.36 -2062.76 -1725.45 -1238.29 -1097.20 -871.81 -660.92 -395.76 -289.00 -162.53 -52.41 42.88 110.84 132.82 137.36 142.13 143.92 147.97 153.73 157.78 155.88 150.89 152.04 145.57 148.27 141.22 144.27 132.41 131.62 129.04 118.42 112.94 107.13 103.08 105.86 125.85 140.64 150.05 145.91 127.88 45.51 22.66 2.59 -52.92 -74.51 -193.38 -312.06 -464.16 -680.52 -658.07 -690.35 -861.78 -887.22 -1135.84 -1237.64 -1548.68 -2031.43 -2336.15 -2434.33 -2880.00 -3292.25 -3608.85 -3915.66 -3987.41 -4023.29 -4085.85 -4099.89 -4114.40 -4123.34 -4141.29 -4168.87 -4184.77 -4192.43 -4196.15 -4200.34 -4208.19 -4216.61 -4221.10 -4223.94 -4226.25 -4229.08 -4231.89 -4232.26 -4229.75 -4223.09 -4223.15
-4331.71 -4326.16 -4324.28 -4325.87 -4317.69 -4341.42 -4354.35 -4402.68 -4495.48 -4555.68 -4585.80 -4586.21 -4576.10 -4539.61 -4445.10 -4328.41 -4295.18 -4261.53 -4255.85 -4262.21 -4301.58 -4394.41 -4433.34 -4404.97 -4370.36 -4366.33 -4359.50 -4351.01 -4343.62 -4330.05 -4327.56 -4327.00 -4322.43 -4316.22 -4292.67 -4254.94 -4228.29 -4197.67 -4185.20 -4182.20 -4187.33 -4176.80 -4156.28 -4124.85 -4089.60 -4018.60 -3936.37 -3866.56 -3830.82 -3678.64 -3533.59 -3320.92 -3145.00 -2980.69 -2823.54 -2626.33 -2297.73 -1845.47 -1440.09 -1255.81 -931.44 -739.34 -633.04 -476.84 -248.52 -176.92 -89.03 9.52 72.52 108.12 131.12 131.10 136.56 133.01 133.44 132.53 134.07 130.78 132.61 132.72 130.17 126.06 124.61 124.18 120.83 124.24 130.99 139.81 144.55 141.55 151.63 155.94 132.91 113.27 50.29 -7.68 -19.77 -40.82 -91.30 -116.84 -300.95 -434.26 -594.42 -864.79 -901.22 -1020.35 -1188.19 -1263.97 -1649.47 -1625.89 -2007.79 -2616.92 -2956.40 -2980.71 -3123.75 -3439.85 -3746.83 -3959.32 -4030.48 -4062.17 -4082.87 -4093.25 -4105.48 -4123.46 -4139.09 -4170.42 -4183.26 -4192.34 -4196.65 -4199.07 -4205.66 -4212.33 -4220.56 -4224.47 -4228.16 -4232.28 -4233.09 -4231.34 -4226.96 -4220.43 -4220.49
-4361.79 -4361.72 -4363.35 -4361.25 -4360.04 -4367.94 -4395.31 -4428.10 -4560.88 -4594.36 -4608.20 -4615.68 -4604.84 -4569.68 -4481.28 -4312.96 -4245.17 -4230.41 -4228.64 -4237.34 -4289.40 -4397.85 -4404.08 -4377.78 -4369.97 -4365.92 -4363.08 -4357.11 -4350.27 -4336.42 -4329.38 -4326.48 -4323.95 -4310.77 -4299.82 -4277.47 -4225.74 -4174.42 -4167.25 -4179.64 -4186.02 -4177.62 -4148.77 -4120.41 -4076.42 -4029.88 -3989.71 -3912.02 -3828.29 -3658.54 -3415.45 -3218.59 -3060.84 -2885.05 -2679.89 -2591.47 -2376.52 -1912.97 -1692.70 -1403.80 -1167.49 -844.22 -752.55 -574.64 -322.79 -254.10 -165.13 -81.65 -9.43 42.34 106.63 127.41 127.83 126.42 120.21 119.69 123.90 121.54 120.59 116.92 116.75 117.01 129.63 135.52 145.50 159.21 167.59 169.73 176.34 167.53 164.73 140.61 76.49 -3.48 -22.07 -39.01 -54.91 -107.63 -111.21 -202.58 -377.37 -559.19 -724.58 -980.62 -1291.84 -1509.81 -1599.18 -1840.80 -2051.41 -2361.31 -2557.88 -2680.04 -3203.15 -3459.83 -3600.65 -3721.03 -3929.17 -4041.12 -4066.41 -4079.05 -4087.62 -4094.91 -4100.16 -4127.87 -4142.44 -4165.76 -4185.41 -4189.59 -4197.44 -4198.44 -4201.58 -4211.48 -4219.05 -4228.43 -4231.51 -4233.84 -4232.93 -4228.28 -4220.49 -4214.97 -4215.03
-4371.23 -4371.16 -4372.24 -4372.43 -4372.02 -4379.72 -4404.67 -4460.04 -4556.76 -4608.80 -4623.52 -4629.35 -4622.84 -4581.83 -4457.08 -4313.92 -4256.39 -4230.58 -4227.99 -4236.51 -4324.57 -4381.99 -4380.07 -4387.03 -4381.01 -4376.30 -4369.17 -4362.46 -4354.60 -4338.69 -4332.24 -4328.43 -4316.08 -4305.36 -4299.17 -4278.79 -4247.39 -4177.81 -4178.88 -4178.69 -4192.94 -4188.30 -4164.86 -4126.35 -4098.01 -4074.91 -4033.30 -4006.61 -3926.93 -3645.46 -3258.07 -2835.37 -2707.21 -2779.79 -2559.37 -2474.07 -2369.49 -2014.23 -1779.37 -1467.36 -1348.30 -1011.80 -723.23 -540.47 -435.89 -349.50 -221.48 -163.43 -152.56 -114.29 58.63 103.67 127.43 120.32 112.61 108.12 112.52 115.84 115.06 113.34 115.02 133.33 143.32 157.92 194.02 189.78 188.27 184.63 173.77 153.76 107.32 47.39 -17.29 -48.97 -56.05 -58.03 -70.21 -146.17 -155.45 -220.92 -383.68 -528.89 -799.38 -1254.59 -1607.22 -1916.01 -2378.53 -2790.11 -2757.73 -3096.24 -3233.03 -3204.79 -3380.70 -3742.68 -3852.35 -3958.47 -4051.30 -4062.12 -4077.39 -4082.83 -4094.24 -4102.42 -4112.45 -4120.61 -4144.03 -4160.39 -4180.62 -4190.24 -4196.90 -4202.04 -4208.90 -4209.88 -4224.79 -4231.17 -4233.15 -4232.45 -4229.90 -4222.33 -4216.78 -4208.90 -4206.54
-4369.87 -4369.81 -4367.24 -4369.77 -4371.44 -4381.23 -4397.06 -4455.21 -4538.55 -4604.11 -4614.16 -4619.77 -4605.14 -4573.57 -4452.70 -4316.07 -4269.27 -4252.90 -4252.56 -4256.29 -4321.21 -4378.89 -4388.52 -4394.50 -4389.66 -4381.77 -4379.14 -4371.67 -4356.95 -4345.97 -4340.07 -4334.06 -4308.96 -4296.46 -4298.60 -4280.72 -4278.80 -4273.05 -4199.94 -4197.37 -4199.99 -4192.84 -4180.40 -4159.43 -4130.64 -4105.60 -4075.15 -4035.88 -3846.29 -3121.29 -2352.19 -1893.16 -1887.58 -2113.52 -2316.96 -2342.26 -2247.38 -2149.82 -2032.53 -1719.05 -1476.22 -1096.49 -900.58 -713.01 -469.46 -432.82 -324.40 -256.57 -230.93 -175.06 9.51 110.07 118.01 116.44 106.23 114.73 123.36 122.78 132.69 134.31 149.68 170.98 172.66 199.61 198.22 197.92 177.35 124.29 111.13 59.86 4.92 -33.56 -55.33 -78.75 -78.52 -102.43 -150.38 -170.52 -239.23 -415.75 -606.36 -925.69 -947.46 -1578.64 -2073.49 -2324.58 -2992.34 -3364.09 -3441.25 -3593.99 -3561.55 -3600.38 -3800.48 -3947.08 -4026.55 -4051.75 -4072.88 -4074.72 -4080.43 -4084.58 -4093.37 -4113.22 -4122.34 -4140.16 -4152.85 -4164.70 -4180.82 -4193.89 -4200.57 -4215.07 -4221.12 -4224.41 -4229.90 -4230.85 -4232.02 -4228.38 -4224.00 -4209.90 -4204.13 -4194.44 -4194.50
-4342.41 -4346.34 -4348.28 -4350.03 -4352.16 -4359.17 -4374.80 -4427.88 -4492.94 -4530.80 -4553.25 -4537.68 -4547.05 -4508.55 -4428.00 -4367.78 -4298.69 -4291.43 -4315.71 -4317.41 -4376.90 -4424.83 -4415.61 -4403.50 -4398.17 -4390.69 -4385.39 -4377.03 -4368.27 -4358.68 -4348.20 -4341.42 -4324.67 -4317.96 -4324.30 -4308.96 -4289.43 -4287.22 -4246.80 -4225.77 -4208.99 -4205.28 -4192.61 -4174.05 -4147.75 -4122.38 -4084.78 -4056.36 -3431.83 -2645.90 -1758.42 -1362.11 -1282.04 -1402.53 -1699.52 -2139.27 -2251.29 -2248.96 -2051.19 -1955.63 -1637.66 -1244.32 -949.08 -741.25 -444.22 -386.06 -335.47 -370.69 -313.21 -224.93 -77.52 53.66 52.79 92.22 57.11 120.73 148.21 165.18 169.63 173.77 189.66 195.57 197.84 199.88 177.85 157.22 93.13 53.83 8.55 -55.78 -93.44 -94.08 -87.34 -93.04 -90.99 -195.20 -277.72 -385.85 -407.77 -543.71 -877.42 -1297.61 -1661.80 -2234.05 -2536.34 -3066.95 -3570.68 -3759.49 -3750.85 -3854.36 -3904.03 -3934.08 -4026.28 -4039.01 -4067.88 -4067.10 -4075.70 -4080.36 -4087.61 -4094.94 -4107.46 -4120.39 -4135.26 -4147.51 -4159.28 -4163.27 -4186.47 -4197.48 -4210.43 -4220.20 -4233.50 -4237.38 -4233.72 -4234.72 -4229.59 -4223.21 -4218.55 -4201.84 -4192.43 -4178.85 -4178.90
-4286.59 -4286.57 -4286.28 -4281.85 -4294.90 -4300.16 -4309.72 -4326.93 -4355.51 -4372.53 -4387.21 -4421.68 -4400.74 -4416.63 -4397.23 -4379.95 -4392.47 -4394.69 -4373.27 -4401.69 -4411.82 -4462.87 -4435.32 -4415.63 -4407.23 -4402.45 -4392.37 -4389.00 -4374.65 -4367.47 -4359.28 -4348.76 -4339.97 -4333.09 -4321.41 -4309.93 -4296.86 -4280.31 -4254.48 -4239.74 -4225.98 -4216.26 -4201.34 -4183.40 -4157.38 -4084.79 -3957.68 -3574.17 -2757.32 -1818.71 -1362.62 -906.97 -793.64 -990.30 -1436.97 -1403.06 -1717.55 -1737.11 -1564.63 -1583.51 -1173.11 -1100.23 -844.23 -420.65 -222.21 -214.10 -340.08 -409.61 -380.65 -349.33 -233.37 -112.13 -129.13 -149.99 -154.93 8.51 129.11 134.33 174.86 197.94 201.55 165.48 158.52 117.17 95.33 65.56 -30.54 -32.06 -70.66 -105.17 -103.73 -111.74 -98.59 -126.53 -215.65 -441.78 -521.74 -642.90 -612.54 -679.58 -1250.75 -1618.46 -2392.98 -2792.97 -2905.04 -3460.91 -3898.18 -3963.16 -3957.37 -3996.28 -4017.65 -4027.24 -4054.43 -4071.43 -4080.07 -4080.48 -4083.89 -4088.12 -4091.51 -4113.62 -4126.12 -4139.19 -4144.36 -4156.10 -4166.93 -4180.91 -4193.65 -4203.58 -4216.14 -4231.87 -4243.72 -4242.44 -4237.83 -4231.67 -4225.46 -4215.71 -4205.09 -4185.33 -4172.08 -4159.89 -4159.94
-4244.00 -4243.96 -4246.99 -4253.28 -4250.23 -4263.13 -4262.48 -4264.80 -4258.33 -4292.93 -4254.21 -4251.93 -4235.37 -4282.75 -4362.25 -4396.01 -4452.44 -4469.69 -4466.57 -4456.98 -4461.93 -4484.51 -4453.61 -4435.30 -4418.48 -4409.51 -4403.24 -4395.94 -4384.05 -4371.49 -4362.93 -4352.36 -4342.72 -4335.35 -4326.55 -4310.31 -4297.34 -4284.51 -4263.65 -4247.70 -4236.25 -4223.30 -4218.04 -4152.83 -4107.57 -3810.34 -3335.04 -2596.45 -2188.01 -1544.17 -932.55 -702.02 -596.55 -652.71 -721.81 -924.13 -925.29 -1023.97 -925.93 -765.43 -763.26 -422.46 -375.61 -158.23 -133.55 -195.70 -386.98 -429.07 -499.91 -535.24 -634.46 -359.04 -208.01 -257.89 -267.05 -192.43 -104.96 -34.65 61.31 156.43 117.35 93.64 84.84 37.45 6.80 -50.40 -82.37 -88.94 -104.60 -112.36 -124.49 -132.69 -129.26 -149.91 -393.18 -530.18 -678.39 -802.49 -1030.45 -1458.89 -1518.77 -2019.30 -2772.39 -3443.54 -3710.19 -3862.72 -4012.19 -4048.17 -4059.44 -4050.63 -4043.16 -4048.24 -4077.77 -4091.59 -4095.77 -4090.12 -4090.39 -4103.66 -4112.01 -4125.88 -4142.27 -4157.60 -4161.35 -4166.58 -4178.40 -4191.23 -4204.04 -4219.20 -4239.24 -4243.76 -4249.59 -4250.99 -4245.54 -4233.58 -4219.00 -4206.20 -4191.56 -4177.31 -4162.33 -4143.19 -4138.02
-4233.10 -4233.03 -4236.02 -4237.86 -4240.83 -4240.87 -4237.44 -4228.27 -4215.31 -4213.23 -4220.53 -4216.69 -4220.87 -4245.26 -4328.85 -4411.62 -4487.98 -4496.93 -4512.72 -4507.75 -4497.60 -4492.40 -4458.01 -4440.56 -4433.61 -4419.86 -4413.18 -4405.77 -4400.96 -4384.22 -4371.22 -4364.19 -4345.24 -4342.49 -4330.96 -4320.73 -4313.31 -4300.01 -4279.69 -4260.86 -4246.98 -4237.63 -4231.27 -4083.38 -3588.04 -3046.53 -2588.52 -2094.71 -1375.02 -1141.82 -749.24 -650.04 -570.28 -567.08 -622.84 -695.27 -726.66 -725.66 -651.35 -483.71 -387.98 -292.85 -131.40 -100.59 -98.71 -227.58 -506.45 -763.24 -668.92 -739.45 -729.25 -613.86 -441.95 -644.11 -542.36 -623.67 -408.21 -336.98 -213.41 -130.39 -115.16 -102.67 -70.42 -77.86 -86.15 -99.94 -114.88 -128.13 -136.73 -200.62 -164.51 -220.76 -275.46 -221.98 -500.17 -785.33 -1062.60 -1077.10 -1668.73 -1971.30 -2236.00 -2541.81 -3320.82 -3656.28 -3862.25 -3985.48 -4040.52 -4059.97 -4071.50 -4073.91 -4078.86 -4087.47 -4087.45 -4100.84 -4105.80 -4097.69 -4103.21 -4119.90 -4125.96 -4145.59 -4165.87 -4172.78 -4176.48 -4188.68 -4201.63 -4207.60 -4228.08 -4233.42 -4252.55 -4257.13 -4254.30 -4254.60 -4249.11 -4225.86 -4204.15 -4189.04 -4181.23 -4154.36 -4130.90 -4113.78 -4113.84
-4237.46 -4237.39 -4240.39 -4238.74 -4241.16 -4241.06 -4239.21 -4228.02 -4215.20 -4208.58 -4208.16 -4208.18 -4216.15 -4254.49 -4334.70 -4417.34 -4500.51 -4511.95 -4515.79 -4508.71 -4501.50 -4494.83 -4474.79 -4456.82 -4446.08 -4435.40 -4426.32 -4418.89 -4414.65 -4390.26 -4377.12 -4374.68 -4359.10 -4348.44 -4343.23 -4331.39 -4320.95 -4305.74 -4285.54 -4269.26 -4263.97 -4209.37 -4140.84 -3314.35 -2940.59 -2440.44 -1877.25 -1233.38 -999.40 -867.17 -656.72 -619.96 -638.14 -642.97 -772.28 -743.98 -626.74 -568.79 -508.83 -409.93 -409.56 -335.07 -200.15 -117.79 -154.43 -396.23 -577.61 -1102.96 -939.71 -999.34 -969.11 -824.58 -962.63 -998.41 -901.38 -837.58 -713.54 -549.83 -440.10 -481.24 -478.38 -345.62 -281.03 -276.48 -249.03 -240.69 -218.34 -154.09 -259.79 -385.01 -374.64 -551.00 -644.78 -642.46 -779.92 -1117.61 -1586.88 -1880.73 -2219.48 -2583.65 -2964.83 -3065.55 -3406.35 -3889.59 -3960.67 -4035.71 -4036.15 -4073.98 -4085.30 -4100.78 -4096.44 -4107.01 -4114.08 -4124.43 -4120.25 -4113.84 -4128.51 -4135.41 -4149.67 -4169.78 -4174.35 -4194.47 -4196.11 -4204.13 -4211.40 -4229.11 -4244.19 -4261.16 -4261.50 -4264.49 -4265.61 -4254.51 -4243.89 -4219.03 -4191.42 -4171.42 -4147.10 -4136.89 -4116.87 -4094.58 -4088.35
-4252.03 -4250.30 -4256.44 -4255.55 -4257.39 -4262.61 -4254.53 -4249.40 -4238.75 -4215.13 -4228.09 -4223.28 -4235.66 -4263.59 -4341.64 -4428.24 -4496.56 -4507.92 -4505.14 -4503.03 -4500.38 -4493.20 -4479.47 -4468.88 -4453.42 -4448.70 -4436.78 -4429.98 -4418.58 -4406.59 -4387.80 -4387.72 -4375.08 -4364.87 -4357.94 -4341.46 -4330.90 -4317.89 -4310.63 -4296.60 -4283.00 -4214.66 -3806.69 -3376.85 -2262.69 -1534.53 -1107.92 -978.89 -826.71 -704.09 -620.12 -698.22 -817.75 -1056.17 -1036.91 -1099.08 -847.30 -588.17 -665.06 -641.73 -521.30 -454.65 -553.57 -532.42 -744.74 -1060.21 -1603.86 -1663.06 -1482.08 -1350.98 -1197.55 -1334.92 -1545.03 -1316.39 -1232.44 -1219.42 -1079.42 -801.21 -759.77 -709.52 -666.01 -573.31 -482.93 -474.33 -431.40 -420.85 -429.96 -395.89 -472.19 -525.46 -777.08 -964.92 -976.70 -1482.63 -1634.42 -1626.83 -2030.94 -2308.87 -2876.12 -3041.00 -3441.27 -3635.26 -3949.16 -4019.26 -4007.87 -4051.99 -4051.45 -4085.32 -4097.05 -4114.80 -4132.87 -4132.69 -4132.75 -4139.67 -4137.46 -4138.86 -4140.63 -4154.41 -4170.58 -4181.39 -4193.29 -4199.14 -4218.04 -4228.52 -4237.38 -4257.94 -4263.46 -4272.68 -4278.54 -4275.35 -4271.64 -4257.30 -4235.26 -4207.56 -4183.07 -4166.01 -4133.53 -4110.94 -4081.09 -4062.20 -4062.26
-4297.24 -4293.60 -4297.10 -4283.58 -4288.72 -4303.96 -4307.25 -4293.66 -4285.63 -4268.07 -4301.67 -4276.48 -4288.31 -4305.27 -4361.11 -4444.14 -4497.51 -4497.21 -4497.90 -4501.47 -4499.67 -4492.60 -4486.72 -4474.43 -4466.60 -4455.95 -4448.50 -4440.89 -4435.33 -4422.68 -4409.93 -4405.72 -4396.74 -4382.58 -4364.19 -4350.78 -4343.75 -4346.32 -4345.37 -4318.90 -4157.55 -4086.14 -3388.08 -2664.02 -1631.67 -1254.98 -1028.59 -894.14 -834.03 -807.39 -735.28 -872.93 -1264.49 -1733.59 -1773.76 -1649.45 -1185.22 -1087.34 -817.62 -992.90 -1235.23 -1515.49 -1539.42 -1582.90 -1759.44 -1955.23 -2200.03 -2146.40 -1914.33 -1869.22 -1896.99 -2082.56 -2064.25 -2016.29 -1612.42 -1521.92 -1319.75 -1119.53 -1167.66 -1085.68 -1064.45 -915.82 -779.35 -742.65 -743.81 -717.61 -732.11 -735.73 -725.39 -838.84 -1179.53 -1702.39 -2080.08 -2529.79 -2495.56 -2305.37 -2608.88 -2707.69 -3186.57 -3594.45 -3935.22 -4001.39 -4077.77 -4099.43 -4095.53 -4083.74 -4087.89 -4106.65 -4127.71 -4149.25 -4169.36 -4166.54 -4165.41 -4172.26 -4153.41 -4163.93 -4175.24 -4180.77 -4192.92 -4199.37 -4220.99 -4215.89 -4238.64 -4247.02 -4252.24 -4273.40 -4282.13 -4286.93 -4287.64 -4282.24 -4275.34 -4255.69 -4237.85 -4206.45 -4161.56 -4144.18 -4129.42 -4081.27 -4069.43 -4036.29 -4036.34
-4373.74 -4373.62 -4375.71 -4362.07 -4367.76 -4366.15 -4364.98 -4368.06 -4370.85 -4360.74 -4367.11 -4358.91 -4359.90 -4395.61 -4427.20 -4448.07 -4494.33 -4494.51 -4499.53 -4501.45 -4499.38 -4495.88 -4492.97 -4485.58 -4476.72 -4466.91 -4460.95 -4457.96 -4456.27 -4461.40 -4438.24 -4427.37 -4407.77 -4389.63 -4383.08 -4362.79 -4357.54 -4366.42 -4364.36 -4349.04 -4264.31 -3773.43 -3123.51 -1992.99 -1358.31 -1119.35 -1106.43 -1130.94 -1088.36 -974.16 -921.88 -1501.82 -1725.29 -2318.59 -2636.33 -2255.89 -1793.14 -1646.86 -1533.55 -1819.21 -1917.03 -2350.61 -2434.62 -2200.27 -2477.01 -2878.15 -3002.33 -2789.33 -2744.32 -2498.24 -2186.17 -2388.60 -2513.96 -2352.74 -2056.00 -2169.81 -2036.71 -1922.75 -1865.18 -1890.16 -1798.31 -1503.49 -1092.23 -1331.44 -1203.76 -1200.12 -1066.98 -1063.53 -1057.97 -1095.89 -1455.91 -2130.90 -2628.11 -3120.70 -3592.86 -3382.38 -3490.32 -3591.96 -3573.81 -3868.02 -3982.72 -4096.75 -4106.44 -4113.40 -4116.66 -4107.85 -4104.83 -4125.10 -4143.58 -4179.23 -4182.38 -4192.19 -4204.94 -4203.72 -4192.39 -4199.88 -4199.30 -4197.12 -4207.86 -4218.41 -4231.85 -4242.99 -4252.75 -4267.22 -4282.17 -4287.27 -4297.04 -4292.00 -4292.03 -4287.60 -4275.46 -4249.21 -4216.54 -4183.61 -4142.89 -4124.22 -4092.11 -4061.38 -4036.39 -4011.04 -4011.10
-4430.89 -4430.79 -4432.33 -4424.45 -4431.66 -4432.13 -4430.35 -4423.43 -4419.98 -4425.03 -4420.29 -4437.89 -4434.47 -4444.40 -4458.46 -4474.43 -4489.38 -4493.27 -4494.52 -4497.17 -4497.26 -4498.50 -4497.38 -4495.94 -4485.73 -4475.56 -4472.88 -4477.21 -4481.57 -4479.00 -4461.27 -4450.86 -4425.72 -4400.49 -4401.56 -4397.29 -4391.52 -4392.35 -4359.69 -4270.69 -4070.90 -3571.76 -2861.39 -1807.78 -1462.99 -1325.63 -1404.16 -1751.79 -1643.11 -1471.58 -1358.46 -1639.91 -2164.87 -2984.17 -3270.58 -2968.17 -2717.32 -2704.39 -2630.74 -2866.34 -3025.89 -3372.97 -3358.05 -3503.35 -3579.49 -3504.70 -3446.14 -3486.18 -3235.54 -3256.33 -2852.84 -2682.19 -2853.85 -2900.77 -2875.18 -2823.20 -2879.32 -2440.18 -2733.98 -2294.96 -2377.10 -2255.65 -1933.93 -1825.19 -1558.16 -1441.72 -1522.17 -1852.96 -1641.98 -1717.01 -1797.32 -2264.66 -3056.37 -3767.77 -4003.09 -3960.24 -3887.94 -3972.24 -3949.94 -3930.87 -4053.92 -4108.17 -4121.53 -4136.56 -4138.58 -4153.06 -4134.27 -4163.99 -4198.20 -4219.16 -4215.44 -4223.45 -4227.59 -4228.75 -4228.69 -4228.21 -4221.05 -4218.57 -4220.37 -4232.67 -4245.88 -4265.14 -4284.07 -4291.80 -4301.35 -4307.91 -4311.00 -4301.04 -4295.04 -4286.57 -4266.95 -4242.67 -4206.11 -4167.76 -4126.80 -4096.42 -4073.91 -4030.50 -4015.55 -3986.98 -3987.04
-4452.03 -4451.95 -4452.39 -4449.72 -4452.40 -4452.32 -4454.86 -4456.07 -4453.87 -4463.35 -4463.31 -4468.12 -4468.01 -4474.73 -4477.32 -4483.83 -4487.52 -4491.69 -4495.12 -4495.73 -4496.54 -4501.23 -4502.60 -4500.62 -4497.04 -4493.61 -4487.90 -4492.07 -4495.93 -4490.56 -4485.11 -4470.01 -4455.64 -4450.41 -4430.99 -4427.48 -4407.45 -4410.88 -4357.77 -4246.55 -4128.49 -3555.17 -2654.63 -2119.71 -1931.77 -2151.48 -2583.08 -2595.69 -2650.15 -2265.57 -1839.57 -2137.98 -2592.13 -3302.48 -3687.02 -3622.76 -3624.13 -3273.58 -3382.85 -3711.93 -3632.18 -3918.52 -3945.27 -3969.53 -3953.32 -3960.43 -3941.48 -3685.37 -3779.63 -3558.62 -3244.25 -3334.12 -3415.15 -3478.60 -3495.93 -3438.88 -3583.24 -3296.05 -2858.09 -3076.74 -3173.38 -2907.21 -2661.69 -2365.88 -2163.40 -1741.76 -2179.35 -2330.79 -2766.90 -2648.27 -2535.95 -2796.96 -3460.24 -3889.07 -4109.86 -4105.27 -4115.49 -4128.35 -4106.83 -4105.71 -4108.39 -4124.48 -4135.86 -4156.04 -4170.99 -4178.94 -4180.39 -4180.16 -4209.08 -4234.16 -4235.65 -4242.67 -4244.81 -4246.86 -4244.18 -4238.42 -4239.64 -4241.34 -4242.19 -4255.44 -4263.75 -4278.27 -4295.72 -4304.06 -4311.25 -4316.97 -4315.87 -4305.75 -4292.16 -4279.06 -4240.03 -4226.25 -4182.31 -4142.98 -4117.92 -4080.13 -4048.28 -4025.44 -3992.25 -3965.01 -3965.07
-4459.05 -4458.57 -4458.92 -4460.06 -4461.12 -4462.95 -4464.99 -4467.18 -4469.43 -4471.72 -4473.00 -4476.59 -4480.98 -4483.77 -4485.40 -4489.24 -4490.69 -4495.56 -4497.91 -4500.59 -4500.52 -4504.18 -4506.46 -4507.02 -4505.70 -4500.99 -4496.59 -4504.87 -4503.81 -4501.00 -4493.69 -4487.26 -4483.86 -4470.00 -4458.70 -4447.75 -4432.50 -4423.95 -4427.08 -4311.27 -4208.28 -3324.24 -2939.04 -2434.26 -2579.17 -2749.26 -3103.54 -3490.47 -3350.41 -3266.61 -2566.84 -2606.42 -2937.97 -3397.81 -3802.88 -3960.38 -3969.54 -3971.69 -3911.14 -4064.96 -4254.26 -4223.17 -4259.58 -4292.83 -4230.14 -4155.97 -4146.66 -4076.42 -3964.83 -3760.67 -3599.77 -3546.49 -3693.24 -3915.62 -3886.94 -3816.37 -3940.09 -3785.98 -3482.61 -3469.48 -3648.67 -3497.05 -3407.29 -2822.78 -2966.73 -2546.69 -2529.89 -3197.07 -3361.02 -3195.33 -3079.25 -3466.26 -3648.99 -4043.69 -4128.94 -4130.01 -4133.22 -4138.25 -4136.93 -4130.36 -4115.85 -4134.15 -4152.43 -4166.09 -4193.93 -4207.66 -4208.98 -4209.68 -4230.45 -4248.07 -4252.59 -4253.25 -4254.58 -4256.25 -4259.16 -4252.02 -4256.14 -4260.13 -4256.71 -4267.44 -4281.48 -4297.42 -4304.77 -4319.98 -4320.36 -4321.87 -4316.61 -4302.15 -4293.79 -4266.82 -4233.21 -4202.48 -4166.02 -4125.56 -4094.55 -4066.45 -4026.77 -4002.23 -3968.95 -3945.42 -3945.48
-4464.26 -4464.18 -4464.24 -4466.57 -4466.42 -4467.08 -4467.69 -4470.87 -4473.37 -4476.27 -4479.41 -4482.50 -4486.31 -4488.53 -4491.07 -4494.01 -4497.99 -4501.19 -4502.44 -4502.90 -4507.43 -4509.79 -4512.07 -4514.13 -4514.82 -4512.46 -4518.52 -4515.84 -4512.79 -4508.54 -4506.84 -4506.95 -4503.46 -4489.74 -4476.59 -4460.52 -4452.47 -4445.44 -4442.87 -4365.04 -4127.01 -3763.78 -3310.57 -3114.35 -3139.92 -3507.66 -3865.25 -4064.23 -3977.34 -3586.37 -3304.84 -2989.56 -3290.07 -3437.66 -3891.61 -4105.04 -4192.11 -4244.04 -4270.29 -4315.18 -4344.47 -4361.56 -4363.13 -4352.49 -4335.46 -4307.61 -4257.89 -4221.25 -4198.81 -4216.37 -4151.40 -4088.08 -4066.19 -4137.97 -4103.22 -4157.94 -4137.73 -4213.88 -3860.34 -3849.52 -3950.51 -3985.35 -3950.82 -3967.96 -3790.98 -3398.22 -3290.87 -3543.44 -3755.50 -3928.61 -3872.39 -4020.69 -4033.98 -4075.66 -4120.00 -4126.77 -4128.49 -4126.38 -4127.85 -4132.50 -4129.70 -4146.58 -4172.77 -4187.72 -4206.77 -4215.93 -4224.94 -4237.71 -4241.90 -4255.86 -4259.68 -4261.61 -4263.65 -4267.95 -4267.66 -4265.77 -4264.68 -4271.53 -4282.27 -4287.92 -4291.47 -4305.96 -4316.65 -4324.32 -4326.65 -4323.88 -4319.01 -4303.98 -4285.38 -4251.55 -4219.29 -4177.82 -4153.12 -4117.64 -4077.80 -4048.58 -4017.60 -3978.08 -3950.28 -3928.29 -3928.36
-4469.43 -4469.35 -4469.91 -4469.36 -4471.29 -4471.87 -4475.94 -4475.57 -4478.42 -4479.54 -4483.99 -4487.47 -4490.49 -4493.85 -4495.86 -4499.38 -4502.37 -4506.69 -4505.97 -4506.92 -4511.57 -4515.36 -4516.57 -4517.41 -4518.02 -4523.33 -4524.81 -4523.03 -4518.69 -4516.97 -4516.76 -4515.22 -4512.27 -4501.34 -4496.77 -4480.64 -4470.03 -4471.10 -4473.88 -4457.29 -4372.11 -4072.83 -3984.05 -3843.48 -3851.93 -4137.73 -4206.07 -4313.91 -4272.92 -4078.67 -3849.79 -3676.43 -3623.04 -3681.21 -3973.21 -4199.92 -4310.90 -4353.72 -4383.12 -4381.90 -4387.63 -4395.34 -4405.07 -4406.46 -4386.12 -4379.93 -4355.06 -4338.91 -4339.52 -4339.90 -4304.41 -4292.87 -4281.20 -4207.83 -4208.00 -4241.98 -4302.23 -4286.88 -4212.18 -4216.52 -4235.53 -4268.55 -4254.28 -4231.41 -4068.10 -3944.20 -3998.14 -3982.69 -4038.40 -4131.55 -4100.38 -4124.48 -4140.85 -4122.24 -4115.24 -4120.29 -4122.36 -4128.36 -4133.95 -4149.80 -4164.30 -4174.04 -4192.16 -4202.31 -4216.60 -4220.40 -4238.06 -4249.08 -4250.27 -4260.15 -4261.95 -4263.82 -4271.45 -4271.76 -4273.83 -4277.69 -4280.13 -4283.46 -4289.14 -4302.68 -4311.70 -4321.75 -4327.40 -4331.73 -4330.95 -4327.57 -4319.75 -4310.34 -4275.02 -4235.86 -4201.08 -4167.27 -4131.75 -4085.96 -4059.27 -4030.53 -3997.77 -3961.03 -3940.63 -3916.47 -3913.27
-4474.32 -4474.24 -4473.96 -4475.78 -4474.32 -4475.35 -4477.50 -4479.96 -4481.21 -4485.60 -4489.68 -4492.22 -4495.52 -4499.06 -4502.79 -4505.53 -4509.41 -4512.19 -4515.02 -4514.94 -4516.66 -4519.91 -4521.19 -4520.89 -4525.39 -4528.00 -4529.05 -4529.62 -4524.62 -4524.40 -4524.51 -4522.15 -4520.14 -4512.72 -4506.36 -4496.42 -4494.55 -4486.33 -4495.77 -4490.61 -4473.35 -4322.16 -4219.23 -4162.82 -4176.46 -4349.36 -4361.39 -4375.58 -4357.60 -4245.43 -4109.34 -3988.37 -3922.26 -3966.34 -4176.80 -4254.42 -4359.38 -4408.22 -4419.30 -4422.11 -4428.23 -4428.12 -4426.84 -4419.17 -4411.30 -4396.11 -4389.83 -4375.12 -4378.91 -4393.79 -4393.84 -4356.54 -4315.63 -4258.20 -4258.31 -4283.33 -4321.99 -4316.97 -4311.91 -4309.08 -4307.09 -4305.52 -4306.78 -4284.55 -4274.24 -4248.02 -4201.23 -4194.63 -4190.08 -4189.25 -4156.48 -4140.90 -4137.21 -4125.91 -4116.71 -4123.62 -4129.40 -4134.80 -4145.67 -4168.04 -4180.76 -4187.15 -4193.97 -4210.04 -4218.76 -4228.54 -4238.87 -4248.17 -4252.55 -4258.82 -4263.34 -4269.74 -4273.18 -4279.08 -4282.34 -4284.26 -4289.28 -4297.45 -4301.22 -4308.58 -4317.20 -4325.07 -4330.09 -4334.99 -4335.95 -4330.58 -4320.66 -4299.93 -4269.34 -4227.14 -4196.92 -4144.90 -4119.48 -4080.15 -4038.85 -4015.39 -3984.88 -3947.35 -3919.25 -3899.84 -3899.91
-4478.81 -4478.72 -4478.71 -4478.50 -4478.99 -4480.29 -4482.12 -4483.40 -4486.65 -4488.70 -4493.50 -4495.57 -4497.82 -4503.58 -4506.77 -4510.94 -4514.09 -4517.60 -4518.52 -4521.32 -4522.04 -4524.00 -4526.08 -4526.52 -4530.45 -4533.37 -4534.95 -4535.31 -4536.38 -4530.70 -4530.08 -4527.47 -4525.27 -4523.43 -4517.28 -4516.96 -4514.33 -4505.53 -4502.59 -4495.64 -4466.95 -4415.43 -4418.97 -4399.43 -4420.62 -4420.46 -4427.77 -4420.51 -4399.65 -4350.78 -4286.37 -4224.61 -4200.12 -4269.27 -4293.42 -4364.06 -4412.68 -4426.47 -4434.44 -4444.29 -4443.18 -4444.74 -4445.18 -4436.43 -4431.14 -4413.42 -4399.92 -4396.93 -4405.42 -4406.54 -4402.50 -4373.11 -4342.92 -4318.27 -4313.80 -4325.92 -4325.73 -4324.34 -4328.28 -4326.40 -4312.16 -4301.45 -4295.08 -4275.95 -4271.44 -4231.88 -4205.18 -4196.57 -4189.81 -4175.91 -4152.14 -4140.72 -4134.80 -4123.73 -4121.55 -4137.08 -4144.31 -4154.05 -4159.11 -4168.30 -4182.62 -4186.36 -4200.53 -4211.83 -4219.33 -4225.68 -4236.35 -4244.04 -4252.11 -4258.30 -4266.04 -4274.23 -4280.98 -4287.02 -4291.39 -4296.60 -4299.00 -4301.79 -4310.30 -4322.12 -4330.08 -4337.32 -4336.92 -4338.86 -4335.77 -4326.45 -4311.64 -4285.27 -4255.99 -4210.69 -4173.82 -4138.98 -4114.49 -4062.43 -4029.67 -3989.63 -3958.77 -3933.26 -3908.15 -3890.78 -3888.41
-4482.75 -4482.66 -4482.87 -4482.31 -4483.05 -4485.31 -4485.75 -4487.58 -4489.89 -4492.80 -4497.24 -4499.91 -4504.27 -4508.14 -4513.31 -4516.26 -4519.77 -4523.40 -4524.84 -4526.33 -4528.37 -4527.83 -4532.51 -4532.00 -4536.54 -4539.14 -4540.25 -4541.77 -4540.48 -4538.07 -4535.90 -4534.59 -4531.77 -4529.36 -4528.69 -4527.37 -4525.71 -4516.29 -4508.22 -4497.65 -4490.65 -4472.65 -4482.32 -4469.60 -4463.83 -4454.14 -4439.24 -4432.63 -4417.06 -4405.49 -4380.49 -4377.44 -4361.21 -4358.65 -4372.26 -4405.51 -4422.71 -4438.98 -4447.68 -4453.14 -4459.40 -4462.96 -4457.42 -4445.34 -4437.95 -4430.19 -4411.27 -4410.03 -4415.88 -4408.19 -4394.02 -4370.93 -4362.91 -4357.13 -4343.96 -4335.32 -4322.79 -4321.34 -4319.96 -4311.09 -4298.85 -4285.35 -4283.50 -4250.73 -4234.04 -4217.96 -4193.39 -4185.21 -4179.44 -4167.13 -4150.26 -4138.14 -4133.80 -4131.27 -4137.47 -4143.39 -4158.65 -4170.93 -4170.71 -4176.71 -4183.10 -4188.53 -4203.73 -4212.04 -4220.15 -4224.15 -4230.08 -4241.05 -4253.20 -4260.50 -4269.45 -4277.91 -4284.31 -4291.50 -4297.44 -4305.57 -4310.00 -4311.05 -4319.09 -4325.33 -4337.98 -4338.86 -4337.56 -4335.65 -4326.38 -4321.28 -4298.93 -4266.99 -4256.76 -4181.34 -4156.10 -4126.38 -4075.20 -4039.95 -4006.27 -3968.43 -3946.47 -3928.30 -3898.91 -3878.08 -3878.15
-4486.10 -4486.01 -4486.17 -4485.80 -4486.76 -4487.43 -4488.55 -4490.82 -4493.32 -4495.95 -4500.28 -4503.79 -4508.09 -4511.04 -4517.12 -4520.97 -4524.74 -4529.48 -4530.25 -4532.30 -4532.02 -4534.65 -4536.20 -4534.92 -4538.60 -4541.50 -4546.45 -4546.56 -4547.37 -4543.71 -4542.08 -4540.29 -4539.59 -4535.67 -4532.49 -4532.20 -4528.93 -4517.20 -4510.69 -4504.33 -4498.97 -4496.48 -4502.05 -4483.30 -4472.12 -4461.63 -4437.81 -4432.32 -4416.06 -4406.04 -4398.54 -4388.74 -4386.18 -4393.20 -4402.64 -4422.00 -4433.33 -4446.10 -4453.46 -4461.81 -4466.72 -4472.37 -4465.88 -4456.58 -4440.50 -4432.96 -4417.22 -4414.07 -4426.77 -4426.00 -4412.10 -4385.59 -4383.15 -4377.74 -4364.05 -4342.57 -4323.87 -4316.60 -4312.10 -4300.81 -4288.68 -4277.51 -4260.17 -4245.89 -4225.75 -4208.02 -4190.85 -4183.46 -4175.09 -4161.74 -4146.48 -4141.56 -4140.75 -4140.23 -4151.18 -4156.30 -4172.35 -4180.71 -4181.64 -4184.31 -4187.93 -4196.64 -4201.99 -4212.27 -4219.35 -4227.70 -4234.87 -4240.59 -4252.10 -4258.89 -4270.35 -4281.06 -4292.07 -4298.38 -4304.36 -4313.63 -4317.98 -4320.54 -4327.16 -4331.26 -4336.92 -4337.91 -4333.74 -4330.39 -4320.51 -4305.37 -4284.64 -4247.35 -4218.78 -4171.72 -4146.32 -4096.56 -4061.99 -4026.06 -3991.09 -3964.43 -3932.77 -3909.25 -3885.31 -3869.08 -3869.16
-4488.86 -4488.77 -4488.87 -4488.64 -4489.55 -4490.35 -4491.84 -4494.11 -4496.13 -4499.71 -4504.33 -4507.82 -4511.98 -4517.98 -4522.13 -4525.32 -4528.79 -4533.83 -4534.75 -4536.35 -4538.91 -4542.11 -4541.25 -4544.11 -4543.44 -4546.20 -4549.79 -4552.15 -4551.65 -4549.81 -4548.59 -4547.14 -4542.41 -4539.88 -4538.71 -4532.40 -4531.25 -4524.58 -4517.50 -4511.69 -4501.80 -4502.26 -4503.34 -4490.51 -4473.42 -4460.09 -4439.57 -4430.03 -4413.80 -4403.91 -4393.41 -4391.17 -4391.90 -4396.79 -4406.80 -4420.09 -4437.64 -4450.21 -4456.87 -4466.44 -4471.75 -4477.73 -4470.75 -4461.46 -4447.73 -4438.29 -4428.26 -4424.85 -4430.05 -4426.84 -4416.70 -4389.73 -4386.33 -4382.70 -4367.83 -4340.83 -4326.90 -4313.95 -4307.23 -4289.18 -4284.09 -4283.79 -4259.64 -4248.57 -4234.83 -4208.88 -4200.96 -4194.98 -4187.11 -4167.15 -4164.37 -4160.36 -4157.90 -4160.71 -4163.66 -4165.63 -4182.53 -4185.37 -4188.42 -4191.72 -4194.40 -4203.39 -4208.32 -4216.57 -4223.26 -4228.71 -4236.16 -4243.54 -4253.44 -4260.35 -4269.58 -4278.86 -4291.79 -4299.12 -4310.09 -4317.52 -4320.41 -4324.73 -4329.27 -4333.52 -4334.88 -4330.38 -4324.55 -4316.59 -4302.95 -4290.18 -4260.53 -4231.38 -4194.13 -4148.36 -4122.46 -4081.23 -4040.80 -4012.74 -3978.65 -3946.12 -3921.35 -3894.22 -3873.67 -3862.58 -3861.35
-4491.10 -4490.95 -4491.19 -4491.86 -4492.61 -4493.55 -4494.86 -4496.94 -4500.26 -4503.70 -4506.26 -4511.91 -4516.49 -4521.59 -4525.28 -4530.74 -4533.88 -4539.83 -4541.33 -4539.94 -4540.86 -4544.58 -4545.65 -4547.61 -4547.78 -4553.41 -4555.60 -4554.49 -4556.50 -4553.51 -4553.68 -4550.84 -4549.28 -4544.58 -4541.20 -4534.55 -4535.44 -4532.00 -4523.56 -4517.07 -4508.29 -4500.53 -4502.59 -4486.08 -4473.08 -4453.11 -4440.56 -4417.21 -4413.36 -4399.21 -4389.30 -4384.95 -4386.87 -4392.08 -4402.89 -4418.70 -4437.64 -4447.21 -4459.46 -4466.28 -4474.23 -4478.77 -4476.22 -4465.43 -4450.58 -4442.50 -4438.35 -4437.79 -4436.38 -4429.33 -4413.33 -4395.60 -4390.99 -4382.09 -4367.71 -4355.40 -4333.43 -4329.16 -4313.12 -4295.70 -4292.27 -4290.77 -4269.10 -4261.37 -4248.99 -4227.58 -4220.23 -4211.10 -4196.66 -4185.85 -4170.31 -4170.91 -4172.79 -4173.25 -4179.81 -4184.88 -4188.60 -4191.26 -4197.01 -4199.20 -4206.26 -4209.01 -4214.30 -4220.07 -4226.51 -4235.40 -4237.63 -4243.08 -4252.00 -4257.54 -4265.98 -4272.94 -4283.27 -4299.03 -4303.74 -4317.77 -4316.25 -4319.91 -4323.74 -4323.67 -4325.93 -4317.53 -4302.70 -4301.63 -4283.69 -4269.02 -4237.07 -4206.71 -4161.88 -4122.69 -4097.37 -4043.22 -4021.95 -3993.14 -3958.09 -3934.56 -3910.88 -3890.88 -3869.21 -3855.41 -3854.50
-4492.90 -4492.80 -4493.23 -4493.86 -4495.09 -4495.81 -4497.30 -4500.35 -4502.74 -4507.14 -4509.82 -4515.00 -4520.28 -4524.18 -4528.52 -4533.53 -4538.84 -4543.63 -4543.85 -4543.29 -4545.30 -4547.67 -4548.82 -4551.77 -4555.44 -4556.21 -4556.86 -4557.30 -4557.46 -4557.76 -4556.70 -4555.07 -4552.07 -4546.39 -4544.90 -4542.52 -4538.84 -4534.85 -4528.48 -4519.25 -4508.64 -4503.11 -4500.94 -4485.85 -4469.93 -4451.48 -4436.52 -4418.71 -4410.26 -4391.27 -4383.49 -4379.71 -4381.26 -4387.14 -4395.92 -4411.65 -4425.85 -4444.34 -4454.71 -4462.57 -4472.12 -4476.34 -4477.42 -4467.83 -4452.75 -4448.93 -4442.54 -4440.90 -4432.05 -4423.86 -4417.60 -4403.80 -4392.16 -4386.91 -4378.60 -4362.84 -4347.17 -4332.38 -4316.07 -4309.64 -4304.78 -4292.58 -4278.38 -4271.64 -4259.53 -4242.39 -4227.70 -4218.24 -4211.48 -4199.88 -4192.28 -4184.70 -4181.07 -4185.81 -4189.78 -4195.24 -4198.09 -4198.79 -4200.83 -4207.11 -4210.92 -4217.89 -4219.40 -4220.47 -4227.62 -4235.44 -4237.98 -4239.44 -4248.15 -4254.23 -4254.83 -4268.08 -4274.62 -4281.52 -4293.51 -4306.78 -4307.13 -4312.42 -4309.30 -4307.95 -4306.91 -4286.02 -4280.97 -4267.41 -4250.49 -4229.30 -4204.27 -4175.26 -4139.81 -4103.98 -4079.32 -4034.96 -4000.61 -3974.88 -3948.90 -3920.78 -3897.48 -3878.42 -3864.94 -3848.29 -3848.37
-4494.31 -4494.22 -4494.93 -4495.90 -4496.45 -4498.16 -4500.54 -4502.24 -4504.57 -4508.25 -4513.16 -4517.67 -4522.56 -4526.37 -4531.70 -4535.45 -4541.49 -4544.22 -4546.44 -4544.42 -4549.21 -4550.83 -4551.16 -4555.88 -4559.08 -4558.42 -4556.65 -4558.30 -4559.72 -4559.47 -4559.49 -4556.32 -4554.41 -4549.35 -4546.93 -4543.56 -4541.09 -4534.60 -4526.37 -4521.25 -4515.20 -4503.10 -4499.21 -4485.35 -4464.30 -4448.57 -4432.07 -4416.09 -4398.24 -4382.85 -4377.60 -4370.91 -4372.53 -4379.87 -4390.22 -4406.45 -4422.20 -4437.29 -4451.12 -4459.23 -4468.14 -4473.24 -4473.51 -4465.67 -4453.86 -4445.79 -4439.88 -4436.95 -4429.99 -4420.24 -4410.35 -4403.99 -4394.44 -4389.33 -4384.92 -4375.47 -4358.97 -4341.11 -4326.33 -4314.84 -4306.87 -4298.76 -4283.92 -4274.01 -4267.95 -4254.05 -4232.54 -4223.92 -4216.43 -4201.09 -4201.55 -4199.79 -4194.49 -4191.52 -4195.59 -4202.87 -4206.63 -4202.99 -4204.31 -4206.93 -4213.04 -4218.17 -4219.46 -4222.02 -4226.72 -4233.50 -4236.87 -4235.50 -4241.31 -4245.04 -4250.17 -4260.00 -4265.35 -4269.89 -4275.57 -4282.75 -4294.20 -4292.91 -4292.69 -4285.52 -4286.99 -4271.14 -4259.00 -4242.75 -4223.23 -4212.08 -4181.17 -4149.03 -4111.67 -4082.41 -4042.18 -4018.92 -3984.57 -3959.64 -3932.88 -3907.96 -3891.45 -3872.27 -3855.18 -3842.88 -3842.96
-4495.35 -4495.27 -4496.19 -4497.22 -4498.43 -4499.92 -4501.82 -4504.22 -4507.21 -4510.77 -4514.86 -4519.46 -4524.39 -4529.43 -4534.67 -4539.98 -4544.66 -4546.29 -4547.15 -4545.77 -4549.70 -4552.93 -4554.53 -4559.70 -4562.13 -4561.00 -4558.28 -4559.49 -4562.30 -4563.06 -4560.70 -4558.73 -4555.30 -4551.77 -4548.00 -4544.96 -4540.72 -4535.15 -4529.07 -4523.15 -4517.41 -4509.65 -4498.22 -4483.79 -4464.66 -4446.59 -4430.64 -4412.43 -4392.86 -4378.15 -4369.25 -4361.56 -4362.36 -4369.02 -4381.16 -4396.69 -4413.77 -4430.37 -4443.69 -4454.40 -4461.93 -4467.68 -4466.60 -4457.58 -4449.02 -4441.13 -4434.47 -4428.91 -4423.24 -4416.90 -4413.97 -4404.90 -4389.51 -4392.35 -4385.86 -4380.23 -4362.89 -4343.85 -4333.54 -4315.58 -4306.25 -4294.21 -4279.74 -4274.86 -4268.88 -4254.28 -4232.49 -4223.81 -4213.82 -4205.48 -4209.62 -4209.80 -4201.41 -4195.06 -4199.56 -4207.08 -4210.21 -4206.70 -4205.60 -4208.27 -4213.63 -4217.76 -4219.50 -4221.68 -4224.79 -4226.88 -4226.37 -4224.93 -4226.97 -4232.98 -4234.00 -4238.70 -4243.09 -4248.07 -4259.22 -4265.76 -4270.07 -4266.89 -4265.03 -4260.93 -4259.45 -4242.66 -4227.96 -4212.35 -4197.51 -4186.66 -4158.57 -4118.80 -4085.99 -4054.38 -4023.91 -3994.95 -3967.81 -3942.83 -3919.99 -3899.36 -3881.07 -3864.74 -3850.40 -3838.74 -3838.58
-4495.37 -4495.38 -4496.28 -4497.31 -4498.52 -4500.00 -4501.90 -4504.30 -4507.29 -4510.85 -4514.98 -4519.54 -4524.42 -4529.51 -4534.74 -4540.05 -4544.73 -4546.36 -4547.22 -4545.84 -4549.18 -4552.99 -4554.59 -4559.76 -4562.77 -4561.07 -4558.35 -4559.55 -4562.52 -4563.94 -4561.14 -4558.80 -4555.36 -4551.83 -4548.63 -4545.02 -4540.78 -4535.21 -4529.13 -4523.03 -4517.37 -4511.02 -4498.27 -4481.98 -4464.71 -4446.64 -4428.21 -4410.00 -4392.91 -4378.21 -4367.28 -4361.63 -4362.43 -4369.09 -4380.89 -4396.68 -4413.86 -4430.02 -4443.78 -4454.36 -4462.01 -4467.76 -4466.68 -4457.65 -4449.10 -4441.21 -4434.55 -4428.99 -4423.31 -4417.00 -4414.37 -4404.91 -4389.60 -4392.60 -4385.96 -4380.58 -4363.00 -4343.94 -4333.64 -4315.67 -4306.52 -4294.30 -4279.82 -4274.94 -4269.92 -4254.37 -4232.57 -4223.88 -4213.90 -4205.54 -4209.68 -4211.76 -4201.48 -4195.12 -4199.62 -4207.14 -4210.99 -4208.03 -4205.66 -4208.33 -4213.68 -4217.82 -4219.59 -4221.74 -4224.55 -4225.10 -4226.43 -4224.99 -4227.04 -4230.39 -4234.07 -4238.77 -4243.16 -4248.14 -4255.70 -4261.97 -4265.47 -4266.96 -4265.09 -4260.99 -4254.31 -4242.72 -4228.01 -4212.41 -4197.57 -4181.47 -4152.42 -4118.85 -4086.04 -4054.44 -4023.97 -3995.01 -3967.87 -3942.89 -3920.04 -3899.42 -3881.13 -3864.80 -3850.44 -3838.67 -3838.51
