337.71253 329.44788 335.34738 339.69878 346.42143 330.45651 347.01594 347.26850 345.68321 343.92613 341.94006 344.27191 340.19039 349.22039 343.49400 355.63360 347.94500 340.85070 341.33490 348.43938 347.22865 346.40339 341.93386 349.32227 346.18182 354.06352 350.87752 349.92946 355.88775 352.97957 361.59528 359.84713 360.70992 363.69870 360.79641 366.47404 368.19049 372.36346 369.43177 374.44996 374.13905 372.19860 380.50975 375.87577 379.24581 378.64964 381.69837 376.48250 373.32347 380.88614 386.20273 385.16177 386.76202 385.19605 398.91777 394.89201 396.43796 388.21920 391.37309 390.17230 392.96513 400.39162 385.62649 396.26331 390.04638 388.64181 394.09664 402.37662 400.31028 399.75362 400.89363 407.19635 408.30577 418.33715 420.40796 424.85309 428.48646 433.48430 432.66775 429.91575 430.99990 439.36283 435.51584 438.04504 437.90487 423.51548 424.98779 428.63567 425.64879 420.81338 419.54943 420.16931 425.65159 417.73103 427.03099 396.82128 303.13439 213.25120 -13.39364 -108.24416 -172.82795 -197.46124 -209.67931 -235.33570 -298.13932 -793.19682 -1490.19824 -3184.40108 -3755.92017 -3990.91775 -4004.50476 -3999.46875 -3997.66327 -3999.83887 -3996.84894 -4004.39363 -4002.59784 -4003.06863 -3999.24158 -3997.74046 -4002.31716 -4000.15703 -4017.51083 -4017.98116 -4021.07384 -4027.94083 -4039.19586 -4040.60765 -4047.89714 -4055.15977 -4052.19354 -4046.97341 -4055.99258 -4045.92117 -4032.39178 -4040.79910 -4037.32394 -4035.58017 -4031.10741 -4032.78557 -4041.37524 -4047.94806 -4047.20940
331.53719 330.49934 341.47203 336.47878 329.34729 334.77011 343.68928 347.26992 340.11337 348.36312 348.35122 344.39603 344.36400 348.19332 347.78119 349.16105 347.24637 341.36724 348.93960 345.44613 342.76277 355.06983 349.09015 349.97350 353.90053 346.69568 351.67172 354.13766 355.55552 359.23974 356.33749 361.30072 352.29730 363.25987 368.03181 367.87281 368.74036 359.28402 373.53304 372.18531 366.84781 374.20832 379.40476 377.34579 371.35146 377.85802 379.60546 375.36657 375.54940 385.49733 383.57821 384.88800 389.72280 387.23028 384.86213 392.16751 392.50748 384.57984 393.49630 387.41964 397.56626 396.67459 394.61389 384.45076 394.31659 398.58897 398.24852 403.30209 395.84930 407.81943 402.19280 402.79954 410.60436 419.77283 423.51477 421.22868 435.56234 437.13345 437.06681 436.34845 437.43258 436.25794 433.29438 431.53013 432.14911 429.91831 425.70777 428.14415 419.07573 425.91905 422.98048 415.31113 428.02007 423.65371 427.78198 373.48540 280.64791 165.70285 10.58656 -112.24763 -170.59183 -201.12474 -220.79764 -245.19330 -331.19387 -846.16625 -2100.02898 -3403.08454 -3821.29834 -3999.71501 -4003.03628 -4004.78479 -4001.83152 -4006.41921 -4003.29048 -3998.28710 -3995.13522 -3996.48222 -4002.84429 -4003.82278 -4003.01071 -4005.06435 -4008.50035 -4016.56044 -4021.73813 -4025.45741 -4040.90973 -4036.47459 -4047.92928 -4047.31166 -4057.58587 -4058.27841 -4055.69898 -4052.32870 -4054.02717 -4047.89070 -4044.99541 -4041.70410 -4033.43665 -4033.35969 -4036.92485 -4044.45717 -4038.08053
337.31290 341.74937 345.39911 338.71663 341.03871 340.70318 339.68651 341.61681 344.84386 347.64396 348.93494 348.03299 349.80900 349.15196 346.32391 356.88765 352.50892 347.84831 345.79128 346.83759 348.44332 349.66050 347.09659 357.38372 353.06285 357.34236 351.38436 352.68059 355.40296 356.11378 356.91355 358.33837 358.50738 364.15347 367.34899 362.25730 364.98534 366.97957 366.10964 378.58185 368.42530 373.84441 373.54895 382.21973 386.54921 387.11159 380.56072 385.59643 388.94737 378.36718 388.45306 391.43163 387.90910 392.11135 384.38990 380.15890 387.04933 387.70900 392.15826 392.52236 395.16142 396.20743 391.50533 395.60154 398.79262 397.24556 398.54127 398.08232 402.27111 407.15772 405.89504 411.45899 412.57939 420.06215 433.21442 423.64832 430.94298 442.63701 442.64886 435.91832 438.85372 435.85325 440.67780 431.27171 435.20050 431.24417 425.58507 421.30463 426.76040 424.13727 424.24907 419.57945 420.42171 426.22911 425.78603 387.40416 228.31355 53.99716 -42.61483 -125.27833 -145.94419 -210.75970 -223.61578 -254.09493 -366.60000 -972.21203 -2385.70049 -3269.80981 -3887.73420 -4008.49401 -4001.44867 -4002.28814 -4002.93980 -4002.36490 -4006.45299 -3990.60967 -3996.19728 -3997.12765 -4006.17410 -3995.49049 -4002.08890 -4004.43389 -4005.47012 -4017.26174 -4027.87557 -4032.33567 -4033.78213 -4042.81254 -4056.92253 -4057.67170 -4066.95591 -4061.39862 -4058.01039 -4063.68602 -4055.37369 -4050.76021 -4048.00153 -4044.24219 -4041.65645 -4037.10893 -4043.97348 -4039.48949 -4037.65121
336.42069 331.80353 335.93551 341.88637 346.14924 339.17837 334.70799 334.49786 338.81478 350.06544 356.35168 348.10514 343.18432 351.05737 356.99786 348.04124 353.43037 349.93213 345.31269 351.43227 350.77370 343.45847 348.36339 353.82662 349.99411 345.98958 357.96941 356.72423 343.72736 358.20353 356.44497 350.26139 364.24212 361.91199 365.78910 364.71384 368.76356 368.22035 370.70944 375.10397 371.56525 377.55006 375.16967 374.66073 388.21874 382.27434 383.71677 380.29641 381.71690 385.00357 380.43664 391.75523 391.79842 386.68516 391.42535 387.83994 388.35246 381.33467 391.06323 391.67731 397.22291 390.81293 402.83532 396.71974 393.84366 403.58557 397.31940 396.67880 401.69809 405.63276 410.02971 410.22171 412.53742 431.93707 425.40181 428.74157 437.20579 433.41859 437.30825 432.22311 433.62859 440.42195 432.05726 431.98222 436.00167 433.01639 429.41954 427.33368 427.35745 428.99026 414.17135 421.34988 418.61943 438.77337 414.64508 415.03715 365.60694 135.68737 -49.89814 -143.38751 -191.67899 -204.10381 -218.74530 -258.17889 -432.40810 -1286.47335 -2575.38058 -3601.49053 -3976.65796 -4005.55352 -4004.91420 -3996.08336 -4003.53161 -4001.81284 -3992.58267 -3989.83309 -4005.34903 -4001.49535 -4003.65473 -3994.65053 -4005.61516 -4014.50008 -4010.07371 -4014.68884 -4027.44773 -4032.11924 -4042.86882 -4054.08002 -4058.62732 -4065.77123 -4071.84699 -4064.21095 -4062.06247 -4064.09044 -4059.26453 -4053.54577 -4040.37287 -4043.28278 -4035.92649 -4028.46701 -4029.05782 -4034.02374 -4035.39647
332.15154 334.43099 333.36270 337.63980 339.16741 344.27033 334.43456 338.92335 346.78629 350.10250 341.83739 347.51575 350.41826 342.44389 351.49245 352.52088 351.48976 348.31133 349.09749 350.47734 354.31835 352.10561 355.89904 351.36752 349.32007 342.55710 348.32019 353.51397 360.42853 357.81404 361.50080 355.59369 359.75078 366.19129 370.00122 365.54992 372.54683 368.16518 366.84337 366.56663 377.11874 377.29228 376.00363 373.37819 368.90366 381.22162 378.01136 381.72593 388.62566 384.92465 385.07118 385.99060 393.36877 389.99718 391.69029 390.10150 388.13990 389.40997 385.52100 398.23869 387.03362 394.29892 387.54723 389.33173 400.24603 398.94744 402.96695 400.86519 404.68227 404.73112 411.73707 419.69107 420.20970 418.98345 424.38405 432.67064 431.30714 440.12828 430.96864 436.01158 434.53327 429.17508 440.72945 427.35688 429.83773 426.92606 426.24331 415.03086 420.03996 416.38465 425.67081 415.78290 425.17120 430.48840 412.46506 365.30221 235.03800 19.63169 -74.32526 -165.15048 -189.45963 -208.77241 -223.51477 -316.38277 -550.19897 -1708.57778 -2667.05646 -3685.13265 -3976.90198 -4010.97337 -4007.57469 -4001.18108 -4003.64650 -3995.84306 -4001.70052 -4002.62056 -3997.68421 -3996.91464 -4004.87087 -3995.54829 -4010.31684 -4014.47268 -4017.45814 -4021.15518 -4029.74400 -4034.81854 -4039.75494 -4049.02614 -4054.67412 -4061.13602 -4066.59614 -4066.87579 -4062.76583 -4056.43081 -4051.33157 -4056.02446 -4047.14348 -4040.64184 -4032.15436 -4027.39807 -4032.87753 -4027.43493 -4021.36043
341.89890 334.60054 337.77359 334.99234 334.14388 335.62398 343.63714 340.48003 349.94287 343.00408 335.61866 346.98819 346.47939 352.62084 355.03193 348.93282 352.65588 347.78689 353.23146 347.12878 349.47265 361.83912 352.49085 348.80858 359.35089 361.28961 356.39284 357.09010 357.04954 359.66572 365.30293 361.99201 368.73679 368.62339 367.99396 366.52016 370.14732 370.67921 375.86676 368.67071 371.11456 371.45022 378.97478 369.11951 380.39264 378.60848 380.90971 386.99461 380.54279 380.71176 391.84845 384.56375 386.78074 384.18125 387.62185 392.45130 391.17208 389.03198 393.76303 386.06189 395.05580 388.64949 397.70391 397.80061 397.20295 396.63010 388.49563 405.20444 405.32628 411.76710 417.57862 419.68466 423.37004 423.22875 431.67157 432.60205 434.72670 436.19545 437.99086 429.05040 437.67179 428.95996 432.22184 428.98575 426.93100 429.15581 430.35022 427.75659 425.79150 414.16075 416.36187 421.34007 424.09295 432.37577 425.40810 377.62458 157.52176 7.31474 -126.27640 -172.20730 -189.03835 -207.91622 -233.66263 -333.80909 -665.79132 -1957.41611 -2947.86923 -3896.67153 -3999.43935 -4009.81326 -4000.57396 -4004.88149 -3999.65989 -4004.56853 -3999.61932 -3994.84794 -4003.73198 -4002.98996 -4005.62335 -4001.53903 -4001.90436 -4014.92187 -4009.24868 -4023.06719 -4025.06069 -4034.99752 -4046.21664 -4054.24105 -4056.81798 -4069.11660 -4066.77723 -4061.14134 -4056.23550 -4061.78559 -4052.18855 -4041.65238 -4039.20938 -4036.80654 -4023.57319 -4026.06823 -4016.95027 -4016.99592 -4017.05878
344.54861 336.96176 336.34836 337.29915 338.76202 346.97635 336.88786 346.74872 339.43888 343.45382 341.81330 344.19965 344.14238 351.00127 348.26856 343.45470 351.50944 356.23381 356.84968 350.88566 355.64622 356.36505 354.97959 353.44774 349.01169 351.31088 358.75241 356.45833 355.98735 368.29268 366.99345 357.82442 365.51169 362.60948 363.81665 360.63236 366.37984 367.94094 366.97001 367.32323 374.54269 376.63471 368.57095 377.59338 375.71295 380.04600 385.42469 383.71717 378.66787 379.59129 384.52341 390.84381 390.95157 389.59300 385.63539 392.15326 392.47395 392.72744 392.24015 391.49915 392.72322 397.70749 397.79241 401.71815 402.49971 402.70982 407.46320 404.18445 404.20748 418.34581 411.49230 422.66931 425.12423 423.54951 419.53426 427.37464 428.69782 439.84851 435.73381 433.28540 432.33363 437.88944 432.11178 436.63225 433.43998 428.92056 425.21730 422.87193 413.55977 417.37795 421.77049 420.14520 422.17534 424.01290 430.79557 392.27667 222.66368 28.18601 -118.02652 -160.73007 -197.67726 -216.34121 -244.29674 -288.89614 -1292.35687 -2260.58616 -3156.46676 -3995.81259 -4010.15573 -4011.01074 -4006.55621 -4006.68397 -4002.98544 -4005.65195 -4007.86646 -4001.14314 -4007.47355 -4003.70739 -3999.46754 -4001.22933 -4010.47420 -4007.97498 -4011.47324 -4031.16962 -4030.69403 -4035.19085 -4045.73317 -4051.51984 -4061.47752 -4063.91422 -4069.92434 -4057.76733 -4054.26776 -4059.07139 -4053.20133 -4046.72751 -4028.58612 -4028.84456 -4023.69252 -4021.30887 -4010.05663 -4007.03453 -4004.92224
333.35040 335.39180 342.06162 342.17281 339.74571 345.51558 344.67347 341.69076 349.01896 346.39691 340.20845 337.68950 348.87436 342.63028 351.78290 344.96624 355.70863 361.88451 350.54754 350.35851 346.55586 353.19925 355.68540 357.99215 357.50659 357.33992 357.65917 352.88941 361.90476 359.57790 370.82872 364.42686 360.66992 367.77884 370.32031 376.60937 372.40275 376.74672 366.32937 367.53898 373.04727 372.34791 375.59009 380.12396 384.24182 378.43442 385.69152 380.42756 379.93695 381.12028 390.31329 382.91576 391.16145 389.16320 392.76073 388.71424 395.46455 392.30939 392.50097 396.94013 391.80237 402.39115 394.01573 390.28325 398.01192 402.03122 406.91640 402.38041 417.29057 409.70359 423.02220 421.87719 417.11684 416.90723 422.49242 427.60158 428.89663 436.04683 434.68129 438.94481 433.76691 422.35672 438.15075 431.48404 426.98941 419.33908 421.07799 425.38758 423.77516 418.86280 415.80953 425.15449 438.90114 432.54619 402.95124 373.95884 92.30825 12.51896 -113.54751 -135.55414 -193.86785 -215.59064 -243.02514 -518.35602 -1333.16425 -2635.78432 -3718.49153 -3979.77154 -4012.88370 -4003.89649 -4001.56511 -4008.37146 -4007.36001 -4002.65935 -4001.92320 -3998.17286 -4003.94212 -4001.59709 -4001.29668 -4003.52068 -4004.82489 -4013.91729 -4013.44024 -4022.22655 -4022.74287 -4028.85850 -4039.99719 -4046.68642 -4044.74106 -4057.38656 -4060.05063 -4061.59165 -4058.14826 -4045.13384 -4042.81687 -4032.60225 -4024.12835 -4012.23718 -4005.62388 -4004.35459 -4004.38695 -3997.67816 -3989.09426
330.27117 339.93630 341.77240 341.79070 342.60042 349.15482 340.16827 347.74241 347.81397 344.15610 339.13135 348.84240 340.93296 349.04851 350.96892 356.22137 341.45648 355.70898 354.89931 356.46208 348.63709 359.24039 360.30197 362.78858 354.00220 351.77849 352.65634 359.96210 364.01836 364.42564 355.45021 367.44587 371.98009 360.93856 368.50982 366.90228 361.53690 373.74329 367.48195 375.18759 376.06207 379.26719 384.28234 373.20882 380.75391 381.31374 380.18990 382.55594 380.99876 381.20071 387.02329 386.72799 386.52986 394.99711 391.96321 388.18199 387.57824 393.42901 392.31579 390.18522 405.26070 398.44379 395.51052 399.90707 399.73402 403.21770 408.44698 409.14558 406.95030 413.14700 413.93571 423.09569 424.84366 424.99522 427.72731 426.89642 424.56194 429.62358 432.91621 431.78873 436.74140 422.01765 428.01313 428.57621 421.35098 422.31125 426.58393 442.21050 447.23032 445.87013 445.87004 439.27808 434.37473 420.60553 394.81970 297.42811 163.17169 -5.44090 -115.99904 -158.96681 -202.39086 -218.15620 -259.23690 -710.41544 -1375.16905 -3036.96571 -3809.49626 -3974.47753 -4007.54740 -4010.69619 -4008.81900 -4008.89663 -4007.29320 -4003.59698 -4004.38143 -4003.26221 -4004.69109 -3993.86102 -4001.27648 -4001.57333 -3999.11694 -4003.23716 -4007.48045 -4015.18777 -4020.47969 -4024.70488 -4042.09193 -4044.66481 -4053.13084 -4060.79572 -4064.43923 -4055.43373 -4050.41255 -4046.55037 -4033.36173 -4022.94926 -4017.14412 -3996.90881 -3999.74185 -3995.24502 -3994.57656 -3989.70448 -3994.38834
337.47092 338.40230 342.51745 339.41673 342.32118 346.19605 339.54194 347.46356 350.07362 345.40414 345.41664 345.02526 344.69482 346.48126 353.77651 356.51333 357.71176 350.87667 348.56875 353.73490 353.92486 353.06599 358.24503 355.92034 359.55822 355.37500 357.88644 358.61064 362.07143 370.39247 360.56296 361.48182 366.70835 374.29487 363.65970 362.44963 370.97717 376.63496 379.41246 366.95021 375.14651 370.41562 378.89015 374.08306 379.87047 384.33389 393.72039 384.44686 381.75195 386.41791 390.39871 382.62091 387.00866 383.20060 390.04045 388.50859 395.71589 389.77111 398.85641 391.30494 398.41799 398.46332 394.42448 399.05782 397.69873 397.12658 410.79537 410.83278 410.74850 413.60578 413.93024 421.72719 424.94604 427.69229 421.56011 433.07194 423.88071 432.53194 418.44238 429.97798 425.55189 422.10979 426.42886 420.84467 416.86375 416.51783 424.62501 459.58362 476.55003 452.89186 484.68365 465.36390 478.43534 432.66266 366.34238 254.85157 128.70464 -11.38851 -102.40336 -150.60450 -205.91383 -228.71647 -316.67712 -831.39108 -1809.25870 -2865.26468 -3931.42974 -3995.08895 -4013.77860 -4003.14205 -4008.99087 -4004.27400 -3999.50306 -4001.29061 -3993.99602 -3999.05892 -3999.37636 -4000.20501 -3996.92621 -3990.93537 -4005.46224 -3997.89861 -4012.20848 -4007.31399 -4025.45319 -4024.49247 -4033.27075 -4039.25787 -4052.87155 -4053.32579 -4054.66767 -4055.24828 -4048.76217 -4038.06732 -4024.38531 -4015.87584 -4000.81845 -3999.07801 -3994.73603 -3994.02820 -3984.82357 -3988.77948 -3989.28446
344.71488 346.71794 340.36660 339.07144 344.36533 340.08313 348.85829 349.00202 344.05739 340.89881 346.54256 355.09093 355.12029 346.72644 353.29153 358.28122 352.36056 357.58403 356.77866 363.47979 358.86371 355.04958 356.43338 358.90954 359.70326 361.85473 352.08017 361.47861 366.71080 360.07563 368.97205 367.17454 369.21177 360.76686 374.63534 369.02352 378.13859 373.02561 377.90438 374.92190 375.43237 370.76378 378.57245 374.66857 384.50831 382.57551 385.49049 384.56681 381.46931 383.96635 390.48163 392.61383 383.52170 391.60104 389.12859 395.73692 400.03787 390.28614 382.82620 395.19829 400.28443 398.64945 392.54875 404.64332 405.09670 405.32666 406.66583 409.12139 415.60587 412.32628 414.00529 417.44425 422.32881 432.11209 423.32804 428.32970 425.37772 430.68335 428.82164 432.13512 428.98549 425.67257 429.95142 409.08893 424.76331 419.60480 448.94080 467.06091 527.16503 626.99147 624.97054 591.67689 504.72048 475.31828 406.32922 320.78976 102.20156 59.17763 -119.90418 -154.75009 -181.82986 -236.79711 -507.65892 -1222.75992 -2445.16193 -3336.16022 -3979.32625 -3998.34538 -4011.64078 -4008.58302 -4007.94988 -4008.15264 -3999.89052 -4004.16116 -3994.86690 -3996.70408 -4004.00898 -4000.71337 -3997.82215 -4002.68479 -3994.91896 -4009.82547 -4006.04854 -4015.44429 -4009.45424 -4028.52264 -4033.23081 -4045.46915 -4049.19319 -4039.78059 -4052.22512 -4043.81412 -4041.40009 -4035.17204 -4017.83217 -4015.08718 -3997.96816 -3988.48937 -3980.83307 -3979.54833 -3982.52218 -3979.98208 -3975.77465
336.50722 341.28028 344.08216 343.92211 345.13062 339.58702 339.93524 343.37464 346.78524 344.66352 356.31271 343.36650 346.10929 348.67284 351.49395 346.82809 350.84033 352.43991 352.04276 360.08980 357.32651 357.93334 355.78067 354.91502 361.11189 353.53568 362.05020 357.88341 367.50494 362.47058 363.89023 361.76539 365.49996 364.52648 370.04528 371.47892 368.75419 369.98393 370.84841 371.48979 370.18931 372.03114 377.85838 372.61151 387.76549 374.75902 380.61464 384.88575 378.99278 384.53141 387.86188 387.32428 385.91882 388.95671 395.29620 392.34881 387.10730 387.50671 390.13447 397.08593 394.59158 392.72258 395.72606 405.80768 399.91709 407.99925 411.13270 411.26484 415.49543 418.28181 416.41862 427.53438 419.22094 427.55527 422.26106 421.39998 415.48900 423.88394 412.91116 420.98737 419.84808 415.88877 418.50032 414.24053 417.38249 423.70676 460.49249 500.23314 615.09759 788.65420 900.12888 733.99427 572.94126 443.61668 361.52313 320.71124 93.57913 -27.09580 -129.38668 -170.56238 -198.02794 -307.33542 -513.16615 -1435.20518 -2492.38439 -3645.35247 -3969.92066 -4007.30134 -4016.67016 -4010.25789 -4006.97344 -4000.47474 -4002.87611 -4003.41491 -4000.70488 -3990.28769 -3998.87265 -3994.26671 -3992.31082 -3993.00843 -3997.37829 -3993.97016 -4005.71261 -4007.62105 -4007.41608 -4025.21559 -4028.89410 -4041.49816 -4036.44113 -4043.85236 -4038.93367 -4040.34177 -4033.49099 -4027.96348 -4013.42245 -4005.67714 -3992.63891 -3981.90013 -3986.07029 -3973.70149 -3970.09757 -3975.61627 -3970.73666
345.60194 342.17169 343.97964 350.06836 339.45220 347.32768 335.55840 343.61801 345.55731 341.02708 351.13639 356.09359 348.33780 352.34576 354.95327 347.89294 346.43429 350.03375 356.13659 352.07332 358.23427 354.34207 354.37759 358.41444 364.00956 359.60829 357.25587 360.31927 365.68932 362.94518 358.63478 367.86805 363.75042 368.23771 363.34994 365.00172 372.48918 362.74803 378.09241 378.74511 382.33648 380.68297 376.32032 387.74451 383.20044 382.03127 379.45444 386.39690 381.15612 397.27478 390.39087 387.05714 390.22069 385.22019 395.44339 389.59954 388.28973 398.36115 389.77074 389.63177 392.40931 391.97672 392.82233 403.88737 405.57388 405.15868 404.22693 412.71442 405.90889 419.47645 418.31635 425.67054 424.53447 421.52572 421.36588 421.18283 425.12118 422.91113 417.15717 421.02521 421.34662 413.41537 419.96918 424.24893 445.30845 449.33613 482.22426 598.15198 812.33616 1001.85374 1007.79753 911.92628 776.55713 471.13945 259.16618 144.03956 -25.75420 -72.81025 -143.80390 -194.51842 -211.88102 -272.47552 -582.21387 -1359.36226 -2928.66323 -3616.87011 -3990.37267 -4008.33083 -4012.46757 -4010.05107 -4009.31400 -4008.16544 -4005.48703 -3999.49445 -4001.42344 -3999.71066 -3987.92945 -3991.34628 -3989.71317 -3996.80268 -3986.80433 -3997.26343 -4002.52560 -4001.99076 -4001.47724 -4014.00932 -4026.89969 -4029.10034 -4037.21145 -4040.08751 -4037.73904 -4039.50220 -4028.04920 -4024.36020 -4011.62223 -4006.01643 -3988.63671 -3979.09236 -3973.89962 -3970.15624 -3965.64549 -3972.42843 -3970.30740
336.73222 343.27262 346.97116 343.54779 333.38155 348.37112 346.51567 350.70322 345.61527 348.15637 345.12061 344.24201 343.33469 353.94810 350.15493 354.34904 357.12710 353.99307 354.25277 348.73971 363.60794 363.68052 348.66142 364.15771 358.28566 353.79146 362.26907 360.62651 370.05792 358.14530 359.85653 366.38972 365.40300 363.11951 366.65108 370.96248 373.12273 373.60133 375.09799 381.73266 370.86999 375.13103 379.12252 375.12078 381.37233 379.18040 383.94191 383.33789 388.43649 383.30157 384.76907 388.19310 390.04855 390.81341 394.26153 394.03956 394.41195 394.73669 391.87855 394.90147 396.38302 399.11082 396.34861 392.06637 402.72341 404.65807 400.70820 416.44705 422.68933 417.48139 420.34841 420.20986 424.93117 420.14390 422.48655 419.74590 426.65155 416.46976 419.10764 418.05183 414.77147 413.36041 407.05649 421.12414 451.08243 452.34431 507.48997 657.67690 882.89084 1132.86510 1176.93597 1080.93384 917.22778 532.11149 278.80902 149.89294 -54.27014 -141.41182 -165.46329 -196.67004 -201.77730 -287.86271 -707.09477 -1688.14610 -3222.84838 -3884.33845 -4012.92204 -4006.01423 -4012.61700 -4005.20108 -4009.70649 -4009.56250 -3996.97165 -4004.14091 -3987.40306 -3991.43463 -3987.24758 -3994.36463 -3997.29468 -3989.71984 -3988.44937 -3990.68402 -4002.15578 -3993.41615 -4006.48871 -4008.55804 -4023.90201 -4024.62731 -4029.19570 -4034.20109 -4029.91245 -4034.84603 -4026.85376 -4017.86061 -4003.82213 -3999.18614 -3986.28999 -3976.69774 -3970.52062 -3970.13271 -3966.28643 -3957.95797 -3963.92064
340.23838 345.36696 340.18120 341.04180 344.59497 340.34365 343.92371 341.36271 354.01815 351.64786 355.13667 360.53353 352.34882 350.29203 356.37044 352.71336 353.77720 350.12785 342.80265 355.79698 351.56871 356.97393 355.86233 357.57018 368.51520 360.91069 360.21763 364.69717 362.63432 363.86918 365.66592 369.30791 364.70476 365.68650 369.82352 369.54535 367.73256 374.80088 371.72041 375.91521 374.87440 372.26063 388.30366 379.02931 377.10153 379.79727 379.72743 385.03318 383.66745 384.46055 385.61225 389.85025 388.08716 386.02328 389.16791 392.23205 392.75959 393.61943 394.81684 397.97698 402.88184 396.66880 394.72360 398.86725 401.50099 400.01462 409.85753 417.35589 408.16823 421.30237 424.79010 419.08701 422.78072 424.28178 411.69283 416.53168 419.06020 425.44862 408.71394 416.37954 418.41972 414.92622 417.91105 418.39588 448.77059 465.48449 505.27259 724.36981 926.60868 1169.17982 1235.60520 1158.25584 1013.11391 628.15600 298.80984 81.61962 -77.51239 -147.81377 -183.47882 -212.24050 -250.11410 -398.65558 -919.70068 -1723.05817 -3385.05235 -3913.64925 -4007.38451 -4012.42359 -4009.08047 -4011.12984 -4005.99913 -4002.07034 -4002.12243 -3996.64654 -3999.21175 -3992.38978 -3991.85575 -3990.60193 -3986.87881 -3980.92166 -3981.61474 -3990.21261 -3987.96898 -3989.49107 -4006.48518 -4007.86317 -4017.21696 -4023.72616 -4025.24401 -4037.36871 -4029.22795 -4027.21392 -4022.45062 -4018.68492 -4004.30074 -4002.20079 -3988.28697 -3981.45996 -3974.38629 -3966.71461 -3962.35650 -3963.87750 -3961.55062
341.85572 342.94213 350.44347 349.73010 345.36344 340.85207 348.59039 351.70612 343.31623 350.35782 347.78829 344.34308 346.99103 345.81599 352.36000 359.32618 356.09322 353.87690 351.80690 356.35301 357.71797 359.03363 362.25331 364.83331 357.38637 363.82347 366.10115 365.46935 365.18716 368.03909 368.12755 368.20995 364.16211 356.04477 366.47077 380.72114 373.80399 376.50053 372.83680 369.06936 375.55132 378.15159 378.51630 380.28690 380.83688 377.24055 382.81757 380.38458 383.46824 387.16820 383.58072 382.94975 382.71544 380.75673 389.33068 392.90083 391.54696 395.57563 399.67945 392.34354 390.69333 402.18479 399.10901 396.13715 406.91904 406.23976 404.44643 418.22258 421.06852 419.90582 423.87402 418.67085 427.95301 423.30570 417.53277 417.70221 414.95013 417.57133 413.78987 413.78477 416.25372 413.03719 422.57622 434.25519 450.48438 461.65623 553.81379 728.06932 1113.22295 1193.40237 1174.96322 1154.64817 1021.60420 646.85858 312.69745 12.24789 -81.02720 -148.00689 -188.50377 -204.98689 -256.20893 -440.47173 -699.08046 -1790.11611 -2906.55829 -3647.28108 -3934.87385 -4012.54016 -4014.32209 -4009.80607 -3995.08485 -3999.09380 -4000.78490 -3996.64264 -3985.51531 -3992.52458 -3988.79130 -3991.88879 -3982.77571 -3986.41423 -3985.93376 -3990.48730 -3993.54568 -3992.15934 -4005.45769 -4011.86781 -4010.74291 -4018.00850 -4018.12431 -4029.48078 -4020.67846 -4024.72712 -4012.01960 -4015.61355 -4011.07841 -3997.51467 -3984.96340 -3979.16621 -3968.47684 -3964.70908 -3969.08841 -3964.59844 -3966.97602
346.76693 344.31527 340.04408 342.74534 343.69366 348.81568 343.26884 343.87786 351.51164 343.17188 347.96083 351.92470 357.70345 350.19243 354.81006 351.76686 358.43359 359.62625 361.64954 348.74276 354.23198 358.28277 353.27407 352.00665 358.04638 365.88071 361.90064 359.04348 355.05290 362.28506 362.65119 376.83273 368.26582 372.68696 367.48977 368.07558 368.42433 370.32508 378.13229 374.70309 370.63185 376.40892 372.52377 382.74436 385.01927 381.88176 381.44809 386.90377 385.32793 381.91311 390.58371 380.13957 387.78794 389.53041 387.03152 385.60468 391.05149 393.85083 391.85412 397.20870 393.95709 393.71057 404.95325 399.31888 406.80953 407.54185 413.32739 412.39886 421.61835 418.62347 413.42015 420.86969 416.50518 413.53404 413.58093 417.90802 415.32429 415.17203 416.73574 423.03559 418.75103 405.83031 435.39818 443.53494 458.86370 510.77406 751.24526 915.58392 1098.77892 1017.29010 980.41970 1037.55647 1022.00732 667.86264 410.14162 88.02784 -113.37741 -146.59464 -193.59358 -210.66372 -248.27288 -349.19843 -701.82499 -2237.07758 -3571.45209 -3923.71544 -4015.88475 -4013.17145 -4004.58751 -4007.60619 -4007.72122 -3996.06908 -3998.73951 -3992.96154 -3990.08221 -3991.37092 -3989.63327 -3988.16323 -3981.11691 -3981.22766 -3982.24663 -3986.00272 -3983.83137 -3995.23837 -3999.68071 -4007.53927 -4010.16532 -4018.90853 -4019.95025 -4026.94076 -4027.79761 -4027.22632 -4022.80042 -4023.34347 -4009.89437 -4006.36074 -3985.29594 -3980.49504 -3981.28491 -3966.68311 -3966.86634 -3971.93383 -3962.88397
345.73348 346.85306 350.18487 345.50759 348.06465 346.70882 337.21045 347.02559 342.52418 355.19740 343.99429 342.51041 351.72445 354.25981 354.35589 355.81112 358.64135 353.99485 353.08878 353.08962 358.61384 360.17904 353.80616 365.86352 363.03499 368.31976 364.68289 362.63333 367.21673 363.67123 365.25602 365.93982 366.40809 371.88167 364.72577 371.97117 375.57759 371.00079 372.50637 369.37947 374.39538 378.83507 379.98594 378.58069 388.00391 382.39017 380.98498 381.42500 382.57303 379.05381 394.23555 390.92707 384.91165 387.45110 391.03171 393.67848 392.00797 393.23642 402.10208 395.38313 402.12820 390.74736 391.01769 397.74869 407.77477 403.59405 405.78021 418.52657 420.02418 412.21929 415.90080 423.22903 423.56073 422.17099 423.04378 411.27281 420.03198 412.40173 413.69112 417.46988 413.44316 412.36602 429.43985 458.66124 448.48108 567.93916 696.52351 937.83419 993.05687 916.01491 763.87027 767.62154 873.25954 827.25301 396.00540 104.38590 -106.76683 -138.90604 -177.78186 -211.81868 -240.08218 -321.52940 -730.78170 -1604.06964 -3246.60530 -3833.48274 -4003.59662 -4014.38853 -4000.98101 -4006.09085 -4003.95289 -4000.76841 -3997.64481 -3985.83098 -3984.32819 -3981.35501 -3985.30362 -3978.85801 -3979.82757 -3982.96909 -3980.26113 -3985.95542 -3996.79326 -3997.57791 -3997.57813 -4003.90594 -4004.33443 -4004.33822 -4023.20874 -4026.23772 -4026.43342 -4017.92129 -4013.53218 -4013.83599 -4003.67700 -3991.92610 -3996.40626 -3980.18992 -3976.61631 -3965.59329 -3966.37879 -3964.72744 -3969.65006
345.01956 346.57116 348.53711 345.74285 351.99642 349.07672 351.82597 348.30846 350.60948 343.69086 342.07330 348.93651 355.69304 356.58884 351.04988 344.68868 357.45426 353.60280 362.55831 364.63439 357.24935 360.12771 363.24515 359.35893 359.75827 364.69659 366.06322 371.11218 362.68701 366.54918 366.43295 366.47586 360.58048 366.83169 369.81920 370.33058 371.56386 369.93476 370.48253 377.14668 374.56415 378.09169 379.06156 378.12330 376.01825 381.48300 377.49690 384.15788 379.19124 389.01714 383.37617 385.36429 393.67828 393.82633 382.69034 390.61300 395.82686 392.40733 389.31669 393.23488 398.63670 394.55285 404.86428 403.41857 405.98553 405.03866 412.06892 413.91239 421.12427 419.99199 425.70986 422.73117 417.19913 415.02450 416.90430 414.90897 417.40798 416.44672 420.05144 414.35604 410.07283 411.57720 413.07457 422.77367 469.06058 595.46249 726.72677 840.66410 730.07091 606.30799 575.09372 673.17997 807.37425 739.00456 541.40249 225.54192 -15.36307 -125.50933 -181.95405 -220.96496 -244.63531 -295.20112 -571.49236 -1429.95336 -2817.35806 -3707.57058 -4002.92036 -4006.69629 -4010.01147 -4012.05210 -4008.65190 -3999.08904 -3985.42038 -3990.72046 -3984.38954 -3983.12210 -3985.01872 -3973.60329 -3974.18461 -3980.40567 -3983.29938 -3980.19835 -3988.71338 -3995.92835 -3992.15341 -4001.41356 -4008.96573 -4012.35669 -4014.72855 -4024.32313 -4020.82780 -4023.36602 -4022.10464 -4012.39173 -3996.96891 -3993.59220 -3996.56638 -3984.60787 -3972.19855 -3968.93934 -3974.24921 -3964.94855 -3968.01117
339.63552 346.30283 345.40454 348.51276 358.10610 351.09098 354.58883 351.12035 351.84642 353.23433 354.59942 353.63758 345.32905 353.61450 351.91969 358.48657 356.58095 354.70275 357.30011 352.83943 357.91559 359.27773 356.00365 362.60449 355.79335 361.90235 363.49089 365.58625 363.89078 369.49678 356.64011 368.08054 369.91383 370.41095 372.13078 373.33174 364.69303 379.22470 374.48791 375.14702 374.82320 378.03636 382.60721 375.75835 379.42421 380.59911 381.58091 388.83272 383.61446 389.60669 390.44445 386.59427 384.90664 389.79283 390.69138 390.68449 389.01190 396.57871 394.23684 393.07068 397.29857 397.72718 398.39109 396.32685 400.87890 408.41181 410.01933 407.59264 419.26571 419.54020 424.03603 419.45509 419.78308 414.15946 418.96674 416.74219 422.31290 418.12914 421.44521 409.16293 372.38371 381.67356 369.95467 399.22952 468.44245 571.11965 759.94554 730.51724 637.86433 508.41396 505.67778 589.27810 721.52601 707.35509 504.66796 208.56911 8.13273 -65.45785 -153.94790 -198.53637 -227.45631 -286.43877 -507.39344 -1434.69166 -2553.02819 -3708.43667 -3987.79345 -4004.21182 -4002.77291 -4009.35983 -3997.08790 -4000.47591 -3991.70425 -3988.06079 -3983.04976 -3986.03087 -3978.46171 -3972.58286 -3982.93152 -3973.23060 -3977.16830 -3976.11641 -3987.69454 -3993.59011 -3999.60832 -3993.82769 -3998.79192 -4011.77602 -4017.81514 -4017.96466 -4021.74485 -4022.11613 -4005.77028 -4010.59415 -4004.06114 -3999.33063 -3997.50586 -3985.11525 -3975.78425 -3972.09854 -3974.18279 -3963.69636 -3971.29357
341.73557 350.70852 349.18944 347.76373 348.16697 347.26718 349.63797 347.80104 350.65348 349.89092 355.38580 359.34775 356.33363 352.38320 346.77883 354.61343 358.17518 347.86160 356.81513 360.35663 357.37132 353.96551 348.31139 358.18253 360.58784 369.30653 360.10184 362.23042 364.16365 364.66460 370.16850 370.05781 368.85984 362.81599 364.51034 374.12027 371.12887 372.28632 369.79914 374.19095 378.90245 370.06012 378.96769 377.88400 376.54856 382.54947 386.18482 386.48207 380.68625 388.00314 386.53304 391.93426 384.39580 389.91586 385.89317 391.50981 385.37687 388.32810 399.11472 395.55694 394.93037 391.25846 396.88328 402.33436 406.08137 413.50757 409.02766 414.76599 410.65649 421.57573 414.23006 417.51352 421.61920 414.28206 411.95310 419.77798 421.46470 408.37099 393.26317 382.63609 339.98198 319.25230 328.07334 355.00029 401.87883 498.93199 624.34606 608.09055 532.24572 474.08735 421.67353 462.32334 575.35252 594.68188 415.74271 178.84521 12.30968 -95.11400 -117.07882 -187.13615 -221.43320 -260.75480 -488.19320 -1081.70848 -1877.71869 -3081.22307 -3943.70315 -4004.61746 -4004.82028 -3995.10323 -3992.99491 -3986.07678 -3988.16932 -3994.23811 -3981.24069 -3982.59476 -3985.38394 -3983.43648 -3979.86151 -3976.57070 -3974.74873 -3984.57026 -3976.30947 -3988.98153 -3996.67124 -4004.47687 -4005.27838 -4013.84566 -4014.29016 -4009.95357 -4012.82887 -4010.51954 -4003.82581 -4004.03293 -4001.75778 -3999.85807 -3992.84976 -3979.43915 -3974.38092 -3976.15197 -3971.13805 -3970.07854 -3968.19674
341.54831 339.17409 341.19882 347.17980 340.07408 350.48471 347.50161 347.34792 348.89013 349.48301 349.96845 354.82547 356.28085 359.75492 347.98250 352.90942 352.54082 358.10147 354.84556 361.77487 362.34152 360.94524 358.49983 368.29889 359.78665 364.05560 362.82331 352.27505 369.17928 362.71863 369.53469 366.20052 366.92590 373.01678 367.39856 364.79064 369.27874 371.97542 369.58685 370.41203 376.65212 387.83162 383.06251 374.55269 382.29215 375.88048 380.94086 383.65425 384.19405 382.73678 386.11973 390.60139 393.48358 389.06057 386.47007 390.57561 385.91119 389.54388 393.84517 399.81993 401.04165 395.59044 398.31482 405.21533 404.70890 408.63407 415.36625 409.36566 412.26701 412.09187 415.38563 415.56075 416.48984 411.60016 419.79335 423.06493 404.66232 388.41743 366.51289 329.95568 299.24354 290.54129 292.85972 279.18849 341.07221 417.32780 500.76774 488.65909 436.40068 417.53402 395.80474 369.55230 433.17703 396.75036 320.24971 70.70968 -10.35377 -44.73085 -92.31710 -139.49024 -218.81894 -232.16677 -317.45821 -716.66438 -1687.97628 -3095.55135 -3792.48355 -3976.07165 -3999.34202 -4000.34126 -3994.65915 -3993.54550 -3984.99357 -3979.94441 -3984.05547 -3968.34366 -3971.61544 -3970.63044 -3971.93392 -3978.25024 -3977.46367 -3973.71954 -3985.64381 -3990.95119 -3988.19625 -3999.63067 -4001.86914 -4006.65714 -4016.65325 -4009.45505 -4012.93130 -4015.64383 -4009.55570 -4011.31546 -4003.60454 -3990.19495 -3994.15945 -3984.11997 -3972.18595 -3972.03522 -3980.74305 -3966.37631 -3973.14455
347.86560 342.24320 343.37995 344.52987 348.53827 344.40698 348.76343 353.26608 344.06744 351.55432 356.99571 348.08583 352.21970 353.99502 354.75193 360.28799 357.02137 355.70303 360.29128 361.36244 354.22007 355.06157 354.03885 357.35070 366.75726 358.20192 366.29625 360.21174 361.24181 357.14465 374.29843 373.96014 368.50249 366.58451 365.02775 376.60278 364.81960 383.03340 372.10311 377.48867 376.54901 372.07488 379.87175 377.42144 378.01360 382.43688 379.42463 382.01618 387.69206 382.28076 387.62121 382.38248 381.71229 392.65398 389.60341 384.54034 392.85489 385.31395 392.40264 400.02135 393.49876 389.48066 389.69009 404.50070 396.16303 405.88942 412.84487 413.85456 404.32244 414.44047 423.57428 420.71776 413.04579 416.12569 414.71721 420.33935 397.22569 351.88081 313.51860 279.57970 234.15375 207.13645 225.98930 231.03291 296.35421 308.86960 334.04657 403.61634 394.10801 383.81786 361.84974 315.10218 258.96957 235.19352 156.27314 55.36624 47.80939 -9.56334 -69.67732 -141.06186 -187.52881 -223.76994 -244.69625 -689.58090 -1266.87826 -2318.10955 -3705.12064 -3912.25943 -3997.39064 -4000.72666 -3986.86422 -3993.89933 -3986.47566 -3984.15040 -3981.52057 -3975.24479 -3967.12059 -3974.31635 -3974.54172 -3973.08532 -3978.46769 -3975.79581 -3983.69573 -3978.29447 -3993.32755 -4002.18363 -4010.18738 -4002.75661 -4018.82134 -4012.09824 -4014.38295 -4015.71081 -4007.41192 -4006.98830 -3998.89272 -3995.43461 -3980.67186 -3991.71267 -3979.72738 -3976.80259 -3967.25978 -3973.79432 -3973.46602
345.14355 343.77447 345.11067 354.37214 350.82600 342.24921 360.86004 344.68281 355.10704 352.43945 363.23555 352.36286 343.88871 350.02491 355.29200 350.68217 357.91403 360.13128 356.67854 364.99964 352.45946 360.37845 359.60169 353.36121 351.39273 364.53335 361.08006 357.67571 362.94078 366.02201 365.26390 359.89216 363.70078 360.33706 368.05839 368.61039 376.30859 378.08871 369.54776 370.42337 381.49380 371.30178 378.91378 378.95571 376.54734 374.47630 382.46388 378.26237 382.36688 380.51267 386.71702 390.91225 386.39983 381.97344 384.06575 385.02536 390.03671 385.51549 401.21633 389.62645 394.98841 389.61714 394.12970 397.11383 401.97012 409.53279 409.36724 416.23584 413.34090 416.21721 409.58631 417.98747 418.94803 417.26963 413.91124 416.66405 364.57039 319.16865 287.59634 245.88328 216.20099 180.90175 181.03826 212.33474 243.10420 276.83389 302.30177 337.10019 362.92569 368.77060 362.56662 320.92169 303.77010 248.79357 232.73690 191.53439 130.93981 115.55003 -14.37825 -108.77254 -189.52581 -220.47762 -235.57660 -388.48643 -971.30538 -2217.47441 -3467.12076 -3845.86329 -3990.26891 -3988.41559 -3992.71924 -3988.06019 -3980.41947 -3972.27494 -3977.06877 -3974.39666 -3967.14361 -3964.57561 -3966.50643 -3968.82431 -3975.35085 -3983.75959 -3987.39847 -3984.83217 -3994.30679 -4004.25658 -4001.18776 -4000.44041 -4007.59179 -4011.70956 -4014.45336 -4016.28746 -4010.07973 -4006.09448 -4006.93911 -3993.55762 -3989.08235 -3981.97967 -3974.56677 -3976.96983 -3972.54793 -3970.63981 -3972.99353
339.83440 338.45121 327.56602 334.69883 338.18693 338.41278 351.72889 347.31379 350.23184 353.26689 349.45229 350.56613 352.75643 352.65029 356.36063 353.68296 361.92187 361.60287 360.52669 364.68026 361.93819 367.94905 361.53260 362.08632 361.76050 365.22948 363.05543 361.19729 367.47155 371.25889 363.78164 363.32299 367.87087 370.20528 370.26359 376.26130 374.30969 376.04668 378.07868 362.58323 362.68746 377.39820 378.42180 374.54298 376.52265 382.63352 380.64460 384.57668 380.53301 379.90831 393.01739 383.29878 391.59150 390.87034 382.44755 383.82382 384.16790 387.39503 387.33187 395.84056 396.24893 390.40770 393.65091 398.91973 406.41687 410.95278 404.38704 403.88995 405.95119 417.46896 412.80144 418.17405 418.33792 430.21581 399.42756 382.99409 330.32913 287.88960 253.17545 215.30090 174.82312 162.69263 176.31487 215.93968 259.32298 292.61447 303.70513 342.59006 377.37513 388.90446 386.01849 365.65267 326.56655 284.49626 259.98467 269.17088 294.56810 244.34682 68.80949 -30.12325 -140.69235 -187.20020 -229.11961 -264.54789 -814.15372 -2117.31905 -2680.66601 -3553.71966 -3927.75341 -3960.54373 -3979.70492 -3984.98854 -3972.65481 -3974.67342 -3981.62573 -3969.19334 -3971.43641 -3970.21065 -3972.44995 -3972.80520 -3973.96162 -3983.28457 -3984.08742 -3985.48070 -3992.96512 -4001.25252 -4006.61552 -4005.56018 -4003.41153 -4011.09930 -4006.28189 -4005.74747 -4001.02777 -4005.71382 -3998.75138 -3996.06579 -3995.34552 -3989.96715 -3983.22909 -3978.13643 -3982.80030 -3976.99190 -3979.95750
283.74215 281.71937 270.62194 293.98116 276.90439 310.70813 330.93247 334.16204 336.05767 347.75521 349.45983 357.31835 345.85927 354.57362 351.56517 353.86544 349.22657 337.23601 354.02139 351.87580 358.94233 360.63340 360.01440 359.98869 364.68931 367.24882 361.19543 362.66547 363.11527 371.23445 366.79854 363.43997 360.03649 359.83113 369.18132 383.17675 390.00133 397.67285 374.98877 364.55648 360.55878 357.15667 364.63253 368.07809 372.85033 366.53861 375.51707 379.27500 382.61218 382.78774 389.85172 382.06800 383.58501 389.44864 391.38794 393.79987 386.58141 385.37065 395.67604 388.39609 390.85715 394.83927 401.31533 404.34282 404.05995 400.15114 403.27325 409.68445 409.60594 412.76002 424.59839 409.87466 403.47654 392.13716 383.83457 347.67627 312.49837 287.22099 234.39136 189.07633 177.51311 181.54247 204.34710 240.93886 283.22474 305.79346 340.39367 367.97914 377.40365 403.08332 415.19527 402.86039 367.07290 361.42769 353.89112 392.13804 367.60801 342.11347 245.64024 -10.69465 -128.48886 -153.15808 -201.75897 -257.23917 -335.47823 -1258.92660 -2051.31852 -2948.78399 -3649.50879 -3939.17539 -3940.00570 -3967.03003 -3974.65787 -3974.87595 -3973.03567 -3976.95907 -3969.60021 -3970.50835 -3976.68846 -3974.18504 -3970.60004 -3978.53118 -3982.24994 -3983.22295 -3994.45561 -3998.37006 -3996.58791 -3996.16184 -3997.83901 -4010.83344 -4007.80097 -4008.36554 -4000.54385 -3999.16880 -4003.29355 -3994.03484 -3997.23567 -3988.50462 -3983.63489 -3978.95870 -3980.65776 -3986.05244 -3977.25485
160.09949 159.32960 152.15363 194.84972 193.96572 224.52640 277.09323 288.88994 286.86166 308.23431 322.34008 340.61632 334.91162 320.69019 328.96932 311.05457 290.04807 271.03539 309.99265 302.98252 342.42864 343.46830 346.72696 360.12254 359.51591 360.92970 358.34891 361.72637 370.76715 371.15599 364.01001 357.61469 367.76074 366.62575 378.49744 399.44674 445.13476 446.86168 417.91750 363.58811 351.11702 351.34752 353.93049 360.95368 365.37919 380.69465 376.42343 378.14971 383.29095 373.21851 381.41705 384.09980 387.65103 390.16158 384.85115 382.34167 388.69489 392.56526 396.20731 389.10204 394.12868 387.96999 395.57558 400.64784 399.31744 402.60302 407.13260 402.89718 402.21024 406.46019 403.27809 398.70217 381.18768 376.31891 347.35411 324.83592 309.57023 276.80723 266.55027 234.20050 231.40534 223.06582 265.62179 272.34183 308.23673 347.04190 348.92599 362.16161 373.18102 388.29446 406.83276 427.71664 430.43761 423.98021 390.91908 428.54343 444.21086 368.51078 305.83761 60.58792 -66.56706 -139.54239 -194.59437 -234.37654 -303.77693 -587.42509 -1548.17263 -2186.53222 -2911.39656 -3587.40592 -3803.75749 -3949.91208 -3971.69924 -3963.02926 -3966.95280 -3985.14473 -3970.14275 -3975.28941 -3979.44710 -3977.64288 -3976.77780 -3978.34189 -3992.65700 -3986.52145 -3996.68178 -3995.62497 -4003.37022 -4002.10518 -4004.55927 -4006.10082 -4001.77532 -4007.69615 -3992.50497 -4011.46057 -3993.01098 -4000.27238 -3988.01084 -3980.91815 -3983.97142 -3973.63172 -3986.15458 -3977.91257 -3978.35769
-30.34510 -25.16881 0.05279 6.07179 56.44120 100.49168 133.16465 99.12847 191.13020 189.44136 232.91004 275.31666 210.06159 230.26397 203.62118 216.14041 220.04116 178.54387 178.94857 210.98620 258.99373 266.93306 310.74141 357.67190 365.61194 354.30364 358.64097 356.89794 365.67065 364.42909 366.60679 369.83933 364.90167 365.31433 373.18702 421.15203 519.90400 552.77219 514.90076 446.29450 381.29558 352.99935 349.54726 354.89276 350.66421 361.49363 362.40861 372.23802 376.56844 367.83353 377.80893 376.77980 387.91759 376.99004 392.08032 389.09918 385.84420 394.26771 393.50572 394.09904 393.90427 391.42325 402.45918 397.30084 400.79109 394.10359 387.85216 386.53426 389.84342 389.27628 389.12493 366.89220 355.82644 339.08139 324.87680 337.39998 332.38349 326.09899 303.21425 308.72840 298.14480 293.86676 288.12621 339.66608 352.13742 349.04369 347.19223 346.91676 351.98236 365.82326 398.08972 410.96430 434.62852 439.96058 433.98809 441.56217 423.60960 400.59378 331.64291 150.84211 7.42536 -87.56215 -147.03606 -206.15398 -264.60506 -334.14863 -474.83325 -721.23962 -1272.02536 -2538.48661 -3257.33452 -3760.34432 -3893.31926 -3951.31485 -3966.66659 -3971.10043 -3976.51502 -3974.46572 -3976.24292 -3976.80260 -3982.58766 -3979.56111 -3990.43332 -3989.28763 -3983.94946 -4002.88959 -4001.92945 -3998.50820 -4007.61151 -4004.04379 -4003.48917 -4001.20500 -3995.43603 -3998.40792 -3999.44337 -3989.95098 -3986.11200 -3991.23153 -3985.24237 -3978.41090 -3982.60898 -3980.62852 -3975.78208
-187.85848 -193.65067 -147.74492 -113.24189 -111.97923 -61.00552 -56.52476 4.12655 10.37097 32.82800 74.19302 115.54270 98.20525 66.07707 70.73885 44.70157 -65.79472 28.72540 19.42635 44.09715 68.01867 198.87659 254.33085 277.61346 320.53553 329.43001 344.68262 353.02803 351.01449 364.77334 366.23619 364.28724 370.01995 363.08955 366.65006 441.43851 592.50756 625.66182 592.30719 536.89566 472.05320 375.54698 372.82805 352.74914 356.79657 357.91746 353.82067 355.96868 351.19211 357.07459 365.82365 374.99120 381.68761 390.24285 385.94471 387.43578 390.20938 392.48097 390.92854 385.83129 396.10076 391.52936 391.94435 378.93913 378.55462 361.53538 326.23589 309.75933 318.85011 328.36508 336.07948 329.92645 328.18873 326.27980 342.55808 353.70316 373.70154 384.42934 386.06195 367.66588 344.66516 335.93798 358.59321 358.71224 346.80118 349.71922 341.84707 332.03731 333.29538 348.35340 381.63377 403.03869 425.26910 432.32820 429.68678 437.05971 436.12944 422.67562 350.09481 224.97006 58.56664 -49.73825 -126.29437 -166.67853 -199.55914 -246.53330 -328.25753 -537.48140 -937.09832 -1912.52725 -2745.84589 -3307.96869 -3617.62471 -3809.18734 -3925.63262 -3966.76053 -3971.65557 -3971.81916 -3978.71333 -3979.30685 -3983.78894 -3982.00760 -3988.59639 -3995.66473 -3998.89049 -3992.82757 -3993.76314 -4001.33661 -4001.37437 -4008.01202 -4007.90456 -3998.36354 -3993.14861 -4002.35677 -3992.82347 -3997.74400 -3993.68736 -3984.91655 -3988.05027 -3977.00589 -3988.04962 -3978.90623 -3983.47053
-255.04462 -262.15859 -242.20022 -215.26320 -233.96775 -194.58781 -174.82175 -152.29286 -158.67547 -75.80220 -97.89059 -74.21124 -94.27666 -98.74604 -107.08866 -130.48961 -134.37465 -154.44506 -160.62596 -105.72753 -63.63238 8.28508 117.45034 202.19776 258.04601 275.86400 263.53525 258.20872 287.99365 334.85112 355.79939 362.31040 362.85293 356.66839 386.30175 459.40300 666.40418 717.51911 700.63606 678.97840 612.85741 516.83836 433.88845 390.59463 353.36757 362.57598 357.83314 357.68990 356.06965 350.69101 355.51946 361.95254 357.49722 371.98096 375.82280 384.68162 386.48537 388.80759 388.70746 386.93642 387.13758 375.82438 347.78624 323.21604 316.76872 297.60295 235.47288 253.61747 233.95177 266.22342 297.47435 323.99454 343.60669 349.76080 356.75370 391.00064 422.77309 436.38507 430.40069 418.51202 405.72199 390.93430 361.71103 358.07557 350.73262 338.73330 328.74322 331.10997 328.77156 343.40731 372.17087 396.58084 409.33974 421.28463 427.91326 430.58988 443.65262 434.86702 409.08684 363.77534 152.03513 7.61744 -76.86247 -134.91135 -152.85112 -197.40720 -233.33228 -316.92830 -629.94085 -1171.75914 -1323.74098 -2722.71451 -2924.49781 -3539.54327 -3820.81672 -3945.94031 -3957.29057 -3978.56088 -3983.82802 -3985.66137 -3989.85623 -3996.39886 -3991.66530 -3994.43429 -3995.17845 -3997.12455 -4006.81346 -4002.40877 -4006.34167 -4003.90383 -4001.30423 -4000.67831 -3996.96690 -3993.91356 -4002.27642 -3996.43845 -3994.71645 -3989.27418 -3980.56457 -3992.64566 -3988.59108 -3991.90786 -3984.92356
-289.07969 -302.87171 -281.92694 -276.31546 -281.22055 -257.36284 -237.49466 -221.60647 -227.45435 -223.94451 -180.50925 -215.79509 -207.38637 -213.28910 -230.00748 -197.37411 -223.85757 -233.79225 -228.19730 -196.80583 -164.05890 -109.70812 -64.99304 15.54240 71.05616 129.54519 118.80273 93.44585 247.56388 262.24171 320.84959 343.23435 350.46674 353.27202 396.41641 501.61319 694.57020 735.08558 752.37643 741.18980 692.17255 593.27515 568.78160 468.01158 412.89039 407.87863 397.51228 368.93370 353.72886 350.40749 349.98316 348.02038 353.71743 360.78842 379.66009 376.71272 373.70915 376.14247 364.80490 354.99408 352.16147 319.97586 279.18188 225.20985 193.62921 170.52177 173.50862 175.76474 190.88966 226.30187 289.79109 336.70202 372.34072 383.29929 404.36909 422.76956 476.16874 508.10173 488.59795 453.24480 435.65302 395.72842 376.04019 353.41090 339.05659 328.37211 327.64128 326.41959 324.21191 324.76881 360.24811 385.57408 395.29706 417.25850 420.89975 423.73878 431.55413 437.42011 420.50857 397.89575 360.75663 178.33216 71.69722 -69.77744 -133.76029 -156.16929 -177.75679 -220.88059 -323.02127 -430.90135 -907.98697 -1331.14531 -1764.44150 -2996.64164 -3561.46325 -3712.45563 -3881.84060 -3965.55202 -3977.58199 -3985.36689 -3990.80573 -3989.87162 -3996.84256 -3993.59498 -3993.85708 -4005.01409 -4003.37002 -4001.31215 -4003.19790 -4001.29118 -4005.12885 -3994.56531 -4003.90775 -3990.78023 -3999.04575 -3996.70426 -4001.07799 -3998.50318 -3989.36555 -3991.57326 -3981.27429 -3991.14093 -3980.88862
-288.38985 -296.07456 -294.22376 -303.61933 -288.89517 -281.61837 -269.16396 -289.85462 -269.81134 -252.63872 -254.74080 -258.80470 -272.14897 -264.14782 -265.86635 -265.98000 -265.53907 -262.47478 -273.37312 -259.84917 -218.64756 -195.23237 -175.56944 -108.78767 -72.51476 -22.64016 -50.94733 -81.71369 -8.96953 124.18389 188.70777 274.34525 305.68477 300.26942 357.50841 538.00122 691.30627 750.42948 767.50441 773.96283 756.30993 723.08654 688.03260 633.17286 601.26580 535.95920 491.01655 517.88051 486.43132 448.65819 379.64016 365.90231 369.00497 367.65258 361.48584 356.91560 357.14151 355.38741 310.99919 306.21647 289.65913 226.64654 191.35270 168.56307 138.49537 128.99901 100.28554 118.44131 168.93643 220.44712 316.10511 359.71074 385.66354 402.81827 419.17262 431.72493 522.98196 590.27712 562.55402 474.63283 459.22315 401.25215 371.94736 358.01972 337.34011 324.99749 329.29049 328.39317 322.42839 338.66297 360.60564 386.26866 401.61120 414.49949 420.25159 420.52323 421.64910 428.88649 444.78147 437.93017 389.51084 268.23843 211.78056 51.23881 -72.57858 -133.18672 -142.11372 -169.02302 -194.76724 -231.15647 -356.51020 -640.27818 -1246.52675 -1907.44686 -2952.25042 -3264.13257 -3649.55907 -3883.22889 -3980.36742 -3991.16564 -3987.88178 -3998.62500 -3993.57500 -3990.38398 -4000.87392 -4004.38019 -4007.77985 -3998.65722 -4004.65116 -4005.92374 -3999.00533 -3993.54729 -4000.12821 -3999.58650 -3996.20511 -3996.12148 -3993.31989 -4000.03198 -3988.41411 -3984.67362 -3980.73324 -3992.36310 -3981.78635
-286.05666 -289.79711 -296.71447 -288.34502 -288.39875 -293.53025 -284.90123 -291.61618 -287.87508 -279.43943 -285.38256 -279.68736 -278.73035 -286.58580 -280.46485 -280.16826 -287.45611 -280.50940 -274.56069 -258.51908 -261.66183 -262.12338 -244.38520 -192.52116 -174.12000 -175.98102 -168.99126 -169.04072 -120.51041 3.96754 89.72288 202.28224 207.34960 221.67844 331.27682 576.94366 679.77947 755.00901 774.70487 785.88588 772.80705 765.95994 755.89092 759.63044 703.01477 725.94040 747.61908 759.86706 660.52377 606.18925 495.43248 471.59045 450.01914 409.38613 383.12465 376.45978 341.86718 298.41759 263.37290 248.12991 194.30101 172.86363 151.09774 116.64807 111.95640 88.82967 89.90851 107.86070 131.80076 204.47114 313.46497 355.36226 382.41923 395.22448 411.85309 463.41121 554.51423 644.21590 604.90005 509.57233 457.58802 440.38748 390.62718 354.50892 341.45724 325.31015 325.91765 328.58667 326.27388 339.09642 355.29613 363.89361 408.85284 418.18097 414.79601 421.53864 406.45220 419.41432 438.62532 438.35007 409.99294 371.40138 330.61951 183.38121 -27.19681 -33.23393 -111.79197 -134.80212 -171.16304 -198.66033 -224.69209 -301.07319 -639.24492 -857.34926 -1759.52081 -2427.94344 -3188.11953 -3614.81222 -3945.07194 -3993.04174 -3991.27334 -3998.31152 -3995.43524 -3998.69867 -4005.70371 -4000.97914 -4000.25054 -4001.03624 -4003.30242 -4006.89965 -4002.83382 -4000.01415 -3999.18887 -4003.32707 -3996.73639 -4000.06638 -3998.15290 -3999.86686 -3989.19625 -3989.47667 -3991.31538 -3989.74631 -3982.45886
-293.44422 -290.76404 -292.58751 -289.06287 -286.96772 -288.38015 -285.00922 -289.53483 -288.86514 -279.45102 -294.40346 -286.53916 -288.77595 -277.24052 -280.38217 -282.44737 -284.63134 -282.89844 -277.69412 -280.92668 -272.09677 -277.33379 -268.11395 -262.30920 -254.81603 -247.75993 -241.01897 -235.96024 -222.07754 -186.09276 -45.88671 54.48517 71.05730 163.34011 313.97457 562.49669 710.89955 763.46440 769.15124 777.54789 776.02540 779.18225 775.45486 777.45088 827.25100 862.87996 902.85898 877.86415 832.64291 760.57301 656.47691 546.74945 562.01477 544.21540 480.26719 438.41102 355.03200 312.27230 270.89929 221.61231 165.21906 139.02237 132.03079 121.03170 115.73405 108.04290 98.90204 106.22956 129.85851 179.16399 272.70072 298.57974 322.77271 385.09157 413.57453 462.69767 616.91000 716.40339 666.17015 514.61711 450.58955 446.43077 385.51689 370.62336 336.13430 329.59352 328.77499 324.97279 322.79811 335.55247 364.03025 381.11836 410.96726 411.19409 416.38295 395.29282 343.02582 371.52754 385.30317 407.09216 443.00472 450.71715 406.42494 299.78335 182.21394 137.09749 42.88139 -112.36135 -114.11603 -161.60400 -190.32060 -212.44725 -267.06685 -500.41284 -888.02716 -1768.43912 -2348.62740 -3435.40611 -3841.50661 -3969.25710 -3995.85429 -3998.92835 -3996.59830 -4001.15789 -4007.17163 -4005.41226 -4007.45059 -4009.12731 -4001.12142 -4007.55328 -4009.43829 -4007.67617 -4000.03610 -4005.77432 -3998.81503 -4002.82204 -4005.21330 -3999.98823 -3994.27637 -3991.90907 -3995.62058 -3985.22927 -3987.80567
-291.35553 -289.55337 -293.38783 -298.90311 -294.74644 -290.12014 -285.54748 -278.99866 -288.31514 -292.67594 -290.97339 -285.34034 -287.64620 -290.32075 -282.33425 -279.64253 -282.15838 -283.18137 -278.49120 -280.45708 -279.45598 -282.96971 -276.65898 -269.87271 -272.37219 -267.60510 -268.19433 -268.91830 -240.64187 -213.97442 -154.45871 -79.11587 7.96093 123.33172 243.35917 463.82397 668.61315 752.38011 768.98070 760.82353 761.85463 768.88541 782.36093 836.47740 901.15277 1091.02459 1105.27905 1140.80180 1060.62372 928.50916 753.05770 682.29427 624.15657 613.67504 586.57413 515.06440 395.11208 316.15710 297.75703 247.42432 197.21291 172.78464 184.02405 185.31463 191.13389 163.43363 153.12501 159.29194 146.62094 196.21893 221.34900 253.88375 304.18777 337.89446 392.56263 483.57913 604.69011 685.68833 695.88869 529.88159 449.46143 437.09707 414.36871 391.40613 335.07056 331.33101 329.46040 320.54417 325.50238 337.92677 360.12536 389.24873 408.56035 411.67670 405.62464 385.38981 285.44853 268.59006 283.89157 341.50488 389.71364 462.74250 534.62829 456.38316 393.39382 252.11663 81.67548 -15.79726 -90.80050 -106.16371 -192.00459 -198.74979 -218.94078 -240.11839 -534.22741 -762.14289 -1691.02210 -2934.91811 -3683.58003 -3956.32485 -3995.24696 -4003.54946 -4009.42815 -4012.83612 -4007.75341 -4005.25527 -4000.59871 -4014.59640 -4008.40325 -4003.99905 -4007.24309 -4008.01453 -4007.91513 -4000.07158 -4001.03760 -4001.02789 -4005.15226 -3992.49613 -3987.92826 -3994.57726 -3990.86598 -3987.60224 -3988.59652
-286.82761 -291.04865 -291.36387 -288.85230 -291.91353 -297.28051 -285.58096 -288.34593 -288.67868 -288.58906 -280.30974 -279.64993 -281.29118 -282.58140 -289.06596 -279.54494 -281.93831 -280.61632 -279.85930 -284.36683 -271.33697 -285.12788 -273.72635 -281.17440 -274.52813 -271.84442 -272.20127 -263.51343 -250.59279 -237.32971 -172.99135 -119.58686 -44.25160 108.52376 260.97840 524.99629 696.95673 758.33250 768.61743 773.07228 778.89011 781.09346 797.65349 902.31995 1065.26319 1237.88008 1346.47215 1334.88592 1265.04066 1152.07534 885.40994 744.67969 693.03411 661.89590 627.34566 520.00613 433.55178 365.76463 317.96073 292.59781 278.41731 255.61967 262.99304 289.45663 270.00128 250.80493 249.88278 225.55512 227.05904 242.36018 242.30525 253.21694 310.59596 323.88237 377.34314 489.42054 614.66464 695.83738 665.85583 560.32116 453.59712 428.01168 420.69625 382.45407 351.35448 335.35228 321.95344 324.23089 323.70307 347.16323 372.19434 392.84454 415.59713 413.60443 360.66693 318.59327 235.74060 209.80375 226.83733 253.88609 322.34853 482.16010 585.75466 592.13030 568.68279 443.78523 175.61895 68.43816 -27.17505 -100.04875 -134.91089 -166.47491 -194.52475 -210.66886 -272.65405 -523.65846 -1555.67199 -2552.03202 -3659.62187 -3924.71366 -3997.15493 -4002.75843 -4005.22092 -4014.15685 -4009.53925 -4004.05790 -4010.75461 -4006.85122 -4010.45954 -4007.77654 -4004.55910 -4010.14024 -4014.57691 -4006.47935 -4002.30534 -4008.56424 -4002.47381 -4000.85581 -3999.65911 -3997.50162 -3984.81527 -3987.92274 -3994.10990
-287.22449 -298.07772 -294.66017 -300.46877 -290.68265 -283.25888 -288.33341 -284.31964 -286.63151 -287.62208 -282.48671 -284.78460 -284.35426 -277.96516 -287.44954 -279.29447 -276.36330 -284.72957 -283.12813 -279.35054 -282.33614 -277.49242 -281.80094 -282.44300 -277.26584 -274.71258 -273.25346 -261.44930 -258.23230 -219.83691 -167.26777 -81.86668 -31.51452 97.68525 322.75927 546.03564 667.86485 752.05863 764.44193 786.66635 785.43942 795.61478 819.27175 921.49538 1120.02934 1326.37148 1407.44420 1410.55183 1344.69325 1230.46679 1083.52748 827.58265 708.78694 684.29703 645.31107 567.57315 485.09988 447.91139 389.34160 359.77475 368.74096 344.98122 334.79194 350.41601 344.83490 317.77810 304.61622 314.91734 309.79810 294.69758 316.43476 302.39062 320.24192 339.31683 366.18119 512.90139 604.85513 727.98695 717.63753 552.58293 469.78355 436.25310 418.03675 385.33690 372.40509 331.37006 324.69167 329.58747 328.08107 342.91836 383.77025 404.69365 420.13263 386.95239 330.26740 258.77292 199.18107 185.74395 193.30372 214.91075 271.44539 415.43670 570.38238 626.78282 605.62280 452.12780 374.60987 214.64897 15.32375 -64.59927 -108.93339 -131.30838 -178.33282 -194.91885 -264.42656 -456.21096 -1320.17146 -2639.81562 -3570.10808 -3910.11424 -4001.26234 -4002.73598 -4005.27727 -4010.13992 -4001.59690 -4005.48237 -4012.97638 -4010.44522 -4008.68472 -4006.44175 -4008.56009 -4013.54153 -4012.52451 -4011.16335 -4013.35639 -4000.50951 -4011.01985 -4009.65850 -3997.11011 -3992.42787 -3998.46404 -3991.82448 -3989.31734
-290.94159 -298.74920 -301.08285 -291.32787 -290.51775 -287.38676 -294.54877 -293.56524 -282.97260 -287.92958 -290.03569 -286.98299 -287.23855 -287.28361 -282.89127 -280.63089 -282.32367 -278.93064 -278.89064 -283.15566 -270.41829 -285.36137 -277.21701 -277.65978 -278.68962 -272.62300 -273.65560 -255.83593 -247.09362 -198.68128 -138.64026 -45.70063 38.64464 99.16978 279.08567 479.47951 733.65715 763.65656 762.45316 784.16263 796.81897 793.90481 836.53342 970.33796 1142.80171 1377.94695 1461.19918 1474.65404 1436.02414 1339.33959 1174.74260 968.64932 765.85908 695.36677 666.46002 613.52548 571.86150 524.66819 447.68364 405.04422 396.32722 401.96904 405.39539 394.65792 380.66681 390.28859 382.64195 376.99275 382.49420 378.53195 366.31650 368.82083 351.74902 376.92269 402.97334 506.30532 582.85542 728.40882 684.55085 565.27701 484.80119 428.52384 408.85453 392.31328 374.72914 338.51281 336.09935 324.61251 329.78540 350.90417 379.23386 395.75646 407.65254 385.69357 253.27228 213.87570 170.71652 165.90389 182.13371 193.26603 264.62101 354.55447 564.59044 639.43311 612.65781 542.25283 416.32908 212.08034 154.63302 55.08001 -67.74230 -131.37635 -155.36745 -190.97921 -245.32525 -458.49527 -1449.71070 -2356.44763 -3541.16654 -3891.44097 -4006.89905 -4001.73159 -4014.67160 -4019.66697 -4008.68836 -4008.51068 -4006.58791 -4022.54199 -4017.14207 -4010.24618 -4012.34833 -4013.60392 -4008.86862 -4011.72450 -4011.66314 -4005.53214 -4007.21058 -3998.92688 -4004.23924 -4000.08732 -3997.07933 -3990.24194 -3989.93773
-292.57096 -293.61820 -296.03870 -288.45898 -290.79665 -289.26414 -289.47033 -290.41000 -286.73218 -282.28963 -288.35581 -290.67138 -284.77675 -281.37039 -277.28698 -287.43661 -278.39259 -282.40630 -282.18475 -273.05556 -271.19902 -282.57764 -283.06839 -282.60563 -272.44442 -266.84238 -256.47814 -260.66684 -150.65297 -120.67676 -76.96393 4.03580 160.02020 263.59539 440.27618 594.15663 751.26283 762.92713 773.26665 795.62389 794.24668 807.51923 849.15793 979.91306 1179.71859 1373.55368 1472.81467 1473.80949 1457.91917 1397.71893 1199.43487 1021.43356 804.28006 698.60420 687.41057 656.51035 632.83424 569.37746 558.88487 568.24941 514.66851 460.85737 429.72837 423.57498 406.52992 395.92200 393.67903 396.33177 386.87016 367.58893 347.11928 341.15275 328.68551 354.77209 391.18261 500.53221 600.92860 716.99625 706.59348 567.28261 460.05601 394.67346 391.10213 393.01452 374.41869 338.83340 316.91939 323.14168 317.45619 355.10151 384.56274 406.23268 392.36834 355.91511 223.30705 176.77792 147.06204 153.16462 167.08966 180.46117 267.74572 359.19094 543.63906 642.36128 600.52853 482.18098 388.08382 271.57351 168.24604 103.46035 16.01621 -110.43402 -135.45433 -185.03217 -245.76463 -400.70978 -1379.51014 -2375.10314 -3486.55231 -3878.39235 -4007.15651 -4009.05677 -4017.67132 -4008.20505 -4012.99689 -4013.99667 -4013.58022 -4017.51653 -4012.37729 -4012.87839 -4019.38466 -4012.77313 -4012.55080 -4016.22023 -4021.98875 -4008.35033 -4008.45913 -4005.38980 -4005.36196 -3996.70634 -3992.04368 -3994.70000 -3986.68764
-298.81683 -297.02904 -295.26289 -290.22793 -291.24824 -294.13528 -292.34395 -287.78225 -291.01432 -288.51253 -296.11190 -287.16433 -291.13793 -285.17034 -276.66068 -288.39466 -284.55430 -283.01772 -279.59235 -278.68243 -285.99351 -281.08821 -275.16275 -267.90867 -269.54323 -258.77656 -233.24054 -185.04841 -133.61668 -107.81119 -41.56856 58.21975 222.31609 352.29506 528.36215 658.57088 743.62303 742.26370 786.86485 801.85464 813.34735 880.57200 942.13314 1044.55830 1277.64280 1385.21601 1460.91235 1477.91048 1477.35293 1439.03995 1348.12901 1063.19772 864.92980 724.90723 705.76619 680.50119 667.57237 628.31504 642.50418 601.82105 571.78081 538.29843 481.32015 452.63072 438.94884 412.24002 393.18789 385.07970 358.80531 321.84799 305.25284 233.34450 264.07098 259.46743 340.90720 445.25083 554.57451 707.33344 682.32093 605.37273 399.34727 345.80693 345.71604 365.89446 356.65191 351.35821 330.24470 323.57846 315.81641 337.58590 368.01120 398.70977 386.49391 338.53074 230.76673 154.29175 130.40060 114.38171 144.90259 188.74727 288.14749 410.83893 583.84941 630.31791 558.24728 425.05335 284.79384 210.00743 194.24769 137.40806 41.10950 -36.42839 -124.41896 -173.39071 -260.82180 -405.33426 -1332.80880 -2550.37306 -3543.39819 -3871.06457 -3995.49599 -4009.39885 -4013.70458 -4020.61220 -4007.22026 -4022.10586 -4021.37663 -4019.07267 -4018.57908 -4020.27130 -4014.09918 -4009.55521 -4017.88464 -4019.99344 -4013.10003 -4012.38110 -4010.86633 -4016.46887 -4000.00337 -3994.66634 -3991.46896 -3992.22455 -3992.62293
-293.30549 -293.91753 -290.78253 -291.46035 -298.56158 -287.79146 -289.86220 -289.59258 -281.92649 -288.03020 -290.33072 -282.94618 -281.85504 -284.21256 -280.20917 -276.01532 -280.47298 -273.56849 -283.49283 -274.38802 -276.04440 -286.86437 -274.44244 -266.51537 -235.41428 -212.05998 -170.43770 -117.40736 -109.33358 -49.63661 -26.36229 83.93657 287.83715 468.40529 627.21438 703.11186 748.98520 769.81346 789.32929 793.91116 893.24483 1041.60179 1062.96606 1118.56668 1253.42497 1332.37109 1453.43322 1473.68726 1483.18782 1458.08819 1398.52545 1142.21219 930.94385 744.31939 701.38611 693.23775 678.69837 678.13586 682.59156 659.82606 622.37136 613.06815 567.69470 522.44262 487.93023 406.76525 377.93269 319.33084 276.13689 212.40099 193.74737 173.09270 177.03093 197.56826 222.83572 333.93871 490.32344 643.76436 680.88812 567.54542 409.96504 282.89933 256.63757 325.70513 329.90725 329.66471 333.32713 321.80393 321.44741 325.64334 354.76650 373.01511 367.05353 336.08086 215.21707 156.03788 126.43704 106.78455 124.23306 162.21429 236.92096 384.71180 587.77412 610.84211 510.48440 326.98988 257.20107 187.10981 178.87311 154.53247 92.60489 1.51820 -86.85728 -162.49439 -214.09264 -376.82432 -1015.99017 -2244.74788 -3081.44625 -3873.58703 -4002.98279 -4016.33429 -4011.93749 -4020.93359 -4018.73233 -4014.33568 -4017.09128 -4015.84080 -4014.62900 -4024.01310 -4023.14148 -4024.40541 -4018.51212 -4014.74314 -4017.48749 -4016.25587 -4022.42658 -4009.95543 -4008.55649 -4000.92898 -4000.58452 -3991.01393 -3984.89915
-300.61461 -294.93352 -301.64557 -296.14413 -298.57882 -294.65396 -293.36810 -284.04966 -292.40059 -297.11036 -290.22262 -286.63656 -289.41540 -284.57021 -281.02045 -287.87025 -280.40475 -276.49536 -287.69232 -278.04963 -274.30871 -272.95638 -242.37794 -219.25073 -183.72203 -148.59416 -123.58227 -81.19374 -49.36539 16.88500 91.57539 133.25543 305.89393 531.02787 637.83414 761.43013 763.44426 781.67131 796.82035 834.37802 896.40423 1138.10101 1212.19568 1180.35985 1198.67458 1305.56326 1397.66712 1464.62145 1475.23323 1466.36431 1371.29099 1139.78893 896.82171 719.73763 704.05885 692.07915 682.32005 678.58896 682.54009 683.81195 680.72263 663.46267 644.88418 606.32251 519.41110 403.78210 327.51759 246.98899 180.69985 143.39875 98.47235 78.51373 95.36147 97.63663 154.11351 250.52638 357.44626 520.96205 592.50892 514.95203 282.00621 226.28438 181.32282 244.73992 255.25502 319.03544 315.72498 313.24809 314.01723 328.59446 324.87260 345.81608 335.90704 283.53404 201.62976 142.39634 113.06683 111.66885 102.64634 136.14032 204.64182 346.52931 513.86271 577.34846 453.69804 296.64041 195.19476 187.17308 167.27018 155.45761 127.53306 43.87470 -73.91741 -151.33690 -225.27964 -480.10091 -852.85010 -2167.04882 -3207.30698 -3900.95249 -3993.57396 -4011.62691 -4012.23796 -4017.31608 -4019.66717 -4015.86139 -4013.13791 -4016.10620 -4024.36035 -4018.94612 -4018.39136 -4023.90808 -4013.99330 -4014.49528 -4017.66068 -4012.52440 -4017.17662 -4005.65513 -4004.02922 -4000.70229 -3990.25172 -3997.78817 -3991.96250
-293.73248 -290.11078 -291.51508 -293.57279 -290.35240 -289.97333 -288.09962 -288.11226 -294.65565 -282.83322 -288.06001 -284.37413 -288.82295 -281.08930 -279.91554 -280.86889 -289.47095 -281.53333 -276.60175 -266.62118 -264.47258 -247.53927 -213.28636 -160.38431 -64.39664 -60.14827 -26.20485 12.61537 103.54984 175.87162 320.10897 279.98293 469.68353 677.54235 702.49576 750.68841 767.77376 795.24679 800.72829 855.50041 1003.28964 1165.52716 1265.52697 1251.40931 1196.85598 1257.23387 1359.87289 1459.78494 1466.23736 1463.06594 1373.32123 1129.01726 915.14090 744.77735 698.52671 680.71764 683.77805 678.43035 696.30366 689.04835 690.97443 686.55996 682.26798 645.15720 540.45344 354.86712 242.85565 157.51633 112.95544 81.91433 72.45368 61.77501 75.69284 75.30108 90.01050 126.73272 238.21506 379.11808 403.45569 293.12573 255.07534 123.01483 102.17099 138.27852 207.08890 284.24843 264.40061 257.10291 298.07550 318.17017 315.79538 326.87699 323.55090 281.71359 198.22828 145.35656 127.26247 97.45963 92.32112 113.52984 141.64477 248.88144 418.83043 467.26669 431.42017 262.33788 180.78919 170.11546 137.57275 135.72130 138.29784 40.03595 -56.24575 -171.51876 -211.77445 -308.32334 -850.88740 -1860.28356 -2910.20680 -3895.79738 -3981.94480 -4014.26781 -4019.73731 -4015.01494 -4018.48352 -4020.24027 -4023.06576 -4021.61228 -4018.97190 -4024.99004 -4019.54802 -4021.39940 -4020.45288 -4013.55177 -4021.11365 -4012.71821 -4002.81951 -4010.17734 -3995.70568 -3997.72980 -3993.24264 -3996.85155 -3994.68007
-297.99117 -298.03114 -296.84722 -301.35616 -293.68358 -286.02106 -296.16226 -293.72979 -293.49301 -288.30840 -291.11576 -292.88457 -286.18675 -284.55599 -283.65932 -277.17221 -282.13614 -288.19436 -279.04189 -242.60605 -210.77674 -144.42448 -33.29739 11.44707 -5.42143 26.05904 101.78883 210.77358 282.22064 435.38698 489.17340 545.48857 636.19122 723.50636 751.97718 767.92235 799.98067 802.32361 813.45131 930.80910 1063.74089 1249.06656 1328.17861 1278.11973 1203.09435 1200.22095 1311.19310 1369.04663 1427.90339 1375.36569 1283.46643 1015.58152 855.36578 707.35011 696.97779 680.48563 676.83824 677.78013 681.89520 675.48919 686.69380 682.97797 685.21490 635.68583 542.10539 325.08455 177.23955 113.73836 77.86472 62.53353 51.72727 53.87168 44.15187 49.43644 51.27429 78.38011 98.81714 185.34565 233.46769 193.65978 160.47095 82.90028 85.66757 96.13913 151.86123 250.50005 211.60712 307.23492 315.47837 316.26617 306.71273 320.08946 309.87831 297.77315 211.68175 167.18938 122.57737 88.23061 88.46199 101.96750 127.04944 184.85704 243.01822 373.32872 356.06078 213.98173 155.35604 130.17550 97.70541 108.49744 104.37704 19.31083 -85.35518 -160.28849 -212.45180 -289.62088 -762.45346 -1719.97360 -2995.95886 -3720.71696 -3957.29424 -4014.01390 -4022.17463 -4016.09431 -4013.00533 -4023.51498 -4026.46598 -4029.22679 -4014.82960 -4025.13241 -4018.50996 -4023.41480 -4020.01721 -4019.38440 -4017.31446 -4018.51181 -4016.02423 -4009.96392 -3997.57962 -3999.14194 -4001.60847 -3997.12570 -3992.88654
-299.49032 -295.94191 -299.88567 -293.89692 -296.02920 -293.52035 -295.97740 -293.08643 -291.07981 -293.64715 -291.79210 -290.36784 -297.59670 -288.67419 -284.20622 -284.92390 -282.17886 -284.44812 -269.20027 -230.15869 -124.93534 14.39466 124.08566 208.89722 131.37188 137.08199 221.02970 354.26239 498.11484 625.57605 657.16162 717.33852 697.08978 746.68627 766.82337 788.75504 797.45996 831.25462 872.68325 992.92064 1146.89129 1274.87937 1345.25855 1298.94904 1207.38593 1190.85377 1215.53674 1279.16206 1246.61959 1212.06247 1180.72480 933.62057 788.86097 695.49006 697.00468 675.66424 666.12255 669.18959 676.43774 685.16096 686.64790 688.42394 686.81896 599.78731 501.86433 282.58834 108.65775 95.31590 68.67565 51.30148 47.15930 42.50046 39.24724 39.25684 49.95893 45.02588 49.81714 85.13486 100.34835 82.48209 55.63020 50.69747 70.11991 74.87138 123.56099 149.76988 224.81577 297.66888 312.89194 316.25016 308.21499 309.74919 314.66764 295.73089 254.16733 166.73379 106.76449 74.07005 67.10607 81.79854 86.34145 98.80878 149.47650 220.07167 252.45161 181.16423 115.48694 102.88413 95.05929 105.06120 109.19755 13.42187 -98.92268 -167.56172 -206.96113 -297.68447 -657.52477 -1666.47399 -2689.73122 -3557.23185 -3948.72655 -4008.26975 -4010.89040 -4022.45315 -4017.25835 -4018.56062 -4015.54710 -4022.05965 -4023.81213 -4020.18810 -4021.30195 -4020.23476 -4026.37621 -4018.34405 -4010.61566 -4007.55993 -4009.86137 -4003.36637 -3991.76753 -4002.22996 -4001.94785 -3998.50501 -3991.32850
-295.22098 -296.47424 -296.62759 -297.86693 -296.52018 -294.96332 -287.10198 -290.67513 -288.20725 -288.43160 -294.48459 -287.91300 -286.86039 -286.16285 -281.73912 -281.65038 -297.46072 -273.00166 -232.35989 -152.56748 -17.43113 136.90801 293.33037 326.48994 234.99613 252.15609 331.88147 551.88867 562.98524 717.79781 739.20331 753.00382 741.00037 767.74445 779.29422 794.18997 805.79505 857.31458 979.95087 1053.61464 1184.03978 1262.43811 1286.00680 1265.43487 1187.48921 1148.46977 1118.60732 1114.61077 1038.41696 1034.10979 985.38008 845.97749 738.62939 692.90249 671.70479 673.02984 675.06253 679.92274 676.58266 677.68924 687.90313 696.90599 690.49869 627.04025 393.16639 223.65614 107.46512 72.33613 48.98600 45.71562 47.40065 34.43643 38.35773 41.12055 41.27257 41.22899 46.39935 57.41741 58.09418 47.03994 44.81935 45.40447 38.38518 57.64301 70.43714 137.90378 215.71735 263.57315 283.03186 289.02234 291.18603 277.99791 290.19876 269.88044 238.88241 183.97936 93.36840 68.39950 48.29027 56.34483 74.71962 89.66721 81.91678 141.09258 165.06766 128.72719 103.95503 106.00010 105.30405 120.99209 107.37583 28.49412 -87.91306 -163.56943 -212.46576 -287.63236 -590.35049 -1114.83703 -2458.59635 -3465.07055 -3898.81030 -4012.90597 -4018.16327 -4019.75286 -4021.31440 -4016.65731 -4019.01478 -4024.67755 -4020.74259 -4022.88496 -4021.60736 -4020.75829 -4018.23155 -4021.00970 -4017.45055 -4013.92986 -4013.69418 -4008.41769 -4005.65240 -3996.75934 -3992.01121 -3989.27848 -3995.69321
-302.31308 -297.99346 -293.53920 -297.53711 -295.52175 -299.31691 -291.05194 -292.21476 -290.75888 -291.15979 -291.47796 -289.82610 -285.60177 -283.10205 -297.57640 -292.53605 -285.43053 -263.61461 -196.20610 -46.88112 96.22084 476.29302 475.06808 398.69234 377.30563 401.84488 455.89745 615.55604 723.99032 751.59608 758.44167 759.06924 763.33865 789.93585 808.91437 808.41423 853.70628 976.70332 1055.15720 1128.45307 1180.21515 1208.93754 1241.03930 1212.06761 1180.94139 1123.25882 1073.17722 1025.36472 897.43532 864.41976 798.59548 752.27550 702.68841 671.29254 672.69810 672.98801 667.23560 689.37237 704.60408 707.12052 719.41422 727.25523 708.82422 646.23610 347.62293 247.56986 131.73757 69.90972 54.44063 45.68192 39.54449 42.37918 34.02672 35.39015 39.93321 41.27441 46.59278 36.09361 44.60934 44.99809 30.72139 35.76107 36.53555 45.56948 47.60789 91.26224 115.64103 164.94882 240.93734 260.28383 251.48965 235.67743 223.24994 228.23254 208.96670 155.19118 72.33414 53.16506 51.05815 51.01574 42.37498 55.69186 77.00806 89.39240 103.82770 108.72937 103.47945 93.87967 101.41454 137.98854 101.51624 8.95843 -97.58685 -155.30083 -209.82825 -246.10700 -327.98487 -1116.07891 -1946.01296 -3388.66391 -3773.56120 -3999.28466 -4016.05680 -4020.18756 -4015.96472 -4018.34457 -4024.16161 -4014.10764 -4018.73895 -4018.25531 -4026.75447 -4015.79659 -4016.62482 -4012.15395 -4012.30528 -4007.92955 -4007.73398 -4005.14984 -4005.25385 -3999.76444 -3994.08692 -3991.84001 -3993.80995
-298.91280 -297.14921 -298.01839 -297.47019 -299.61254 -293.25223 -290.59584 -290.24485 -286.37527 -295.69801 -293.69256 -290.78623 -303.27283 -314.92131 -325.44427 -317.71165 -288.45600 -258.45865 -153.12862 76.48224 431.08299 611.69749 596.56272 550.83802 516.69191 552.59741 595.61338 703.00044 753.96193 754.97361 757.70282 758.91674 781.44523 804.76040 814.56905 848.92909 925.55295 1060.48183 1102.71754 1156.72419 1167.49507 1176.97567 1182.60601 1182.13543 1174.87412 1132.75078 1058.76290 923.41217 795.76094 739.44379 730.65624 694.57417 679.42566 673.49748 664.22746 697.52022 692.20363 709.31180 708.07924 738.66723 789.38400 806.41292 808.49864 746.75424 465.23253 321.18199 217.75132 107.82895 61.25803 55.55415 37.47800 49.78130 41.00098 32.83703 36.27800 37.07584 43.67188 42.07016 43.43881 42.44548 42.89220 34.88646 37.81023 27.83532 45.84582 42.56497 54.91064 95.31220 149.02676 194.96441 197.08589 157.34626 140.06932 125.53843 121.29594 84.15964 61.56252 57.66878 50.75781 48.35668 55.10147 55.73564 68.07898 68.66625 92.13862 97.14622 105.52377 105.31720 119.31366 120.41843 108.46853 -14.39572 -98.83422 -171.58622 -209.41347 -234.87046 -460.81422 -982.01642 -1740.43653 -3097.39083 -3777.83341 -4010.30189 -4014.59376 -4016.72457 -4020.83234 -4007.59811 -4016.92480 -4016.30535 -4016.27288 -4013.55198 -4014.77989 -4012.00508 -4025.29568 -4012.95551 -4014.00697 -4016.65117 -4011.55525 -4004.37753 -3999.12154 -3998.11426 -4001.75811 -3993.69359 -3990.24130
-298.73657 -297.73104 -296.75483 -294.42220 -300.24493 -299.20383 -295.95921 -302.59787 -295.86102 -307.14168 -312.79537 -360.33832 -411.91194 -369.96440 -410.18190 -385.75274 -376.67651 -286.66770 -47.97262 186.83619 574.61075 657.99231 699.63961 680.98620 661.67267 652.13665 684.19122 735.16631 756.08553 751.93463 757.24255 756.96865 799.22211 803.00002 859.67127 979.99951 1058.68505 1111.19356 1154.61715 1163.52296 1163.43564 1166.76309 1164.66549 1169.01194 1166.41117 1146.76817 1079.85641 888.00330 798.92945 720.27827 717.61582 704.06406 670.36560 668.95767 693.17819 714.82510 704.05836 724.86859 759.43826 854.39287 874.16925 986.38426 947.51313 859.92684 715.25019 574.64461 390.15212 244.75189 104.37127 72.06281 42.70587 41.27156 42.12553 40.21850 32.59858 37.94170 38.06928 39.99826 33.69152 32.99375 36.95578 37.76101 34.16985 29.22537 26.00915 45.16342 46.47639 69.72858 88.55985 109.49144 123.95753 103.14239 77.87972 69.84685 79.50439 53.42255 49.95396 50.31114 48.10261 54.40880 51.08798 52.22554 68.85974 81.48208 101.20557 103.26046 108.29096 97.82139 116.97510 140.15139 79.30084 19.29512 -99.42361 -197.66515 -207.12948 -231.34327 -345.26324 -727.95593 -1656.67875 -3030.92634 -3729.73818 -3954.11370 -4013.27176 -4014.89381 -4012.25482 -4015.09272 -4014.39980 -4020.44674 -4011.74637 -4018.79580 -4011.28401 -4015.54837 -4013.12543 -4013.59089 -4009.39675 -4003.65150 -4008.13506 -4000.33604 -3995.90016 -4000.45189 -4001.66579 -3994.82773 -4000.46859
-299.15536 -307.77646 -298.39740 -290.51225 -301.96380 -299.26234 -311.52260 -303.23418 -343.37602 -389.20863 -422.53173 -468.87671 -671.51248 -742.57416 -654.38559 -674.64344 -734.27436 -554.14244 -108.00292 229.18259 573.05361 705.84773 746.04004 725.83148 725.80565 739.65815 756.24910 756.32829 754.64670 755.80150 768.80178 773.65679 789.19162 836.46352 993.89922 1009.79656 1104.02216 1148.80237 1164.98559 1170.71495 1165.86198 1167.36741 1169.09111 1177.22392 1161.77496 1139.22379 1041.66849 864.88862 765.04409 714.50255 709.70031 688.88368 678.64076 694.28740 726.26252 758.69123 751.43172 819.26414 908.19969 957.87947 1047.52147 1083.85171 1113.06475 1105.36557 956.67925 825.48191 743.66193 457.62168 220.62860 93.34909 51.84471 50.10772 44.24924 38.95886 35.93980 33.38108 41.15694 38.92769 30.95868 30.97013 38.18651 31.70826 33.27725 22.84041 30.67994 26.99870 31.60390 39.80270 48.39967 47.83597 66.73686 57.36412 53.87319 40.76305 50.02290 51.83946 52.35427 55.40719 53.63505 54.86366 55.14436 54.67363 71.70809 94.41583 105.57218 102.39895 109.50898 111.50718 118.49560 123.04973 102.15259 16.75367 -118.48696 -180.45762 -216.60183 -232.30782 -306.00942 -745.40962 -1606.49864 -2768.72816 -3718.56400 -3963.62401 -4003.90371 -4012.83598 -4016.10088 -4014.22939 -4010.70275 -4016.57302 -4016.07064 -4014.56822 -4019.29688 -4014.47867 -4009.69219 -4014.53069 -4007.46336 -4007.36338 -4000.26405 -4003.29912 -4006.84349 -4009.53535 -4002.53966 -3995.32966 -3999.58513
-314.56078 -306.48168 -305.63296 -319.02338 -327.43765 -341.11813 -412.67022 -418.27729 -511.39876 -657.74492 -866.06723 -910.02469 -1480.83615 -1861.97459 -1435.27849 -1523.67398 -1421.98038 -896.07314 -291.60249 47.22852 458.19111 650.78955 743.41976 739.24150 753.89977 757.02107 757.44279 759.46605 757.30656 756.31476 775.90011 775.99701 815.48310 928.38125 1028.81491 1111.03257 1131.01055 1155.73110 1168.48874 1166.31242 1161.99936 1168.96545 1159.09936 1171.16617 1163.59205 1132.77302 1047.74020 861.96879 767.85452 717.53652 699.56253 672.83957 676.67280 699.44633 784.17569 837.51122 894.15901 972.55759 999.22237 1066.74482 1117.36371 1153.37254 1163.17943 1158.67602 1100.22391 1053.74845 934.47012 534.86619 285.45338 137.57039 46.99269 41.12383 41.70114 36.33052 38.86643 37.51447 37.21573 30.67461 43.12273 31.06221 29.32908 27.29981 28.24137 33.59471 31.95034 26.59124 31.39657 22.07698 48.11373 43.12594 41.57251 44.07594 49.51641 49.10092 45.82397 44.35537 51.53614 55.07553 63.25056 65.53161 67.69934 76.98255 85.89963 102.26437 106.57026 110.67398 111.36616 111.68440 116.63955 105.37476 68.08348 -12.72924 -124.79568 -176.79093 -206.17313 -235.62761 -279.62456 -1109.66834 -1822.38018 -2612.30279 -3653.72221 -3972.09979 -4003.40517 -4012.00674 -4016.04865 -4010.46567 -4010.59236 -4009.18320 -4010.19828 -4010.31437 -4014.23738 -4016.00957 -4014.00776 -4012.96661 -4007.81797 -4005.92949 -4008.21495 -4000.45778 -4003.05846 -4005.52048 -4009.40257 -3998.35199 -4000.24678
-373.84486 -372.70515 -418.58695 -446.37976 -470.95112 -541.37458 -668.58055 -784.02593 -804.31182 -1311.08554 -1723.55258 -1918.62498 -2319.29443 -2720.90490 -2635.02250 -2798.98404 -2562.68530 -1860.32686 -868.16643 -136.75857 215.24357 465.56600 662.74976 709.87010 731.86414 751.19789 762.28343 756.51882 749.51790 760.41907 776.18095 789.91324 846.67242 941.37735 1057.52946 1141.82962 1158.21975 1168.31110 1163.18190 1158.76455 1165.68298 1166.70318 1169.32512 1166.87168 1156.50356 1114.58823 1037.09886 858.20966 761.57273 712.47948 693.97222 669.47914 692.55528 754.52760 892.57594 967.86268 1034.71527 1066.06641 1115.51567 1146.88147 1168.08163 1181.90725 1178.19489 1180.27575 1175.88032 1135.99285 1074.87817 711.52710 324.35089 142.72904 54.14193 44.77461 42.68054 40.84725 43.40099 33.45414 28.43334 26.91524 30.73153 31.13460 40.52793 33.21788 32.58782 33.12090 30.34556 28.21422 32.83133 29.08160 35.81753 27.39486 38.18591 32.55189 29.98269 34.08697 46.07480 50.92197 55.37391 70.56090 73.15012 83.48194 95.46381 98.80741 112.55624 104.82120 117.72034 110.86865 108.64338 108.10147 110.34629 111.85505 77.57837 -2.17692 -123.72259 -172.82443 -219.22713 -247.43692 -430.15114 -895.26310 -1991.35780 -3132.22881 -3860.14335 -3963.64161 -4013.13479 -4009.82031 -4011.50087 -4012.24569 -4010.37552 -4017.91199 -4008.73920 -4005.84889 -4006.60010 -4008.91786 -4013.28127 -4013.33319 -4006.02412 -4012.66837 -4005.89859 -4001.36358 -4007.95112 -4004.31900 -4008.98811 -4000.01177 -4002.19660
-688.87392 -680.71542 -764.94750 -972.93065 -1035.92109 -1059.44951 -1255.81196 -1617.12781 -1801.09979 -2158.79658 -2704.67317 -3203.60660 -3291.77645 -3435.51889 -3677.42539 -3669.41533 -3192.98222 -2746.08397 -1717.41011 -805.52348 -126.38412 306.63438 425.25006 527.87292 635.74021 692.43446 739.37978 756.01523 757.26058 764.89020 791.28150 791.98911 880.89785 960.50256 1065.82251 1121.55227 1163.74172 1159.96381 1165.99827 1160.92476 1165.61897 1161.57267 1170.12672 1162.65912 1156.49888 1126.22586 968.63264 860.60958 713.77113 673.04086 625.42494 648.68336 693.20448 797.83086 908.31190 1053.23458 1113.79323 1133.95543 1163.82260 1175.48173 1177.73738 1177.76877 1187.77883 1188.34522 1194.94944 1170.14641 1044.24008 874.13442 381.91602 150.27116 80.92976 53.12033 50.69993 38.42694 43.71980 42.70831 33.63053 35.93569 35.12045 38.88096 29.45027 40.50177 35.86538 27.68387 31.90855 32.53997 33.47975 26.69910 30.73190 20.64108 29.06694 32.44525 36.79720 39.87528 49.36966 64.89859 76.01404 94.92450 95.80601 102.58323 113.35233 114.32737 127.63295 122.00310 112.12075 114.60237 105.12759 105.22278 114.29233 108.85182 54.74206 -0.95812 -121.67248 -175.12661 -221.35657 -276.35225 -527.54768 -1201.71198 -2432.64059 -3405.73580 -3837.25882 -3989.64251 -4008.39894 -4003.93011 -4016.98231 -4011.45217 -4002.39981 -4007.45056 -4003.80692 -4012.71650 -4010.01977 -4006.90814 -4004.02788 -4009.73391 -4009.50330 -4013.79191 -4007.61016 -4010.12565 -4002.24369 -4003.98019 -4007.02636 -4003.68403 -4009.20430
-1497.98967 -1495.05309 -1696.78989 -1691.97151 -1781.35490 -2075.58360 -2274.51192 -2596.96724 -2995.46955 -3373.19798 -3341.80390 -3725.16252 -3821.52077 -3921.61367 -4027.45643 -4031.76186 -3788.17378 -3374.38580 -2687.67396 -1480.51037 -602.73290 -57.56637 96.49652 357.40193 500.78079 609.48727 704.36261 714.57221 747.10002 762.98175 785.10283 787.34464 955.52836 1038.70685 1113.47687 1144.88555 1154.07502 1165.77697 1167.67695 1163.67227 1167.87873 1165.58044 1163.24238 1168.86610 1149.10053 1082.89357 934.98316 772.65130 651.45561 621.88768 564.58813 621.85732 638.44169 741.95432 882.22974 1050.73332 1119.95153 1168.95102 1178.16034 1176.17677 1178.36042 1181.19765 1181.22217 1180.17902 1192.78601 1164.07574 1094.48337 812.77861 658.75344 329.32945 171.61684 100.64339 68.01493 78.85154 59.28293 40.39473 41.10097 37.10589 33.61869 33.81631 29.21148 29.16996 34.05913 29.77916 25.59270 24.61992 24.93829 35.68993 35.35557 33.69573 34.40463 35.82436 39.15414 44.06682 68.00991 75.76526 83.98727 110.92457 120.18949 130.41178 127.41166 129.08192 130.00423 124.57322 124.97071 110.11052 102.73989 100.75149 106.04185 110.63831 103.99360 33.02503 -115.32651 -161.88604 -213.86145 -336.98136 -682.69220 -1535.52432 -2712.29119 -3548.26274 -3916.15215 -4000.69840 -4008.43560 -4011.98572 -4012.03965 -4006.68462 -4002.77308 -4009.02035 -4009.65747 -4007.68536 -4010.11470 -4009.34541 -4012.51724 -4005.62911 -4017.09708 -4019.05010 -4004.87201 -4007.31382 -4009.95351 -4012.00930 -4016.45277 -4017.99273 -4015.74933
-2652.46978 -2656.76678 -2606.75087 -2835.91868 -2764.45308 -3228.27568 -3317.24961 -3550.26183 -3590.32202 -3803.49179 -3964.54315 -4020.94725 -4033.23286 -4078.50318 -4076.34760 -4070.02796 -3970.48719 -3659.29677 -3181.13119 -1867.18187 -1034.49798 -324.03031 -80.93033 64.32182 255.05699 353.69804 529.93544 650.22285 717.04074 761.79948 790.84612 841.32280 989.91858 1055.68945 1127.12155 1161.48840 1163.99359 1159.85108 1165.48092 1165.63394 1161.22478 1164.64392 1169.33744 1161.87638 1113.63595 1025.24830 894.47177 668.96397 560.96370 476.54047 489.54991 561.50137 568.60162 676.70424 779.79110 993.38412 1102.13588 1153.73594 1167.77059 1175.32114 1180.18697 1171.38296 1182.61100 1180.72425 1187.49576 1169.76529 1148.75620 1012.63438 803.16505 531.70398 399.66052 255.91719 157.17092 89.90587 84.81085 42.85901 43.70904 39.94316 39.46607 37.81729 30.76739 35.75345 34.56909 28.51684 27.81939 28.30129 31.98109 28.21363 26.91713 32.79821 37.71310 32.01334 41.49037 59.54486 87.28984 90.79591 116.15062 123.00929 115.47809 131.04497 125.40746 129.24419 127.33552 112.09621 104.43858 111.46815 108.45097 107.41660 102.08031 101.07154 91.13496 9.62151 -81.34501 -160.87844 -225.68528 -355.17971 -1109.03378 -2001.59834 -3073.93395 -3782.00192 -3941.27891 -4000.42678 -4003.58472 -4006.84136 -4004.34852 -4007.25699 -4007.19701 -4002.38270 -3998.48056 -4006.04173 -4002.61200 -4007.13483 -4005.24089 -4012.33485 -4008.29241 -4006.56200 -4016.02009 -4013.04877 -4020.19053 -4018.24710 -4017.93155 -4023.51896 -4015.03635
-3588.00004 -3585.19700 -3556.33061 -3440.63728 -3599.34553 -3767.74793 -3782.54276 -3899.22704 -3987.09471 -4063.43078 -4065.20272 -4097.80494 -4079.34619 -4081.03491 -4091.44128 -4091.19185 -4072.60591 -3913.73155 -3580.75740 -2509.70329 -1365.15249 -444.03515 -268.68055 -160.48892 24.01670 137.22641 371.91892 572.14729 677.94854 728.83202 798.09538 875.35175 1033.18477 1101.89536 1152.30042 1160.77381 1164.33506 1161.74252 1172.26629 1161.66112 1167.61699 1165.13260 1160.25038 1145.51681 1081.05871 980.63820 792.56073 579.75420 442.20206 423.02583 374.37399 368.50888 478.03053 542.15994 657.62830 896.15197 1081.56771 1136.49449 1147.31284 1180.83457 1171.83125 1182.02140 1174.53372 1178.35710 1187.20775 1179.99763 1173.21139 1115.22708 1013.63826 821.34524 713.56957 480.83420 367.76968 197.45641 102.33664 73.88498 41.22394 40.72881 40.80455 40.69629 34.03711 35.07327 30.89109 34.18756 37.07461 28.91540 26.50887 28.72187 32.82501 25.04750 30.40781 38.05392 54.34789 75.08634 91.69724 110.76709 111.85164 133.41849 130.38625 145.93254 146.09916 141.67080 128.18901 114.02521 102.17332 106.43890 102.93026 99.40266 102.38277 89.28619 50.61063 7.36691 -96.73629 -150.64044 -218.04897 -547.97616 -1490.77608 -2474.20039 -3366.79874 -3921.49539 -3986.32647 -4007.37317 -4001.62112 -4004.92918 -4013.40662 -4006.66990 -4015.98537 -4012.26068 -4000.35796 -4009.22676 -4012.85418 -4016.98656 -4008.73037 -4013.94197 -4010.72244 -4017.14876 -4018.52529 -4019.91032 -4013.84549 -4017.40987 -4018.61970 -4024.11886 -4019.38544
-4003.52928 -3998.46531 -3949.20212 -3942.93806 -4004.64082 -4039.50650 -4042.84110 -4084.44757 -4088.59449 -4088.06957 -4104.21791 -4090.58137 -4097.43124 -4099.28902 -4090.80547 -4092.28405 -4090.94312 -4017.49780 -3710.42053 -2873.01477 -2017.05904 -899.23029 -448.81743 -268.35396 -174.10908 -96.44633 153.08401 432.16841 556.44313 742.91230 793.76806 897.91928 1039.33539 1113.12774 1148.41399 1157.41950 1155.72415 1163.72169 1160.16871 1166.09478 1167.57309 1162.27420 1151.62501 1124.36167 1041.10254 925.83404 721.17214 554.91159 388.77911 325.11549 306.18241 313.91407 366.17801 433.41852 596.05869 744.39179 951.76140 1079.71934 1158.56121 1173.80473 1175.35577 1173.22738 1172.55352 1176.73466 1189.20973 1182.28300 1184.77460 1162.97102 1110.15297 1049.03584 948.60992 713.06076 626.45451 457.51608 239.90675 132.13675 58.61989 46.84778 39.08776 42.22762 35.16467 43.79759 43.38638 42.23279 31.66339 32.10977 32.67850 30.77492 27.69294 37.06351 36.91296 37.37335 52.26293 77.77851 96.85095 124.52554 131.16910 129.20883 148.77061 152.96069 157.80679 151.30133 129.75664 126.04339 103.24063 95.82489 103.07038 97.64234 105.77931 105.37104 77.54347 -23.57046 -81.44787 -172.43146 -252.03750 -869.50395 -1696.14612 -2868.75386 -3670.49784 -3883.85625 -3993.04286 -4011.40709 -4012.75008 -4005.54551 -4003.93663 -4008.17038 -4008.01231 -4008.08631 -4012.18602 -4019.92089 -4012.85574 -4013.22181 -4016.33061 -4014.06226 -4017.66725 -4020.20528 -4020.08105 -4023.37215 -4016.79567 -4016.81914 -4024.92999 -4028.04731 -4024.08905
-4105.12814 -4101.30048 -4088.45419 -4081.81286 -4086.89108 -4093.89081 -4093.65419 -4098.85983 -4099.32928 -4098.99785 -4100.44870 -4099.84054 -4093.73309 -4089.30340 -4094.35931 -4089.19558 -4080.71303 -4021.79187 -3670.16984 -3253.38123 -1947.37259 -962.47352 -445.46634 -283.70059 -216.06229 -206.20949 -51.94193 198.72220 416.42585 621.93110 742.92802 879.48847 1017.47441 1082.96740 1120.66850 1117.99492 1118.39649 1142.88587 1143.89097 1149.49702 1138.42181 1134.28312 1110.65041 1067.87279 975.51135 855.16732 715.35899 520.79565 395.80353 312.35443 307.22431 308.69306 334.28962 388.82211 488.18819 647.76665 836.04646 1066.13424 1162.72074 1167.02504 1177.33202 1177.48793 1172.63541 1182.00152 1177.88319 1175.15656 1175.38135 1174.13872 1162.65766 1153.33556 1120.34497 1088.75696 931.91266 595.95024 394.82785 164.92998 89.61924 74.04727 54.51455 36.93446 46.35690 42.41012 45.13901 39.82544 35.70276 31.06220 31.55599 34.81280 33.17264 25.90100 32.12490 46.25183 63.38446 87.40626 102.15358 122.27458 135.52851 146.19578 167.29700 175.95459 178.86203 163.34606 134.89171 126.75313 109.81584 104.42789 97.39626 105.88359 99.95003 108.43553 77.07376 -2.28691 -56.35629 -110.38550 -269.30120 -757.65289 -2013.98197 -3125.92693 -3607.84472 -3959.95381 -4004.24143 -4004.31178 -4007.85463 -4008.07469 -4003.47915 -4008.35857 -4011.75405 -4008.39318 -4017.55726 -4010.23591 -4014.13429 -4014.71476 -4017.33340 -4023.58399 -4025.12564 -4012.36563 -4015.64626 -4027.41847 -4022.49688 -4026.08212 -4030.41479 -4025.97920 -4027.20299
-4101.23111 -4104.28802 -4101.17866 -4092.87645 -4097.15157 -4089.26782 -4100.75250 -4097.14773 -4098.04406 -4097.25576 -4098.22865 -4096.84056 -4103.45413 -4095.52265 -4093.36111 -4089.66900 -4073.22050 -3893.45539 -3595.63751 -2898.62998 -1819.63851 -840.77758 -461.00812 -289.43102 -264.05438 -240.71110 -118.13708 29.59927 235.26186 464.40508 627.75439 833.31206 927.65763 1005.03455 1063.36435 1070.49122 1071.37001 1079.69810 1094.64696 1098.31093 1075.89908 1053.33447 1052.16573 958.02504 892.60523 801.56027 679.47764 490.48300 372.07821 309.06754 311.65580 306.43764 304.03774 313.59088 347.80128 561.88124 772.39568 1024.52022 1139.47095 1169.63686 1175.39945 1171.62241 1173.98287 1176.74075 1181.50637 1182.48847 1187.17283 1177.06898 1184.00000 1172.46467 1164.28211 1130.06285 1070.02446 825.52122 463.56973 256.85845 163.04289 113.26429 88.92508 65.72893 68.90529 67.05279 56.12465 47.62224 32.98197 34.88925 35.69651 30.21245 37.27996 33.00264 34.78646 47.81045 64.17771 92.83867 111.11916 123.71630 144.13642 175.82645 187.39417 242.22110 261.93996 206.64814 152.14769 125.97123 108.10312 94.67717 92.85796 103.84020 97.70734 98.99159 84.93211 42.93419 -34.89919 -111.42401 -401.98126 -799.31818 -2142.19933 -2927.14152 -3723.64393 -3951.24895 -4001.38719 -4006.49089 -4001.26015 -4006.62581 -4004.34984 -4012.50860 -4011.28489 -4011.45408 -4020.14545 -4019.47729 -4008.36585 -4019.19530 -4017.28332 -4015.52064 -4026.61129 -4016.07162 -4016.60480 -4023.30057 -4017.75335 -4031.12538 -4026.29965 -4029.90340 -4028.67304
-4097.92125 -4103.19644 -4098.88035 -4092.61266 -4107.39032 -4099.44390 -4099.41402 -4097.86690 -4099.48862 -4103.54357 -4091.33939 -4095.98388 -4095.44865 -4094.26190 -4090.84899 -4082.17038 -4059.34080 -3759.10910 -3335.22266 -2477.42005 -1362.12239 -806.86433 -422.01890 -298.13559 -276.29469 -252.60833 -187.62921 -150.16567 33.04870 207.59183 544.98514 714.96306 840.33037 921.51544 941.49821 992.18242 972.17292 975.16577 985.43953 987.36602 970.42266 958.71194 918.54697 818.33716 757.83139 683.84339 597.08214 452.58618 363.85564 319.32450 314.30944 307.52240 310.65452 311.17995 360.32953 496.64537 685.04126 977.19787 1049.05303 1143.61282 1160.00150 1172.02482 1172.13049 1183.60494 1175.39521 1177.70885 1182.16927 1173.87947 1178.12267 1163.20597 1145.87510 1101.99312 1041.89087 847.97788 538.75583 405.98426 297.64919 229.37961 176.56837 166.23192 115.25622 184.04077 122.15538 74.12095 42.90120 39.91940 35.87166 36.52516 37.71592 37.13863 40.05619 51.35517 65.29095 111.15118 118.87557 138.98130 147.10849 171.97004 231.80859 299.36613 312.97848 259.34753 138.69206 115.80874 108.38179 101.79907 100.60748 101.96203 100.45638 98.64793 103.00971 87.02284 0.95297 -92.52935 -185.25780 -755.70724 -1688.50923 -2718.33597 -3725.42313 -3938.93762 -3985.89006 -4011.83828 -4010.17045 -4002.33782 -4011.04543 -4011.14033 -4009.42871 -4003.17069 -4014.72317 -4020.32948 -4018.11485 -4019.58925 -4016.52864 -4025.71150 -4018.14271 -4020.08165 -4021.58253 -4024.85657 -4019.67951 -4024.31695 -4036.33323 -4036.89870 -4033.55911
