-2.000000000000000000e+02 -2.000000000000000000e+02 -2.000000000000000000e+02 -2.000000000000000000e+02 -1.999799999999999898e+02 -1.998199999999999932e+02 -2.008000000000000114e+02 -2.024900000000000091e+02 -2.039799999999999898e+02 -2.039199999999999875e+02 -2.035999999999999943e+02 -1.806599999999999966e+02 -7.518999999999999773e+01 1.726100000000000136e+02 4.757900000000000205e+02 6.660099999999999909e+02 6.848099999999999454e+02 5.973999999999999773e+02 5.475099999999999909e+02 6.018700000000000045e+02 7.021599999999999682e+02 7.708200000000000500e+02 7.955700000000000500e+02 8.000299999999999727e+02 8.000000000000000000e+02 7.999500000000000455e+02 8.011299999999999955e+02 8.108600000000000136e+02 8.428500000000000227e+02 9.090499999999999545e+02 1.005100000000000023e+03 1.104009999999999991e+03 1.169019999999999982e+03 1.194390000000000100e+03 1.203609999999999900e+03 1.212059999999999945e+03 1.216539999999999964e+03 1.211059999999999945e+03 1.201420000000000073e+03 1.176069999999999936e+03 1.086019999999999982e+03 9.240800000000000409e+02 7.920700000000000500e+02 7.372300000000000182e+02 7.178700000000000045e+02 7.060700000000000500e+02 7.007300000000000182e+02 6.999500000000000455e+02 7.000800000000000409e+02 7.002899999999999636e+02 7.006299999999999955e+02 7.037699999999999818e+02 7.148500000000000227e+02 7.430900000000000318e+02 7.875900000000000318e+02 8.248999999999999773e+02 8.231599999999999682e+02 7.432200000000000273e+02 5.464600000000000364e+02 3.123500000000000227e+02 1.687500000000000000e+02 1.043900000000000006e+02 7.206999999999999318e+01 5.678999999999999915e+01 4.902000000000000313e+01 4.182999999999999829e+01 3.561999999999999744e+01 3.175000000000000000e+01 3.030000000000000071e+01 3.007999999999999829e+01 3.032000000000000028e+01 3.076000000000000156e+01 3.037999999999999901e+01 2.698000000000000043e+01 2.107000000000000028e+01 1.574000000000000021e+01 1.255000000000000071e+01 1.141000000000000014e+01 1.477999999999999936e+01 2.937999999999999901e+01 6.072999999999999687e+01 1.073599999999999994e+02 1.604199999999999875e+02 2.037400000000000091e+02 2.197899999999999920e+02 1.993000000000000114e+02 1.694900000000000091e+02 1.574399999999999977e+02 1.450099999999999909e+02 1.020999999999999943e+02 5.277000000000000313e+01 2.862999999999999901e+01 2.176000000000000156e+01 2.023999999999999844e+01 2.007999999999999829e+01 2.210000000000000142e+01 3.089999999999999858e+01 4.831000000000000227e+01 6.520999999999999375e+01 7.651000000000000512e+01 8.476999999999999602e+01 9.295000000000000284e+01 1.093100000000000023e+02 1.374199999999999875e+02 1.320600000000000023e+02 3.289999999999999858e+01 -1.062900000000000063e+02 -1.819000000000000057e+02 -1.991100000000000136e+02 -1.986100000000000136e+02 -2.724200000000000159e+02 -7.251900000000000546e+02 -1.866069999999999936e+03 -3.171449999999999818e+03 -3.837800000000000182e+03 -3.992269999999999982e+03
-2.000000000000000000e+02 -1.999099999999999966e+02 -1.997100000000000080e+02 -1.998100000000000023e+02 -2.027400000000000091e+02 -2.145099999999999909e+02 -2.396999999999999886e+02 -2.700500000000000114e+02 -2.877099999999999795e+02 -2.939599999999999795e+02 -2.734499999999999886e+02 -1.989199999999999875e+02 -1.941000000000000014e+01 3.018700000000000045e+02 6.070299999999999727e+02 7.493099999999999454e+02 7.586299999999999955e+02 7.191100000000000136e+02 7.070399999999999636e+02 7.374099999999999682e+02 7.751499999999999773e+02 7.950399999999999636e+02 7.999500000000000455e+02 8.000000000000000000e+02 8.000000000000000000e+02 8.002100000000000364e+02 8.067799999999999727e+02 8.380099999999999909e+02 9.119900000000000091e+02 1.012919999999999959e+03 1.105230000000000018e+03 1.165799999999999955e+03 1.192569999999999936e+03 1.199519999999999982e+03 1.200210000000000036e+03 1.201200000000000045e+03 1.201849999999999909e+03 1.201079999999999927e+03 1.199619999999999891e+03 1.181500000000000000e+03 1.093460000000000036e+03 9.181100000000000136e+02 7.678099999999999454e+02 7.105599999999999454e+02 7.007899999999999636e+02 6.998700000000000045e+02 6.999800000000000182e+02 7.015700000000000500e+02 7.060700000000000500e+02 7.112699999999999818e+02 7.173300000000000409e+02 7.339800000000000182e+02 7.735900000000000318e+02 8.445399999999999636e+02 9.305499999999999545e+02 9.906200000000000045e+02 9.948400000000000318e+02 9.273700000000000045e+02 7.777599999999999909e+02 5.822500000000000000e+02 4.038100000000000023e+02 2.474399999999999977e+02 1.246200000000000045e+02 6.881000000000000227e+01 5.585000000000000142e+01 5.035000000000000142e+01 4.274000000000000199e+01 3.560000000000000142e+01 3.158999999999999986e+01 3.023999999999999844e+01 3.000000000000000000e+01 2.998999999999999844e+01 2.937999999999999901e+01 2.682000000000000028e+01 2.237999999999999901e+01 1.825000000000000000e+01 1.534999999999999964e+01 1.324000000000000021e+01 1.222000000000000064e+01 1.501999999999999957e+01 2.535999999999999943e+01 4.631000000000000227e+01 7.771999999999999886e+01 1.120900000000000034e+02 1.291899999999999977e+02 1.120600000000000023e+02 8.512000000000000455e+01 7.456000000000000227e+01 6.976999999999999602e+01 5.249000000000000199e+01 3.206000000000000227e+01 2.251000000000000156e+01 2.032000000000000028e+01 2.003000000000000114e+01 2.042000000000000171e+01 2.317999999999999972e+01 3.375999999999999801e+01 5.400000000000000000e+01 7.418999999999999773e+01 8.707999999999999829e+01 9.403000000000000114e+01 9.892000000000000171e+01 1.106800000000000068e+02 1.338300000000000125e+02 1.249099999999999966e+02 2.264000000000000057e+01 -1.129500000000000028e+02 -1.838400000000000034e+02 -1.994199999999999875e+02 -1.993000000000000114e+02 -2.481599999999999966e+02 -6.110399999999999636e+02 -1.664609999999999900e+03 -3.007199999999999818e+03 -3.782880000000000109e+03 -3.984920000000000073e+03
-2.000900000000000034e+02 -2.031800000000000068e+02 -2.160200000000000102e+02 -2.411100000000000136e+02 -2.777500000000000000e+02 -3.521700000000000159e+02 -4.733000000000000114e+02 -6.090199999999999818e+02 -6.889900000000000091e+02 -6.965800000000000409e+02 -6.037300000000000182e+02 -3.811100000000000136e+02 -5.307000000000000028e+01 3.473299999999999841e+02 6.557300000000000182e+02 7.754800000000000182e+02 7.917899999999999636e+02 7.824700000000000273e+02 7.815099999999999909e+02 7.892699999999999818e+02 7.970000000000000000e+02 7.998500000000000227e+02 8.000000000000000000e+02 8.000000000000000000e+02 7.999800000000000182e+02 8.018300000000000409e+02 8.202599999999999909e+02 8.861299999999999955e+02 1.000750000000000000e+03 1.107559999999999945e+03 1.168369999999999891e+03 1.192529999999999973e+03 1.199210000000000036e+03 1.200039999999999964e+03 1.200000000000000000e+03 1.200000000000000000e+03 1.199990000000000009e+03 1.199970000000000027e+03 1.199670000000000073e+03 1.185180000000000064e+03 1.105839999999999918e+03 9.321299999999999955e+02 7.722400000000000091e+02 7.097799999999999727e+02 7.001100000000000136e+02 6.999800000000000182e+02 7.013600000000000136e+02 7.124299999999999500e+02 7.399400000000000546e+02 7.691599999999999682e+02 7.918600000000000136e+02 8.321900000000000546e+02 9.038999999999999773e+02 9.970000000000000000e+02 1.082670000000000073e+03 1.130559999999999945e+03 1.135650000000000091e+03 1.101470000000000027e+03 1.029000000000000000e+03 9.186699999999999591e+02 7.516100000000000136e+02 4.926600000000000250e+02 2.210200000000000102e+02 8.703000000000000114e+01 5.978999999999999915e+01 5.639999999999999858e+01 5.056000000000000227e+01 4.225000000000000000e+01 3.502000000000000313e+01 3.125000000000000000e+01 3.012999999999999901e+01 2.998000000000000043e+01 2.962000000000000099e+01 2.801999999999999957e+01 2.475000000000000000e+01 2.119999999999999929e+01 1.850000000000000000e+01 1.625000000000000000e+01 1.433000000000000007e+01 1.371000000000000085e+01 1.598000000000000043e+01 2.212999999999999901e+01 3.272999999999999687e+01 4.671000000000000085e+01 5.531000000000000227e+01 4.835999999999999943e+01 3.620000000000000284e+01 3.137000000000000099e+01 3.053000000000000114e+01 2.712999999999999901e+01 2.287999999999999901e+01 2.123000000000000043e+01 2.132999999999999829e+01 2.194999999999999929e+01 2.382000000000000028e+01 2.935000000000000142e+01 4.302000000000000313e+01 6.501999999999999602e+01 8.464000000000000057e+01 9.484000000000000341e+01 9.850000000000000000e+01 1.004699999999999989e+02 1.085300000000000011e+02 1.268599999999999994e+02 1.146599999999999966e+02 1.371000000000000085e+01 -1.177999999999999972e+02 -1.854699999999999989e+02 -1.995999999999999943e+02 -1.998600000000000136e+02 -2.449099999999999966e+02 -5.976299999999999955e+02 -1.616759999999999991e+03 -2.953250000000000000e+03 -3.761079999999999927e+03 -3.979000000000000000e+03
-2.317700000000000102e+02 -2.750899999999999750e+02 -3.553600000000000136e+02 -4.765299999999999727e+02 -6.371799999999999500e+02 -8.588899999999999864e+02 -1.166789999999999964e+03 -1.473779999999999973e+03 -1.642559999999999945e+03 -1.644440000000000055e+03 -1.410519999999999982e+03 -9.164800000000000182e+02 -3.196600000000000250e+02 2.415600000000000023e+02 6.153500000000000227e+02 7.571799999999999500e+02 7.880800000000000409e+02 7.954800000000000182e+02 7.985299999999999727e+02 7.997999999999999545e+02 8.000700000000000500e+02 8.000000000000000000e+02 8.000000000000000000e+02 8.000000000000000000e+02 7.999199999999999591e+02 8.048999999999999773e+02 8.401200000000000045e+02 9.404299999999999500e+02 1.074660000000000082e+03 1.162230000000000018e+03 1.193059999999999945e+03 1.199440000000000055e+03 1.200039999999999964e+03 1.200000000000000000e+03 1.200000000000000000e+03 1.200000000000000000e+03 1.200000000000000000e+03 1.200000000000000000e+03 1.199759999999999991e+03 1.184519999999999982e+03 1.104910000000000082e+03 9.321599999999999682e+02 7.723999999999999773e+02 7.098400000000000318e+02 7.002699999999999818e+02 6.999299999999999500e+02 7.062699999999999818e+02 7.425599999999999454e+02 8.247999999999999545e+02 9.031699999999999591e+02 9.462799999999999727e+02 9.945199999999999818e+02 1.061450000000000045e+03 1.125569999999999936e+03 1.169180000000000064e+03 1.188160000000000082e+03 1.190309999999999945e+03 1.181730000000000018e+03 1.163160000000000082e+03 1.124059999999999945e+03 1.000350000000000023e+03 6.894600000000000364e+02 3.022799999999999727e+02 1.018700000000000045e+02 6.097999999999999687e+01 5.910000000000000142e+01 5.620000000000000284e+01 4.974000000000000199e+01 4.090999999999999659e+01 3.382000000000000028e+01 3.073999999999999844e+01 3.003999999999999915e+01 2.987000000000000099e+01 2.912999999999999901e+01 2.705000000000000071e+01 2.387999999999999901e+01 2.089999999999999858e+01 1.873999999999999844e+01 1.680000000000000071e+01 1.534999999999999964e+01 1.526999999999999957e+01 1.655000000000000071e+01 1.901000000000000156e+01 2.232999999999999829e+01 2.457999999999999829e+01 2.266000000000000014e+01 1.903999999999999915e+01 1.773000000000000043e+01 1.907000000000000028e+01 2.126999999999999957e+01 2.407000000000000028e+01 2.705000000000000071e+01 2.926000000000000156e+01 3.164999999999999858e+01 3.653000000000000114e+01 4.603000000000000114e+01 6.089999999999999858e+01 7.907999999999999829e+01 9.278000000000000114e+01 9.845000000000000284e+01 9.979000000000000625e+01 1.004099999999999966e+02 1.060100000000000051e+02 1.201700000000000017e+02 1.090199999999999960e+02 1.484999999999999964e+01 -1.154500000000000028e+02 -1.842500000000000000e+02 -1.995099999999999909e+02 -2.004000000000000057e+02 -2.722099999999999795e+02 -6.978700000000000045e+02 -1.772000000000000000e+03 -3.065769999999999982e+03 -3.791360000000000127e+03 -3.982860000000000127e+03
-4.469700000000000273e+02 -6.035900000000000318e+02 -8.577200000000000273e+02 -1.169569999999999936e+03 -1.508390000000000100e+03 -1.879230000000000018e+03 -2.292219999999999800e+03 -2.665800000000000182e+03 -2.846389999999999873e+03 -2.825909999999999854e+03 -2.518199999999999818e+03 -1.834930000000000064e+03 -9.447500000000000000e+02 -1.109500000000000028e+02 4.264100000000000250e+02 6.472200000000000273e+02 7.240900000000000318e+02 7.663200000000000500e+02 7.889400000000000546e+02 7.977400000000000091e+02 8.002200000000000273e+02 8.000299999999999727e+02 8.000000000000000000e+02 8.000000000000000000e+02 8.000000000000000000e+02 8.098700000000000045e+02 8.625000000000000000e+02 9.857400000000000091e+02 1.118519999999999982e+03 1.184319999999999936e+03 1.199269999999999982e+03 1.200000000000000000e+03 1.200000000000000000e+03 1.200000000000000000e+03 1.200000000000000000e+03 1.200000000000000000e+03 1.200000000000000000e+03 1.200009999999999991e+03 1.199140000000000100e+03 1.178099999999999909e+03 1.083400000000000091e+03 9.044400000000000546e+02 7.579400000000000546e+02 7.066100000000000136e+02 7.000099999999999909e+02 7.003999999999999773e+02 7.132300000000000182e+02 7.806599999999999682e+02 9.238099999999999454e+02 1.049759999999999991e+03 1.102509999999999991e+03 1.131750000000000000e+03 1.162099999999999909e+03 1.184680000000000064e+03 1.195880000000000109e+03 1.199710000000000036e+03 1.199940000000000055e+03 1.199220000000000027e+03 1.197980000000000018e+03 1.185900000000000091e+03 1.089619999999999891e+03 7.722100000000000364e+02 3.442699999999999818e+02 1.121599999999999966e+02 6.142000000000000171e+01 5.984000000000000341e+01 5.892999999999999972e+01 5.536999999999999744e+01 4.765999999999999659e+01 3.847999999999999687e+01 3.260999999999999943e+01 3.048000000000000043e+01 3.001000000000000156e+01 2.973999999999999844e+01 2.867000000000000171e+01 2.607000000000000028e+01 2.264999999999999858e+01 2.014000000000000057e+01 1.835000000000000142e+01 1.660000000000000142e+01 1.558999999999999986e+01 1.563000000000000078e+01 1.612000000000000099e+01 1.676999999999999957e+01 1.701000000000000156e+01 1.607999999999999829e+01 1.464000000000000057e+01 1.477999999999999936e+01 1.819000000000000128e+01 2.533999999999999986e+01 3.568999999999999773e+01 4.503000000000000114e+01 5.042999999999999972e+01 5.439000000000000057e+01 6.067000000000000171e+01 7.062000000000000455e+01 8.175000000000000000e+01 9.160999999999999943e+01 9.764000000000000057e+01 9.968000000000000682e+01 1.000000000000000000e+02 1.001700000000000017e+02 1.039200000000000017e+02 1.146400000000000006e+02 1.073299999999999983e+02 2.407999999999999829e+01 -1.048199999999999932e+02 -1.800500000000000114e+02 -1.989199999999999875e+02 -2.060000000000000000e+02 -3.318799999999999955e+02 -8.933700000000000045e+02 -2.078960000000000036e+03 -3.272340000000000146e+03 -3.856960000000000036e+03 -3.991570000000000164e+03
-1.097950000000000045e+03 -1.419579999999999927e+03 -1.843319999999999936e+03 -2.294409999999999854e+03 -2.679449999999999818e+03 -3.016619999999999891e+03 -3.320340000000000146e+03 -3.552699999999999818e+03 -3.660769999999999982e+03 -3.635420000000000073e+03 -3.398849999999999909e+03 -2.803539999999999964e+03 -1.835470000000000027e+03 -7.387100000000000364e+02 3.746000000000000085e+01 3.879800000000000182e+02 5.429400000000000546e+02 6.522699999999999818e+02 7.296699999999999591e+02 7.732000000000000455e+02 7.926000000000000227e+02 7.992200000000000273e+02 8.000000000000000000e+02 7.999900000000000091e+02 8.019400000000000546e+02 8.212999999999999545e+02 8.936399999999999864e+02 1.026930000000000064e+03 1.144400000000000091e+03 1.192089999999999918e+03 1.200109999999999900e+03 1.200000000000000000e+03 1.200000000000000000e+03 1.200000000000000000e+03 1.200000000000000000e+03 1.200000000000000000e+03 1.200000000000000000e+03 1.200029999999999973e+03 1.197859999999999900e+03 1.167630000000000109e+03 1.052170000000000073e+03 8.652599999999999909e+02 7.341399999999999864e+02 6.948600000000000136e+02 6.919299999999999500e+02 6.950299999999999727e+02 7.138799999999999955e+02 7.966699999999999591e+02 9.665700000000000500e+02 1.116440000000000055e+03 1.174490000000000009e+03 1.188589999999999918e+03 1.195119999999999891e+03 1.198980000000000018e+03 1.200000000000000000e+03 1.200000000000000000e+03 1.200000000000000000e+03 1.200019999999999982e+03 1.200029999999999973e+03 1.193960000000000036e+03 1.114690000000000055e+03 8.276100000000000136e+02 4.079300000000000068e+02 1.486299999999999955e+02 7.371999999999999886e+01 6.157999999999999829e+01 5.986999999999999744e+01 5.832000000000000028e+01 5.350000000000000000e+01 4.510999999999999943e+01 3.700999999999999801e+01 3.221999999999999886e+01 3.042999999999999972e+01 2.998000000000000043e+01 2.946000000000000085e+01 2.751999999999999957e+01 2.400000000000000000e+01 2.098999999999999844e+01 1.923999999999999844e+01 1.762000000000000099e+01 1.614000000000000057e+01 1.541000000000000014e+01 1.533999999999999986e+01 1.550999999999999979e+01 1.550999999999999979e+01 1.497000000000000064e+01 1.451999999999999957e+01 1.635999999999999943e+01 2.310999999999999943e+01 3.707000000000000028e+01 5.596000000000000085e+01 7.065999999999999659e+01 7.743000000000000682e+01 8.085999999999999943e+01 8.482999999999999829e+01 9.015999999999999659e+01 9.493999999999999773e+01 9.806999999999999318e+01 9.956999999999999318e+01 9.998999999999999488e+01 1.000000000000000000e+02 1.000600000000000023e+02 1.020000000000000000e+02 1.089300000000000068e+02 1.024099999999999966e+02 3.035999999999999943e+01 -9.281000000000000227e+01 -1.748199999999999932e+02 -1.977700000000000102e+02 -2.245500000000000114e+02 -4.364800000000000182e+02 -1.178019999999999982e+03 -2.434909999999999854e+03 -3.485679999999999836e+03 -3.916969999999999800e+03 -3.998170000000000073e+03
-2.204730000000000018e+03 -2.564980000000000018e+03 -2.960079999999999927e+03 -3.307619999999999891e+03 -3.554429999999999836e+03 -3.720530000000000200e+03 -3.841960000000000036e+03 -3.918460000000000036e+03 -3.950710000000000036e+03 -3.940139999999999873e+03 -3.834070000000000164e+03 -3.475940000000000055e+03 -2.653829999999999927e+03 -1.463089999999999918e+03 -4.614700000000000273e+02 3.235999999999999943e+01 2.531899999999999977e+02 4.157799999999999727e+02 5.625499999999999545e+02 6.757599999999999909e+02 7.495900000000000318e+02 7.866599999999999682e+02 7.987699999999999818e+02 8.003400000000000318e+02 8.077699999999999818e+02 8.465900000000000318e+02 9.450099999999999909e+02 1.076569999999999936e+03 1.166279999999999973e+03 1.196119999999999891e+03 1.200029999999999973e+03 1.200000000000000000e+03 1.200000000000000000e+03 1.200000000000000000e+03 1.200000000000000000e+03 1.200000000000000000e+03 1.200000000000000000e+03 1.200039999999999964e+03 1.193920000000000073e+03 1.148859999999999900e+03 1.010399999999999977e+03 8.150499999999999545e+02 6.862799999999999727e+02 6.465499999999999545e+02 6.471100000000000136e+02 6.598600000000000136e+02 6.899500000000000455e+02 7.720000000000000000e+02 9.348999999999999773e+02 1.099119999999999891e+03 1.178759999999999991e+03 1.197910000000000082e+03 1.200069999999999936e+03 1.200019999999999982e+03 1.200000000000000000e+03 1.200000000000000000e+03 1.200000000000000000e+03 1.200000000000000000e+03 1.200000000000000000e+03 1.196440000000000055e+03 1.143410000000000082e+03 9.308500000000000227e+02 5.696200000000000045e+02 2.815600000000000023e+02 1.449799999999999898e+02 9.134999999999999432e+01 7.029000000000000625e+01 6.181000000000000227e+01 5.756000000000000227e+01 5.211999999999999744e+01 4.409000000000000341e+01 3.657000000000000028e+01 3.209000000000000341e+01 3.039999999999999858e+01 2.978000000000000114e+01 2.839999999999999858e+01 2.519000000000000128e+01 2.183999999999999986e+01 1.994000000000000128e+01 1.860999999999999943e+01 1.710000000000000142e+01 1.590000000000000036e+01 1.540000000000000036e+01 1.541999999999999993e+01 1.568999999999999950e+01 1.625000000000000000e+01 1.810999999999999943e+01 2.358999999999999986e+01 3.552000000000000313e+01 5.525000000000000000e+01 7.653000000000000114e+01 8.962999999999999545e+01 9.421999999999999886e+01 9.565999999999999659e+01 9.685999999999999943e+01 9.828000000000000114e+01 9.937999999999999545e+01 9.987000000000000455e+01 9.998999999999999488e+01 1.000000000000000000e+02 1.000000000000000000e+02 1.000000000000000000e+02 1.006700000000000017e+02 1.035199999999999960e+02 9.409999999999999432e+01 3.094999999999999929e+01 -8.426999999999999602e+01 -1.698400000000000034e+02 -1.984600000000000080e+02 -2.648600000000000136e+02 -6.233899999999999864e+02 -1.562140000000000100e+03 -2.816949999999999818e+03 -3.670340000000000146e+03 -3.956059999999999945e+03 -4.000139999999999873e+03
-3.259139999999999873e+03 -3.478500000000000000e+03 -3.681469999999999800e+03 -3.831179999999999836e+03 -3.916250000000000000e+03 -3.960789999999999964e+03 -3.983179999999999836e+03 -3.996250000000000000e+03 -4.000670000000000073e+03 -4.000030000000000200e+03 -3.968360000000000127e+03 -3.794579999999999927e+03 -3.209699999999999818e+03 -2.091840000000000146e+03 -9.404299999999999500e+02 -2.808500000000000227e+02 -2.637000000000000099e+01 1.239099999999999966e+02 2.878199999999999932e+02 4.643600000000000136e+02 6.269299999999999500e+02 7.394099999999999682e+02 7.881599999999999682e+02 8.007599999999999909e+02 8.185700000000000500e+02 8.855199999999999818e+02 1.009179999999999950e+03 1.126690000000000055e+03 1.184519999999999982e+03 1.198740000000000009e+03 1.200029999999999973e+03 1.200000000000000000e+03 1.200000000000000000e+03 1.200000000000000000e+03 1.200000000000000000e+03 1.200000000000000000e+03 1.200009999999999991e+03 1.198460000000000036e+03 1.182130000000000109e+03 1.109119999999999891e+03 9.393300000000000409e+02 7.279900000000000091e+02 5.847599999999999909e+02 5.335800000000000409e+02 5.352400000000000091e+02 5.636599999999999682e+02 6.166900000000000546e+02 7.034800000000000182e+02 8.501599999999999682e+02 1.025910000000000082e+03 1.147240000000000009e+03 1.192029999999999973e+03 1.199789999999999964e+03 1.200000000000000000e+03 1.200000000000000000e+03 1.200000000000000000e+03 1.200000000000000000e+03 1.200000000000000000e+03 1.200000000000000000e+03 1.199220000000000027e+03 1.174859999999999900e+03 1.062650000000000091e+03 8.278899999999999864e+02 5.667100000000000364e+02 3.623399999999999750e+02 2.251200000000000045e+02 1.422899999999999920e+02 9.240999999999999659e+01 6.650000000000000000e+01 5.713000000000000256e+01 5.160999999999999943e+01 4.367999999999999972e+01 3.632999999999999829e+01 3.203999999999999915e+01 3.033999999999999986e+01 2.910000000000000142e+01 2.651000000000000156e+01 2.305999999999999872e+01 2.067999999999999972e+01 1.946000000000000085e+01 1.828000000000000114e+01 1.707999999999999829e+01 1.637999999999999901e+01 1.637999999999999901e+01 1.710999999999999943e+01 1.925000000000000000e+01 2.512999999999999901e+01 3.696000000000000085e+01 5.474000000000000199e+01 7.490999999999999659e+01 9.040999999999999659e+01 9.753000000000000114e+01 9.939000000000000057e+01 9.962999999999999545e+01 9.982999999999999829e+01 9.989000000000000057e+01 1.000000000000000000e+02 1.000000000000000000e+02 1.000000000000000000e+02 1.000000000000000000e+02 1.000000000000000000e+02 1.000000000000000000e+02 1.000699999999999932e+02 1.005499999999999972e+02 8.909000000000000341e+01 3.218999999999999773e+01 -7.631999999999999318e+01 -1.640300000000000011e+02 -2.051699999999999875e+02 -3.439800000000000182e+02 -9.035499999999999545e+02 -2.029660000000000082e+03 -3.196590000000000146e+03 -3.815789999999999964e+03 -3.983539999999999964e+03 -4.000429999999999836e+03
-3.817409999999999854e+03 -3.891769999999999982e+03 -3.946699999999999818e+03 -3.981219999999999800e+03 -3.996010000000000218e+03 -3.999670000000000073e+03 -4.000480000000000018e+03 -4.000039999999999964e+03 -4.000000000000000000e+03 -4.000070000000000164e+03 -3.997909999999999854e+03 -3.919260000000000218e+03 -3.541650000000000091e+03 -2.610380000000000109e+03 -1.381990000000000009e+03 -5.273500000000000227e+02 -1.971200000000000045e+02 -8.646999999999999886e+01 2.033999999999999986e+01 1.895500000000000114e+02 4.171100000000000136e+02 6.309199999999999591e+02 7.545299999999999727e+02 7.975399999999999636e+02 8.311000000000000227e+02 9.231299999999999955e+02 1.061299999999999955e+03 1.160440000000000055e+03 1.194819999999999936e+03 1.200019999999999982e+03 1.200009999999999991e+03 1.200000000000000000e+03 1.200000000000000000e+03 1.200000000000000000e+03 1.200009999999999991e+03 1.200019999999999982e+03 1.199690000000000055e+03 1.192309999999999945e+03 1.154450000000000045e+03 1.044460000000000036e+03 8.481699999999999591e+02 6.236799999999999500e+02 4.648500000000000227e+02 4.027400000000000091e+02 4.007500000000000000e+02 4.318899999999999864e+02 4.951499999999999773e+02 5.898300000000000409e+02 7.302000000000000455e+02 9.200499999999999545e+02 1.094349999999999909e+03 1.180200000000000045e+03 1.199009999999999991e+03 1.200000000000000000e+03 1.200000000000000000e+03 1.200000000000000000e+03 1.200000000000000000e+03 1.200000000000000000e+03 1.200000000000000000e+03 1.200009999999999991e+03 1.193900000000000091e+03 1.156829999999999927e+03 1.058230000000000018e+03 9.025000000000000000e+02 7.157699999999999818e+02 5.304400000000000546e+02 3.650500000000000114e+02 2.128000000000000114e+02 1.076500000000000057e+02 6.648000000000000398e+01 5.686999999999999744e+01 5.129999999999999716e+01 4.345000000000000284e+01 3.650999999999999801e+01 3.253999999999999915e+01 3.046999999999999886e+01 2.814999999999999858e+01 2.471000000000000085e+01 2.162999999999999901e+01 2.008999999999999986e+01 1.930999999999999872e+01 1.857000000000000028e+01 1.801999999999999957e+01 1.803000000000000114e+01 1.901000000000000156e+01 2.291000000000000014e+01 3.378000000000000114e+01 5.240999999999999659e+01 7.335999999999999943e+01 8.921999999999999886e+01 9.715999999999999659e+01 9.962999999999999545e+01 1.001500000000000057e+02 1.013299999999999983e+02 1.023599999999999994e+02 1.014899999999999949e+02 1.002099999999999937e+02 1.000000000000000000e+02 1.000000000000000000e+02 1.000000000000000000e+02 1.000000000000000000e+02 1.000000000000000000e+02 1.000000000000000000e+02 9.973999999999999488e+01 8.920999999999999375e+01 3.853999999999999915e+01 -6.442000000000000171e+01 -1.555699999999999932e+02 -2.216299999999999955e+02 -4.612900000000000205e+02 -1.235839999999999918e+03 -2.489590000000000146e+03 -3.497409999999999854e+03 -3.913900000000000091e+03 -3.997010000000000218e+03 -4.000000000000000000e+03
-3.980170000000000073e+03 -3.991570000000000164e+03 -3.998750000000000000e+03 -4.000260000000000218e+03 -4.000079999999999927e+03 -3.999989999999999782e+03 -4.000000000000000000e+03 -4.000000000000000000e+03 -4.000000000000000000e+03 -3.999989999999999782e+03 -3.999909999999999854e+03 -3.970659999999999854e+03 -3.738619999999999891e+03 -2.998920000000000073e+03 -1.776470000000000027e+03 -7.365800000000000409e+02 -2.879399999999999977e+02 -1.810900000000000034e+02 -1.330800000000000125e+02 -2.585000000000000142e+01 1.879199999999999875e+02 4.656100000000000136e+02 6.785599999999999454e+02 7.766900000000000546e+02 8.353400000000000318e+02 9.426900000000000546e+02 1.083730000000000018e+03 1.171359999999999900e+03 1.196960000000000036e+03 1.199470000000000027e+03 1.199789999999999964e+03 1.200039999999999964e+03 1.200150000000000091e+03 1.199940000000000055e+03 1.199660000000000082e+03 1.199539999999999964e+03 1.195700000000000045e+03 1.173369999999999891e+03 1.103759999999999991e+03 9.677400000000000091e+02 7.784400000000000546e+02 5.667500000000000000e+02 4.037599999999999909e+02 3.345199999999999818e+02 3.241800000000000068e+02 3.405000000000000000e+02 3.822799999999999727e+02 4.597300000000000182e+02 5.925000000000000000e+02 8.010700000000000500e+02 1.030549999999999955e+03 1.163180000000000064e+03 1.197599999999999909e+03 1.200029999999999973e+03 1.200000000000000000e+03 1.200000000000000000e+03 1.200000000000000000e+03 1.200000000000000000e+03 1.200000000000000000e+03 1.200000000000000000e+03 1.199730000000000018e+03 1.193680000000000064e+03 1.170640000000000100e+03 1.117099999999999909e+03 1.023350000000000023e+03 8.920599999999999454e+02 7.101599999999999682e+02 4.563999999999999773e+02 2.175200000000000102e+02 9.385999999999999943e+01 6.153999999999999915e+01 5.652000000000000313e+01 5.129999999999999716e+01 4.438000000000000256e+01 3.853999999999999915e+01 3.447999999999999687e+01 3.112000000000000099e+01 2.712999999999999901e+01 2.305000000000000071e+01 2.064999999999999858e+01 1.989000000000000057e+01 1.958999999999999986e+01 1.935999999999999943e+01 1.937000000000000099e+01 2.046999999999999886e+01 2.596999999999999886e+01 4.078000000000000114e+01 6.299000000000000199e+01 8.387999999999999545e+01 9.573000000000000398e+01 9.943999999999999773e+01 1.000400000000000063e+02 1.032600000000000051e+02 1.127399999999999949e+02 1.196299999999999955e+02 1.125100000000000051e+02 1.030000000000000000e+02 1.000900000000000034e+02 1.000000000000000000e+02 1.000000000000000000e+02 1.000000000000000000e+02 1.000000000000000000e+02 1.000000000000000000e+02 9.989000000000000057e+01 9.164000000000000057e+01 4.815999999999999659e+01 -4.827000000000000313e+01 -1.462800000000000011e+02 -2.433700000000000045e+02 -5.940800000000000409e+02 -1.558769999999999982e+03 -2.846260000000000218e+03 -3.691969999999999800e+03 -3.964219999999999800e+03 -4.000079999999999927e+03 -4.000000000000000000e+03
-4.000349999999999909e+03 -4.000159999999999854e+03 -4.000000000000000000e+03 -4.000000000000000000e+03 -4.000000000000000000e+03 -4.000000000000000000e+03 -4.000000000000000000e+03 -4.000000000000000000e+03 -4.000000000000000000e+03 -4.000000000000000000e+03 -4.000309999999999945e+03 -3.980239999999999782e+03 -3.800840000000000146e+03 -3.161820000000000164e+03 -1.989019999999999982e+03 -8.661599999999999682e+02 -3.327200000000000273e+02 -2.079300000000000068e+02 -1.875699999999999932e+02 -1.380500000000000114e+02 8.759999999999999787e+00 2.721000000000000227e+02 5.377699999999999818e+02 7.054900000000000091e+02 8.098300000000000409e+02 9.288300000000000409e+02 1.065309999999999945e+03 1.151289999999999964e+03 1.180130000000000109e+03 1.186750000000000000e+03 1.189819999999999936e+03 1.192099999999999909e+03 1.193259999999999991e+03 1.192420000000000073e+03 1.190160000000000082e+03 1.187160000000000082e+03 1.173660000000000082e+03 1.125619999999999891e+03 1.026539999999999964e+03 8.943899999999999864e+02 7.474099999999999682e+02 5.711200000000000045e+02 4.066899999999999977e+02 3.228100000000000023e+02 3.033899999999999864e+02 3.063199999999999932e+02 3.217500000000000000e+02 3.623399999999999750e+02 4.633700000000000045e+02 6.726499999999999773e+02 9.485299999999999727e+02 1.134049999999999955e+03 1.193029999999999973e+03 1.200130000000000109e+03 1.200000000000000000e+03 1.200000000000000000e+03 1.200000000000000000e+03 1.200000000000000000e+03 1.200000000000000000e+03 1.200000000000000000e+03 1.200000000000000000e+03 1.200190000000000055e+03 1.198210000000000036e+03 1.189130000000000109e+03 1.165849999999999909e+03 1.116190000000000055e+03 9.939099999999999682e+02 7.284199999999999591e+02 3.808000000000000114e+02 1.485200000000000102e+02 7.473999999999999488e+01 6.235999999999999943e+01 5.786999999999999744e+01 5.285000000000000142e+01 4.760000000000000142e+01 4.257999999999999829e+01 3.753000000000000114e+01 3.189999999999999858e+01 2.598999999999999844e+01 2.185000000000000142e+01 2.026999999999999957e+01 1.994000000000000128e+01 1.989999999999999858e+01 1.994000000000000128e+01 2.128000000000000114e+01 2.812000000000000099e+01 4.477000000000000313e+01 6.739000000000000057e+01 8.718999999999999773e+01 9.734999999999999432e+01 9.981000000000000227e+01 1.014200000000000017e+02 1.162300000000000040e+02 1.537599999999999909e+02 1.769000000000000057e+02 1.474699999999999989e+02 1.125499999999999972e+02 1.007300000000000040e+02 9.998999999999999488e+01 1.000000000000000000e+02 1.000000000000000000e+02 1.000000000000000000e+02 1.000000000000000000e+02 1.000600000000000023e+02 9.420999999999999375e+01 5.945000000000000284e+01 -2.707000000000000028e+01 -1.295699999999999932e+02 -2.551100000000000136e+02 -6.938500000000000227e+02 -1.773890000000000100e+03 -3.059820000000000164e+03 -3.791389999999999873e+03 -3.984230000000000018e+03 -4.000409999999999854e+03 -4.000000000000000000e+03
-4.000000000000000000e+03 -4.000000000000000000e+03 -4.000000000000000000e+03 -4.000000000000000000e+03 -4.000000000000000000e+03 -4.000000000000000000e+03 -4.000000000000000000e+03 -4.000000000000000000e+03 -4.000000000000000000e+03 -4.000000000000000000e+03 -3.997030000000000200e+03 -3.939400000000000091e+03 -3.666230000000000018e+03 -2.950750000000000000e+03 -1.826079999999999927e+03 -8.123099999999999454e+02 -3.234800000000000182e+02 -2.090500000000000114e+02 -1.993799999999999955e+02 -1.811500000000000057e+02 -1.032099999999999937e+02 7.760999999999999943e+01 3.201700000000000159e+02 5.451299999999999955e+02 7.258400000000000318e+02 8.701100000000000136e+02 9.952200000000000273e+02 1.078470000000000027e+03 1.114539999999999964e+03 1.129259999999999991e+03 1.139259999999999991e+03 1.147970000000000027e+03 1.153150000000000091e+03 1.150579999999999927e+03 1.141289999999999964e+03 1.131019999999999982e+03 1.104970000000000027e+03 1.036609999999999900e+03 9.311499999999999773e+02 8.255900000000000318e+02 7.155099999999999909e+02 5.682699999999999818e+02 4.140500000000000114e+02 3.253899999999999864e+02 3.022200000000000273e+02 3.000799999999999841e+02 3.030500000000000114e+02 3.165600000000000023e+02 3.764499999999999886e+02 5.543899999999999864e+02 8.454299999999999500e+02 1.083799999999999955e+03 1.180269999999999982e+03 1.199019999999999982e+03 1.200059999999999945e+03 1.200000000000000000e+03 1.200000000000000000e+03 1.200000000000000000e+03 1.200000000000000000e+03 1.200000000000000000e+03 1.200000000000000000e+03 1.200000000000000000e+03 1.200000000000000000e+03 1.199769999999999982e+03 1.194789999999999964e+03 1.176970000000000027e+03 1.102900000000000091e+03 8.827200000000000273e+02 5.197200000000000273e+02 2.350099999999999909e+02 1.280300000000000011e+02 9.693999999999999773e+01 7.914000000000000057e+01 6.753000000000000114e+01 6.393999999999999773e+01 6.253000000000000114e+01 5.564000000000000057e+01 4.352000000000000313e+01 3.261999999999999744e+01 2.542000000000000171e+01 2.157000000000000028e+01 2.026999999999999957e+01 2.000000000000000000e+01 2.007999999999999829e+01 2.192000000000000171e+01 3.016000000000000014e+01 4.782999999999999829e+01 6.995000000000000284e+01 8.851000000000000512e+01 9.770000000000000284e+01 9.987999999999999545e+01 1.071800000000000068e+02 1.477599999999999909e+02 2.336399999999999864e+02 2.735400000000000205e+02 2.027100000000000080e+02 1.267699999999999960e+02 1.021400000000000006e+02 9.998000000000000398e+01 1.000000000000000000e+02 1.000000000000000000e+02 1.000000000000000000e+02 1.000000000000000000e+02 1.000499999999999972e+02 9.665999999999999659e+01 7.237999999999999545e+01 9.499999999999999556e-01 -1.006700000000000017e+02 -2.432500000000000000e+02 -7.016699999999999591e+02 -1.800579999999999927e+03 -3.098820000000000164e+03 -3.807559999999999945e+03 -3.989300000000000182e+03 -4.000139999999999873e+03 -4.000000000000000000e+03
-4.000000000000000000e+03 -4.000000000000000000e+03 -4.000000000000000000e+03 -4.000000000000000000e+03 -4.000000000000000000e+03 -4.000000000000000000e+03 -4.000000000000000000e+03 -4.000000000000000000e+03 -4.000000000000000000e+03 -4.000059999999999945e+03 -3.982269999999999982e+03 -3.832239999999999782e+03 -3.313889999999999873e+03 -2.362000000000000000e+03 -1.302619999999999891e+03 -5.742899999999999636e+02 -2.703799999999999955e+02 -2.040500000000000114e+02 -2.000200000000000102e+02 -1.954799999999999898e+02 -1.662700000000000102e+02 -8.076000000000000512e+01 7.959000000000000341e+01 3.150400000000000205e+02 5.761000000000000227e+02 7.722699999999999818e+02 8.908600000000000136e+02 9.566799999999999500e+02 9.889099999999999682e+02 1.007889999999999986e+03 1.023750000000000000e+03 1.037970000000000027e+03 1.046859999999999900e+03 1.042619999999999891e+03 1.026200000000000045e+03 1.009220000000000027e+03 9.782999999999999545e+02 9.134199999999999591e+02 8.279400000000000546e+02 7.402100000000000364e+02 6.349299999999999500e+02 5.081000000000000227e+02 3.892400000000000091e+02 3.205899999999999750e+02 3.017799999999999727e+02 3.001100000000000136e+02 3.007400000000000091e+02 3.069300000000000068e+02 3.470199999999999818e+02 4.896299999999999955e+02 7.555700000000000500e+02 1.012580000000000041e+03 1.148259999999999991e+03 1.190200000000000045e+03 1.198819999999999936e+03 1.199990000000000009e+03 1.200000000000000000e+03 1.200000000000000000e+03 1.200000000000000000e+03 1.200000000000000000e+03 1.200009999999999991e+03 1.200019999999999982e+03 1.199339999999999918e+03 1.193329999999999927e+03 1.174880000000000109e+03 1.137150000000000091e+03 1.057369999999999891e+03 8.803200000000000500e+02 6.032999999999999545e+02 3.793199999999999932e+02 2.771100000000000136e+02 2.172800000000000011e+02 1.651699999999999875e+02 1.312599999999999909e+02 1.308499999999999943e+02 1.392199999999999989e+02 1.167999999999999972e+02 7.443999999999999773e+01 4.629999999999999716e+01 3.331000000000000227e+01 2.583999999999999986e+01 2.189000000000000057e+01 2.053000000000000114e+01 2.050000000000000000e+01 2.307000000000000028e+01 3.282000000000000028e+01 5.134000000000000341e+01 7.298999999999999488e+01 9.017000000000000171e+01 9.812000000000000455e+01 1.010699999999999932e+02 1.213799999999999955e+02 2.014099999999999966e+02 3.285000000000000000e+02 3.560299999999999727e+02 2.388300000000000125e+02 1.340600000000000023e+02 1.026599999999999966e+02 9.998999999999999488e+01 1.000000000000000000e+02 1.000000000000000000e+02 1.000000000000000000e+02 1.000000000000000000e+02 1.000300000000000011e+02 9.868999999999999773e+01 8.420000000000000284e+01 2.969000000000000128e+01 -6.734999999999999432e+01 -2.141299999999999955e+02 -6.292999999999999545e+02 -1.669210000000000036e+03 -2.975409999999999854e+03 -3.752059999999999945e+03 -3.978070000000000164e+03 -4.000610000000000127e+03 -4.000000000000000000e+03
-4.000000000000000000e+03 -4.000000000000000000e+03 -4.000000000000000000e+03 -4.000000000000000000e+03 -4.000000000000000000e+03 -4.000000000000000000e+03 -4.000000000000000000e+03 -4.000000000000000000e+03 -4.000000000000000000e+03 -4.000929999999999836e+03 -3.957239999999999782e+03 -3.686780000000000200e+03 -2.893170000000000073e+03 -1.724710000000000036e+03 -7.888400000000000318e+02 -3.495199999999999818e+02 -2.204199999999999875e+02 -2.005099999999999909e+02 -2.000099999999999909e+02 -1.995800000000000125e+02 -1.933799999999999955e+02 -1.667599999999999909e+02 -8.634000000000000341e+01 1.017000000000000028e+02 3.887599999999999909e+02 6.473899999999999864e+02 7.906299999999999955e+02 8.487699999999999818e+02 8.692100000000000364e+02 8.796399999999999864e+02 8.884900000000000091e+02 8.975299999999999727e+02 9.036900000000000546e+02 8.995399999999999636e+02 8.829199999999999591e+02 8.625399999999999636e+02 8.305900000000000318e+02 7.740499999999999545e+02 6.986900000000000546e+02 6.091200000000000045e+02 5.052900000000000205e+02 4.112400000000000091e+02 3.448299999999999841e+02 3.115299999999999727e+02 3.049700000000000273e+02 3.079399999999999977e+02 3.144200000000000159e+02 3.312400000000000091e+02 3.815000000000000000e+02 5.080600000000000023e+02 7.167300000000000182e+02 9.312000000000000455e+02 1.079640000000000100e+03 1.153970000000000027e+03 1.184039999999999964e+03 1.194710000000000036e+03 1.198349999999999909e+03 1.199680000000000064e+03 1.200140000000000100e+03 1.199579999999999927e+03 1.198619999999999891e+03 1.197559999999999945e+03 1.190930000000000064e+03 1.163619999999999891e+03 1.102470000000000027e+03 1.017279999999999973e+03 9.204199999999999591e+02 8.011000000000000227e+02 6.610499999999999545e+02 5.542799999999999727e+02 4.911800000000000068e+02 4.277099999999999795e+02 3.555899999999999750e+02 3.093500000000000227e+02 3.268899999999999864e+02 3.474300000000000068e+02 2.688299999999999841e+02 1.394199999999999875e+02 6.651999999999999602e+01 4.442000000000000171e+01 3.463000000000000256e+01 2.742000000000000171e+01 2.394000000000000128e+01 2.344000000000000128e+01 2.680000000000000071e+01 3.781000000000000227e+01 5.739000000000000057e+01 8.034000000000000341e+01 9.746999999999999886e+01 1.030699999999999932e+02 1.074099999999999966e+02 1.470600000000000023e+02 2.662500000000000000e+02 3.959200000000000159e+02 3.734399999999999977e+02 2.281599999999999966e+02 1.281699999999999875e+02 1.019200000000000017e+02 9.998000000000000398e+01 1.000000000000000000e+02 1.000000000000000000e+02 1.000000000000000000e+02 1.000000000000000000e+02 1.000000000000000000e+02 9.982999999999999829e+01 9.134000000000000341e+01 4.949000000000000199e+01 -4.253000000000000114e+01 -1.804099999999999966e+02 -5.197200000000000273e+02 -1.417000000000000000e+03 -2.671849999999999909e+03 -3.563949999999999818e+03 -3.907170000000000073e+03 -3.987199999999999818e+03 -4.000099999999999909e+03
-4.000000000000000000e+03 -4.000000000000000000e+03 -4.000000000000000000e+03 -4.000000000000000000e+03 -4.000000000000000000e+03 -4.000000000000000000e+03 -4.000000000000000000e+03 -4.000000000000000000e+03 -4.000000000000000000e+03 -4.000380000000000109e+03 -3.936409999999999854e+03 -3.581400000000000091e+03 -2.646429999999999836e+03 -1.418039999999999964e+03 -5.882500000000000000e+02 -2.741800000000000068e+02 -2.051200000000000045e+02 -1.996599999999999966e+02 -2.000000000000000000e+02 -2.000000000000000000e+02 -1.997700000000000102e+02 -1.950800000000000125e+02 -1.629000000000000057e+02 -4.535999999999999943e+01 1.962100000000000080e+02 4.825199999999999818e+02 6.872799999999999727e+02 7.812699999999999818e+02 8.024700000000000273e+02 7.934199999999999591e+02 7.786200000000000045e+02 7.683899999999999864e+02 7.649700000000000273e+02 7.624099999999999682e+02 7.477599999999999909e+02 7.186399999999999864e+02 6.727200000000000273e+02 6.066000000000000227e+02 5.299299999999999500e+02 4.525299999999999727e+02 3.834800000000000182e+02 3.384900000000000091e+02 3.193199999999999932e+02 3.196700000000000159e+02 3.333799999999999955e+02 3.516299999999999955e+02 3.732900000000000205e+02 4.142500000000000000e+02 4.929700000000000273e+02 6.177000000000000455e+02 7.597300000000000182e+02 8.808700000000000045e+02 9.831499999999999773e+02 1.066390000000000100e+03 1.124440000000000055e+03 1.157619999999999891e+03 1.175700000000000045e+03 1.185740000000000009e+03 1.188569999999999936e+03 1.184890000000000100e+03 1.177309999999999945e+03 1.169230000000000018e+03 1.148009999999999991e+03 1.084099999999999909e+03 9.748999999999999773e+02 8.658400000000000318e+02 7.876699999999999591e+02 7.331499999999999773e+02 6.914900000000000091e+02 6.638899999999999864e+02 6.412500000000000000e+02 6.066399999999999864e+02 5.654299999999999500e+02 5.597200000000000273e+02 6.159500000000000455e+02 6.269800000000000182e+02 4.596499999999999773e+02 2.155600000000000023e+02 8.620999999999999375e+01 5.442000000000000171e+01 4.600999999999999801e+01 3.836999999999999744e+01 3.350000000000000000e+01 3.250000000000000000e+01 3.639000000000000057e+01 5.038000000000000256e+01 7.892000000000000171e+01 1.140699999999999932e+02 1.357700000000000102e+02 1.330800000000000125e+02 1.283400000000000034e+02 1.790000000000000000e+02 3.081299999999999955e+02 3.931899999999999977e+02 3.179599999999999795e+02 1.838799999999999955e+02 1.154099999999999966e+02 1.005300000000000011e+02 9.998999999999999488e+01 1.000000000000000000e+02 1.000000000000000000e+02 1.000000000000000000e+02 1.000000000000000000e+02 1.000000000000000000e+02 1.000999999999999943e+02 9.446999999999999886e+01 6.052000000000000313e+01 -2.583999999999999986e+01 -1.478499999999999943e+02 -3.895500000000000114e+02 -1.037119999999999891e+03 -2.095329999999999927e+03 -3.074650000000000091e+03 -3.654119999999999891e+03 -3.909199999999999818e+03 -3.988300000000000182e+03
-4.000000000000000000e+03 -4.000000000000000000e+03 -4.000000000000000000e+03 -4.000000000000000000e+03 -4.000000000000000000e+03 -4.000000000000000000e+03 -4.000000000000000000e+03 -4.000000000000000000e+03 -4.000050000000000182e+03 -3.997670000000000073e+03 -3.933739999999999782e+03 -3.592039999999999964e+03 -2.735579999999999927e+03 -1.623180000000000064e+03 -8.157400000000000091e+02 -4.109100000000000250e+02 -2.554199999999999875e+02 -2.060999999999999943e+02 -1.998400000000000034e+02 -2.000000000000000000e+02 -1.999900000000000091e+02 -2.000300000000000011e+02 -1.896200000000000045e+02 -1.329699999999999989e+02 2.371000000000000085e+01 2.809499999999999886e+02 5.511900000000000546e+02 7.197300000000000182e+02 7.475900000000000318e+02 6.871799999999999500e+02 6.177300000000000182e+02 5.812400000000000091e+02 5.748899999999999864e+02 5.795800000000000409e+02 5.662500000000000000e+02 5.305199999999999818e+02 4.789300000000000068e+02 4.168700000000000045e+02 3.629200000000000159e+02 3.314100000000000250e+02 3.197799999999999727e+02 3.242300000000000182e+02 3.437900000000000205e+02 3.776499999999999773e+02 4.203199999999999932e+02 4.598799999999999955e+02 4.965699999999999932e+02 5.570199999999999818e+02 6.615599999999999454e+02 7.951599999999999682e+02 8.966599999999999682e+02 9.301100000000000136e+02 9.373600000000000136e+02 9.615299999999999727e+02 1.004549999999999955e+03 1.048789999999999964e+03 1.088230000000000018e+03 1.117349999999999909e+03 1.126089999999999918e+03 1.114670000000000073e+03 1.090420000000000073e+03 1.068250000000000000e+03 1.033299999999999955e+03 9.507699999999999818e+02 8.397500000000000000e+02 7.582599999999999909e+02 7.202300000000000182e+02 7.054600000000000364e+02 6.993700000000000045e+02 6.959099999999999682e+02 6.881399999999999864e+02 6.716399999999999864e+02 6.677899999999999636e+02 7.236699999999999591e+02 8.114099999999999682e+02 7.843500000000000227e+02 5.444299999999999500e+02 2.444699999999999989e+02 9.335999999999999943e+01 5.954999999999999716e+01 5.499000000000000199e+01 5.060000000000000142e+01 4.706000000000000227e+01 4.611999999999999744e+01 5.107999999999999829e+01 7.579999999999999716e+01 1.369300000000000068e+02 2.122500000000000000e+02 2.468700000000000045e+02 2.193199999999999932e+02 1.735200000000000102e+02 2.006299999999999955e+02 2.953000000000000114e+02 3.174399999999999977e+02 2.272700000000000102e+02 1.390000000000000000e+02 1.052199999999999989e+02 1.000100000000000051e+02 1.000000000000000000e+02 1.000000000000000000e+02 1.000000000000000000e+02 1.000000000000000000e+02 1.000000000000000000e+02 1.000000000000000000e+02 1.000799999999999983e+02 9.596999999999999886e+01 6.831999999999999318e+01 -1.077999999999999936e+01 -1.202099999999999937e+02 -2.681100000000000136e+02 -6.180700000000000500e+02 -1.315960000000000036e+03 -2.232269999999999982e+03 -3.089179999999999836e+03 -3.672510000000000218e+03 -3.930030000000000200e+03
-4.000000000000000000e+03 -4.000000000000000000e+03 -4.000000000000000000e+03 -4.000000000000000000e+03 -4.000000000000000000e+03 -4.000000000000000000e+03 -4.000000000000000000e+03 -4.000000000000000000e+03 -4.000000000000000000e+03 -3.998690000000000055e+03 -3.955480000000000018e+03 -3.731250000000000000e+03 -3.164389999999999873e+03 -2.345219999999999800e+03 -1.530400000000000091e+03 -8.593300000000000409e+02 -4.287200000000000273e+02 -2.433600000000000136e+02 -2.018600000000000136e+02 -1.999699999999999989e+02 -2.000000000000000000e+02 -2.000399999999999920e+02 -1.978700000000000045e+02 -1.786100000000000136e+02 -9.804999999999999716e+01 1.011700000000000017e+02 4.032099999999999795e+02 6.394400000000000546e+02 6.583799999999999955e+02 5.045299999999999727e+02 3.501600000000000250e+02 2.898299999999999841e+02 2.997500000000000000e+02 3.269700000000000273e+02 3.301399999999999864e+02 3.110400000000000205e+02 2.801000000000000227e+02 2.441699999999999875e+02 2.291100000000000136e+02 2.561999999999999886e+02 3.099800000000000182e+02 3.709300000000000068e+02 4.331600000000000250e+02 4.943600000000000136e+02 5.508099999999999454e+02 5.933500000000000227e+02 6.308400000000000318e+02 7.011900000000000546e+02 8.286200000000000045e+02 9.735299999999999727e+02 1.057750000000000000e+03 1.054480000000000018e+03 9.990099999999999909e+02 9.371200000000000045e+02 9.001200000000000045e+02 9.005700000000000500e+02 9.310299999999999727e+02 9.652000000000000455e+02 9.769500000000000455e+02 9.607300000000000182e+02 9.262400000000000091e+02 8.970599999999999454e+02 8.670199999999999818e+02 8.108400000000000318e+02 7.484500000000000455e+02 7.130700000000000500e+02 7.020499999999999545e+02 6.990000000000000000e+02 6.958700000000000045e+02 6.877599999999999909e+02 6.682999999999999545e+02 6.370800000000000409e+02 6.354800000000000182e+02 7.213999999999999773e+02 8.139500000000000455e+02 7.376599999999999682e+02 4.736000000000000227e+02 2.064399999999999977e+02 8.506000000000000227e+01 6.064000000000000057e+01 5.899000000000000199e+01 5.767999999999999972e+01 5.645000000000000284e+01 5.631000000000000227e+01 6.675000000000000000e+01 1.165699999999999932e+02 2.322400000000000091e+02 3.578399999999999750e+02 3.999700000000000273e+02 3.320899999999999750e+02 2.223799999999999955e+02 1.911699999999999875e+02 2.275000000000000000e+02 2.139000000000000057e+02 1.520800000000000125e+02 1.119399999999999977e+02 1.006800000000000068e+02 9.998999999999999488e+01 1.000000000000000000e+02 1.000000000000000000e+02 1.000000000000000000e+02 1.000000000000000000e+02 1.000000000000000000e+02 1.000000000000000000e+02 1.000300000000000011e+02 9.737999999999999545e+01 7.625000000000000000e+01 8.240000000000000213e+00 -9.350000000000000000e+01 -1.895099999999999909e+02 -3.307500000000000000e+02 -6.664199999999999591e+02 -1.329269999999999982e+03 -2.296460000000000036e+03 -3.246329999999999927e+03 -3.796869999999999891e+03
-4.000000000000000000e+03 -4.000000000000000000e+03 -4.000000000000000000e+03 -4.000000000000000000e+03 -4.000000000000000000e+03 -4.000000000000000000e+03 -4.000000000000000000e+03 -4.000000000000000000e+03 -4.000000000000000000e+03 -3.999679999999999836e+03 -3.983500000000000000e+03 -3.894190000000000055e+03 -3.644349999999999909e+03 -3.189119999999999891e+03 -2.494400000000000091e+03 -1.604029999999999973e+03 -7.947000000000000455e+02 -3.505000000000000000e+02 -2.158700000000000045e+02 -2.000099999999999909e+02 -2.000000000000000000e+02 -2.000000000000000000e+02 -1.999300000000000068e+02 -1.953300000000000125e+02 -1.559600000000000080e+02 -9.089999999999999858e+00 2.774499999999999886e+02 5.298799999999999955e+02 5.323799999999999955e+02 3.034700000000000273e+02 8.537000000000000455e+01 1.341999999999999993e+01 3.752000000000000313e+01 8.371999999999999886e+01 1.118299999999999983e+02 1.228400000000000034e+02 1.194599999999999937e+02 1.094500000000000028e+02 1.300000000000000000e+02 2.161399999999999864e+02 3.428799999999999955e+02 4.640500000000000114e+02 5.552799999999999727e+02 6.142999999999999545e+02 6.515700000000000500e+02 6.770499999999999545e+02 7.160199999999999818e+02 8.123200000000000500e+02 9.632200000000000273e+02 1.096589999999999918e+03 1.157670000000000073e+03 1.153559999999999945e+03 1.104579999999999927e+03 1.015490000000000009e+03 9.094900000000000091e+02 8.293400000000000318e+02 7.996299999999999955e+02 8.042400000000000091e+02 8.090299999999999727e+02 7.989900000000000091e+02 7.772000000000000455e+02 7.598500000000000227e+02 7.471699999999999591e+02 7.281100000000000136e+02 7.091900000000000546e+02 6.989400000000000546e+02 6.936799999999999500e+02 6.855000000000000000e+02 6.682699999999999818e+02 6.381299999999999955e+02 5.910000000000000000e+02 5.311599999999999682e+02 5.119900000000000091e+02 5.847999999999999545e+02 6.430099999999999909e+02 5.325199999999999818e+02 3.082400000000000091e+02 1.359099999999999966e+02 7.112000000000000455e+01 6.014000000000000057e+01 5.993999999999999773e+01 5.977000000000000313e+01 5.957999999999999829e+01 6.302000000000000313e+01 8.853000000000000114e+01 1.763799999999999955e+02 3.355799999999999841e+02 4.764100000000000250e+02 5.043600000000000136e+02 4.012200000000000273e+02 2.442100000000000080e+02 1.610900000000000034e+02 1.522100000000000080e+02 1.383100000000000023e+02 1.140600000000000023e+02 1.018100000000000023e+02 9.990000000000000568e+01 1.000000000000000000e+02 1.000000000000000000e+02 1.000000000000000000e+02 1.000000000000000000e+02 1.000000000000000000e+02 1.000000000000000000e+02 1.000000000000000000e+02 1.000000000000000000e+02 9.881999999999999318e+01 8.484000000000000341e+01 3.245000000000000284e+01 -6.203999999999999915e+01 -1.502899999999999920e+02 -2.135800000000000125e+02 -3.353199999999999932e+02 -7.292599999999999909e+02 -1.606900000000000091e+03 -2.777380000000000109e+03 -3.621610000000000127e+03
-4.000000000000000000e+03 -4.000000000000000000e+03 -4.000000000000000000e+03 -4.000000000000000000e+03 -4.000000000000000000e+03 -4.000000000000000000e+03 -4.000000000000000000e+03 -4.000000000000000000e+03 -4.000000000000000000e+03 -4.000010000000000218e+03 -3.997920000000000073e+03 -3.979559999999999945e+03 -3.913829999999999927e+03 -3.731130000000000109e+03 -3.269489999999999782e+03 -2.388199999999999818e+03 -1.303869999999999891e+03 -5.475199999999999818e+02 -2.575699999999999932e+02 -2.007599999999999909e+02 -2.000000000000000000e+02 -2.000000000000000000e+02 -2.000099999999999909e+02 -1.992100000000000080e+02 -1.786699999999999875e+02 -8.300000000000000000e+01 1.319000000000000057e+02 3.448199999999999932e+02 3.560699999999999932e+02 1.501399999999999864e+02 -5.975000000000000000e+01 -1.347800000000000011e+02 -1.214899999999999949e+02 -7.990999999999999659e+01 -3.522999999999999687e+01 2.910000000000000142e+00 2.264000000000000057e+01 3.556000000000000227e+01 8.998999999999999488e+01 2.295900000000000034e+02 4.132500000000000000e+02 5.624700000000000273e+02 6.452599999999999909e+02 6.787000000000000455e+02 6.925700000000000500e+02 7.107799999999999727e+02 7.722100000000000364e+02 9.064099999999999682e+02 1.062450000000000045e+03 1.160019999999999982e+03 1.192519999999999982e+03 1.192769999999999982e+03 1.171650000000000091e+03 1.115220000000000027e+03 1.008799999999999955e+03 8.731399999999999864e+02 7.686799999999999500e+02 7.288999999999999773e+02 7.223799999999999955e+02 7.193099999999999454e+02 7.130499999999999545e+02 7.075399999999999636e+02 7.025499999999999545e+02 6.949800000000000182e+02 6.844099999999999682e+02 6.725099999999999909e+02 6.558799999999999955e+02 6.280000000000000000e+02 5.848799999999999955e+02 5.282000000000000455e+02 4.666499999999999773e+02 4.074399999999999977e+02 3.789599999999999795e+02 3.953799999999999955e+02 3.868600000000000136e+02 2.871600000000000250e+02 1.588100000000000023e+02 8.387999999999999545e+01 6.217999999999999972e+01 5.992000000000000171e+01 6.000000000000000000e+01 5.999000000000000199e+01 6.078999999999999915e+01 7.320000000000000284e+01 1.301200000000000045e+02 2.626999999999999886e+02 4.308600000000000136e+02 5.424500000000000455e+02 5.444099999999999682e+02 4.282200000000000273e+02 2.540999999999999943e+02 1.440099999999999909e+02 1.138700000000000045e+02 1.072600000000000051e+02 1.019599999999999937e+02 9.995000000000000284e+01 1.000000000000000000e+02 1.000000000000000000e+02 1.000000000000000000e+02 1.000000000000000000e+02 1.000000000000000000e+02 1.000000000000000000e+02 1.000000000000000000e+02 1.000000000000000000e+02 1.000000000000000000e+02 9.976999999999999602e+01 9.190999999999999659e+01 5.515999999999999659e+01 -2.921000000000000085e+01 -1.264099999999999966e+02 -1.812899999999999920e+02 -2.350399999999999920e+02 -4.920500000000000114e+02 -1.276839999999999918e+03 -2.519710000000000036e+03 -3.519429999999999836e+03
-4.000000000000000000e+03 -4.000000000000000000e+03 -4.000000000000000000e+03 -4.000000000000000000e+03 -4.000000000000000000e+03 -4.000000000000000000e+03 -4.000000000000000000e+03 -4.000000000000000000e+03 -4.000000000000000000e+03 -4.000000000000000000e+03 -4.000119999999999891e+03 -4.000619999999999891e+03 -3.992199999999999818e+03 -3.936550000000000182e+03 -3.688179999999999836e+03 -2.982860000000000127e+03 -1.848049999999999955e+03 -8.300000000000000000e+02 -3.363399999999999750e+02 -2.111399999999999864e+02 -1.998300000000000125e+02 -2.000000000000000000e+02 -2.000000000000000000e+02 -1.997400000000000091e+02 -1.917199999999999989e+02 -1.475399999999999920e+02 -3.709000000000000341e+01 9.037999999999999545e+01 1.156400000000000006e+02 2.729999999999999982e+00 -1.288199999999999932e+02 -1.829099999999999966e+02 -1.819000000000000057e+02 -1.584600000000000080e+02 -1.162999999999999972e+02 -6.429000000000000625e+01 -2.269000000000000128e+01 1.480000000000000071e+01 1.051500000000000057e+02 2.892300000000000182e+02 4.972099999999999795e+02 6.320499999999999545e+02 6.845700000000000500e+02 6.977599999999999909e+02 7.053500000000000227e+02 7.368099999999999454e+02 8.339900000000000091e+02 9.933999999999999773e+02 1.127559999999999945e+03 1.186430000000000064e+03 1.199200000000000045e+03 1.199799999999999955e+03 1.195180000000000064e+03 1.172609999999999900e+03 1.098559999999999945e+03 9.498899999999999864e+02 7.948099999999999454e+02 7.184800000000000182e+02 7.017899999999999636e+02 6.992799999999999727e+02 6.940000000000000000e+02 6.843700000000000045e+02 6.698200000000000500e+02 6.484199999999999591e+02 6.202699999999999818e+02 5.889099999999999682e+02 5.538600000000000136e+02 5.089900000000000091e+02 4.560400000000000205e+02 4.025299999999999727e+02 3.598399999999999750e+02 3.282799999999999727e+02 3.011999999999999886e+02 2.612799999999999727e+02 1.989300000000000068e+02 1.312700000000000102e+02 8.360999999999999943e+01 6.375000000000000000e+01 5.992000000000000171e+01 6.000000000000000000e+01 6.000000000000000000e+01 5.996999999999999886e+01 6.254999999999999716e+01 8.842000000000000171e+01 1.860099999999999909e+02 3.573600000000000136e+02 5.105299999999999727e+02 5.811299999999999955e+02 5.645299999999999727e+02 4.514800000000000182e+02 2.735600000000000023e+02 1.470399999999999920e+02 1.060600000000000023e+02 1.002300000000000040e+02 1.000100000000000051e+02 1.000000000000000000e+02 1.000000000000000000e+02 1.000000000000000000e+02 1.000000000000000000e+02 1.000000000000000000e+02 1.000000000000000000e+02 1.000000000000000000e+02 1.000000000000000000e+02 1.000000000000000000e+02 1.000000000000000000e+02 1.000499999999999972e+02 9.606000000000000227e+01 7.110999999999999943e+01 -1.799999999999999933e-01 -9.951000000000000512e+01 -1.695399999999999920e+02 -2.255200000000000102e+02 -4.816700000000000159e+02 -1.294190000000000055e+03 -2.553980000000000018e+03 -3.545090000000000146e+03
-4.000000000000000000e+03 -4.000000000000000000e+03 -4.000000000000000000e+03 -4.000000000000000000e+03 -4.000000000000000000e+03 -4.000000000000000000e+03 -4.000000000000000000e+03 -4.000000000000000000e+03 -4.000000000000000000e+03 -4.000000000000000000e+03 -4.000000000000000000e+03 -3.999989999999999782e+03 -4.000869999999999891e+03 -3.988539999999999964e+03 -3.849030000000000200e+03 -3.321230000000000018e+03 -2.256809999999999945e+03 -1.091619999999999891e+03 -4.205000000000000000e+02 -2.248000000000000114e+02 -1.989699999999999989e+02 -1.998600000000000136e+02 -1.995600000000000023e+02 -1.998799999999999955e+02 -1.983899999999999864e+02 -1.862700000000000102e+02 -1.516599999999999966e+02 -1.048199999999999932e+02 -8.787999999999999545e+01 -1.241599999999999966e+02 -1.726100000000000136e+02 -1.955399999999999920e+02 -1.973799999999999955e+02 -1.879699999999999989e+02 -1.611100000000000136e+02 -1.131599999999999966e+02 -5.632000000000000028e+01 1.201999999999999957e+01 1.413199999999999932e+02 3.569200000000000159e+02 5.622000000000000455e+02 6.678500000000000227e+02 6.975800000000000409e+02 7.062000000000000455e+02 7.266100000000000136e+02 7.884800000000000182e+02 9.157799999999999727e+02 1.069069999999999936e+03 1.165630000000000109e+03 1.196170000000000073e+03 1.200109999999999900e+03 1.200009999999999991e+03 1.199819999999999936e+03 1.191279999999999973e+03 1.138769999999999982e+03 9.951000000000000227e+02 8.192200000000000273e+02 7.233700000000000045e+02 6.972400000000000091e+02 6.838500000000000227e+02 6.598799999999999955e+02 6.256100000000000136e+02 5.857899999999999636e+02 5.416100000000000136e+02 4.957799999999999727e+02 4.545400000000000205e+02 4.190600000000000023e+02 3.840099999999999909e+02 3.516499999999999773e+02 3.265299999999999727e+02 3.114599999999999795e+02 3.006200000000000045e+02 2.749300000000000068e+02 2.101100000000000136e+02 1.278900000000000006e+02 7.879999999999999716e+01 6.246999999999999886e+01 5.996999999999999886e+01 6.000000000000000000e+01 6.000000000000000000e+01 6.000000000000000000e+01 6.000000000000000000e+01 6.367999999999999972e+01 1.000900000000000034e+02 2.264199999999999875e+02 4.218299999999999841e+02 5.660000000000000000e+02 6.145900000000000318e+02 5.850800000000000409e+02 4.722300000000000182e+02 2.919399999999999977e+02 1.549600000000000080e+02 1.068299999999999983e+02 9.989000000000000057e+01 1.000000000000000000e+02 1.000000000000000000e+02 1.000000000000000000e+02 1.000000000000000000e+02 1.000000000000000000e+02 1.000000000000000000e+02 1.000000000000000000e+02 1.000000000000000000e+02 1.000000000000000000e+02 1.000000000000000000e+02 1.000000000000000000e+02 1.000100000000000051e+02 9.835999999999999943e+01 8.268999999999999773e+01 2.748000000000000043e+01 -6.751000000000000512e+01 -1.532800000000000011e+02 -2.464399999999999977e+02 -5.894800000000000182e+02 -1.503430000000000064e+03 -2.763739999999999782e+03 -3.641949999999999818e+03
-4.000000000000000000e+03 -4.000000000000000000e+03 -4.000000000000000000e+03 -4.000000000000000000e+03 -4.000000000000000000e+03 -4.000000000000000000e+03 -4.000000000000000000e+03 -4.000000000000000000e+03 -4.000000000000000000e+03 -4.000000000000000000e+03 -4.000000000000000000e+03 -4.000000000000000000e+03 -4.000550000000000182e+03 -3.985280000000000200e+03 -3.840219999999999800e+03 -3.319059999999999945e+03 -2.275960000000000036e+03 -1.120759999999999991e+03 -4.306600000000000250e+02 -2.298300000000000125e+02 -2.057299999999999898e+02 -2.082400000000000091e+02 -2.134199999999999875e+02 -2.193700000000000045e+02 -2.197700000000000102e+02 -2.142199999999999989e+02 -2.036500000000000057e+02 -1.906500000000000057e+02 -1.825999999999999943e+02 -1.850200000000000102e+02 -1.946100000000000136e+02 -1.992800000000000011e+02 -1.998899999999999864e+02 -1.972199999999999989e+02 -1.851800000000000068e+02 -1.521699999999999875e+02 -8.818000000000000682e+01 1.683999999999999986e+01 1.911100000000000136e+02 4.235600000000000023e+02 6.068899999999999864e+02 6.859299999999999500e+02 7.097400000000000091e+02 7.330099999999999909e+02 7.857899999999999636e+02 8.851599999999999682e+02 1.018129999999999995e+03 1.131359999999999900e+03 1.186039999999999964e+03 1.199269999999999982e+03 1.200009999999999991e+03 1.200000000000000000e+03 1.200079999999999927e+03 1.193579999999999927e+03 1.144369999999999891e+03 1.002200000000000045e+03 8.229800000000000182e+02 7.221000000000000227e+02 6.827599999999999909e+02 6.380599999999999454e+02 5.739099999999999682e+02 5.085199999999999818e+02 4.536899999999999977e+02 4.092799999999999727e+02 3.736299999999999955e+02 3.478100000000000023e+02 3.308700000000000045e+02 3.180400000000000205e+02 3.086800000000000068e+02 3.029800000000000182e+02 3.004100000000000250e+02 2.942300000000000182e+02 2.648700000000000045e+02 1.924099999999999966e+02 1.109800000000000040e+02 6.948000000000000398e+01 6.036999999999999744e+01 5.999000000000000199e+01 6.000000000000000000e+01 6.000000000000000000e+01 6.000000000000000000e+01 6.000000000000000000e+01 6.378999999999999915e+01 1.025799999999999983e+02 2.384799999999999898e+02 4.491200000000000045e+02 6.058300000000000409e+02 6.524400000000000546e+02 6.025399999999999636e+02 4.694399999999999977e+02 2.851200000000000045e+02 1.523499999999999943e+02 1.064599999999999937e+02 9.998000000000000398e+01 1.000000000000000000e+02 1.000000000000000000e+02 1.000000000000000000e+02 1.000000000000000000e+02 1.000000000000000000e+02 1.000000000000000000e+02 1.000000000000000000e+02 1.000000000000000000e+02 1.000000000000000000e+02 1.000000000000000000e+02 1.000000000000000000e+02 1.000100000000000051e+02 9.962000000000000455e+01 9.048999999999999488e+01 4.992000000000000171e+01 -3.767000000000000171e+01 -1.399099999999999966e+02 -2.961999999999999886e+02 -7.838500000000000227e+02 -1.831569999999999936e+03 -3.040510000000000218e+03 -3.754889999999999873e+03
-4.000000000000000000e+03 -4.000000000000000000e+03 -4.000000000000000000e+03 -4.000000000000000000e+03 -4.000000000000000000e+03 -4.000000000000000000e+03 -4.000000000000000000e+03 -4.000000000000000000e+03 -4.000000000000000000e+03 -4.000000000000000000e+03 -4.000000000000000000e+03 -4.000030000000000200e+03 -3.999199999999999818e+03 -3.957530000000000200e+03 -3.709090000000000146e+03 -3.009349999999999909e+03 -1.893619999999999891e+03 -8.933999999999999773e+02 -3.926700000000000159e+02 -2.923000000000000114e+02 -3.179700000000000273e+02 -3.445600000000000023e+02 -3.734700000000000273e+02 -4.103000000000000114e+02 -4.210099999999999909e+02 -3.996899999999999977e+02 -3.664599999999999795e+02 -3.247099999999999795e+02 -2.712500000000000000e+02 -2.242299999999999898e+02 -2.031399999999999864e+02 -1.998100000000000023e+02 -2.000099999999999909e+02 -1.996599999999999966e+02 -1.957299999999999898e+02 -1.739600000000000080e+02 -1.006899999999999977e+02 5.670000000000000284e+01 2.834800000000000182e+02 5.086299999999999955e+02 6.493099999999999454e+02 7.068899999999999864e+02 7.444700000000000273e+02 8.026699999999999591e+02 8.928500000000000227e+02 1.008009999999999991e+03 1.112730000000000018e+03 1.174349999999999909e+03 1.196130000000000109e+03 1.199940000000000055e+03 1.200029999999999973e+03 1.199839999999999918e+03 1.198740000000000009e+03 1.187480000000000018e+03 1.129289999999999964e+03 9.818500000000000227e+02 8.104199999999999591e+02 7.132599999999999909e+02 6.531799999999999500e+02 5.625599999999999454e+02 4.598600000000000136e+02 3.885099999999999909e+02 3.494700000000000273e+02 3.277799999999999727e+02 3.146999999999999886e+02 3.073399999999999750e+02 3.034399999999999977e+02 3.013600000000000136e+02 3.002799999999999727e+02 3.000199999999999818e+02 2.983899999999999864e+02 2.865400000000000205e+02 2.453899999999999864e+02 1.700300000000000011e+02 9.960999999999999943e+01 6.731000000000000227e+01 6.035999999999999943e+01 6.000000000000000000e+01 6.000000000000000000e+01 6.000000000000000000e+01 6.000000000000000000e+01 5.999000000000000199e+01 6.314000000000000057e+01 1.008199999999999932e+02 2.384600000000000080e+02 4.622500000000000000e+02 6.376799999999999500e+02 6.802699999999999818e+02 5.980599999999999454e+02 4.314200000000000159e+02 2.487299999999999898e+02 1.379199999999999875e+02 1.039699999999999989e+02 9.990999999999999659e+01 1.000000000000000000e+02 1.000000000000000000e+02 1.000000000000000000e+02 1.000000000000000000e+02 1.000000000000000000e+02 1.000000000000000000e+02 1.000000000000000000e+02 1.000000000000000000e+02 1.000000000000000000e+02 1.000100000000000051e+02 9.993000000000000682e+01 9.950000000000000000e+01 9.895999999999999375e+01 9.328000000000000114e+01 6.350000000000000000e+01 -1.385999999999999943e+01 -1.317100000000000080e+02 -3.779100000000000250e+02 -1.048369999999999891e+03 -2.224550000000000182e+03 -3.319320000000000164e+03 -3.856480000000000018e+03
-4.000000000000000000e+03 -4.000000000000000000e+03 -4.000000000000000000e+03 -4.000000000000000000e+03 -4.000000000000000000e+03 -4.000000000000000000e+03 -4.000000000000000000e+03 -4.000000000000000000e+03 -4.000000000000000000e+03 -4.000000000000000000e+03 -4.000000000000000000e+03 -4.000090000000000146e+03 -3.997010000000000218e+03 -3.931320000000000164e+03 -3.589960000000000036e+03 -2.738780000000000200e+03 -1.616420000000000073e+03 -8.330900000000000318e+02 -5.807100000000000364e+02 -6.537999999999999545e+02 -8.036599999999999682e+02 -9.018899999999999864e+02 -9.940399999999999636e+02 -1.100559999999999945e+03 -1.132829999999999927e+03 -1.076009999999999991e+03 -9.799900000000000091e+02 -8.331100000000000136e+02 -6.028899999999999864e+02 -3.639399999999999977e+02 -2.352199999999999989e+02 -2.015999999999999943e+02 -2.000000000000000000e+02 -2.000200000000000102e+02 -1.987299999999999898e+02 -1.798499999999999943e+02 -8.965000000000000568e+01 1.235600000000000023e+02 3.932400000000000091e+02 5.938099999999999454e+02 6.935499999999999545e+02 7.485700000000000500e+02 8.163999999999999773e+02 9.102500000000000000e+02 1.015980000000000018e+03 1.109880000000000109e+03 1.169579999999999927e+03 1.193900000000000091e+03 1.199640000000000100e+03 1.199859999999999900e+03 1.198740000000000009e+03 1.195769999999999982e+03 1.188769999999999982e+03 1.166559999999999945e+03 1.094170000000000073e+03 9.466100000000000136e+02 7.934600000000000364e+02 7.024900000000000091e+02 6.177599999999999909e+02 4.912799999999999727e+02 3.784300000000000068e+02 3.248999999999999773e+02 3.082300000000000182e+02 3.029800000000000182e+02 3.009100000000000250e+02 3.000799999999999841e+02 2.999800000000000182e+02 2.999700000000000273e+02 3.000000000000000000e+02 2.997200000000000273e+02 2.941399999999999864e+02 2.691499999999999773e+02 2.116100000000000136e+02 1.387899999999999920e+02 8.668999999999999773e+01 6.537000000000000455e+01 6.049000000000000199e+01 6.000999999999999801e+01 6.000000000000000000e+01 6.000000000000000000e+01 6.000000000000000000e+01 6.000999999999999801e+01 6.385999999999999943e+01 1.037500000000000000e+02 2.443499999999999943e+02 4.765799999999999841e+02 6.547200000000000273e+02 6.757999999999999545e+02 5.564500000000000455e+02 3.656399999999999864e+02 2.001399999999999864e+02 1.207300000000000040e+02 1.014699999999999989e+02 1.000000000000000000e+02 1.000000000000000000e+02 1.000000000000000000e+02 1.000000000000000000e+02 1.000000000000000000e+02 1.000000000000000000e+02 1.000000000000000000e+02 1.000100000000000051e+02 1.000799999999999983e+02 9.987000000000000455e+01 9.890000000000000568e+01 9.598999999999999488e+01 9.096999999999999886e+01 8.617000000000000171e+01 8.206000000000000227e+01 6.478000000000000114e+01 6.580000000000000071e+00 -1.248900000000000006e+02 -4.705500000000000114e+02 -1.319299999999999955e+03 -2.575039999999999964e+03 -3.537750000000000000e+03 -3.923639999999999873e+03
-4.000000000000000000e+03 -4.000000000000000000e+03 -4.000000000000000000e+03 -4.000000000000000000e+03 -4.000000000000000000e+03 -4.000000000000000000e+03 -4.000000000000000000e+03 -4.000000000000000000e+03 -4.000000000000000000e+03 -4.000000000000000000e+03 -4.000000000000000000e+03 -3.999989999999999782e+03 -3.997710000000000036e+03 -3.936309999999999945e+03 -3.637050000000000182e+03 -2.900809999999999945e+03 -1.980630000000000109e+03 -1.405660000000000082e+03 -1.338119999999999891e+03 -1.586019999999999982e+03 -1.873859999999999900e+03 -2.040509999999999991e+03 -2.168869999999999891e+03 -2.317199999999999818e+03 -2.375920000000000073e+03 -2.309750000000000000e+03 -2.169989999999999782e+03 -1.885579999999999927e+03 -1.340750000000000000e+03 -7.039199999999999591e+02 -3.208700000000000045e+02 -2.100999999999999943e+02 -1.997299999999999898e+02 -2.000099999999999909e+02 -1.993600000000000136e+02 -1.817800000000000011e+02 -8.909999999999999432e+01 1.389000000000000057e+02 4.222200000000000273e+02 6.230399999999999636e+02 7.324900000000000091e+02 8.156599999999999682e+02 9.076499999999999773e+02 1.010879999999999995e+03 1.105720000000000027e+03 1.166880000000000109e+03 1.192750000000000000e+03 1.199430000000000064e+03 1.199579999999999927e+03 1.196970000000000027e+03 1.189779999999999973e+03 1.176170000000000073e+03 1.155440000000000055e+03 1.120009999999999991e+03 1.047509999999999991e+03 9.245599999999999454e+02 7.992999999999999545e+02 7.066399999999999864e+02 5.939700000000000273e+02 4.466299999999999955e+02 3.416299999999999955e+02 3.056700000000000159e+02 3.001000000000000227e+02 2.998899999999999864e+02 2.999700000000000273e+02 3.000000000000000000e+02 3.000000000000000000e+02 3.000000000000000000e+02 3.000199999999999818e+02 2.979300000000000068e+02 2.842500000000000000e+02 2.416299999999999955e+02 1.720699999999999932e+02 1.110199999999999960e+02 7.829000000000000625e+01 6.520999999999999375e+01 6.102000000000000313e+01 6.007000000000000028e+01 6.000000000000000000e+01 6.000000000000000000e+01 5.999000000000000199e+01 6.138000000000000256e+01 7.170999999999999375e+01 1.221200000000000045e+02 2.661499999999999773e+02 4.868399999999999750e+02 6.434299999999999500e+02 6.352200000000000273e+02 4.867599999999999909e+02 2.927099999999999795e+02 1.585200000000000102e+02 1.089200000000000017e+02 1.000699999999999932e+02 1.000000000000000000e+02 1.000000000000000000e+02 1.000000000000000000e+02 1.000000000000000000e+02 1.000000000000000000e+02 1.000000000000000000e+02 1.000000000000000000e+02 9.968999999999999773e+01 9.837000000000000455e+01 9.487000000000000455e+01 8.740000000000000568e+01 7.404000000000000625e+01 5.529999999999999716e+01 3.867000000000000171e+01 3.371000000000000085e+01 3.353000000000000114e+01 4.209999999999999964e+00 -1.287199999999999989e+02 -5.495900000000000318e+02 -1.530710000000000036e+03 -2.807800000000000182e+03 -3.668250000000000000e+03 -3.956880000000000109e+03
-4.000000000000000000e+03 -4.000000000000000000e+03 -4.000000000000000000e+03 -4.000000000000000000e+03 -4.000000000000000000e+03 -4.000000000000000000e+03 -4.000000000000000000e+03 -4.000000000000000000e+03 -4.000000000000000000e+03 -4.000000000000000000e+03 -4.000000000000000000e+03 -4.000000000000000000e+03 -3.999500000000000000e+03 -3.968190000000000055e+03 -3.806360000000000127e+03 -3.394500000000000000e+03 -2.867699999999999818e+03 -2.538360000000000127e+03 -2.550239999999999782e+03 -2.800739999999999782e+03 -3.066210000000000036e+03 -3.215079999999999927e+03 -3.308309999999999945e+03 -3.404599999999999909e+03 -3.444429999999999836e+03 -3.408679999999999836e+03 -3.302150000000000091e+03 -2.983610000000000127e+03 -2.206559999999999945e+03 -1.165109999999999900e+03 -4.599800000000000182e+02 -2.309199999999999875e+02 -1.996299999999999955e+02 -2.000000000000000000e+02 -1.996899999999999977e+02 -1.877199999999999989e+02 -1.208299999999999983e+02 6.004999999999999716e+01 3.196899999999999977e+02 5.572300000000000182e+02 7.391699999999999591e+02 8.749600000000000364e+02 9.758600000000000136e+02 1.066839999999999918e+03 1.144519999999999982e+03 1.186500000000000000e+03 1.198630000000000109e+03 1.199670000000000073e+03 1.196289999999999964e+03 1.184390000000000100e+03 1.160430000000000064e+03 1.128650000000000091e+03 1.095130000000000109e+03 1.057839999999999918e+03 1.004330000000000041e+03 9.243500000000000227e+02 8.346100000000000136e+02 7.406399999999999864e+02 6.018899999999999864e+02 4.365600000000000023e+02 3.326899999999999977e+02 3.025099999999999909e+02 2.999800000000000182e+02 3.000000000000000000e+02 3.000000000000000000e+02 3.000000000000000000e+02 3.000000000000000000e+02 3.000099999999999909e+02 2.995000000000000000e+02 2.930299999999999727e+02 2.657300000000000182e+02 2.063400000000000034e+02 1.370600000000000023e+02 9.360999999999999943e+01 7.554999999999999716e+01 6.670000000000000284e+01 6.185999999999999943e+01 6.021999999999999886e+01 6.000000000000000000e+01 6.000000000000000000e+01 6.036999999999999744e+01 6.578000000000000114e+01 8.956999999999999318e+01 1.555699999999999932e+02 2.840000000000000000e+02 4.562699999999999818e+02 5.788200000000000500e+02 5.602699999999999818e+02 4.076200000000000045e+02 2.305000000000000000e+02 1.307800000000000011e+02 1.029599999999999937e+02 1.000000000000000000e+02 1.000000000000000000e+02 1.000000000000000000e+02 1.000000000000000000e+02 1.000199999999999960e+02 1.000100000000000051e+02 9.954999999999999716e+01 9.778000000000000114e+01 9.340999999999999659e+01 8.467000000000000171e+01 6.937000000000000455e+01 4.550000000000000000e+01 1.300000000000000000e+01 -2.371000000000000085e+01 -5.228999999999999915e+01 -5.761999999999999744e+01 -4.282000000000000028e+01 -4.503000000000000114e+01 -1.704399999999999977e+02 -6.425000000000000000e+02 -1.704099999999999909e+03 -2.964610000000000127e+03 -3.739679999999999836e+03 -3.972139999999999873e+03
-4.000000000000000000e+03 -4.000000000000000000e+03 -4.000000000000000000e+03 -4.000000000000000000e+03 -4.000000000000000000e+03 -4.000000000000000000e+03 -4.000000000000000000e+03 -4.000000000000000000e+03 -4.000000000000000000e+03 -4.000000000000000000e+03 -4.000000000000000000e+03 -4.000000000000000000e+03 -4.000289999999999964e+03 -3.992659999999999854e+03 -3.943090000000000146e+03 -3.806789999999999964e+03 -3.620570000000000164e+03 -3.498409999999999854e+03 -3.518190000000000055e+03 -3.643449999999999818e+03 -3.764789999999999964e+03 -3.827409999999999854e+03 -3.858650000000000091e+03 -3.890519999999999982e+03 -3.905880000000000109e+03 -3.897650000000000091e+03 -3.846019999999999982e+03 -3.590710000000000036e+03 -2.815179999999999836e+03 -1.608519999999999982e+03 -6.547999999999999545e+02 -2.753399999999999750e+02 -2.020600000000000023e+02 -1.999799999999999898e+02 -1.999699999999999989e+02 -1.949600000000000080e+02 -1.599199999999999875e+02 -5.043999999999999773e+01 1.474499999999999886e+02 3.976999999999999886e+02 6.610199999999999818e+02 8.729800000000000182e+02 9.935800000000000409e+02 1.073519999999999982e+03 1.142890000000000100e+03 1.184009999999999991e+03 1.196960000000000036e+03 1.196380000000000109e+03 1.184539999999999964e+03 1.154210000000000036e+03 1.109509999999999991e+03 1.067829999999999927e+03 1.036549999999999955e+03 1.008779999999999973e+03 9.723400000000000318e+02 9.250499999999999545e+02 8.723400000000000318e+02 7.951000000000000227e+02 6.516399999999999864e+02 4.696800000000000068e+02 3.473299999999999841e+02 3.059599999999999795e+02 2.999200000000000159e+02 3.000000000000000000e+02 3.000000000000000000e+02 3.000000000000000000e+02 3.000000000000000000e+02 3.000500000000000114e+02 2.983100000000000023e+02 2.844399999999999977e+02 2.397400000000000091e+02 1.688700000000000045e+02 1.107800000000000011e+02 8.479999999999999716e+01 7.576000000000000512e+01 6.882999999999999829e+01 6.292999999999999972e+01 6.046000000000000085e+01 6.000999999999999801e+01 5.999000000000000199e+01 6.142000000000000171e+01 7.290999999999999659e+01 1.087500000000000000e+02 1.692199999999999989e+02 2.449099999999999966e+02 3.450500000000000114e+02 4.474399999999999977e+02 4.539300000000000068e+02 3.287699999999999818e+02 1.850399999999999920e+02 1.155499999999999972e+02 1.007000000000000028e+02 9.998999999999999488e+01 1.000100000000000051e+02 1.000400000000000063e+02 9.992000000000000171e+01 9.948000000000000398e+01 9.739000000000000057e+01 9.178000000000000114e+01 8.118000000000000682e+01 6.364000000000000057e+01 3.760000000000000142e+01 3.259999999999999787e+00 -3.703000000000000114e+01 -7.876999999999999602e+01 -1.161400000000000006e+02 -1.407800000000000011e+02 -1.446699999999999875e+02 -1.300399999999999920e+02 -1.247099999999999937e+02 -2.466399999999999864e+02 -7.698799999999999955e+02 -1.885240000000000009e+03 -3.111409999999999854e+03 -3.793519999999999982e+03 -3.981880000000000109e+03
-4.000000000000000000e+03 -4.000000000000000000e+03 -4.000000000000000000e+03 -4.000000000000000000e+03 -4.000000000000000000e+03 -4.000000000000000000e+03 -4.000000000000000000e+03 -4.000000000000000000e+03 -4.000000000000000000e+03 -4.000000000000000000e+03 -4.000000000000000000e+03 -4.000000000000000000e+03 -4.000000000000000000e+03 -4.000039999999999964e+03 -3.993599999999999909e+03 -3.970170000000000073e+03 -3.935789999999999964e+03 -3.911719999999999800e+03 -3.916380000000000109e+03 -3.946070000000000164e+03 -3.974489999999999782e+03 -3.988159999999999854e+03 -3.992300000000000182e+03 -3.996489999999999782e+03 -3.999150000000000091e+03 -3.997719999999999800e+03 -3.979360000000000127e+03 -3.819210000000000036e+03 -3.219340000000000146e+03 -2.089389999999999873e+03 -9.770499999999999545e+02 -3.861499999999999773e+02 -2.212100000000000080e+02 -1.999699999999999989e+02 -2.000399999999999920e+02 -1.986399999999999864e+02 -1.840999999999999943e+02 -1.283499999999999943e+02 -3.359999999999999876e+00 2.079199999999999875e+02 5.069200000000000159e+02 7.999299999999999500e+02 9.702999999999999545e+02 1.050799999999999955e+03 1.114650000000000091e+03 1.161269999999999982e+03 1.180809999999999945e+03 1.179819999999999936e+03 1.156809999999999945e+03 1.109519999999999982e+03 1.056640000000000100e+03 1.018759999999999991e+03 9.952400000000000091e+02 9.736000000000000227e+02 9.457100000000000364e+02 9.172200000000000273e+02 8.926100000000000136e+02 8.468200000000000500e+02 7.323700000000000045e+02 5.522200000000000273e+02 3.960899999999999750e+02 3.213899999999999864e+02 3.018299999999999841e+02 2.999800000000000182e+02 3.000000000000000000e+02 3.000000000000000000e+02 3.000000000000000000e+02 3.000500000000000114e+02 2.968700000000000045e+02 2.756899999999999977e+02 2.170200000000000102e+02 1.413700000000000045e+02 9.543999999999999773e+01 8.118999999999999773e+01 7.684000000000000341e+01 7.078000000000000114e+01 6.418999999999999773e+01 6.082999999999999829e+01 6.004999999999999716e+01 5.993999999999999773e+01 6.375999999999999801e+01 8.520999999999999375e+01 1.293100000000000023e+02 1.610900000000000034e+02 1.668000000000000114e+02 2.023400000000000034e+02 2.862799999999999727e+02 3.223299999999999841e+02 2.469199999999999875e+02 1.501200000000000045e+02 1.075900000000000034e+02 1.000000000000000000e+02 1.000199999999999960e+02 9.956999999999999318e+01 9.817000000000000171e+01 9.568000000000000682e+01 9.101999999999999602e+01 8.035999999999999943e+01 5.947999999999999687e+01 2.907000000000000028e+01 -8.009999999999999787e+00 -4.903999999999999915e+01 -9.012000000000000455e+01 -1.267900000000000063e+02 -1.557800000000000011e+02 -1.758700000000000045e+02 -1.866100000000000136e+02 -1.877299999999999898e+02 -1.804600000000000080e+02 -1.886699999999999875e+02 -3.434700000000000273e+02 -9.395399999999999636e+02 -2.092750000000000000e+03 -3.254610000000000127e+03 -3.839239999999999782e+03 -3.989289999999999964e+03
-4.000000000000000000e+03 -4.000000000000000000e+03 -4.000000000000000000e+03 -4.000000000000000000e+03 -4.000000000000000000e+03 -4.000000000000000000e+03 -4.000000000000000000e+03 -4.000000000000000000e+03 -4.000000000000000000e+03 -4.000000000000000000e+03 -4.000000000000000000e+03 -4.000000000000000000e+03 -4.000000000000000000e+03 -3.999989999999999782e+03 -4.000289999999999964e+03 -4.000739999999999782e+03 -3.998800000000000182e+03 -3.996630000000000109e+03 -3.996590000000000146e+03 -3.998659999999999854e+03 -4.000769999999999982e+03 -4.000150000000000091e+03 -4.000039999999999964e+03 -4.000010000000000218e+03 -4.000030000000000200e+03 -4.000099999999999909e+03 -3.996400000000000091e+03 -3.917789999999999964e+03 -3.546880000000000109e+03 -2.648300000000000182e+03 -1.470319999999999936e+03 -6.101399999999999864e+02 -2.691399999999999864e+02 -2.019600000000000080e+02 -1.999799999999999898e+02 -1.996899999999999977e+02 -1.942400000000000091e+02 -1.673000000000000114e+02 -9.134999999999999432e+01 7.196999999999999886e+01 3.680799999999999841e+02 7.163700000000000045e+02 9.378999999999999773e+02 1.022379999999999995e+03 1.070500000000000000e+03 1.111779999999999973e+03 1.134390000000000100e+03 1.134309999999999945e+03 1.108089999999999918e+03 1.057910000000000082e+03 1.004039999999999964e+03 9.567300000000000182e+02 9.197500000000000000e+02 9.008400000000000318e+02 8.976900000000000546e+02 8.993400000000000318e+02 8.980800000000000409e+02 8.802699999999999818e+02 8.134700000000000273e+02 6.697100000000000364e+02 4.938600000000000136e+02 3.692900000000000205e+02 3.170099999999999909e+02 3.022200000000000273e+02 2.998999999999999773e+02 3.000000000000000000e+02 3.000000000000000000e+02 2.999800000000000182e+02 2.956000000000000227e+02 2.697500000000000000e+02 2.044099999999999966e+02 1.288799999999999955e+02 8.968999999999999773e+01 8.017000000000000171e+01 7.784999999999999432e+01 7.256999999999999318e+01 6.562000000000000455e+01 6.132000000000000028e+01 6.011999999999999744e+01 6.007000000000000028e+01 6.765999999999999659e+01 1.050699999999999932e+02 1.698199999999999932e+02 1.842500000000000000e+02 1.319499999999999886e+02 1.127099999999999937e+02 1.576399999999999864e+02 1.948899999999999864e+02 1.676100000000000136e+02 1.221400000000000006e+02 1.027800000000000011e+02 1.000000000000000000e+02 9.854999999999999716e+01 9.356000000000000227e+01 8.351000000000000512e+01 7.039000000000000057e+01 5.382000000000000028e+01 2.692999999999999972e+01 -1.375999999999999979e+01 -5.996999999999999886e+01 -1.018299999999999983e+02 -1.363000000000000114e+02 -1.624799999999999898e+02 -1.800200000000000102e+02 -1.900800000000000125e+02 -1.962700000000000102e+02 -2.037500000000000000e+02 -2.186699999999999875e+02 -2.429099999999999966e+02 -3.065699999999999932e+02 -5.624900000000000091e+02 -1.273779999999999973e+03 -2.422550000000000182e+03 -3.431789999999999964e+03 -3.889400000000000091e+03 -3.994429999999999836e+03
-4.000000000000000000e+03 -4.000000000000000000e+03 -4.000000000000000000e+03 -4.000000000000000000e+03 -4.000000000000000000e+03 -4.000000000000000000e+03 -4.000000000000000000e+03 -4.000000000000000000e+03 -4.000000000000000000e+03 -4.000000000000000000e+03 -4.000000000000000000e+03 -4.000000000000000000e+03 -4.000000000000000000e+03 -4.000000000000000000e+03 -4.000000000000000000e+03 -4.000000000000000000e+03 -4.000050000000000182e+03 -4.000090000000000146e+03 -4.000050000000000182e+03 -4.000000000000000000e+03 -4.000000000000000000e+03 -4.000000000000000000e+03 -4.000000000000000000e+03 -4.000000000000000000e+03 -4.000000000000000000e+03 -4.000000000000000000e+03 -4.000219999999999800e+03 -3.972800000000000182e+03 -3.785469999999999800e+03 -3.165010000000000218e+03 -2.043259999999999991e+03 -9.445599999999999454e+02 -3.664499999999999886e+02 -2.151100000000000136e+02 -1.998199999999999932e+02 -2.000300000000000011e+02 -1.978300000000000125e+02 -1.847199999999999989e+02 -1.370000000000000000e+02 -4.500000000000000000e+00 2.770600000000000023e+02 6.444600000000000364e+02 9.006299999999999955e+02 9.964199999999999591e+02 1.028500000000000000e+03 1.051609999999999900e+03 1.066799999999999955e+03 1.066599999999999909e+03 1.041390000000000100e+03 9.846799999999999500e+02 8.994500000000000455e+02 7.935499999999999545e+02 7.126699999999999591e+02 7.095299999999999727e+02 7.763899999999999864e+02 8.510599999999999454e+02 8.892799999999999727e+02 8.953600000000000136e+02 8.721399999999999864e+02 7.937699999999999818e+02 6.483099999999999454e+02 4.915500000000000114e+02 3.816499999999999773e+02 3.246700000000000159e+02 3.040500000000000114e+02 2.999200000000000159e+02 2.999100000000000250e+02 2.998700000000000045e+02 2.948199999999999932e+02 2.668100000000000023e+02 1.995399999999999920e+02 1.252099999999999937e+02 8.842000000000000171e+01 8.014000000000000057e+01 7.848999999999999488e+01 7.384999999999999432e+01 6.673000000000000398e+01 6.172999999999999687e+01 6.017999999999999972e+01 5.992000000000000171e+01 7.045000000000000284e+01 1.214500000000000028e+02 2.113899999999999864e+02 2.288199999999999932e+02 1.423700000000000045e+02 8.329000000000000625e+01 9.056000000000000227e+01 1.155199999999999960e+02 1.167099999999999937e+02 1.057999999999999972e+02 1.004399999999999977e+02 9.790999999999999659e+01 8.948000000000000398e+01 6.862000000000000455e+01 3.613000000000000256e+01 2.790000000000000036e+00 -2.787000000000000099e+01 -6.356000000000000227e+01 -1.053199999999999932e+02 -1.430000000000000000e+02 -1.687500000000000000e+02 -1.842100000000000080e+02 -1.933000000000000114e+02 -2.023400000000000034e+02 -2.172299999999999898e+02 -2.471599999999999966e+02 -3.025400000000000205e+02 -3.941999999999999886e+02 -5.198400000000000318e+02 -7.118999999999999773e+02 -1.130329999999999927e+03 -1.924880000000000109e+03 -2.925289999999999964e+03 -3.652920000000000073e+03 -3.940710000000000036e+03 -3.998809999999999945e+03
-4.000000000000000000e+03 -4.000000000000000000e+03 -4.000000000000000000e+03 -4.000000000000000000e+03 -4.000000000000000000e+03 -4.000000000000000000e+03 -4.000000000000000000e+03 -4.000000000000000000e+03 -4.000000000000000000e+03 -4.000000000000000000e+03 -4.000000000000000000e+03 -4.000000000000000000e+03 -4.000000000000000000e+03 -4.000000000000000000e+03 -4.000000000000000000e+03 -4.000000000000000000e+03 -4.000000000000000000e+03 -4.000000000000000000e+03 -4.000000000000000000e+03 -4.000000000000000000e+03 -4.000000000000000000e+03 -4.000000000000000000e+03 -4.000000000000000000e+03 -4.000000000000000000e+03 -4.000000000000000000e+03 -4.000000000000000000e+03 -4.000010000000000218e+03 -3.995920000000000073e+03 -3.913530000000000200e+03 -3.523849999999999909e+03 -2.568119999999999891e+03 -1.342849999999999909e+03 -5.197500000000000000e+02 -2.409300000000000068e+02 -2.003600000000000136e+02 -2.000099999999999909e+02 -1.995000000000000000e+02 -1.938300000000000125e+02 -1.651200000000000045e+02 -6.565000000000000568e+01 1.743700000000000045e+02 5.283300000000000409e+02 8.268600000000000136e+02 9.667999999999999545e+02 1.003590000000000032e+03 1.012250000000000000e+03 1.015730000000000018e+03 1.003600000000000023e+03 9.514400000000000546e+02 8.351799999999999500e+02 6.643799999999999955e+02 4.881700000000000159e+02 3.864300000000000068e+02 4.207400000000000091e+02 5.714700000000000273e+02 7.475900000000000318e+02 8.580000000000000000e+02 8.973899999999999864e+02 9.101499999999999773e+02 9.083600000000000136e+02 8.490000000000000000e+02 7.143799999999999955e+02 5.454099999999999682e+02 4.043700000000000045e+02 3.318999999999999773e+02 3.086200000000000045e+02 3.026299999999999955e+02 3.003299999999999841e+02 2.952799999999999727e+02 2.692099999999999795e+02 2.041800000000000068e+02 1.291599999999999966e+02 8.993000000000000682e+01 8.042000000000000171e+01 7.873999999999999488e+01 7.440000000000000568e+01 6.723999999999999488e+01 6.193999999999999773e+01 6.021999999999999886e+01 5.985999999999999943e+01 7.089000000000000057e+01 1.263799999999999955e+02 2.281899999999999977e+02 2.538799999999999955e+02 1.576699999999999875e+02 8.206999999999999318e+01 7.281000000000000227e+01 8.957999999999999829e+01 9.912999999999999545e+01 1.002800000000000011e+02 9.881000000000000227e+01 9.003000000000000114e+01 6.243999999999999773e+01 1.210999999999999943e+01 -4.672999999999999687e+01 -9.246999999999999886e+01 -1.225799999999999983e+02 -1.475399999999999920e+02 -1.698199999999999932e+02 -1.853499999999999943e+02 -1.959099999999999966e+02 -2.105600000000000023e+02 -2.415699999999999932e+02 -2.981899999999999977e+02 -3.880799999999999841e+02 -5.332500000000000000e+02 -7.379299999999999500e+02 -1.010759999999999991e+03 -1.325250000000000000e+03 -1.662279999999999973e+03 -2.144849999999999909e+03 -2.810739999999999782e+03 -3.460159999999999854e+03 -3.848670000000000073e+03 -3.979739999999999782e+03 -3.999949999999999818e+03
-4.000000000000000000e+03 -4.000000000000000000e+03 -4.000000000000000000e+03 -4.000000000000000000e+03 -4.000000000000000000e+03 -4.000000000000000000e+03 -4.000000000000000000e+03 -4.000000000000000000e+03 -4.000000000000000000e+03 -4.000000000000000000e+03 -4.000000000000000000e+03 -4.000000000000000000e+03 -4.000000000000000000e+03 -4.000000000000000000e+03 -4.000000000000000000e+03 -4.000000000000000000e+03 -4.000000000000000000e+03 -4.000000000000000000e+03 -4.000000000000000000e+03 -4.000000000000000000e+03 -4.000000000000000000e+03 -4.000000000000000000e+03 -4.000000000000000000e+03 -4.000000000000000000e+03 -4.000000000000000000e+03 -4.000000000000000000e+03 -4.000000000000000000e+03 -4.000860000000000127e+03 -3.969550000000000182e+03 -3.735210000000000036e+03 -2.980719999999999800e+03 -1.742299999999999955e+03 -7.149099999999999682e+02 -2.845600000000000023e+02 -2.028300000000000125e+02 -1.999900000000000091e+02 -1.999300000000000068e+02 -1.974000000000000057e+02 -1.820600000000000023e+02 -1.197300000000000040e+02 5.013000000000000256e+01 3.624100000000000250e+02 7.099800000000000182e+02 9.237100000000000364e+02 9.841000000000000227e+02 9.797400000000000091e+02 9.581799999999999500e+02 9.070299999999999727e+02 7.799500000000000455e+02 5.627000000000000455e+02 3.252900000000000205e+02 1.548000000000000114e+02 1.030799999999999983e+02 1.790000000000000000e+02 3.624599999999999795e+02 6.067100000000000364e+02 8.013400000000000318e+02 8.881799999999999500e+02 9.298400000000000318e+02 9.832500000000000000e+02 1.015049999999999955e+03 9.537200000000000273e+02 7.832100000000000364e+02 5.725599999999999454e+02 4.255500000000000114e+02 3.590799999999999841e+02 3.260400000000000205e+02 3.075500000000000114e+02 2.976399999999999864e+02 2.758899999999999864e+02 2.173499999999999943e+02 1.407500000000000000e+02 9.448000000000000398e+01 8.118000000000000682e+01 7.878000000000000114e+01 7.459999999999999432e+01 6.745999999999999375e+01 6.204999999999999716e+01 6.021000000000000085e+01 5.971999999999999886e+01 6.993999999999999773e+01 1.247800000000000011e+02 2.293700000000000045e+02 2.614399999999999977e+02 1.674000000000000057e+02 8.859999999999999432e+01 7.578000000000000114e+01 8.923999999999999488e+01 9.742000000000000171e+01 9.976999999999999602e+01 9.651999999999999602e+01 7.564000000000000057e+01 1.950000000000000000e+01 -5.995000000000000284e+01 -1.266099999999999994e+02 -1.633499999999999943e+02 -1.795699999999999932e+02 -1.884000000000000057e+02 -2.005099999999999909e+02 -2.214300000000000068e+02 -2.664300000000000068e+02 -3.556600000000000250e+02 -5.058399999999999750e+02 -7.232699999999999818e+02 -9.956100000000000136e+02 -1.336329999999999927e+03 -1.724869999999999891e+03 -2.133260000000000218e+03 -2.528280000000000200e+03 -2.859239999999999782e+03 -3.194019999999999982e+03 -3.551489999999999782e+03 -3.825530000000000200e+03 -3.960949999999999818e+03 -3.997070000000000164e+03 -4.000090000000000146e+03
