-12643.59 -12643.52 -12648.73 -12650.54 -12649.89 -12650.18 -12656.13 -12666.63 -12699.42 -12707.05 -12710.28 -12712.01 -12717.52 -12719.84 -12715.37 -12703.50 -12701.25 -12705.85 -12700.47 -12694.17 -12672.51 -12416.35 -12203.97 -12107.51 -12089.04 -12071.09 -12043.76 -11765.22 -11336.10 -8203.22 -4027.79 -124.77 -45.05 -6.69 19.93 30.15 45.51 71.34 106.86 144.16 180.81 174.48 214.35 220.78 158.45 133.66 130.54 78.55 54.75 38.13 27.38 15.47 0.51 -2.79 -23.49 -67.30 -120.25 -130.91 -143.17 -142.33 -147.23 -134.41 -121.43 -79.41 -35.95 -3.06 9.72 21.90 37.97 46.55 51.26 64.60 75.56 102.55 136.87 147.73 177.64 205.25 218.74 212.16 206.51 193.84 190.20 197.29 213.53 227.74 251.86 275.03 304.40 310.82 346.03 377.23 399.60 436.23 438.23 448.12 478.35 518.49 637.36 909.91 1218.32 1143.69 914.74 473.39 174.65 122.51 102.68 55.76 -15.20 -2763.23 -5205.86 -4832.61 -4656.57 -4901.08 -5260.94 -5542.22 -5839.25 -6192.20 -6855.86 -8456.13 -8281.39 -7652.49 -7362.28 -7223.77 -7185.19 -7172.95 -7175.34 -7175.17 -7178.75 -7183.90 -7246.73 -7416.94 -7746.31 -8562.01 -8979.23 -9090.37 -9081.27 -9069.88 -9056.56 -9056.02 -9056.07
-12652.32 -12652.26 -12656.25 -12659.48 -12662.34 -12663.43 -12666.11 -12680.68 -12708.98 -12716.45 -12721.60 -12726.64 -12729.81 -12729.30 -12723.75 -12715.63 -12708.51 -12712.02 -12713.63 -12715.60 -12689.98 -12448.74 -12242.06 -12113.66 -12092.56 -12030.47 -11918.67 -11108.14 -10001.03 -6789.57 -780.41 -131.11 -49.20 -15.08 24.27 38.83 59.64 84.86 107.82 139.90 196.00 253.59 274.70 276.49 270.71 182.70 137.61 121.83 67.79 43.11 39.00 23.08 6.68 -1.06 -3.29 -39.55 -78.31 -117.73 -120.10 -128.64 -128.05 -113.73 -81.26 -29.42 2.86 17.58 19.83 30.46 45.78 50.48 55.56 65.41 74.64 94.88 112.08 145.93 162.94 195.27 207.77 204.74 201.92 186.81 190.24 189.39 206.07 228.83 246.73 265.91 286.60 305.18 339.01 361.55 393.43 430.57 435.55 441.17 491.48 510.52 523.99 673.90 1112.68 1195.68 1006.43 503.81 303.11 214.86 123.64 26.50 -3.16 -2575.89 -5350.07 -4830.88 -4598.09 -5003.68 -5446.95 -5711.73 -5898.14 -6068.56 -6348.77 -6351.28 -7127.91 -7636.52 -7485.07 -7223.72 -7167.00 -7145.83 -7137.22 -7147.35 -7151.22 -7164.72 -7204.92 -7276.38 -7616.90 -8646.80 -8945.85 -9071.28 -9058.21 -9045.27 -9040.07 -9036.70 -9034.87
-12658.33 -12658.26 -12664.22 -12664.89 -12670.72 -12672.82 -12682.48 -12691.20 -12717.75 -12731.29 -12735.63 -12737.91 -12744.16 -12745.94 -12736.14 -12731.20 -12730.30 -12727.85 -12730.61 -12729.20 -12711.42 -12519.07 -12219.32 -12112.78 -12000.85 -11945.40 -11744.64 -10777.71 -8692.91 -3211.91 -754.81 -83.65 -16.84 -0.06 15.17 34.75 57.26 99.47 121.23 143.48 210.77 223.95 295.19 326.98 294.01 197.13 169.50 126.21 97.83 73.73 43.81 35.80 19.35 11.25 4.24 -16.37 -36.99 -66.65 -85.46 -93.85 -75.88 -45.69 -11.29 3.49 14.80 21.53 27.86 43.40 48.37 53.16 59.10 68.55 77.95 91.68 109.47 131.47 153.38 176.61 180.86 185.16 171.36 169.54 172.83 185.50 200.12 220.11 232.94 245.30 275.60 304.43 331.20 350.28 386.84 423.20 433.06 441.60 479.58 508.05 525.03 594.15 999.44 1265.55 1286.39 765.25 422.45 223.54 123.96 71.87 8.62 -3690.07 -5649.14 -4888.63 -4892.67 -5332.65 -5535.76 -5725.27 -5868.45 -6007.46 -6208.40 -6163.86 -6247.56 -7350.65 -7394.63 -7283.86 -7173.24 -7117.49 -7120.51 -7122.67 -7137.44 -7145.14 -7210.34 -7436.00 -7823.99 -8503.92 -8984.36 -9045.62 -9034.93 -9030.36 -9022.21 -9016.26 -9016.31
-12662.32 -12662.25 -12668.77 -12672.57 -12677.61 -12681.52 -12687.35 -12698.56 -12719.50 -12733.68 -12738.88 -12746.17 -12750.85 -12753.92 -12750.69 -12740.17 -12740.24 -12745.19 -12748.02 -12745.21 -12715.50 -12463.45 -11864.54 -11902.98 -11616.46 -11058.35 -10771.01 -9828.52 -5624.13 -1234.75 -181.33 -70.56 -9.52 7.81 26.40 37.29 69.21 91.62 120.64 179.78 204.44 228.57 275.60 335.06 306.81 234.36 172.93 134.98 105.22 80.44 55.13 44.53 32.10 18.31 11.66 0.47 -21.17 -39.79 -25.95 -35.94 -29.00 -13.76 14.48 16.87 22.98 28.05 35.23 42.03 49.31 54.27 59.03 71.11 77.17 86.99 94.24 114.81 143.29 159.09 166.49 163.95 165.83 164.68 170.00 179.02 192.17 207.83 224.90 242.90 263.88 287.79 318.38 344.82 350.45 385.88 416.15 440.50 465.55 493.86 532.20 560.65 820.96 1255.33 1377.73 879.96 607.08 345.37 160.54 97.62 39.57 -1482.84 -5605.92 -5246.89 -5012.41 -5255.41 -5558.43 -5688.19 -5864.09 -5959.43 -5908.99 -4850.22 -4484.38 -6557.23 -7066.83 -7335.17 -7156.38 -7114.57 -7091.63 -7101.83 -7110.56 -7131.42 -7171.23 -7423.71 -8377.08 -8793.19 -8955.61 -9008.82 -9000.19 -9010.90 -9011.07 -9000.05 -9000.11
-12665.54 -12665.46 -12672.96 -12677.40 -12684.63 -12687.89 -12692.53 -12700.90 -12718.75 -12725.61 -12731.68 -12742.84 -12743.58 -12747.98 -12751.33 -12747.88 -12751.65 -12755.33 -12750.30 -12738.63 -12657.70 -12082.36 -11309.13 -10859.06 -9990.15 -10001.29 -8324.30 -6739.50 -1858.09 -215.80 -168.97 -41.71 -6.80 18.60 34.57 42.21 83.82 122.83 183.39 219.20 249.84 237.26 285.72 330.01 298.90 229.08 182.80 145.81 111.92 82.11 62.69 48.35 37.43 25.02 18.53 10.62 -1.01 -3.76 -9.86 -8.83 3.70 15.14 19.75 27.05 31.48 35.19 43.17 45.41 49.59 52.07 60.08 65.10 76.50 84.00 95.68 108.67 125.77 137.02 138.47 142.64 144.56 146.47 160.73 174.25 186.26 198.37 227.39 235.33 261.53 288.12 311.29 338.25 345.51 374.42 407.51 432.11 439.48 472.51 505.65 525.39 696.66 1090.97 1300.77 992.12 487.56 248.81 119.67 74.44 18.73 -47.19 -2191.55 -5247.09 -5000.96 -5157.06 -5542.00 -5672.70 -5830.98 -5970.23 -5846.25 -4700.63 -3675.09 -5184.81 -6965.13 -7455.57 -7262.93 -7119.66 -7073.65 -7066.58 -7062.96 -7051.01 -7137.22 -7343.35 -8243.54 -8957.91 -9025.24 -9008.82 -8980.46 -8994.49 -8990.36 -8987.34 -8987.40
-12667.11 -12667.88 -12672.86 -12683.56 -12687.34 -12691.38 -12698.45 -12706.84 -12713.77 -12723.31 -12729.69 -12737.35 -12741.79 -12747.83 -12754.06 -12752.59 -12754.46 -12754.49 -12750.73 -12680.87 -12514.47 -11865.50 -10328.17 -9474.04 -8805.73 -7192.84 -6090.99 -3016.22 -1067.85 -199.06 -161.89 -61.93 -1.59 24.40 35.62 60.62 100.24 115.01 147.29 197.81 284.32 309.18 330.22 308.93 277.33 239.55 196.27 157.24 124.18 97.56 65.94 52.08 41.08 31.44 22.77 18.98 10.73 5.06 5.77 3.46 3.42 30.99 27.52 36.61 43.31 43.66 48.22 50.89 52.49 54.40 56.56 58.45 65.64 77.43 83.54 95.28 100.72 110.71 121.25 129.93 139.69 140.88 149.42 172.01 181.72 191.31 216.88 228.96 254.63 275.66 318.84 333.53 338.81 356.21 386.56 406.40 423.70 451.01 478.21 510.39 579.32 1062.70 1201.30 861.17 471.65 177.24 103.98 47.13 -24.55 -280.77 -2164.60 -4754.36 -4783.08 -5010.72 -5300.85 -5721.37 -5811.74 -6017.36 -5847.85 -4795.66 -3689.71 -4442.38 -7096.44 -7108.99 -7180.91 -7122.37 -7050.52 -7042.30 -7045.78 -7043.71 -7031.31 -7461.39 -8480.51 -8929.07 -9015.32 -9009.05 -8999.39 -8994.64 -8987.62 -8978.68 -8978.74
-12668.37 -12668.30 -12675.96 -12683.69 -12688.31 -12698.40 -12700.95 -12710.18 -12722.13 -12731.72 -12735.98 -12742.51 -12749.84 -12755.66 -12760.82 -12749.37 -12743.50 -12724.96 -12563.20 -12518.83 -12105.60 -10887.72 -9609.12 -8201.79 -6888.06 -5430.16 -4248.92 -2116.19 -443.21 -149.66 -106.84 -39.33 -7.20 22.56 46.36 56.40 121.89 133.28 158.32 223.75 307.60 328.54 341.58 297.31 272.70 226.02 182.09 160.25 118.53 108.09 81.23 64.90 46.76 37.29 30.79 25.74 19.56 18.39 16.15 36.01 80.77 72.55 56.75 53.23 51.93 52.02 52.51 54.18 56.43 57.07 57.21 58.02 59.40 64.86 70.65 76.61 92.62 103.29 109.74 121.96 121.71 139.82 154.26 165.13 176.90 188.31 205.62 223.82 242.99 267.50 298.00 315.29 338.00 348.08 364.99 379.81 403.11 436.77 461.23 492.36 535.61 806.82 1060.05 805.28 436.05 213.37 137.58 61.66 -13.10 -762.80 -2478.81 -4899.58 -4779.45 -4897.40 -5225.83 -5638.29 -5846.46 -6009.31 -5880.68 -5140.64 -3970.33 -3559.82 -5864.60 -7087.10 -7222.30 -7134.54 -7054.28 -7035.19 -7031.98 -7026.10 -7020.30 -7411.64 -8425.47 -8933.18 -9007.62 -9000.48 -8992.93 -8989.30 -8982.30 -8975.33 -8975.40
-12670.60 -12670.53 -12678.10 -12684.76 -12691.75 -12701.16 -12706.95 -12717.10 -12726.89 -12737.09 -12743.19 -12750.28 -12758.34 -12757.79 -12741.94 -12711.80 -12583.46 -12448.27 -12146.78 -11643.71 -11073.45 -10129.63 -8392.28 -7440.36 -6653.49 -4397.85 -2322.43 -681.58 -159.99 -114.33 -37.28 -18.11 -5.84 25.46 63.13 116.81 149.85 190.51 212.81 223.38 340.13 359.40 334.52 306.02 278.70 217.02 185.99 161.33 133.33 108.12 88.53 73.69 54.59 43.00 41.88 41.55 29.89 27.72 43.52 64.67 94.54 95.69 74.44 56.38 59.24 56.81 58.82 63.67 61.76 60.05 58.47 57.31 56.48 57.71 63.79 69.77 80.73 84.79 95.68 104.81 113.61 125.98 139.22 160.24 172.12 188.98 204.95 222.67 243.38 265.40 282.64 306.53 324.61 339.80 353.61 363.60 387.64 399.30 427.48 449.53 494.64 675.36 955.81 832.97 397.55 179.42 110.24 78.93 -31.66 -2752.21 -4482.24 -4877.42 -4847.01 -5000.31 -5354.82 -5671.60 -5869.56 -5997.96 -5901.80 -5340.73 -4545.25 -5346.55 -7122.17 -7302.05 -7240.20 -7141.14 -7037.99 -7032.36 -7028.70 -7023.01 -7022.90 -7341.81 -8521.31 -8962.94 -9002.86 -8995.08 -8990.84 -8985.54 -8982.26 -8976.74 -8976.81
-12674.82 -12675.31 -12681.49 -12690.63 -12699.29 -12707.21 -12713.79 -12725.64 -12734.21 -12743.81 -12750.65 -12749.72 -12738.12 -12709.27 -12669.69 -12417.79 -12112.63 -11463.57 -11014.75 -10826.21 -10713.52 -9417.78 -7564.00 -6907.94 -4736.95 -2625.17 -926.45 -234.15 -180.01 -111.02 -32.71 -12.64 -5.75 49.26 83.15 97.11 134.11 195.34 249.56 275.24 346.08 387.15 356.24 321.73 275.69 238.57 225.56 180.53 150.76 118.69 93.03 82.02 69.30 51.08 48.20 46.78 62.11 79.14 87.48 103.37 106.96 104.52 78.38 65.04 67.27 66.54 69.83 66.37 64.38 63.27 59.06 56.42 54.34 54.97 58.98 65.71 69.21 80.85 92.05 99.19 112.87 125.19 133.64 154.58 171.71 188.27 201.28 228.24 240.01 258.95 287.62 303.00 314.44 333.11 339.82 352.83 368.23 385.90 398.66 406.04 445.69 480.45 650.62 775.96 449.52 168.48 106.75 65.97 -24.24 -1903.46 -4642.70 -5014.03 -4963.80 -5086.21 -5470.88 -5806.84 -5939.69 -6063.75 -6145.49 -5254.72 -4838.39 -6603.73 -7394.60 -7252.58 -7153.30 -7090.13 -7041.31 -7031.89 -7030.17 -7023.32 -7018.21 -7421.52 -8677.85 -8976.37 -9005.88 -8999.51 -8993.58 -8990.79 -8986.94 -8982.50 -8982.57
-12683.56 -12683.48 -12693.85 -12699.96 -12705.40 -12715.38 -12724.81 -12734.32 -12749.14 -12752.90 -12742.81 -12708.67 -12656.97 -12440.65 -12021.05 -11572.89 -10914.15 -10573.44 -10136.30 -9901.78 -9643.16 -9037.84 -7237.58 -5994.17 -3668.18 -2413.33 -532.50 -228.98 -189.03 -131.35 -30.30 -6.49 -3.64 33.00 82.63 107.99 153.19 192.22 261.70 317.86 389.17 372.69 341.38 310.04 267.33 246.18 232.71 198.96 151.38 131.24 104.17 89.81 73.58 78.79 63.05 65.18 79.41 114.17 130.64 141.70 129.38 105.52 99.02 89.05 78.40 74.13 73.23 70.30 68.67 63.21 59.36 56.66 53.94 53.24 55.72 61.78 67.44 74.52 86.08 90.09 112.58 122.01 132.14 153.79 167.10 183.32 203.77 222.27 240.10 256.46 271.48 302.61 312.12 325.68 333.36 346.02 354.79 369.04 388.33 386.16 370.62 366.92 364.69 444.45 360.19 137.19 76.56 47.07 -17.24 -1780.76 -3598.58 -5071.19 -5003.75 -5195.11 -5644.48 -5799.80 -5949.25 -5979.40 -6133.68 -5144.66 -4871.87 -6178.52 -7353.74 -7248.72 -7127.34 -7056.35 -7035.57 -7037.08 -7038.83 -7035.36 -7063.51 -7188.98 -8729.44 -8944.00 -9016.36 -9009.48 -9001.65 -8997.88 -8994.28 -8991.91 -8992.35
-12703.19 -12703.10 -12711.27 -12717.96 -12722.73 -12731.82 -12742.97 -12752.02 -12758.40 -12741.40 -12698.60 -12515.29 -12151.57 -11993.09 -11461.18 -10770.17 -10296.39 -9843.73 -9646.31 -9606.43 -9511.45 -8859.60 -6649.18 -4985.78 -3675.32 -2666.23 -832.37 -240.62 -195.84 -114.43 -27.58 -4.19 14.33 41.12 73.97 112.29 162.89 228.33 259.04 329.15 379.39 353.37 286.39 265.16 244.34 229.61 208.83 190.01 148.49 132.40 115.83 101.50 94.36 107.06 72.42 83.47 94.46 130.04 160.69 171.68 148.74 117.08 101.96 96.60 92.24 81.51 80.81 76.32 72.45 64.37 59.10 55.34 51.49 51.54 52.92 57.58 66.48 71.54 83.09 92.95 105.81 115.63 127.77 148.42 162.46 180.24 193.97 215.27 239.08 256.64 262.71 294.68 307.98 320.78 330.63 334.93 342.68 354.67 368.63 367.76 311.37 276.13 269.89 240.41 226.20 110.86 74.18 24.08 -19.53 -311.14 -3632.94 -4934.70 -5005.39 -5451.78 -5708.50 -5794.89 -5898.97 -5571.35 -5728.84 -5737.68 -6116.56 -7332.34 -7424.96 -7212.11 -7100.85 -7036.96 -7038.72 -7049.14 -7047.98 -7049.76 -7059.11 -7308.28 -8215.41 -8911.45 -9022.91 -9020.36 -9009.81 -9007.80 -9008.04 -9005.88 -9005.97
-12725.95 -12725.85 -12733.58 -12736.33 -12747.47 -12753.83 -12754.44 -12757.23 -12752.43 -12688.16 -12574.11 -12259.00 -11513.96 -10722.85 -9898.33 -9779.58 -9511.24 -9506.88 -9540.96 -9555.43 -9498.28 -8836.97 -6689.31 -4176.74 -3643.60 -2785.81 -1582.14 -409.71 -199.45 -135.08 -34.99 2.84 14.01 37.40 88.79 136.71 201.57 251.40 289.58 321.41 319.16 278.71 258.23 252.89 220.43 220.31 202.61 179.27 167.72 160.87 143.24 140.99 138.53 128.91 97.49 100.36 110.00 149.97 190.53 185.43 157.02 137.15 120.47 98.95 93.82 86.94 85.41 80.34 73.74 68.02 57.79 52.27 48.54 49.74 51.09 54.52 59.32 66.36 75.54 84.30 100.77 112.38 130.58 139.66 170.53 183.53 197.33 217.68 234.52 254.66 269.81 280.28 304.20 316.34 329.68 344.68 348.77 352.45 356.48 354.17 338.51 327.95 334.79 218.56 158.19 123.18 68.58 27.66 -44.02 -276.00 -2347.38 -4798.97 -4990.70 -5364.82 -5707.34 -5763.92 -5751.61 -5241.57 -4252.10 -3893.15 -5413.76 -7505.62 -7405.63 -7154.94 -7053.49 -7032.18 -7045.08 -7063.36 -7065.51 -7059.34 -7079.98 -7290.63 -8208.53 -8824.18 -9028.66 -9029.80 -9024.69 -9022.19 -9021.80 -9021.15 -9021.24
-12747.86 -12748.08 -12752.23 -12746.52 -12747.20 -12743.72 -12689.62 -12681.91 -12609.46 -12507.78 -12243.55 -11726.76 -10398.57 -9755.23 -9174.57 -8853.79 -8974.10 -9239.65 -9418.84 -9513.97 -9467.35 -8591.10 -7149.59 -4182.08 -3531.62 -2567.61 -1403.34 -239.21 -196.53 -106.94 -44.67 -10.08 17.28 30.82 81.07 114.78 214.59 274.95 308.24 297.60 254.75 253.99 249.74 223.47 191.76 183.16 177.80 161.74 159.87 165.26 160.88 148.53 134.18 134.69 129.18 134.73 156.22 184.81 212.62 202.00 188.17 149.49 139.26 116.34 103.77 96.79 87.65 81.94 75.55 66.86 55.96 50.07 47.28 45.55 46.38 49.25 52.39 61.16 69.55 80.63 92.13 108.67 131.80 145.43 163.20 179.03 191.66 216.45 234.78 253.95 265.67 288.91 309.72 324.29 344.06 350.77 357.13 353.13 351.99 339.72 326.84 317.47 300.72 229.26 170.90 117.79 69.13 45.53 -20.54 -234.64 -2495.35 -4771.48 -4858.70 -5147.48 -5571.92 -5628.13 -5424.31 -4745.89 -3035.05 -2033.44 -4139.70 -6496.41 -7458.34 -7224.01 -7102.53 -7047.49 -7067.51 -7075.52 -7072.03 -7069.07 -7114.10 -7389.57 -8318.65 -8917.91 -9043.82 -9044.08 -9036.15 -9037.47 -9041.41 -9040.36 -9040.45
-12739.61 -12739.53 -12727.91 -12688.62 -12660.21 -12616.95 -12459.35 -12391.41 -12286.64 -11654.42 -10970.90 -10360.92 -9475.49 -8379.25 -8158.89 -8088.70 -8323.98 -8667.12 -9178.60 -9305.56 -9223.25 -7732.68 -5959.03 -4171.80 -3629.68 -2910.96 -2188.57 -727.83 -202.14 -173.36 -107.71 -43.51 -0.52 35.22 77.98 115.97 181.71 258.61 284.21 259.42 233.09 204.90 181.57 186.97 163.52 149.95 151.00 143.76 138.00 146.61 137.17 128.15 123.91 132.53 139.15 143.61 175.86 201.34 234.56 243.55 218.01 171.92 160.50 128.50 111.09 105.94 93.60 84.93 75.79 63.70 57.09 48.87 42.65 40.78 41.43 46.88 51.81 57.44 64.76 79.21 86.27 103.64 124.02 141.36 152.11 173.42 192.97 211.35 232.56 250.25 266.14 298.49 314.23 352.53 364.57 365.82 367.52 359.88 353.02 295.50 275.20 270.72 237.86 202.95 159.21 125.55 80.74 52.25 -78.40 -1221.96 -3796.00 -4801.00 -4876.37 -5143.45 -5545.61 -5464.32 -4996.15 -4251.90 -2394.18 -1687.82 -2745.73 -5589.28 -7441.25 -7257.29 -7117.49 -7061.01 -7069.67 -7085.16 -7082.91 -7076.93 -7119.09 -7549.10 -8590.22 -9056.24 -9061.33 -9058.65 -9053.30 -9055.97 -9058.13 -9059.84 -9059.94
-12572.62 -12574.01 -12458.26 -12164.60 -12090.34 -12062.08 -11768.80 -11210.69 -10925.86 -10334.93 -9399.91 -8432.06 -8258.25 -7894.63 -7590.11 -7742.80 -7845.97 -8064.02 -8439.90 -8614.19 -9002.49 -7846.57 -6900.27 -4912.23 -4094.94 -3001.50 -2108.85 -637.06 -261.04 -225.95 -145.13 -69.57 -20.25 22.08 59.73 97.84 137.16 190.63 199.14 192.62 191.51 163.78 137.63 137.18 139.39 133.98 125.96 125.73 126.56 109.76 112.67 114.52 123.65 130.74 136.49 132.32 176.23 218.54 247.02 263.71 233.73 187.69 173.23 141.81 126.67 112.05 108.30 89.21 70.68 61.81 54.37 45.70 39.41 36.38 36.98 39.96 47.58 50.89 62.73 71.45 85.05 99.23 110.83 131.80 149.58 171.63 193.12 205.39 233.34 257.16 274.92 309.28 328.15 370.88 378.93 378.88 374.15 361.90 341.99 302.82 272.56 231.95 196.96 158.04 131.19 102.06 73.67 50.47 -111.69 -1587.95 -3704.56 -4831.18 -4878.96 -5179.25 -5566.39 -5495.95 -4272.48 -3221.50 -1670.86 -1437.21 -2784.74 -6683.63 -7485.08 -7266.10 -7129.74 -7082.28 -7093.17 -7099.53 -7092.09 -7092.89 -7096.31 -7525.76 -8613.58 -8967.59 -9082.87 -9076.16 -9070.48 -9073.04 -9073.01 -9079.91 -9080.01
-11691.56 -11692.50 -11222.02 -11152.59 -10959.82 -10436.30 -10146.73 -9516.47 -8896.03 -8383.24 -8292.12 -7927.65 -7661.52 -7494.05 -7438.81 -7482.37 -7562.28 -7734.83 -7972.50 -8073.73 -8249.58 -8068.43 -7188.82 -5984.48 -3936.68 -2782.21 -1951.10 -871.44 -286.91 -241.87 -152.17 -68.55 -16.99 16.78 28.12 57.35 95.01 127.69 154.67 124.54 131.94 138.24 113.07 119.26 118.30 100.65 109.79 110.68 105.59 98.98 102.10 99.94 110.35 120.03 126.68 126.95 148.55 199.99 241.62 252.66 242.78 205.29 176.85 160.34 143.00 119.12 110.55 111.68 82.34 63.06 53.78 41.97 33.13 32.96 33.64 38.42 44.63 48.99 60.19 65.39 77.66 96.35 110.89 122.92 150.81 171.11 187.20 207.31 236.76 258.81 284.24 310.23 336.95 371.49 380.54 382.15 372.66 360.72 331.90 296.32 251.68 202.03 166.29 136.34 106.09 88.92 76.53 -71.03 -545.85 -2442.69 -4235.16 -4644.62 -4824.28 -5254.66 -5634.39 -5446.40 -4129.17 -2376.23 -1243.63 -1273.03 -3412.99 -6561.07 -7430.18 -7204.53 -7131.63 -7099.97 -7108.14 -7125.17 -7114.69 -7120.53 -7154.22 -7463.05 -8424.51 -9003.57 -9097.55 -9096.60 -9093.37 -9092.74 -9104.49 -9099.65 -9099.76
-9710.92 -9713.65 -9681.71 -9270.06 -9351.68 -8531.22 -8443.36 -8078.38 -8000.80 -7704.12 -7517.75 -7474.57 -7437.98 -7415.65 -7423.88 -7449.72 -7487.31 -7528.93 -7634.22 -7660.61 -7687.26 -7579.46 -7081.89 -6453.49 -5060.08 -3035.48 -2302.61 -834.48 -460.19 -250.20 -180.73 -92.77 -59.59 3.45 16.35 30.38 68.05 67.57 95.03 80.81 89.89 98.10 80.93 89.11 91.66 88.63 87.28 88.61 89.26 87.55 95.79 93.33 93.52 97.99 107.02 121.59 125.70 164.97 194.29 230.91 253.10 216.58 187.68 166.37 160.42 141.95 124.67 120.37 80.25 61.68 47.86 36.57 30.23 29.60 31.34 34.61 35.98 40.45 48.21 61.21 72.38 93.83 112.96 124.98 145.15 169.69 184.86 209.27 222.73 259.94 280.91 298.89 340.93 366.74 373.78 371.12 363.42 339.04 301.01 278.60 229.23 194.14 158.92 112.90 92.17 83.85 71.52 -471.92 -1344.06 -2806.23 -3872.79 -4490.76 -4999.56 -5445.19 -5774.58 -5056.58 -3774.31 -2120.75 -1290.13 -2092.23 -5018.81 -7139.85 -7468.41 -7251.39 -7135.38 -7116.71 -7134.52 -7141.83 -7138.13 -7139.03 -7193.54 -7486.72 -8338.23 -8915.60 -9105.36 -9119.35 -9113.93 -9113.03 -9114.50 -9119.23 -9119.34
-8068.14 -8071.04 -8112.36 -8272.10 -8039.97 -7940.39 -7776.94 -7620.00 -7502.30 -7438.65 -7427.17 -7409.66 -7408.39 -7412.77 -7425.49 -7451.12 -7467.10 -7489.36 -7501.50 -7535.43 -7513.13 -7289.01 -6929.90 -6776.86 -5467.34 -3316.29 -2963.01 -1163.90 -452.26 -255.96 -207.35 -141.41 -70.48 -25.58 12.42 12.50 26.57 44.48 44.81 43.91 59.66 73.15 67.56 71.12 72.10 76.60 70.89 72.03 75.74 75.69 87.97 86.87 84.30 90.63 100.05 109.64 124.33 137.15 186.11 219.55 244.15 241.21 224.76 190.28 178.79 164.84 154.32 134.67 82.41 58.82 37.29 29.38 28.92 25.46 25.09 27.96 32.12 37.67 42.01 58.58 73.68 90.04 103.96 118.57 150.13 160.96 178.10 200.41 226.74 243.50 277.59 287.55 338.43 358.46 362.60 361.85 349.45 342.14 297.48 252.91 225.59 184.17 134.86 107.61 83.77 74.66 -64.45 -481.85 -1164.90 -2033.66 -2858.98 -4709.29 -5410.19 -5703.03 -5678.62 -5146.07 -3283.44 -1559.93 -2338.13 -4294.96 -6487.00 -7169.24 -7347.54 -7165.22 -7130.66 -7138.40 -7151.41 -7163.04 -7154.98 -7157.79 -7203.16 -7484.70 -8457.09 -9060.21 -9144.09 -9139.29 -9132.80 -9126.29 -9133.46 -9137.51 -9137.63
-7557.09 -7558.28 -7616.03 -7630.33 -7567.72 -7525.48 -7517.97 -7496.25 -7440.99 -7420.88 -7413.13 -7415.46 -7422.52 -7427.48 -7443.47 -7475.34 -7483.26 -7492.61 -7501.88 -7513.93 -7505.25 -7267.40 -6897.95 -6761.56 -6619.19 -4305.55 -2757.16 -722.90 -308.13 -283.68 -219.28 -159.62 -95.35 -77.43 -16.79 10.24 10.11 12.95 13.76 25.47 42.16 42.83 54.28 52.23 48.03 52.48 53.59 57.39 56.85 65.31 73.21 69.90 73.06 82.55 89.56 112.72 123.61 136.03 180.72 207.60 226.06 211.33 214.59 226.02 202.01 175.07 162.96 129.17 70.91 48.85 35.14 25.64 18.75 16.09 16.99 23.42 25.52 35.09 43.22 58.17 72.47 79.39 102.08 117.57 133.86 151.57 173.26 193.16 213.11 246.26 259.43 302.02 332.39 349.92 351.48 343.49 340.40 320.44 264.94 238.44 200.52 159.62 120.18 93.60 68.74 49.07 -29.99 -396.54 -1404.76 -1792.92 -3422.65 -4937.57 -5609.21 -5881.70 -5727.69 -4513.17 -2234.29 -1554.76 -4299.73 -6465.45 -7425.05 -7371.71 -7232.48 -7152.95 -7118.41 -7148.94 -7177.27 -7176.94 -7164.76 -7173.35 -7227.74 -7498.52 -8267.97 -9081.09 -9160.76 -9158.13 -9144.93 -9145.66 -9147.16 -9153.81 -9153.95
-7490.47 -7490.66 -7505.02 -7509.66 -7504.13 -7498.06 -7493.56 -7471.68 -7447.10 -7433.01 -7428.81 -7429.33 -7436.63 -7443.06 -7454.72 -7482.25 -7491.30 -7502.06 -7511.93 -7515.28 -7471.94 -7269.63 -6918.12 -6789.54 -6650.51 -5084.17 -1843.10 -773.30 -338.74 -294.71 -239.81 -176.13 -147.59 -121.68 -120.04 -65.40 -5.90 7.56 6.90 10.60 17.73 23.08 39.02 34.28 36.97 39.04 37.40 44.97 50.76 48.39 54.02 55.81 65.45 77.09 79.49 95.26 131.07 148.84 172.83 190.28 189.95 185.66 175.23 189.98 163.69 132.15 135.58 112.38 61.45 41.01 29.95 20.15 14.77 15.00 14.77 18.47 21.46 26.66 36.13 48.07 60.44 77.33 98.26 118.76 135.13 154.23 169.82 181.43 211.99 239.40 258.59 289.94 327.16 343.12 344.56 337.08 317.92 283.49 252.39 213.16 160.70 138.77 102.15 76.83 56.98 36.53 -347.01 -965.98 -1362.39 -1991.73 -3729.52 -4644.22 -5760.78 -5824.75 -5377.09 -4143.88 -2469.24 -1473.18 -3373.39 -5545.82 -6845.60 -7151.03 -7181.68 -7140.91 -7141.90 -7168.37 -7188.89 -7182.39 -7182.25 -7198.86 -7243.16 -7581.58 -8541.66 -9055.71 -9182.56 -9174.34 -9163.95 -9164.07 -9165.99 -9169.38 -9169.56
-7503.36 -7503.37 -7507.48 -7511.73 -7509.40 -7507.04 -7503.30 -7493.46 -7465.30 -7450.66 -7452.43 -7447.42 -7449.00 -7450.77 -7470.14 -7488.63 -7498.93 -7511.28 -7518.18 -7525.90 -7506.40 -7258.82 -6961.27 -6768.74 -6750.07 -4830.17 -3470.13 -1292.38 -492.29 -306.17 -267.30 -246.16 -212.48 -184.81 -170.20 -101.74 -56.50 -15.21 -2.26 3.59 5.70 18.66 22.50 25.13 27.93 25.14 31.78 32.62 34.10 40.60 44.82 50.29 55.48 68.88 73.13 91.03 121.81 146.74 163.87 178.08 172.13 164.80 153.00 142.08 121.96 92.05 82.82 65.68 46.37 28.72 22.78 16.06 12.23 9.20 8.83 11.15 16.07 20.63 34.25 45.85 63.17 79.97 99.12 112.91 140.27 151.51 167.62 181.03 205.25 235.86 252.98 288.44 323.49 332.22 327.93 316.90 281.16 256.49 224.75 173.70 142.65 118.14 88.07 61.44 35.13 -4.28 -894.78 -1281.88 -1724.10 -2062.42 -3587.62 -5082.36 -5601.41 -5780.18 -5310.02 -3823.15 -2318.76 -1886.36 -3010.13 -4631.95 -6625.26 -7043.90 -7158.58 -7171.00 -7172.57 -7194.88 -7196.62 -7197.06 -7202.69 -7214.34 -7235.78 -7569.88 -8419.79 -8870.00 -9200.60 -9194.72 -9183.77 -9177.03 -9179.72 -9183.97 -9184.09
-7525.00 -7524.99 -7524.29 -7523.89 -7525.13 -7522.67 -7516.93 -7510.44 -7478.66 -7461.05 -7468.42 -7469.18 -7465.22 -7466.46 -7477.85 -7499.44 -7509.61 -7517.57 -7525.08 -7532.77 -7477.16 -7279.57 -6899.74 -6616.26 -6705.65 -5775.41 -4124.36 -2519.11 -996.48 -525.52 -279.15 -261.18 -234.85 -211.40 -180.46 -158.20 -116.31 -62.16 -43.30 -32.91 -18.30 3.40 4.54 8.98 10.00 15.67 16.12 19.21 23.07 29.64 34.76 45.11 51.20 58.91 63.51 71.74 80.58 106.99 126.98 133.81 145.97 116.53 114.35 91.02 73.55 66.01 56.98 43.07 26.01 22.24 13.16 11.78 7.21 3.21 3.96 8.78 13.98 18.50 28.63 41.59 63.91 77.10 89.58 107.42 127.59 151.47 170.56 187.25 204.84 235.86 257.27 287.58 306.77 316.86 315.61 288.80 260.37 223.47 182.56 149.73 118.11 91.97 79.88 48.29 26.45 -254.91 -865.97 -1709.28 -1854.40 -2251.52 -3501.34 -5207.63 -5695.98 -5751.65 -5594.92 -4669.49 -2180.34 -2174.59 -2915.73 -4425.65 -6380.50 -7110.54 -7205.64 -7197.84 -7196.15 -7204.14 -7207.79 -7208.93 -7212.37 -7222.23 -7265.90 -7492.26 -8091.35 -9030.24 -9211.08 -9206.38 -9194.10 -9196.16 -9194.40 -9197.40 -9197.45
-7528.99 -7528.93 -7531.91 -7532.97 -7532.37 -7532.78 -7528.47 -7521.29 -7503.95 -7492.58 -7481.97 -7477.08 -7473.66 -7478.72 -7487.01 -7516.29 -7523.59 -7528.69 -7537.98 -7546.01 -7548.61 -7373.10 -5968.96 -5324.93 -6540.10 -6914.91 -5180.34 -4171.06 -1926.09 -817.86 -468.84 -333.47 -266.14 -248.46 -210.08 -185.00 -169.81 -114.29 -111.25 -97.42 -55.34 -19.69 -19.11 -16.98 2.37 3.22 5.97 10.20 12.88 20.14 28.24 29.55 36.53 38.41 44.17 52.12 49.11 81.42 104.92 88.24 87.38 89.12 81.92 74.23 63.13 57.64 41.59 29.57 22.21 14.62 4.51 -0.22 -2.09 -2.84 -1.21 -0.95 7.52 14.57 23.62 43.17 53.00 73.25 88.55 104.45 120.84 140.66 160.86 186.78 197.51 233.98 257.13 272.87 298.55 306.18 296.29 262.32 234.80 205.30 171.69 153.84 94.73 85.88 51.31 -84.33 -482.42 -822.79 -1452.82 -1816.84 -1865.11 -2687.42 -3527.96 -5554.31 -5701.48 -5920.14 -5817.37 -4850.18 -3343.00 -2542.83 -3199.26 -5214.79 -6811.73 -7243.44 -7198.42 -7208.85 -7208.61 -7211.64 -7219.37 -7220.50 -7222.14 -7230.76 -7304.50 -7450.80 -7977.23 -8914.75 -9217.65 -9211.14 -9212.41 -9207.12 -9205.75 -9207.87 -9207.93
-7541.98 -7541.91 -7542.07 -7544.72 -7542.24 -7541.80 -7536.35 -7523.75 -7508.67 -7502.33 -7497.92 -7491.95 -7489.00 -7487.75 -7497.69 -7521.18 -7530.70 -7535.35 -7543.99 -7548.77 -7553.88 -7511.13 -5956.61 -4969.91 -5882.34 -7110.01 -6756.28 -5603.46 -3149.15 -971.82 -721.27 -537.70 -284.40 -265.18 -222.79 -204.39 -204.67 -169.30 -158.05 -158.20 -130.47 -114.70 -65.30 -67.58 -52.77 -34.30 -10.98 1.70 2.38 9.95 17.23 22.64 25.19 22.20 25.40 35.18 39.40 46.15 60.29 63.08 57.63 66.40 58.82 47.60 38.69 35.06 26.87 22.77 14.06 0.81 -9.15 -11.61 -12.53 -14.14 -8.24 -5.50 1.76 9.00 19.87 30.75 50.33 58.71 81.18 89.44 120.22 133.64 152.54 174.65 195.53 215.82 252.13 267.56 279.51 285.29 272.92 253.27 221.93 177.71 156.62 121.70 83.63 59.33 12.24 -516.99 -1108.56 -1712.37 -1748.77 -1722.67 -1931.81 -2936.59 -4147.75 -5449.16 -5872.89 -5965.68 -5968.98 -5530.49 -4560.06 -3854.55 -4418.74 -5526.40 -6780.50 -7346.42 -7263.27 -7230.57 -7217.57 -7219.25 -7228.46 -7227.59 -7229.30 -7242.80 -7348.65 -7554.48 -7890.78 -8704.01 -9062.56 -9226.49 -9228.19 -9221.02 -9219.56 -9219.35 -9219.43
-7554.62 -7554.55 -7554.75 -7557.51 -7555.37 -7552.79 -7548.17 -7540.02 -7526.34 -7515.82 -7508.94 -7504.72 -7496.75 -7497.51 -7501.11 -7526.31 -7533.80 -7536.81 -7543.19 -7548.04 -7554.49 -7504.76 -6883.14 -6055.88 -6161.37 -7185.94 -7394.92 -5226.18 -3543.99 -1038.73 -897.54 -830.38 -417.03 -294.27 -265.48 -247.81 -219.39 -191.41 -175.98 -170.53 -171.82 -174.12 -151.20 -125.85 -102.16 -79.69 -35.64 -40.20 -27.11 -14.71 4.33 -10.81 3.47 12.61 12.77 16.37 17.95 17.23 17.00 25.63 26.59 22.81 20.26 25.85 26.02 21.55 21.89 10.83 0.92 -8.37 -22.28 -32.83 -37.84 -28.96 -16.52 -18.80 -5.53 3.42 13.40 32.43 45.81 60.29 73.97 83.09 104.12 136.05 159.27 170.74 195.37 224.26 247.24 260.97 266.80 264.77 246.58 230.04 196.94 147.12 126.73 95.70 69.55 34.09 -22.61 -839.76 -1433.92 -1772.37 -1661.50 -1672.62 -1880.33 -3121.78 -4490.34 -5300.83 -5920.63 -6016.23 -6085.50 -6004.08 -5675.50 -5276.44 -5949.16 -7500.34 -7477.09 -7350.04 -7280.73 -7229.56 -7225.93 -7232.39 -7239.97 -7240.64 -7244.02 -7260.22 -7331.04 -7523.25 -8086.82 -8871.56 -9243.19 -9237.40 -9236.38 -9234.37 -9228.05 -9229.07 -9229.14
-7566.40 -7566.32 -7567.37 -7565.39 -7569.85 -7566.00 -7562.87 -7551.55 -7536.45 -7524.91 -7522.26 -7514.38 -7506.29 -7503.70 -7510.64 -7530.75 -7535.98 -7537.21 -7540.88 -7544.61 -7553.52 -7517.00 -7354.23 -6878.34 -6475.14 -7210.02 -7535.51 -6566.92 -3992.19 -1331.80 -888.30 -862.01 -659.78 -471.28 -358.77 -357.03 -229.89 -224.31 -200.33 -197.94 -199.39 -181.64 -164.90 -151.26 -131.94 -115.48 -93.21 -95.73 -85.44 -80.48 -45.37 -59.01 -28.01 -2.72 -2.78 2.68 10.69 0.18 8.24 10.16 13.79 15.27 17.09 18.63 9.06 6.95 7.50 4.48 -17.55 -34.85 -46.75 -52.69 -48.79 -39.50 -42.85 -32.32 -11.63 -1.52 5.76 24.57 45.37 56.55 69.44 80.75 100.93 133.50 162.54 176.22 205.35 234.20 243.52 248.30 250.11 224.29 211.92 172.21 155.42 120.04 100.40 77.24 46.75 -6.43 -379.30 -1247.85 -1629.73 -1627.34 -1550.57 -1695.06 -1879.13 -3064.72 -4444.41 -5660.71 -5917.39 -6074.62 -6190.81 -6344.51 -6374.96 -6314.82 -6348.53 -8258.83 -7690.46 -7367.73 -7253.83 -7229.80 -7237.09 -7253.15 -7248.12 -7249.17 -7250.36 -7263.21 -7291.95 -7586.20 -8432.46 -8957.50 -9251.41 -9247.42 -9244.15 -9239.17 -9238.02 -9238.86 -9238.94
-7578.05 -7578.46 -7579.54 -7579.57 -7578.38 -7579.70 -7573.86 -7564.27 -7550.85 -7532.91 -7528.92 -7522.72 -7516.51 -7512.37 -7519.33 -7536.31 -7537.70 -7537.00 -7540.14 -7543.61 -7548.70 -7555.83 -7553.95 -7288.69 -7126.00 -7504.52 -7555.12 -7267.33 -5127.43 -2000.75 -1088.59 -1148.66 -906.02 -852.82 -775.61 -640.86 -362.20 -293.94 -257.05 -234.34 -225.80 -211.51 -191.23 -169.42 -161.19 -147.60 -111.83 -123.82 -122.90 -109.39 -113.33 -90.30 -73.18 -53.00 -33.04 -22.86 -17.48 -11.79 -17.78 -12.23 -3.78 0.41 -2.77 -2.98 -5.16 -26.78 -14.47 -35.26 -38.50 -50.48 -61.06 -64.36 -59.66 -58.80 -61.32 -40.93 -16.80 -3.16 8.33 19.23 36.09 48.69 65.48 90.77 103.83 120.01 168.75 188.09 224.58 236.52 238.01 231.22 225.72 207.27 168.80 150.62 130.86 91.47 62.96 36.61 18.53 -124.61 -221.24 -1172.11 -1558.44 -1539.19 -1560.97 -1762.89 -2101.46 -3235.40 -4823.19 -5616.14 -5967.57 -6125.68 -6284.30 -6499.53 -6820.05 -8664.38 -9465.52 -9214.10 -7787.06 -7333.79 -7242.26 -7230.37 -7245.30 -7256.89 -7261.45 -7260.84 -7259.10 -7269.02 -7306.12 -7490.75 -8482.96 -9009.93 -9260.85 -9259.67 -9255.13 -9248.72 -9245.18 -9247.20 -9247.28
-7592.71 -7592.65 -7595.26 -7594.32 -7597.19 -7594.22 -7595.03 -7576.28 -7563.45 -7564.13 -7557.95 -7548.02 -7528.55 -7524.08 -7530.18 -7532.21 -7524.28 -7529.34 -7527.22 -7530.49 -7537.57 -7550.15 -7552.72 -7554.77 -7552.89 -7587.06 -7589.39 -7489.52 -6394.54 -4491.42 -3429.39 -2332.68 -2255.68 -1922.21 -1588.17 -1107.48 -798.50 -496.73 -376.45 -277.86 -265.69 -251.30 -234.43 -204.57 -186.21 -170.32 -149.99 -157.85 -169.55 -149.71 -147.75 -142.42 -140.27 -110.39 -94.38 -88.95 -79.21 -102.68 -89.44 -68.30 -57.87 -51.71 -41.03 -43.42 -43.10 -53.82 -50.64 -69.06 -69.48 -71.79 -74.50 -74.90 -72.28 -84.25 -80.47 -63.15 -26.80 -4.96 5.68 17.14 30.69 42.76 66.70 95.17 110.93 131.29 179.65 209.70 231.15 238.73 233.58 221.69 194.32 160.39 148.93 111.75 110.52 81.67 43.12 -9.33 -207.15 -704.52 -1124.24 -1440.93 -1463.07 -1489.55 -1614.38 -1868.07 -2598.58 -3585.11 -5139.60 -5740.09 -5986.37 -6111.66 -6254.10 -6508.55 -6901.22 -9297.18 -11038.24 -9808.27 -7822.90 -7352.71 -7233.95 -7237.14 -7255.94 -7269.31 -7266.77 -7268.40 -7264.20 -7266.86 -7310.96 -7418.48 -8900.49 -9144.17 -9271.69 -9263.73 -9259.37 -9254.43 -9253.50 -9256.24 -9256.31
-7617.76 -7618.37 -7615.97 -7615.23 -7613.07 -7610.92 -7610.89 -7609.76 -7601.06 -7591.10 -7582.41 -7578.19 -7569.02 -7562.91 -7549.76 -7524.25 -7515.26 -7512.77 -7511.29 -7516.91 -7513.12 -7525.02 -7546.50 -7552.57 -7563.19 -7572.82 -7582.11 -7581.24 -7474.03 -6505.26 -5391.94 -5097.04 -3660.93 -3622.80 -3210.44 -2202.18 -1413.09 -1347.14 -1619.48 -1147.38 -713.30 -369.97 -267.12 -229.22 -206.20 -193.97 -188.45 -202.77 -199.42 -173.50 -170.43 -158.86 -164.35 -143.78 -135.83 -125.42 -119.33 -124.44 -121.50 -112.50 -93.63 -90.72 -81.79 -81.42 -77.65 -71.73 -72.16 -76.53 -77.07 -83.91 -86.43 -91.07 -89.56 -95.00 -94.99 -90.05 -46.56 -12.33 -1.35 12.74 22.23 38.65 45.49 80.27 100.71 138.73 177.50 214.08 233.21 236.34 214.82 196.95 161.65 146.66 114.36 81.26 60.84 45.70 -1.86 -99.07 -424.23 -1138.45 -1413.85 -1404.38 -1421.12 -1485.53 -1717.30 -1970.44 -2535.26 -3976.95 -5513.87 -5815.87 -6017.01 -6102.02 -6247.94 -6586.99 -8341.07 -11502.74 -11177.88 -9669.39 -7907.39 -7278.16 -7216.13 -7238.51 -7269.78 -7271.60 -7270.45 -7266.27 -7263.98 -7264.07 -7308.42 -7717.97 -8748.79 -9144.58 -9280.79 -9267.26 -9265.43 -9262.97 -9263.14 -9263.78 -9263.85
-7629.43 -7629.35 -7628.86 -7631.42 -7633.71 -7632.88 -7625.05 -7623.53 -7616.37 -7609.08 -7601.82 -7593.08 -7588.07 -7574.20 -7561.47 -7526.24 -7512.94 -7509.46 -7505.29 -7504.97 -7507.35 -7519.36 -7536.30 -7545.99 -7560.24 -7569.76 -7581.83 -7593.28 -7575.67 -7607.51 -7447.14 -7239.80 -6637.35 -5610.09 -4093.63 -3263.97 -2390.87 -2261.16 -2206.64 -1750.64 -1362.34 -751.61 -410.24 -305.49 -262.99 -252.91 -242.33 -233.39 -235.69 -215.34 -211.08 -192.87 -204.16 -193.24 -173.53 -165.83 -155.09 -148.06 -142.32 -131.38 -125.38 -122.68 -111.84 -98.56 -93.25 -89.05 -89.28 -80.38 -90.67 -92.91 -95.65 -99.06 -100.41 -101.09 -98.21 -97.93 -94.81 -65.19 -47.87 3.57 14.13 26.97 44.50 68.82 95.40 133.59 165.63 193.73 235.45 235.45 216.74 188.51 140.11 121.16 90.40 77.30 37.99 17.90 -23.46 -564.84 -1143.33 -1286.88 -1327.90 -1416.07 -1499.97 -1561.14 -1709.50 -1840.78 -3126.07 -4291.54 -5435.95 -5986.69 -6057.24 -6105.79 -6243.39 -6907.27 -8892.94 -12252.30 -10898.66 -9262.60 -7603.36 -7240.23 -7216.70 -7251.58 -7269.13 -7274.03 -7271.78 -7269.47 -7269.73 -7267.87 -7301.55 -7541.27 -8551.71 -9211.54 -9278.86 -9273.71 -9270.78 -9269.78 -9269.46 -9271.80 -9271.88
-7638.73 -7638.66 -7639.83 -7641.10 -7640.63 -7639.28 -7638.78 -7633.09 -7627.11 -7620.62 -7616.94 -7602.75 -7597.52 -7591.66 -7569.56 -7537.05 -7518.96 -7515.17 -7512.24 -7508.90 -7512.15 -7523.65 -7538.10 -7550.65 -7567.08 -7572.20 -7586.86 -7598.49 -7608.57 -7617.33 -7623.81 -7579.68 -7515.19 -6847.92 -5439.03 -3503.04 -2319.33 -2220.33 -2256.81 -2164.70 -2078.78 -1807.80 -922.35 -451.20 -375.43 -347.40 -311.88 -284.56 -293.44 -257.48 -254.20 -246.97 -228.78 -219.51 -213.09 -189.70 -180.39 -171.92 -165.89 -149.54 -153.72 -148.50 -138.59 -126.29 -114.85 -103.90 -110.05 -118.60 -105.76 -104.76 -103.16 -106.55 -113.08 -111.44 -106.84 -105.90 -101.12 -101.48 -93.51 -18.12 5.64 24.64 52.89 70.28 84.02 123.35 142.45 183.29 215.76 208.73 206.45 161.88 132.92 98.70 78.12 45.24 16.22 1.70 -365.46 -1192.54 -1516.97 -1403.91 -1377.02 -1426.85 -1565.30 -1652.42 -1762.38 -2270.31 -3471.20 -4726.66 -5571.31 -5961.32 -6057.78 -6099.47 -6256.91 -6977.35 -9827.43 -12353.97 -10398.90 -9080.26 -7351.52 -7213.13 -7213.10 -7258.74 -7276.45 -7280.51 -7278.44 -7277.36 -7274.97 -7275.29 -7272.96 -7839.95 -8864.26 -9174.36 -9282.97 -9279.31 -9278.19 -9277.09 -9277.23 -9278.09 -9277.96
-7647.16 -7647.09 -7648.35 -7651.31 -7652.18 -7650.31 -7647.52 -7643.60 -7639.90 -7630.90 -7626.46 -7620.99 -7614.15 -7603.33 -7578.16 -7553.15 -7535.79 -7528.59 -7525.18 -7523.03 -7525.50 -7531.68 -7545.00 -7556.77 -7566.57 -7575.82 -7595.65 -7603.17 -7615.51 -7625.83 -7632.49 -7636.09 -7631.74 -7320.86 -7151.62 -4400.16 -2844.30 -2242.27 -2219.20 -2247.95 -2254.28 -2144.74 -1433.95 -684.37 -682.74 -762.87 -536.69 -369.03 -394.48 -318.21 -289.09 -267.10 -256.22 -256.69 -242.43 -227.04 -205.36 -207.69 -194.06 -182.69 -181.47 -175.77 -154.32 -163.48 -156.62 -149.70 -147.17 -152.84 -137.02 -127.12 -117.48 -120.42 -122.22 -122.51 -112.90 -109.31 -107.73 -110.44 -92.86 -44.56 -1.10 25.51 45.91 60.96 77.80 98.62 129.85 173.36 202.24 202.34 181.44 147.05 103.86 67.74 52.72 28.98 1.31 -395.53 -1123.88 -1506.99 -1499.33 -1453.50 -1425.70 -1505.04 -1575.97 -1727.58 -1873.16 -2424.32 -3467.56 -4999.06 -5621.05 -5996.57 -6056.81 -6124.71 -6221.28 -6681.73 -8419.33 -12114.04 -10155.84 -8427.25 -7379.08 -7189.37 -7232.27 -7260.69 -7284.45 -7284.35 -7280.93 -7281.63 -7282.69 -7282.82 -7282.49 -7614.30 -8998.51 -9227.54 -9289.84 -9287.57 -9286.61 -9283.08 -9282.05 -9283.29 -9283.36
-7652.65 -7652.73 -7654.62 -7655.66 -7656.60 -7656.55 -7654.58 -7652.03 -7650.55 -7646.16 -7642.04 -7636.21 -7633.52 -7616.17 -7593.86 -7564.35 -7555.56 -7550.06 -7543.13 -7533.70 -7538.18 -7543.62 -7556.63 -7566.26 -7577.63 -7585.91 -7597.34 -7609.71 -7624.83 -7633.55 -7646.14 -7655.49 -7663.54 -7631.79 -7497.66 -5486.04 -3516.78 -2532.95 -2423.00 -2298.41 -2246.53 -2120.63 -1555.66 -895.72 -807.01 -846.60 -717.26 -622.98 -540.36 -548.12 -385.68 -344.98 -281.34 -279.43 -283.80 -260.86 -243.78 -237.87 -216.10 -204.08 -189.71 -193.93 -190.47 -180.69 -175.85 -169.09 -166.48 -160.31 -144.79 -137.23 -129.59 -126.84 -130.28 -133.47 -127.30 -127.25 -120.67 -115.11 -112.26 -87.02 -29.49 14.55 26.88 53.63 78.52 85.33 140.40 163.13 182.50 175.18 161.38 142.16 84.16 51.67 37.92 3.32 -346.26 -1371.90 -1545.87 -1610.17 -1493.07 -1498.63 -1580.56 -1555.63 -1642.74 -1776.38 -1900.43 -2721.02 -3609.89 -5198.63 -5873.89 -6018.92 -6117.19 -6157.65 -6324.02 -7509.42 -9593.22 -11288.79 -9439.77 -7604.24 -7260.77 -7201.06 -7228.42 -7273.01 -7288.40 -7287.69 -7286.14 -7288.19 -7289.39 -7289.12 -7326.70 -7646.93 -8549.04 -9259.64 -9295.89 -9293.45 -9290.09 -9289.16 -9287.89 -9288.21 -9288.28
-7635.87 -7635.75 -7638.34 -7642.46 -7635.72 -7615.76 -7635.41 -7648.97 -7657.14 -7654.16 -7655.39 -7649.67 -7646.23 -7637.18 -7623.31 -7593.67 -7588.13 -7573.01 -7570.52 -7562.79 -7572.99 -7561.66 -7572.98 -7579.68 -7590.86 -7601.13 -7608.42 -7622.81 -7634.46 -7650.39 -7658.26 -7665.77 -7684.17 -7690.08 -7564.04 -6686.48 -5209.35 -4075.26 -2990.45 -2790.97 -2660.67 -2495.24 -1865.04 -1216.26 -939.25 -849.91 -778.95 -724.84 -677.94 -584.09 -517.07 -485.38 -422.71 -342.11 -324.39 -318.87 -295.84 -289.69 -287.50 -254.03 -219.16 -214.95 -215.57 -216.25 -199.78 -176.95 -170.13 -164.26 -161.26 -146.24 -135.72 -134.66 -136.70 -138.64 -138.91 -141.26 -132.00 -123.56 -116.77 -107.16 -59.19 -14.19 11.38 34.37 51.86 80.62 122.22 137.53 159.03 155.94 146.70 100.74 79.51 34.05 22.03 -26.37 -591.10 -1436.75 -1621.38 -1573.10 -1554.57 -1544.01 -1647.48 -1656.28 -1771.09 -1948.67 -2431.20 -3346.16 -4490.45 -5536.34 -5956.89 -6022.82 -6129.52 -6241.20 -7016.87 -9522.52 -12834.55 -11491.97 -8843.35 -7601.98 -7245.79 -7191.62 -7241.94 -7270.42 -7291.78 -7293.05 -7294.90 -7301.73 -7303.78 -7305.46 -7323.98 -7704.96 -8964.37 -9245.54 -9304.96 -9301.13 -9297.02 -9294.85 -9292.01 -9292.69 -9292.76
-7574.00 -7573.93 -7589.61 -7589.16 -7587.95 -7589.18 -7588.37 -7616.94 -7654.63 -7670.76 -7670.82 -7664.14 -7660.42 -7653.09 -7644.60 -7627.49 -7618.15 -7618.16 -7607.77 -7598.65 -7596.67 -7597.63 -7601.40 -7612.66 -7614.33 -7631.83 -7637.62 -7645.34 -7658.12 -7662.24 -7680.81 -7688.26 -7705.07 -7700.02 -7653.09 -7474.99 -6936.16 -6731.22 -4621.96 -3516.45 -2786.09 -2106.24 -1632.39 -1121.58 -1017.24 -886.03 -764.13 -689.99 -629.94 -589.53 -578.30 -559.90 -519.91 -498.62 -452.75 -445.27 -439.10 -424.20 -423.27 -353.62 -300.44 -312.93 -288.96 -277.16 -229.56 -199.49 -180.10 -182.22 -172.70 -155.49 -151.36 -149.80 -153.49 -156.13 -162.71 -156.35 -140.29 -132.31 -115.94 -103.54 -80.44 -40.52 7.86 19.17 49.29 64.73 95.43 113.75 128.92 118.41 110.07 91.08 41.99 13.53 -111.60 -128.30 -370.27 -1520.28 -1582.08 -1511.74 -1547.06 -1621.73 -1749.53 -1856.63 -1981.84 -2511.15 -2831.16 -4083.96 -5282.03 -5828.14 -5981.36 -6044.77 -6188.92 -6656.08 -8794.91 -11890.59 -12690.50 -10640.95 -8593.99 -7485.64 -7177.59 -7172.05 -7224.36 -7261.60 -7285.76 -7301.88 -7311.92 -7318.46 -7324.98 -7328.92 -7354.12 -7672.34 -8786.21 -9234.24 -9310.26 -9307.10 -9300.75 -9298.87 -9297.46 -9296.76 -9296.83
-7574.39 -7574.33 -7578.18 -7582.24 -7582.41 -7584.94 -7587.49 -7625.37 -7654.24 -7683.25 -7683.31 -7678.95 -7677.34 -7676.95 -7665.49 -7654.63 -7640.75 -7639.27 -7632.69 -7631.26 -7627.17 -7627.25 -7629.99 -7633.39 -7638.51 -7643.56 -7650.79 -7658.48 -7668.95 -7679.91 -7692.18 -7711.10 -7715.82 -7719.76 -7656.82 -7634.58 -7579.03 -7280.22 -6308.34 -4286.19 -2771.05 -2068.36 -1367.05 -1237.44 -1002.20 -876.68 -779.57 -699.89 -657.26 -599.85 -558.73 -536.69 -527.67 -515.03 -507.52 -494.53 -491.41 -470.15 -468.89 -443.38 -396.47 -378.91 -374.20 -363.22 -313.73 -290.59 -210.72 -196.82 -188.31 -171.32 -162.68 -160.82 -164.12 -172.41 -169.19 -168.15 -158.76 -143.79 -130.60 -112.88 -97.94 -62.88 -2.50 8.68 31.13 43.17 62.58 84.91 88.98 82.57 75.15 44.17 24.48 -139.28 -347.44 -621.07 -1052.05 -1526.69 -1522.44 -1532.55 -1648.33 -2002.04 -2087.25 -2715.30 -2946.86 -3230.59 -4563.04 -5012.51 -5620.48 -5919.16 -6052.68 -6103.23 -6244.49 -8582.00 -10926.93 -13086.43 -11827.68 -10896.83 -8710.40 -7479.23 -7169.48 -7199.50 -7234.15 -7262.13 -7277.85 -7304.78 -7318.49 -7328.53 -7331.81 -7334.56 -7344.05 -7740.02 -8794.91 -9209.16 -9320.37 -9312.91 -9306.60 -9303.89 -9301.35 -9300.64 -9300.71
-7583.79 -7583.73 -7586.08 -7589.41 -7589.78 -7594.44 -7596.92 -7642.72 -7670.85 -7694.66 -7698.81 -7699.35 -7693.24 -7693.48 -7685.65 -7681.97 -7671.29 -7669.64 -7667.80 -7654.88 -7664.04 -7669.13 -7658.99 -7658.73 -7660.68 -7664.36 -7665.29 -7676.33 -7680.40 -7690.90 -7703.67 -7717.90 -7694.21 -7682.03 -7661.94 -7666.22 -7655.76 -7594.31 -7341.76 -5106.44 -3081.68 -2042.11 -1503.87 -1275.23 -995.29 -874.27 -789.01 -716.85 -659.25 -602.12 -575.70 -546.29 -525.88 -508.63 -492.11 -476.75 -454.53 -444.77 -426.04 -415.35 -407.47 -392.24 -367.40 -348.27 -333.22 -311.88 -245.99 -212.79 -197.12 -186.82 -170.58 -173.69 -180.26 -181.46 -186.10 -188.12 -183.00 -172.73 -151.58 -132.98 -119.32 -91.28 -64.55 -18.81 6.96 14.27 39.03 55.81 60.42 51.05 44.38 26.09 19.99 -371.14 -950.67 -1339.99 -1491.57 -1498.08 -1537.22 -1696.92 -2123.18 -2413.66 -2648.03 -3368.07 -4041.68 -4667.43 -5219.08 -5727.36 -5961.31 -6100.15 -6112.29 -6237.81 -6615.05 -10199.07 -13165.65 -13247.98 -12072.02 -9677.94 -8418.06 -7290.82 -7183.22 -7201.81 -7235.81 -7267.43 -7288.30 -7307.09 -7328.38 -7334.86 -7339.72 -7344.36 -7375.91 -7673.00 -8763.84 -9221.31 -9326.12 -9317.61 -9311.95 -9308.57 -9306.05 -9304.61 -9304.68
-7593.33 -7593.27 -7594.30 -7597.97 -7601.57 -7603.88 -7607.61 -7634.24 -7699.30 -7713.70 -7715.19 -7716.65 -7718.95 -7717.50 -7713.89 -7702.07 -7697.47 -7690.84 -7685.55 -7692.69 -7684.38 -7683.08 -7681.26 -7685.18 -7682.84 -7690.30 -7692.00 -7692.08 -7698.00 -7704.83 -7715.24 -7721.20 -7709.45 -7696.72 -7688.75 -7683.01 -7672.24 -7612.85 -7515.91 -5754.02 -3011.80 -1960.01 -1442.13 -1245.13 -1042.01 -869.41 -790.36 -720.82 -682.96 -633.28 -594.71 -562.85 -529.17 -510.86 -492.69 -471.03 -451.54 -434.38 -421.23 -409.55 -398.11 -383.23 -359.74 -341.44 -333.97 -318.28 -289.26 -232.77 -210.15 -196.55 -187.74 -187.97 -194.82 -194.52 -195.56 -207.76 -197.90 -185.39 -167.25 -160.47 -135.08 -117.91 -100.20 -73.53 -53.32 -12.04 -1.09 32.34 30.23 22.10 15.68 -23.64 -107.11 -618.85 -1470.24 -1479.95 -1484.77 -1602.97 -1930.04 -2440.91 -3597.10 -3481.01 -4018.65 -4666.40 -5288.74 -5637.51 -5776.26 -5991.75 -6044.27 -6154.99 -6259.73 -6406.94 -7721.76 -12852.55 -13057.40 -12500.44 -11186.99 -9459.29 -7810.64 -7325.88 -7196.09 -7212.10 -7244.67 -7270.38 -7293.58 -7314.72 -7334.19 -7340.72 -7344.81 -7348.10 -7373.52 -8004.07 -8583.00 -9234.63 -9328.70 -9320.16 -9316.68 -9313.02 -9310.20 -9308.70 -9308.77
-7604.53 -7604.48 -7608.36 -7610.70 -7616.64 -7620.37 -7622.10 -7654.30 -7702.44 -7721.64 -7725.12 -7726.57 -7727.02 -7731.81 -7732.73 -7723.13 -7721.48 -7718.02 -7717.73 -7709.84 -7717.45 -7713.91 -7712.63 -7712.72 -7703.70 -7708.46 -7708.83 -7709.41 -7713.10 -7714.82 -7720.79 -7716.16 -7718.93 -7717.06 -7712.06 -7698.53 -7646.44 -7597.26 -6743.22 -5097.60 -3155.49 -1886.62 -1470.86 -1298.19 -1066.33 -979.77 -839.46 -738.07 -686.31 -641.88 -610.16 -586.68 -548.81 -515.24 -491.62 -472.45 -450.76 -439.83 -424.94 -413.84 -402.56 -391.92 -367.31 -352.68 -347.34 -339.58 -326.28 -282.88 -236.81 -226.71 -213.98 -215.88 -212.71 -216.91 -229.44 -221.19 -208.65 -199.76 -192.92 -175.78 -154.55 -135.39 -130.55 -96.52 -109.52 -104.15 -48.94 -50.19 -28.86 -52.96 -84.13 -183.26 -690.57 -1320.81 -1552.29 -1499.47 -1705.33 -2159.68 -2688.53 -3481.14 -4491.27 -5131.05 -5302.78 -5549.76 -5705.56 -5840.42 -5936.63 -6050.70 -6072.46 -6119.02 -6169.97 -6587.34 -8770.54 -11506.99 -12017.31 -11090.05 -10650.02 -8803.18 -7589.65 -7272.71 -7207.29 -7228.98 -7259.16 -7279.24 -7304.32 -7325.70 -7341.59 -7346.67 -7351.71 -7355.04 -7395.12 -7886.84 -8604.04 -9312.62 -9334.16 -9329.42 -9322.66 -9318.17 -9315.79 -9313.03 -9313.10
-7634.03 -7634.01 -7636.58 -7652.74 -7658.04 -7663.82 -7673.28 -7684.42 -7711.77 -7721.96 -7723.37 -7726.82 -7730.41 -7738.22 -7737.52 -7737.46 -7740.73 -7742.77 -7737.93 -7738.87 -7739.25 -7734.86 -7736.50 -7735.16 -7725.65 -7729.58 -7725.96 -7725.67 -7726.51 -7728.58 -7731.75 -7731.29 -7731.39 -7730.83 -7722.45 -7710.38 -7667.02 -7060.89 -5671.53 -4065.62 -2826.28 -2077.91 -1620.82 -1379.02 -1247.26 -1018.28 -842.03 -793.87 -727.33 -668.27 -634.63 -608.68 -564.96 -525.71 -509.32 -485.60 -473.09 -452.51 -439.40 -428.56 -413.70 -401.96 -393.10 -374.77 -367.16 -350.44 -346.17 -328.94 -297.01 -299.61 -275.98 -248.91 -230.16 -241.57 -243.32 -238.55 -236.30 -221.53 -206.64 -174.68 -162.52 -147.93 -137.23 -127.13 -130.18 -125.60 -122.85 -148.37 -162.05 -174.70 -205.68 -237.11 -727.95 -1188.78 -1643.82 -1773.64 -2328.69 -3315.12 -4096.70 -5299.37 -5473.83 -5634.84 -5800.02 -5844.91 -5917.31 -5918.79 -5954.53 -5954.17 -5843.54 -5681.25 -6378.15 -8418.58 -8749.84 -9325.62 -9504.58 -9233.22 -8432.38 -7735.50 -7416.51 -7237.15 -7227.74 -7249.77 -7266.37 -7300.65 -7319.98 -7332.15 -7343.44 -7349.65 -7354.08 -7356.38 -7368.33 -7692.09 -8755.72 -9282.96 -9341.31 -9331.07 -9329.41 -9324.80 -9320.30 -9317.88 -9317.94
-7678.32 -7648.65 -7566.42 -7676.14 -7693.29 -7702.84 -7705.72 -7710.72 -7709.89 -7711.11 -7715.43 -7715.95 -7720.02 -7724.48 -7738.45 -7753.82 -7759.02 -7767.03 -7764.86 -7765.56 -7763.19 -7754.31 -7750.95 -7744.68 -7745.00 -7738.36 -7739.54 -7732.68 -7734.76 -7738.27 -7739.04 -7740.62 -7742.14 -7736.90 -7728.30 -7721.99 -7641.28 -7481.72 -5962.06 -4447.02 -3168.11 -2253.64 -1747.85 -1537.57 -1327.42 -1025.94 -893.99 -813.37 -736.25 -698.16 -646.96 -613.38 -582.40 -547.46 -525.49 -512.65 -496.19 -465.78 -454.28 -434.33 -429.48 -416.52 -406.67 -395.52 -383.84 -369.58 -359.68 -357.47 -332.83 -332.06 -335.66 -303.55 -289.85 -271.46 -263.99 -251.88 -249.51 -241.64 -223.05 -204.47 -182.43 -169.90 -145.60 -138.37 -137.15 -138.46 -157.94 -163.64 -199.58 -218.01 -225.90 -319.55 -1007.64 -1474.90 -1974.81 -2374.22 -3457.62 -4184.84 -5227.12 -5439.32 -5729.42 -5789.46 -5845.49 -5827.04 -5786.48 -5756.93 -5267.02 -5250.70 -4901.80 -4965.16 -5439.15 -6994.45 -7017.86 -7784.94 -7875.43 -7900.31 -7555.73 -7318.00 -7244.86 -7221.79 -7242.01 -7280.97 -7302.62 -7328.35 -7335.71 -7341.17 -7345.44 -7352.91 -7357.51 -7357.12 -7386.69 -7714.44 -8816.44 -9273.88 -9348.86 -9342.32 -9330.79 -9329.11 -9327.55 -9324.35 -9323.38
-7576.73 -7576.46 -7261.59 -7374.23 -7691.08 -7726.64 -7734.44 -7730.49 -7716.27 -7716.95 -7725.36 -7727.11 -7731.07 -7736.30 -7754.72 -7769.34 -7770.89 -7782.86 -7785.12 -7786.94 -7786.88 -7781.63 -7780.22 -7771.47 -7767.43 -7759.60 -7759.98 -7757.92 -7747.06 -7751.33 -7750.02 -7751.44 -7753.66 -7748.53 -7719.47 -7684.04 -7690.33 -7479.29 -6005.77 -4432.28 -3545.99 -2484.37 -2029.94 -1553.81 -1310.90 -1044.95 -934.38 -888.60 -788.68 -734.63 -689.20 -627.00 -600.61 -565.74 -555.73 -524.23 -509.59 -480.21 -473.55 -460.79 -450.01 -439.86 -428.92 -412.59 -403.67 -399.99 -386.94 -371.11 -369.61 -369.69 -375.39 -381.21 -331.97 -291.01 -285.82 -273.81 -271.89 -268.09 -248.80 -233.99 -204.51 -191.46 -163.81 -161.23 -152.30 -156.60 -166.12 -181.71 -214.64 -234.26 -281.89 -393.62 -1645.20 -1744.94 -2600.12 -3209.93 -4552.89 -5010.65 -5425.27 -5619.29 -5732.11 -5726.82 -5759.14 -5604.01 -5398.85 -4872.54 -4017.44 -3649.59 -2754.56 -2789.23 -4299.12 -5189.60 -6275.59 -6046.36 -6769.51 -7042.71 -7168.86 -7178.80 -7180.73 -7218.27 -7269.47 -7290.94 -7318.05 -7341.15 -7352.90 -7353.60 -7355.46 -7358.16 -7363.60 -7367.92 -7376.13 -7677.16 -8928.28 -9259.45 -9355.50 -9351.61 -9340.99 -9336.75 -9332.27 -9329.22 -9329.28
-7454.67 -7454.84 -6798.79 -7295.54 -7711.37 -7744.24 -7748.64 -7746.90 -7733.93 -7739.48 -7737.98 -7741.96 -7745.60 -7753.15 -7767.47 -7788.54 -7795.62 -7803.24 -7806.65 -7813.70 -7808.51 -7808.76 -7799.46 -7795.08 -7791.05 -7781.69 -7774.77 -7775.34 -7775.69 -7768.55 -7766.34 -7763.02 -7762.19 -7766.33 -7749.53 -7717.40 -7670.76 -7474.94 -6158.40 -5045.16 -3756.56 -2748.45 -2266.91 -1710.50 -1340.27 -1119.98 -1053.92 -973.19 -891.90 -822.10 -739.74 -667.40 -628.21 -587.95 -565.00 -534.50 -516.97 -504.85 -488.10 -471.95 -462.31 -446.53 -440.76 -438.28 -430.06 -425.13 -402.73 -396.72 -397.43 -386.05 -390.88 -393.22 -374.94 -333.36 -309.02 -298.49 -290.98 -275.86 -270.04 -252.52 -233.24 -204.76 -189.62 -185.57 -176.62 -169.18 -165.13 -172.48 -227.92 -245.29 -297.23 -1102.81 -1853.95 -2036.64 -2603.69 -4045.98 -4920.32 -5321.73 -5381.06 -5441.30 -5579.61 -5362.25 -5044.84 -4508.71 -3874.49 -2723.19 -1776.91 -1170.73 -1145.36 -1801.51 -3105.40 -3759.01 -4718.31 -5511.51 -6375.64 -6922.62 -7069.06 -7148.14 -7186.64 -7240.98 -7273.35 -7309.81 -7328.71 -7350.09 -7366.22 -7362.81 -7364.09 -7372.39 -7375.33 -7374.46 -7377.45 -7810.69 -8882.63 -9310.25 -9364.90 -9359.73 -9349.86 -9344.13 -9339.33 -9335.76 -9335.82
-7714.32 -7714.30 -7372.86 -7702.54 -7737.62 -7767.06 -7764.95 -7769.29 -7751.63 -7754.23 -7757.42 -7763.04 -7770.67 -7777.74 -7789.89 -7808.60 -7823.94 -7831.06 -7832.43 -7841.07 -7833.95 -7831.41 -7824.97 -7816.52 -7812.42 -7809.25 -7804.54 -7788.40 -7788.15 -7785.35 -7785.81 -7783.39 -7778.71 -7775.33 -7776.23 -7778.54 -7705.40 -7448.95 -6540.31 -5091.53 -4374.27 -3446.50 -2859.60 -1846.74 -1490.89 -1361.67 -1225.41 -1137.96 -1022.32 -909.05 -777.69 -708.88 -652.15 -605.16 -584.32 -556.98 -542.50 -524.54 -505.33 -497.08 -483.63 -472.38 -464.73 -453.69 -440.57 -433.63 -425.13 -420.36 -414.27 -413.18 -413.38 -411.57 -438.44 -387.74 -332.23 -331.76 -325.79 -309.46 -292.76 -275.05 -261.75 -239.73 -213.72 -205.34 -187.76 -173.73 -175.29 -115.37 -198.08 -456.74 -819.58 -1340.45 -1812.52 -2020.46 -2778.27 -3687.08 -4605.28 -4648.53 -4649.30 -4250.95 -4668.24 -4143.84 -3268.73 -2904.90 -2632.85 -1756.25 -685.16 -839.00 -1538.07 -2164.54 -2868.86 -3675.62 -4574.73 -5561.94 -6390.11 -6915.08 -7100.95 -7155.60 -7210.80 -7249.48 -7291.51 -7314.81 -7341.51 -7364.94 -7376.49 -7376.96 -7377.34 -7378.83 -7383.37 -7386.81 -7424.91 -8057.12 -8878.44 -9249.64 -9371.81 -9370.49 -9360.11 -9353.17 -9348.51 -9342.67 -9342.73
-7765.40 -7767.51 -7759.36 -7762.47 -7776.82 -7781.81 -7786.45 -7779.38 -7777.78 -7774.48 -7778.07 -7784.48 -7788.09 -7791.07 -7810.62 -7830.91 -7842.55 -7845.47 -7857.58 -7858.98 -7862.33 -7856.59 -7849.69 -7850.55 -7843.25 -7834.77 -7828.44 -7819.98 -7810.07 -7811.39 -7801.37 -7798.22 -7793.19 -7789.21 -7791.94 -7791.60 -7789.32 -7530.81 -7325.57 -6351.06 -5181.97 -3990.36 -2788.69 -2208.77 -1780.69 -1616.82 -1406.38 -1257.20 -1098.18 -992.04 -919.94 -763.10 -719.33 -663.20 -615.26 -573.28 -557.02 -540.15 -529.19 -513.00 -505.37 -490.62 -481.54 -473.45 -467.46 -455.00 -447.56 -443.55 -439.40 -430.36 -431.50 -437.86 -463.68 -430.15 -371.64 -352.01 -345.28 -331.45 -324.07 -297.11 -274.91 -262.52 -236.07 -215.91 -197.94 -191.04 -184.02 -182.32 -221.88 -518.28 -1074.34 -1367.34 -1754.03 -1978.14 -2483.69 -3182.93 -3567.18 -3903.59 -3408.56 -3216.05 -2203.37 -2067.57 -1907.52 -1941.51 -1763.38 -1331.96 -1782.89 -1772.51 -2424.02 -2610.36 -3841.63 -4913.04 -5566.29 -6416.15 -6760.20 -6981.34 -7120.96 -7187.52 -7244.14 -7277.47 -7304.25 -7325.72 -7349.99 -7369.85 -7385.23 -7386.12 -7393.45 -7399.13 -7395.53 -7397.23 -7425.38 -7707.31 -8857.56 -9360.41 -9387.18 -9383.57 -9373.50 -9358.74 -9354.72 -9349.57 -9349.63
-7785.93 -7785.89 -7800.10 -7796.17 -7809.67 -7808.26 -7817.20 -7812.85 -7811.68 -7811.32 -7824.43 -7832.85 -7834.28 -7840.38 -7851.80 -7857.88 -7875.35 -7878.33 -7882.76 -7882.15 -7884.51 -7885.52 -7878.49 -7872.68 -7858.18 -7855.63 -7850.66 -7849.63 -7839.17 -7822.62 -7822.13 -7816.31 -7812.08 -7802.05 -7804.76 -7802.67 -7799.99 -7718.65 -7184.16 -6893.79 -5873.19 -4593.17 -3671.12 -2718.93 -2530.39 -1825.18 -1727.52 -1630.81 -1320.05 -1217.37 -986.16 -849.27 -750.21 -701.68 -640.17 -609.86 -573.29 -555.95 -543.52 -531.70 -524.08 -510.08 -502.86 -498.79 -484.63 -472.74 -462.85 -461.20 -457.89 -456.16 -449.59 -461.64 -467.84 -456.25 -404.07 -380.07 -364.86 -357.92 -340.32 -327.71 -318.20 -284.42 -265.74 -261.34 -237.87 -216.21 -216.12 -220.59 -226.77 -424.00 -1215.11 -1833.03 -1749.60 -1827.18 -2056.15 -2386.79 -2760.90 -3114.19 -1662.05 -996.03 -309.13 -584.38 -674.60 -1137.50 -1720.56 -2000.87 -2039.48 -1957.80 -2417.38 -3589.62 -5376.43 -5749.99 -6191.57 -6756.70 -6908.53 -7102.41 -7164.55 -7218.72 -7260.51 -7289.26 -7325.22 -7343.16 -7366.08 -7381.88 -7391.65 -7407.59 -7410.09 -7418.44 -7413.91 -7413.51 -7482.14 -7644.06 -8906.78 -9348.40 -9394.99 -9397.87 -9386.86 -9370.41 -9363.82 -9356.01 -9356.07
-7811.48 -7815.03 -7823.06 -7829.97 -7835.12 -7839.09 -7838.02 -7847.86 -7852.24 -7855.14 -7871.01 -7866.82 -7877.37 -7876.71 -7896.27 -7897.77 -7900.93 -7904.92 -7919.86 -7927.87 -7922.40 -7917.00 -7909.56 -7902.25 -7900.31 -7889.28 -7881.73 -7873.38 -7857.19 -7844.71 -7841.16 -7836.81 -7826.89 -7822.81 -7816.43 -7826.39 -7818.58 -7713.32 -7651.57 -7181.43 -6088.42 -5163.17 -4028.23 -3140.28 -2493.19 -2255.47 -2062.77 -1841.79 -1535.07 -1219.31 -1016.07 -940.44 -802.99 -725.23 -672.72 -627.32 -605.22 -582.96 -574.77 -558.19 -542.01 -529.68 -521.55 -512.62 -502.91 -492.58 -486.02 -479.22 -476.06 -470.14 -468.76 -469.16 -481.63 -474.61 -455.52 -416.02 -400.31 -373.71 -368.93 -349.63 -333.84 -315.96 -304.99 -290.48 -259.40 -254.96 -246.62 -247.64 -251.11 -461.56 -1208.70 -1869.52 -1900.63 -1898.75 -2078.97 -2443.88 -2678.77 -2156.71 -68.76 60.06 68.88 -30.22 -301.94 -718.36 -1757.26 -2205.33 -2606.67 -2878.42 -3262.63 -4740.37 -6259.90 -6726.68 -6938.60 -7039.18 -7123.11 -7167.21 -7195.63 -7232.30 -7272.76 -7312.31 -7329.17 -7355.27 -7380.45 -7393.06 -7405.93 -7417.96 -7427.69 -7434.75 -7443.65 -7447.30 -7479.97 -7640.77 -8821.72 -9332.68 -9358.33 -9382.53 -9402.79 -9382.10 -9371.23 -9361.21 -9361.27
-7840.50 -7844.62 -7849.51 -7857.91 -7862.99 -7873.70 -7879.76 -7885.76 -7892.13 -7896.68 -7896.66 -7904.10 -7901.33 -7912.19 -7912.34 -7927.08 -7935.46 -7943.33 -7943.83 -7946.36 -7945.96 -7946.12 -7936.50 -7926.89 -7928.86 -7927.17 -7912.26 -7909.68 -7882.18 -7869.83 -7867.41 -7859.29 -7857.53 -7846.07 -7850.99 -7843.25 -7847.13 -7791.88 -7692.73 -7243.22 -6220.32 -5674.03 -4579.76 -3806.66 -2962.77 -2429.59 -2382.81 -2061.90 -1751.36 -1405.16 -1161.00 -997.03 -851.44 -810.68 -719.68 -648.43 -631.89 -607.72 -590.37 -579.59 -570.61 -556.29 -549.93 -533.64 -516.75 -510.57 -501.87 -497.61 -492.82 -486.96 -485.02 -488.08 -498.60 -504.07 -495.06 -416.62 -418.38 -395.99 -384.12 -375.76 -354.55 -342.13 -321.17 -301.41 -293.21 -273.60 -259.79 -252.33 -261.13 -596.85 -1756.02 -1877.20 -1973.38 -2061.95 -2191.59 -2183.72 -1977.81 -850.32 76.60 114.48 159.91 137.23 76.53 -265.14 -1598.71 -2658.70 -3400.52 -3504.47 -4171.16 -5279.55 -6711.27 -7026.14 -7097.94 -7147.62 -7167.12 -7196.53 -7213.75 -7255.81 -7289.64 -7311.10 -7345.38 -7374.56 -7384.76 -7410.08 -7421.00 -7434.50 -7445.45 -7455.60 -7461.10 -7464.33 -7485.48 -7758.62 -8853.95 -9328.51 -9395.47 -9372.93 -9410.81 -9385.91 -9378.98 -9364.53 -9364.59
-7872.95 -7872.91 -7885.86 -7882.31 -7887.60 -7892.04 -7910.49 -7918.49 -7929.87 -7930.98 -7933.74 -7939.05 -7954.84 -7949.77 -7967.02 -7966.70 -7967.99 -7969.38 -7983.84 -7979.58 -7983.55 -7977.20 -7974.92 -7968.99 -7956.13 -7955.19 -7947.44 -7942.50 -7920.26 -7913.12 -7893.76 -7897.66 -7877.13 -7875.50 -7863.51 -7866.16 -7874.28 -7874.19 -7823.38 -7382.64 -7264.30 -6235.95 -5928.00 -4879.27 -3582.71 -3211.33 -2876.71 -2395.20 -1807.97 -1559.47 -1226.96 -1087.71 -969.14 -850.12 -748.10 -675.02 -659.95 -630.24 -609.63 -599.44 -589.97 -567.99 -555.44 -547.27 -536.31 -530.50 -522.79 -515.88 -505.43 -497.28 -497.17 -497.44 -503.66 -510.74 -504.88 -451.85 -427.35 -417.32 -405.29 -391.59 -376.84 -347.43 -337.48 -311.71 -301.15 -286.08 -265.70 -262.79 -259.67 -866.18 -1562.63 -1950.87 -2152.70 -2269.20 -2144.95 -1441.62 -539.87 95.73 192.14 304.89 377.54 194.85 -25.54 -497.45 -2266.59 -2838.68 -3418.07 -4332.90 -4983.67 -6051.50 -6924.42 -7089.95 -7143.98 -7159.58 -7189.58 -7227.26 -7247.29 -7277.71 -7307.90 -7324.08 -7364.15 -7394.61 -7415.81 -7423.95 -7434.09 -7454.65 -7461.28 -7466.71 -7471.37 -7483.23 -7522.79 -7861.38 -8433.77 -9277.53 -9437.58 -9407.30 -9417.71 -9389.00 -9384.37 -9364.95 -9365.02
-7908.39 -7908.36 -7912.95 -7919.95 -7933.68 -7945.09 -7948.47 -7957.36 -7951.71 -7958.99 -7972.28 -7982.88 -7971.54 -7975.80 -7993.09 -7999.60 -8003.13 -8011.76 -8010.50 -8020.57 -8025.62 -8021.89 -8010.81 -7997.16 -8003.39 -7983.42 -7984.44 -7975.83 -7959.66 -7944.42 -7934.03 -7925.35 -7922.24 -7918.45 -7910.57 -7900.65 -7900.34 -7886.81 -7868.60 -7807.57 -7423.45 -6996.30 -6430.62 -5548.31 -4793.75 -3609.61 -2844.45 -2411.80 -1839.00 -1634.51 -1391.37 -1208.81 -1031.58 -918.19 -824.65 -748.49 -682.91 -658.94 -625.95 -622.81 -600.52 -594.39 -577.02 -567.40 -551.33 -545.46 -536.92 -525.71 -519.43 -510.60 -508.05 -506.81 -507.22 -518.08 -526.88 -483.04 -438.73 -428.62 -424.17 -406.20 -389.90 -368.73 -350.69 -339.35 -314.54 -300.80 -276.91 -279.17 -326.83 -574.96 -1566.82 -1844.51 -2326.18 -2594.28 -2198.07 -520.09 51.64 421.77 401.18 643.91 582.71 160.11 73.59 -726.39 -1782.64 -3449.76 -3876.90 -4352.61 -4452.51 -5544.69 -6782.93 -7050.80 -7155.13 -7182.69 -7211.28 -7241.70 -7268.50 -7289.82 -7318.46 -7344.72 -7378.29 -7405.17 -7427.85 -7440.76 -7461.42 -7471.39 -7474.40 -7480.29 -7490.10 -7502.22 -7536.54 -8152.59 -8701.54 -9302.14 -9443.03 -9432.47 -9412.09 -9394.30 -9378.63 -9364.03 -9361.39
-7947.04 -7947.01 -7967.76 -7986.03 -7982.77 -7979.60 -7997.44 -8000.82 -7996.64 -8005.85 -8008.24 -8010.90 -8021.84 -8035.58 -8044.17 -8048.53 -8057.28 -8054.59 -8060.63 -8052.71 -8053.09 -8052.59 -8043.57 -8039.55 -8030.38 -8024.76 -8035.79 -8037.08 -8013.55 -7999.97 -7987.82 -7981.96 -7966.11 -7972.06 -7956.85 -7927.94 -7927.70 -7917.16 -7915.10 -7896.70 -7592.69 -7291.98 -6667.88 -5788.90 -5157.04 -4101.91 -3502.27 -2699.00 -2005.64 -1638.66 -1469.66 -1211.78 -1126.95 -936.53 -862.47 -778.45 -706.60 -686.12 -669.66 -637.81 -623.93 -606.63 -595.35 -583.95 -566.61 -553.30 -544.40 -535.47 -523.52 -518.89 -513.42 -515.16 -516.15 -524.96 -536.86 -482.07 -446.78 -433.80 -426.66 -414.31 -399.96 -376.40 -366.03 -345.49 -338.14 -313.64 -303.29 -317.86 -431.05 -656.95 -1350.75 -1300.24 -1744.25 -2557.59 -1640.97 10.31 242.86 742.76 879.24 596.14 292.19 53.04 48.93 -921.03 -2183.96 -3291.82 -3931.83 -4581.64 -5081.36 -5889.79 -6827.32 -6995.96 -7172.68 -7206.00 -7231.22 -7257.75 -7285.43 -7316.81 -7335.36 -7362.87 -7394.96 -7416.29 -7439.49 -7464.67 -7475.41 -7484.46 -7491.39 -7490.29 -7496.99 -7505.56 -7545.80 -8010.75 -9151.92 -9401.90 -9448.76 -9431.36 -9405.33 -9392.07 -9375.81 -9352.76 -9352.83
-7994.47 -8001.77 -8008.90 -8021.19 -8027.94 -8039.75 -8050.25 -8039.72 -8040.59 -8036.71 -8056.43 -8061.20 -8063.38 -8060.81 -8068.66 -8078.15 -8087.83 -8085.26 -8085.24 -8094.33 -8097.68 -8101.75 -8091.50 -8093.62 -8071.79 -8071.98 -8074.52 -8072.43 -8056.20 -8044.81 -8023.74 -8029.53 -8010.53 -8008.89 -8014.90 -7979.34 -7968.00 -7962.14 -7940.97 -7894.32 -7788.58 -7501.13 -6625.58 -5977.38 -4894.40 -4485.12 -3654.17 -2778.09 -2210.06 -1784.37 -1546.98 -1484.69 -1272.24 -1051.33 -948.62 -842.12 -774.60 -739.84 -693.40 -664.43 -637.14 -624.35 -612.58 -593.49 -578.40 -566.11 -554.83 -540.54 -532.18 -520.16 -519.50 -519.24 -519.23 -505.11 -490.45 -457.01 -433.88 -430.38 -421.95 -413.28 -398.17 -383.02 -384.09 -366.34 -357.98 -370.22 -335.31 -393.39 -535.07 -841.99 -1021.68 -481.38 -754.01 -1638.79 -918.66 116.36 614.54 796.39 818.18 275.36 -35.72 -4.80 -364.87 -2032.82 -2109.21 -3173.21 -4787.57 -5324.96 -6363.47 -6494.18 -6683.68 -7007.55 -7155.06 -7229.29 -7248.08 -7287.25 -7315.44 -7339.13 -7348.44 -7378.49 -7417.81 -7437.95 -7462.85 -7475.98 -7488.17 -7496.26 -7497.95 -7498.95 -7501.02 -7500.55 -7538.73 -7716.33 -8713.72 -9401.59 -9442.82 -9424.73 -9399.36 -9380.14 -9364.12 -9339.13 -9339.21
-8046.47 -8054.37 -8062.50 -8068.15 -8082.35 -8094.37 -8101.44 -8100.44 -8083.18 -8080.54 -8085.54 -8086.44 -8096.81 -8095.59 -8106.92 -8126.12 -8134.49 -8129.38 -8130.80 -8142.09 -8125.74 -8141.74 -8120.02 -8126.57 -8133.54 -8125.39 -8117.94 -8112.98 -8124.10 -8111.03 -8118.62 -8090.96 -8081.11 -8060.52 -8037.03 -8011.17 -7992.66 -7991.82 -7996.92 -7983.40 -7925.90 -7705.82 -7207.90 -6093.43 -5421.83 -4678.04 -4176.47 -3266.92 -2392.01 -1990.94 -1875.53 -1770.96 -1328.79 -1196.80 -986.15 -896.04 -810.21 -784.99 -717.42 -678.82 -660.34 -640.00 -622.43 -605.05 -583.55 -578.03 -560.31 -551.34 -536.40 -526.25 -520.53 -516.43 -490.20 -436.42 -418.40 -421.17 -422.98 -418.17 -407.05 -402.58 -392.73 -387.05 -387.08 -408.20 -411.40 -417.74 -381.93 -523.43 -566.42 -473.27 -425.31 -112.30 -178.89 -21.04 17.77 380.48 707.35 563.49 168.05 -196.33 -1114.85 -1907.27 -3768.24 -4324.40 -4667.17 -4619.50 -6021.99 -6323.92 -6363.82 -6436.25 -6483.10 -7029.17 -7179.81 -7265.59 -7276.38 -7309.88 -7341.03 -7358.52 -7387.05 -7406.71 -7437.72 -7457.73 -7479.46 -7492.37 -7504.75 -7507.24 -7505.31 -7505.30 -7500.67 -7497.46 -7544.41 -7805.08 -8909.70 -9403.85 -9428.30 -9409.93 -9389.00 -9359.86 -9347.38 -9317.43 -9321.16
-8097.81 -8097.71 -8104.33 -8127.01 -8125.56 -8138.78 -8148.68 -8147.99 -8124.26 -8119.53 -8122.66 -8135.29 -8142.64 -8140.32 -8164.38 -8161.20 -8168.68 -8176.51 -8164.93 -8168.93 -8181.75 -8175.81 -8193.79 -8176.86 -8174.38 -8166.47 -8164.00 -8175.24 -8167.05 -8155.14 -8155.56 -8118.22 -8111.83 -8113.79 -8083.33 -8059.50 -8043.36 -8026.04 -8015.21 -8018.39 -7970.11 -7794.19 -7472.03 -6777.32 -6013.79 -5013.52 -4303.05 -3368.41 -2768.26 -2612.69 -2260.40 -2058.10 -1756.86 -1373.88 -1160.12 -993.73 -882.93 -785.75 -729.27 -700.13 -671.68 -651.35 -630.51 -615.18 -597.04 -581.94 -570.62 -555.87 -539.95 -532.46 -526.68 -508.74 -437.92 -402.88 -399.27 -405.50 -406.68 -403.97 -397.59 -396.18 -398.82 -416.59 -434.31 -426.61 -428.14 -376.69 -327.75 -372.83 -269.74 -357.38 -58.26 -27.20 4.60 74.79 103.40 630.35 790.92 318.92 -381.83 -3037.71 -5957.09 -6085.53 -5999.49 -6375.15 -6315.60 -6348.18 -6343.20 -6386.27 -6401.42 -6419.54 -6477.86 -6923.27 -7197.12 -7285.18 -7299.28 -7337.40 -7364.33 -7376.70 -7407.96 -7439.30 -7454.06 -7478.35 -7499.24 -7508.69 -7522.97 -7522.03 -7514.12 -7508.58 -7500.01 -7493.39 -7533.89 -7650.55 -8775.50 -9404.12 -9414.56 -9397.81 -9368.17 -9346.28 -9323.65 -9301.55 -9294.56
-8140.14 -8140.05 -8157.06 -8168.45 -8158.98 -8195.59 -8202.49 -8182.72 -8186.76 -8168.84 -8172.98 -8184.74 -8188.59 -8189.13 -8202.31 -8212.88 -8229.81 -8222.89 -8212.08 -8229.56 -8226.00 -8230.15 -8229.01 -8232.57 -8228.09 -8215.29 -8217.47 -8213.24 -8208.64 -8207.00 -8195.95 -8186.96 -8173.39 -8160.99 -8129.17 -8107.34 -8073.40 -8076.23 -8064.45 -8049.95 -8051.07 -7945.83 -7606.00 -6892.53 -6465.18 -5583.74 -5133.51 -4300.38 -3958.33 -3265.21 -2645.93 -2375.29 -2001.35 -1706.06 -1212.15 -1071.03 -905.27 -803.77 -760.00 -727.03 -687.02 -667.95 -650.64 -625.97 -609.70 -590.82 -577.32 -562.87 -548.91 -538.15 -540.24 -546.54 -446.34 -403.45 -402.19 -409.09 -405.34 -415.38 -417.95 -404.09 -429.81 -483.01 -430.87 -419.33 -321.37 -373.19 -190.01 -89.82 -145.53 -30.97 4.13 35.75 166.09 382.50 638.12 1072.22 582.52 125.64 -1557.25 -4897.02 -6880.37 -6777.37 -6655.90 -6560.33 -6492.41 -6414.68 -6389.93 -6405.65 -6412.66 -6434.49 -6515.38 -6925.23 -7240.30 -7309.50 -7334.77 -7351.56 -7396.39 -7409.63 -7443.77 -7463.02 -7481.79 -7492.84 -7510.84 -7527.07 -7537.78 -7527.54 -7517.51 -7510.42 -7499.56 -7491.43 -7517.84 -7827.97 -8902.44 -9357.59 -9393.96 -9373.45 -9352.02 -9316.54 -9300.84 -9271.54 -9268.42
-8181.69 -8181.60 -8204.61 -8197.80 -8216.86 -8234.04 -8241.58 -8238.39 -8217.15 -8220.53 -8229.78 -8238.44 -8222.21 -8239.37 -8242.36 -8257.21 -8257.77 -8260.51 -8273.69 -8270.75 -8267.47 -8266.24 -8274.73 -8263.16 -8268.89 -8265.47 -8265.33 -8259.40 -8244.06 -8251.62 -8235.94 -8227.33 -8224.78 -8207.42 -8179.97 -8149.70 -8126.52 -8113.22 -8099.18 -8093.04 -8082.70 -8049.62 -7781.90 -7398.13 -7022.88 -6514.98 -5778.45 -5403.66 -4328.22 -3836.62 -3194.14 -2770.52 -2377.49 -1773.83 -1471.28 -1222.75 -1034.75 -850.98 -809.03 -769.01 -735.77 -708.31 -661.65 -649.33 -627.58 -606.50 -587.85 -575.98 -558.56 -565.27 -576.95 -582.36 -504.37 -442.63 -497.42 -473.71 -519.06 -505.16 -502.19 -491.57 -516.75 -559.14 -460.55 -177.08 -80.96 -174.51 -106.25 204.74 307.73 616.92 488.62 351.37 538.80 1054.48 1688.59 1658.16 807.04 378.94 -2537.35 -5636.20 -6501.82 -6314.01 -6119.11 -6566.87 -6109.76 -6131.35 -6378.94 -6398.79 -6429.51 -6463.27 -6521.30 -7082.36 -7222.06 -7335.07 -7360.60 -7381.25 -7415.25 -7446.86 -7456.83 -7488.60 -7505.34 -7511.95 -7528.12 -7536.49 -7543.25 -7528.07 -7517.39 -7506.07 -7490.90 -7480.17 -7511.00 -7753.42 -8659.32 -9320.05 -9374.58 -9349.78 -9325.67 -9294.09 -9272.43 -9249.52 -9240.58
-8218.33 -8217.20 -8227.92 -8242.27 -8247.99 -8259.77 -8269.80 -8280.12 -8265.21 -8261.01 -8267.87 -8272.55 -8276.87 -8291.85 -8292.90 -8306.85 -8308.15 -8310.79 -8307.10 -8301.70 -8314.10 -8319.84 -8323.67 -8311.94 -8303.91 -8310.79 -8307.88 -8300.70 -8290.18 -8281.29 -8279.64 -8257.73 -8252.36 -8230.14 -8210.62 -8183.46 -8166.44 -8144.92 -8131.22 -8130.54 -8114.41 -8094.38 -8037.54 -7692.02 -7397.91 -6895.07 -6553.73 -5785.78 -4878.73 -3718.53 -3438.89 -2899.28 -2388.54 -1968.70 -1765.28 -1384.95 -1103.14 -941.82 -877.15 -815.98 -792.11 -752.52 -697.36 -666.72 -643.41 -623.48 -596.45 -586.92 -609.63 -643.34 -689.61 -782.84 -815.11 -729.45 -646.73 -637.81 -636.74 -664.63 -660.53 -616.24 -652.46 -644.95 -232.06 -65.71 -23.35 23.99 218.21 575.58 1029.64 1232.65 1391.47 1659.22 1539.83 1795.15 1996.87 1346.75 1257.93 -60.28 -3495.46 -5306.39 -4830.25 -4754.76 -4503.62 -5090.99 -4629.00 -5275.10 -5619.93 -6176.35 -6501.67 -6532.88 -6698.42 -6957.87 -7334.65 -7367.01 -7372.25 -7409.84 -7436.10 -7457.33 -7477.05 -7491.25 -7521.63 -7530.96 -7535.13 -7541.43 -7545.75 -7538.35 -7516.74 -7498.83 -7484.06 -7466.71 -7449.01 -7888.95 -8829.44 -9302.43 -9352.85 -9327.44 -9291.66 -9268.37 -9251.29 -9212.16 -9212.20
-8227.63 -8230.95 -8243.22 -8263.29 -8268.43 -8278.14 -8287.29 -8302.26 -8315.76 -8324.07 -8312.78 -8326.75 -8336.82 -8336.85 -8336.19 -8339.43 -8334.01 -8339.19 -8342.90 -8340.31 -8344.97 -8343.36 -8363.71 -8353.13 -8349.35 -8346.24 -8334.30 -8328.48 -8329.19 -8315.47 -8310.99 -8303.56 -8285.49 -8270.93 -8234.94 -8217.75 -8200.52 -8183.36 -8169.50 -8153.10 -8137.50 -8116.36 -8082.71 -7979.12 -7894.15 -7639.99 -6879.87 -6680.76 -5646.49 -4811.32 -4448.31 -3461.34 -2856.30 -2318.34 -1793.84 -1490.44 -1182.62 -1083.81 -896.01 -875.57 -811.94 -756.25 -709.26 -690.35 -669.84 -650.44 -628.20 -619.39 -673.92 -720.17 -792.67 -358.94 -264.96 -481.50 -472.98 -495.45 -344.70 -486.61 -913.08 -1532.97 -1300.83 -593.36 -29.99 -11.22 2.81 40.32 553.71 913.34 1920.53 2216.60 2221.01 2015.35 1801.67 1306.25 1443.32 708.79 230.43 -1733.24 -3354.68 -4312.26 -3451.87 -3314.37 -2993.55 -2543.94 -2587.18 -3486.28 -4540.02 -5341.95 -6746.31 -6935.45 -6969.23 -7133.82 -7320.84 -7388.67 -7409.81 -7442.08 -7462.20 -7481.54 -7499.83 -7515.32 -7536.09 -7546.30 -7545.53 -7550.20 -7546.43 -7534.94 -7514.88 -7495.77 -7479.96 -7456.62 -7455.30 -8086.18 -8810.40 -9303.61 -9325.57 -9297.49 -9260.71 -9235.92 -9212.72 -9184.49 -9184.53
-8244.56 -8244.67 -8257.66 -8270.59 -8278.70 -8296.22 -8299.95 -8317.49 -8349.74 -8366.91 -8378.08 -8381.20 -8382.39 -8377.34 -8372.25 -8360.14 -8366.72 -8368.14 -8370.27 -8369.70 -8373.10 -8377.61 -8378.51 -8379.50 -8378.09 -8367.57 -8358.21 -8354.93 -8349.75 -8337.24 -8328.85 -8319.10 -8306.38 -8293.27 -8267.06 -8240.10 -8229.66 -8207.73 -8199.90 -8196.02 -8164.75 -8149.57 -8125.75 -8048.06 -7997.32 -7777.36 -7372.28 -7129.64 -6634.70 -6212.76 -5468.40 -4110.16 -4013.64 -2456.42 -1940.85 -1811.98 -1515.45 -1189.35 -1074.27 -991.28 -908.69 -830.29 -824.94 -788.72 -729.69 -705.59 -727.03 -711.98 -769.65 -796.13 -672.76 -239.78 -38.07 -49.54 -72.36 -68.36 -81.38 -82.31 -341.90 -1029.98 -790.89 -109.68 75.30 24.98 179.30 548.56 1150.43 1634.03 2259.40 2106.16 1720.97 1415.62 1214.66 847.01 277.60 -1301.56 -2696.84 -4633.12 -5187.50 -4880.67 -4656.21 -4805.44 -3741.63 -2898.48 -3031.33 -2912.96 -3043.29 -4718.42 -6280.76 -7105.37 -7307.58 -7355.36 -7370.39 -7397.24 -7428.07 -7454.57 -7475.05 -7495.99 -7510.27 -7532.97 -7544.50 -7550.15 -7552.96 -7551.87 -7551.65 -7532.34 -7509.45 -7486.17 -7464.61 -7442.08 -7448.17 -7643.44 -8583.60 -9293.20 -9297.78 -9267.86 -9238.98 -9214.01 -9186.82 -9158.76 -9158.81
-8272.86 -8272.78 -8289.68 -8296.66 -8302.69 -8315.28 -8317.17 -8328.30 -8381.75 -8387.20 -8391.31 -8396.29 -8398.56 -8401.21 -8399.63 -8384.76 -8384.99 -8385.06 -8388.52 -8387.08 -8387.55 -8396.17 -8404.28 -8413.07 -8400.45 -8381.38 -8374.36 -8368.67 -8362.38 -8352.67 -8340.28 -8332.63 -8324.32 -8296.65 -8284.38 -8266.25 -8255.16 -8239.79 -8224.23 -8204.17 -8191.70 -8171.35 -8152.86 -8109.75 -8039.59 -7926.91 -7849.01 -7595.07 -7125.11 -6522.31 -5705.77 -5091.25 -4507.49 -3140.11 -2767.81 -2051.68 -1752.54 -1507.39 -1319.49 -1195.21 -1142.33 -936.13 -886.86 -868.94 -832.77 -862.65 -840.40 -854.32 -829.72 -787.96 -531.67 -134.89 10.57 6.60 33.55 17.64 6.00 2.33 -58.07 -101.84 -56.40 331.02 688.09 757.94 721.16 867.00 938.64 1558.44 1590.93 1167.21 837.76 793.48 664.32 -2663.67 -3754.23 -5556.66 -5546.94 -6724.80 -6766.00 -6366.80 -6754.39 -6376.76 -5634.28 -5074.62 -5299.11 -4383.64 -3207.32 -4920.31 -5621.90 -6858.39 -7341.77 -7373.56 -7404.46 -7435.77 -7466.84 -7477.69 -7502.81 -7517.62 -7532.55 -7545.29 -7553.34 -7559.07 -7557.10 -7552.72 -7550.01 -7525.17 -7485.61 -7478.79 -7441.82 -7425.31 -7434.55 -7716.91 -8527.64 -9236.53 -9276.42 -9247.50 -9225.99 -9191.50 -9159.17 -9136.23 -9136.27
-8298.21 -8298.13 -8310.30 -8316.48 -8321.22 -8327.38 -8337.03 -8352.92 -8392.48 -8402.93 -8405.69 -8410.89 -8414.96 -8414.42 -8407.75 -8397.77 -8398.47 -8396.99 -8396.88 -8398.03 -8399.85 -8410.10 -8424.65 -8419.66 -8404.62 -8388.84 -8381.54 -8375.42 -8370.74 -8358.38 -8347.32 -8338.18 -8331.34 -8315.97 -8300.00 -8283.36 -8274.78 -8249.39 -8244.22 -8218.57 -8207.61 -8187.56 -8169.87 -8144.06 -8136.86 -8088.30 -7980.96 -7909.28 -7430.85 -6687.93 -5972.30 -5412.44 -4768.30 -3825.02 -3311.07 -2951.17 -2331.93 -1980.02 -1728.07 -1483.01 -1360.21 -1132.80 -1106.33 -1088.64 -1050.87 -1149.66 -1063.57 -982.00 -845.07 -550.52 67.28 106.93 311.08 412.80 189.90 276.41 152.44 333.85 497.62 534.49 730.13 905.70 909.26 793.31 585.28 679.07 662.67 741.28 636.14 546.05 400.53 280.00 107.14 -3036.57 -5662.40 -6680.07 -6870.25 -6924.05 -6970.60 -6945.12 -6946.50 -6905.26 -6971.57 -6885.29 -6706.65 -5874.37 -4370.23 -3585.22 -4577.81 -6330.05 -7081.37 -7420.39 -7436.13 -7470.28 -7491.33 -7505.88 -7525.51 -7529.91 -7545.26 -7558.57 -7562.67 -7563.96 -7557.29 -7554.50 -7547.59 -7519.39 -7480.73 -7455.12 -7426.29 -7407.00 -7405.19 -7837.10 -8623.28 -9227.58 -9255.04 -9228.91 -9199.70 -9168.62 -9148.08 -9124.04 -9117.86
-8319.13 -8319.05 -8330.31 -8334.70 -8340.16 -8342.64 -8346.89 -8361.57 -8399.04 -8410.87 -8414.42 -8416.55 -8421.18 -8421.10 -8416.72 -8406.22 -8404.16 -8406.54 -8406.65 -8405.13 -8406.83 -8415.75 -8429.19 -8425.34 -8407.57 -8391.28 -8387.13 -8378.86 -8371.38 -8363.02 -8351.45 -8342.67 -8335.93 -8324.71 -8308.75 -8296.31 -8286.67 -8276.56 -8246.33 -8236.31 -8214.59 -8190.34 -8177.03 -8164.68 -8152.07 -8124.29 -8049.70 -7932.25 -7866.25 -6915.08 -6460.09 -5654.77 -5087.19 -4508.95 -3839.75 -3191.51 -2713.15 -2539.64 -2303.53 -1815.86 -1513.52 -1337.16 -1442.55 -1416.81 -1305.01 -1351.99 -1311.58 -1086.14 -779.95 52.42 155.23 430.43 883.47 1396.01 1374.40 1521.38 1810.76 1408.57 1625.90 1352.10 1223.57 1144.78 1011.18 509.24 301.72 214.55 177.93 189.68 268.03 180.39 112.61 106.24 -1704.87 -5328.72 -6463.02 -6781.61 -6834.62 -6869.66 -6900.15 -6799.60 -6970.78 -7026.57 -7031.65 -7057.26 -7170.32 -7005.87 -5879.22 -5030.26 -4986.88 -6107.10 -7193.54 -7425.04 -7471.46 -7494.97 -7521.72 -7535.49 -7547.71 -7549.04 -7558.69 -7564.59 -7566.07 -7562.60 -7559.17 -7553.60 -7531.09 -7500.85 -7463.83 -7433.48 -7415.52 -7376.34 -7367.41 -7607.61 -8558.54 -9201.07 -9226.51 -9210.06 -9189.27 -9146.38 -9130.08 -9103.89 -9103.95
-8338.80 -8337.96 -8344.35 -8348.24 -8349.52 -8351.35 -8357.00 -8373.90 -8402.64 -8411.65 -8416.56 -8418.61 -8421.86 -8424.07 -8419.68 -8412.77 -8409.92 -8412.20 -8414.76 -8412.46 -8415.91 -8420.51 -8426.48 -8419.21 -8403.36 -8392.44 -8385.04 -8378.68 -8367.82 -8360.09 -8351.68 -8340.29 -8334.70 -8326.70 -8318.62 -8306.72 -8292.68 -8286.30 -8266.46 -8247.61 -8219.64 -8198.33 -8181.51 -8168.25 -8155.48 -8143.99 -8116.94 -8038.21 -7818.43 -7536.24 -6894.57 -5980.94 -5293.21 -4672.25 -4244.81 -3452.26 -3307.06 -2957.40 -2589.34 -2209.46 -2003.87 -1797.93 -1666.58 -1686.18 -1683.00 -1629.70 -1550.18 -1237.40 -406.38 125.35 421.74 1129.70 1550.24 1796.44 1963.87 1871.27 1940.97 1645.97 1526.50 1268.19 688.81 617.92 254.48 255.08 122.26 95.46 -222.65 -188.18 40.42 -1088.40 -1136.52 -2704.23 -5569.56 -6583.99 -6734.67 -6752.97 -6777.56 -6783.88 -5658.24 -6171.28 -6825.70 -7075.35 -7096.86 -7086.16 -7081.14 -6937.32 -6854.57 -5685.83 -5436.83 -6354.54 -7224.51 -7476.84 -7502.35 -7523.71 -7541.14 -7547.05 -7560.09 -7567.03 -7567.47 -7565.58 -7560.43 -7558.35 -7553.58 -7544.45 -7520.28 -7503.10 -7448.18 -7422.78 -7394.69 -7370.19 -7368.26 -7887.68 -8685.77 -9204.13 -9226.27 -9200.17 -9179.79 -9143.31 -9122.07 -9095.01 -9095.07
-8378.45 -8378.35 -8382.02 -8384.92 -8383.88 -8384.35 -8383.40 -8387.74 -8399.80 -8403.89 -8407.02 -8412.71 -8416.03 -8419.59 -8419.30 -8418.87 -8422.34 -8424.57 -8422.07 -8425.49 -8423.72 -8427.17 -8420.07 -8409.79 -8396.81 -8386.58 -8381.86 -8371.32 -8356.93 -8351.96 -8346.34 -8337.43 -8329.80 -8324.48 -8315.04 -8306.29 -8300.14 -8289.79 -8276.46 -8254.70 -8232.04 -8206.15 -8183.76 -8169.26 -8152.54 -8138.70 -8123.18 -8111.77 -7947.87 -7636.44 -7153.58 -6363.88 -5490.75 -4676.70 -4171.14 -3967.25 -3714.62 -3362.04 -3082.22 -2535.97 -2489.58 -2185.08 -2216.16 -2184.66 -2063.19 -1987.08 -1665.27 -1311.12 -208.28 106.95 167.51 701.50 1014.24 937.68 1228.92 1052.28 1009.18 963.34 877.36 307.57 297.72 138.92 111.67 92.08 32.25 -665.31 -2029.97 -2170.93 -2960.20 -4394.29 -3094.64 -5786.58 -6411.40 -6951.11 -6246.47 -5519.91 -6270.62 -5771.62 -5325.22 -6391.65 -7006.74 -7187.31 -7166.38 -6930.83 -6578.81 -5780.63 -6127.84 -4855.63 -5374.70 -7164.07 -7460.96 -7529.22 -7534.75 -7549.70 -7560.16 -7569.28 -7579.19 -7581.03 -7576.05 -7567.14 -7559.25 -7554.50 -7545.95 -7522.99 -7495.41 -7455.36 -7427.92 -7403.90 -7377.50 -7341.87 -7360.08 -7734.48 -8988.41 -9224.17 -9221.09 -9195.81 -9174.06 -9140.34 -9116.12 -9091.25 -9091.32
-8399.55 -8399.47 -8400.09 -8399.28 -8400.34 -8397.75 -8399.11 -8398.41 -8397.36 -8399.36 -8400.65 -8403.63 -8407.48 -8412.50 -8420.63 -8425.55 -8430.68 -8433.59 -8434.26 -8432.95 -8429.88 -8427.00 -8413.41 -8408.93 -8401.04 -8388.56 -8377.07 -8366.09 -8355.84 -8346.79 -8340.03 -8333.51 -8323.93 -8320.25 -8315.69 -8307.85 -8301.41 -8295.93 -8281.51 -8257.85 -8237.23 -8207.56 -8193.23 -8171.98 -8153.71 -8135.66 -8122.73 -8102.92 -8026.33 -7733.97 -7181.15 -6640.23 -5756.18 -5035.38 -4537.03 -4303.89 -4148.18 -3714.73 -3284.17 -3131.98 -2792.41 -2771.88 -2549.23 -2492.40 -2335.96 -2185.17 -1815.82 -1437.74 -392.30 51.27 95.69 114.83 355.17 400.09 646.60 489.35 343.85 350.69 205.90 163.01 94.71 89.58 93.25 -268.27 -1159.60 -3314.37 -4530.03 -5124.11 -5906.71 -6320.19 -6882.44 -6714.29 -6926.43 -6442.76 -4895.14 -4472.53 -4474.29 -5136.97 -5587.83 -6700.00 -7137.49 -7323.69 -7211.00 -6104.77 -4516.63 -5144.68 -6290.60 -5054.02 -5393.72 -7402.34 -7543.38 -7552.41 -7559.42 -7570.93 -7586.01 -7587.40 -7591.34 -7590.35 -7584.75 -7570.43 -7558.17 -7556.45 -7527.14 -7505.08 -7483.77 -7441.77 -7406.34 -7385.99 -7344.19 -7327.58 -7313.03 -7647.07 -8723.76 -9176.56 -9215.72 -9193.88 -9168.88 -9143.84 -9121.04 -9096.26 -9092.37
-8408.44 -8408.36 -8405.39 -8402.82 -8401.29 -8400.61 -8400.62 -8397.96 -8393.41 -8394.70 -8400.20 -8401.93 -8407.24 -8412.03 -8420.68 -8427.85 -8436.34 -8437.59 -8440.96 -8441.27 -8436.15 -8431.53 -8412.25 -8404.81 -8398.50 -8389.67 -8376.17 -8365.40 -8363.10 -8358.60 -8345.25 -8335.31 -8324.34 -8320.10 -8314.52 -8309.76 -8304.77 -8299.36 -8282.67 -8265.27 -8244.98 -8222.35 -8209.58 -8181.65 -8162.82 -8147.53 -8133.06 -8116.31 -8047.47 -7886.50 -7416.00 -6618.97 -5910.58 -5521.88 -4744.98 -4595.17 -4118.70 -3848.08 -3421.75 -3281.26 -3170.46 -3017.22 -2861.23 -2836.90 -2557.99 -2328.97 -2140.59 -1465.61 -554.26 3.95 48.31 85.12 167.74 173.55 147.60 122.12 102.76 122.56 67.51 62.58 59.20 -2272.99 -3038.93 -3694.39 -4660.61 -6066.72 -6686.97 -7027.69 -7250.74 -7053.79 -6735.18 -6128.79 -5517.31 -4883.35 -4461.17 -3792.73 -3857.78 -3976.53 -5111.19 -6388.40 -7032.02 -7278.32 -6788.15 -5625.21 -5234.21 -6260.73 -7136.94 -6878.04 -6713.16 -7480.68 -7584.41 -7583.86 -7575.24 -7582.06 -7602.95 -7603.25 -7607.11 -7604.42 -7584.43 -7569.51 -7563.89 -7560.64 -7546.41 -7490.07 -7463.09 -7433.80 -7395.11 -7377.66 -7347.65 -7324.46 -7312.01 -7987.55 -8621.15 -9180.93 -9214.27 -9189.93 -9174.58 -9147.36 -9122.08 -9097.35 -9097.42
-8422.51 -8422.43 -8413.14 -8402.67 -8399.43 -8398.85 -8398.23 -8395.71 -8391.32 -8392.72 -8396.95 -8403.05 -8407.49 -8414.96 -8422.97 -8432.09 -8441.37 -8443.76 -8447.38 -8446.53 -8443.15 -8436.79 -8419.21 -8407.63 -8408.33 -8402.96 -8391.80 -8383.52 -8394.16 -8392.17 -8385.90 -8351.41 -8340.65 -8327.15 -8321.43 -8314.37 -8309.92 -8301.01 -8287.73 -8271.28 -8263.02 -8244.77 -8235.63 -8207.46 -8173.99 -8162.11 -8144.90 -8138.81 -8108.10 -8011.13 -7648.44 -7112.79 -6465.32 -5522.78 -5202.58 -4809.88 -4202.69 -3853.20 -3578.08 -3332.64 -3246.92 -3166.74 -2966.81 -2818.09 -2205.70 -1410.17 -1608.27 -895.07 -455.06 -17.57 3.25 67.20 107.24 104.66 64.79 76.82 -275.97 -161.59 -665.61 -2324.00 -3249.74 -4033.64 -5108.09 -6171.91 -6696.29 -7097.94 -6586.56 -6300.51 -6570.74 -5759.46 -5252.20 -5616.92 -6147.43 -6211.79 -5341.29 -5361.60 -5813.78 -6003.87 -6017.29 -6538.20 -7053.92 -7113.49 -6571.09 -5407.26 -5361.24 -7392.03 -7467.91 -7461.36 -7474.63 -7594.10 -7608.36 -7605.12 -7606.05 -7650.67 -7656.37 -7644.72 -7649.48 -7620.94 -7597.24 -7587.83 -7569.36 -7578.10 -7556.97 -7512.60 -7466.15 -7426.14 -7396.99 -7371.63 -7349.86 -7323.86 -7348.53 -7801.29 -8611.51 -9182.20 -9223.52 -9197.83 -9174.92 -9158.40 -9134.18 -9108.12 -9105.51
-8446.76 -8440.70 -8443.40 -8414.79 -8417.94 -8431.15 -8412.13 -8421.55 -8426.42 -8392.34 -8431.85 -8411.31 -8437.59 -8448.23 -8427.33 -8453.66 -8445.55 -8456.83 -8487.29 -8480.69 -8495.70 -8480.22 -8463.83 -8460.43 -8431.72 -8501.20 -8442.41 -8446.38 -8459.35 -8470.55 -8476.86 -8419.05 -8377.90 -8351.54 -8340.04 -8327.51 -8329.68 -8315.76 -8311.16 -8305.70 -8297.74 -8279.34 -8258.79 -8241.18 -8214.48 -8200.51 -8175.20 -8174.32 -8162.92 -7995.62 -7780.78 -7350.22 -6598.43 -6040.92 -5595.01 -5087.68 -4457.98 -3843.61 -3666.76 -3364.34 -3280.31 -3142.31 -2881.19 -2208.06 -666.98 200.98 639.31 306.09 -66.43 -219.36 4.60 31.26 -269.36 -192.47 -615.25 -659.85 -890.07 -1008.67 -3060.88 -5031.07 -5925.70 -7001.77 -6930.98 -7124.78 -7269.89 -7304.66 -6905.65 -6501.67 -6552.66 -5621.28 -4368.81 -4747.59 -6744.32 -7236.25 -7336.34 -7271.49 -7284.45 -7229.16 -7355.01 -7323.70 -7374.83 -7221.67 -6694.54 -6330.21 -6162.81 -7489.42 -7531.22 -7606.20 -7604.75 -7610.88 -7662.06 -7633.11 -7630.85 -7732.12 -7737.01 -7763.30 -7714.47 -7647.75 -7633.55 -7620.88 -7606.69 -7596.24 -7605.82 -7581.55 -7481.43 -7459.12 -7439.86 -7382.50 -7381.90 -7359.83 -7332.54 -7774.13 -8675.25 -9229.53 -9232.77 -9218.57 -9185.96 -9163.66 -9136.86 -9115.69 -9115.76
-8630.63 -8610.51 -8685.44 -8612.42 -8640.33 -8688.38 -8715.40 -8740.12 -8664.51 -8536.15 -8899.41 -8625.94 -8724.90 -8697.27 -8580.71 -8627.97 -8967.49 -8751.00 -8787.98 -8862.35 -8632.23 -8703.88 -8992.17 -8696.59 -8775.93 -8647.92 -8615.05 -8545.83 -8568.80 -8579.88 -8592.66 -8550.80 -8479.36 -8406.87 -8357.92 -8353.77 -8364.11 -8372.69 -8367.58 -8335.95 -8356.70 -8333.20 -8303.18 -8289.36 -8265.87 -8246.17 -8217.57 -8212.27 -8211.74 -8221.89 -8264.40 -7851.05 -7268.74 -6658.62 -6050.49 -5346.38 -4864.09 -4635.80 -3727.39 -3177.69 -2971.22 -3107.47 -2383.21 -1267.69 -57.72 868.64 865.79 -219.95 -901.28 -1146.76 -1155.72 -1357.18 -1864.50 -3476.32 -2817.12 -2797.14 -3941.37 -5262.16 -6575.71 -7179.13 -7537.70 -7525.05 -7731.97 -7612.82 -7795.44 -7767.39 -7732.66 -7666.30 -7130.24 -6046.22 -6426.06 -7253.74 -7713.35 -7703.93 -7642.55 -7522.77 -7594.34 -7570.05 -7767.27 -7844.70 -7805.24 -7798.40 -7400.24 -7468.38 -8125.67 -8013.92 -7893.50 -7963.06 -8134.49 -7806.81 -8060.41 -7849.06 -7870.16 -8137.36 -7865.20 -7931.58 -7883.60 -7782.09 -7746.91 -7679.53 -7781.15 -7704.06 -7733.47 -7874.91 -7623.90 -7830.35 -7728.09 -7621.49 -7697.09 -7655.09 -7767.71 -7835.68 -8637.95 -9217.55 -9239.08 -9229.89 -9212.80 -9176.76 -9158.74 -9127.32 -9127.40
-9905.20 -9904.19 -9828.10 -9541.42 -9615.92 -9680.29 -9637.28 -9716.34 -9797.50 -9696.27 -9826.72 -9665.65 -9625.81 -9896.44 -9761.46 -9417.19 -9679.84 -9691.27 -9982.14 -9557.22 -9641.17 -9546.21 -9694.62 -9817.97 -9480.20 -9358.04 -9035.32 -8874.50 -8854.74 -8891.21 -8767.16 -8736.89 -8568.34 -8445.83 -8448.75 -8422.01 -8407.58 -8438.42 -8439.59 -8418.72 -8386.14 -8445.04 -8347.97 -8359.35 -8371.11 -8376.35 -8334.99 -8306.21 -8296.68 -8467.19 -8683.01 -8440.70 -8077.89 -7311.79 -7126.88 -5591.71 -5460.37 -5403.98 -3889.84 -2195.62 -3048.01 -3325.47 -2675.73 -1528.13 292.68 583.88 -1538.14 -3468.06 -4212.13 -3110.99 -2012.44 -2601.50 -4397.06 -5514.50 -6584.81 -8111.71 -8474.85 -8593.73 -8534.04 -8721.65 -8653.90 -8657.25 -8592.96 -8809.36 -8898.70 -9077.68 -8682.52 -8618.51 -8656.74 -8475.70 -8493.00 -8607.72 -8469.61 -8564.30 -8852.79 -8661.87 -8842.81 -8754.57 -8747.60 -8918.37 -8629.50 -9068.57 -8886.58 -8644.22 -8766.90 -8713.42 -8581.82 -8493.57 -8926.03 -8913.18 -9031.85 -8883.50 -9173.51 -8915.93 -8563.27 -8354.87 -8106.90 -7947.75 -7861.48 -7828.23 -8016.41 -8082.26 -8069.95 -8701.00 -9032.68 -8928.95 -9045.04 -8384.28 -8650.75 -8757.01 -8771.26 -9024.35 -9050.35 -9265.08 -9256.88 -9242.78 -9220.25 -9189.99 -9165.93 -9139.14 -9139.21
-10358.11 -10357.93 -10334.99 -10296.84 -10317.18 -10312.59 -10304.91 -10222.50 -10200.94 -10280.56 -10233.35 -10325.94 -10317.23 -10337.56 -10358.33 -10396.70 -10293.91 -10375.52 -10438.84 -10382.25 -10419.98 -10395.32 -10313.69 -10442.62 -10286.64 -9865.61 -9624.52 -9519.10 -9384.06 -9221.64 -9021.06 -8940.67 -8696.42 -8501.28 -8547.31 -8568.09 -8561.53 -8577.75 -8607.38 -8512.03 -8581.16 -8620.63 -8458.18 -8458.01 -8485.40 -8478.47 -8470.36 -8468.34 -8454.18 -8713.46 -8877.86 -8937.27 -8765.02 -8852.03 -8988.68 -4963.74 -4469.85 -3649.27 -3278.78 -2149.88 -2273.89 -4445.19 -5111.57 -5797.21 -5850.43 -5192.71 -6455.83 -7656.19 -6929.53 -7243.28 -5872.23 -4997.49 -6434.07 -7954.36 -8789.15 -9361.81 -9325.13 -9323.64 -9394.27 -9289.44 -9357.16 -9469.77 -9436.14 -9482.34 -9329.52 -9393.48 -9430.38 -9447.14 -9261.35 -9408.63 -9410.19 -9390.67 -9389.17 -9397.19 -9397.25 -9386.88 -9343.17 -9384.63 -9378.10 -9304.94 -9287.67 -9408.71 -9436.45 -9404.93 -9472.01 -9517.57 -9548.58 -9600.19 -9591.39 -9610.29 -9626.50 -9637.06 -9525.57 -9393.35 -9184.58 -9044.21 -8452.80 -8182.91 -8011.69 -8134.69 -8523.30 -8851.11 -9102.22 -9278.47 -9384.00 -9354.72 -9393.56 -9293.67 -9332.96 -9212.62 -9273.33 -9258.04 -9293.13 -9293.89 -9273.11 -9248.95 -9238.37 -9204.73 -9183.34 -9149.84 -9149.92
-10378.14 -10378.08 -10368.75 -10364.61 -10361.31 -10359.40 -10359.53 -10356.40 -10350.89 -10374.88 -10381.07 -10392.14 -10400.40 -10419.37 -10427.42 -10443.63 -10451.41 -10463.33 -10472.33 -10475.51 -10474.00 -10474.65 -10470.70 -10458.64 -10432.65 -10370.41 -10142.39 -10010.77 -9759.33 -9427.75 -9368.25 -9178.12 -9021.78 -8941.90 -8728.60 -8751.05 -8702.90 -8778.61 -8807.85 -8660.40 -8749.60 -8868.37 -8764.92 -8621.63 -8730.58 -8728.48 -8769.52 -8697.85 -8729.98 -8850.93 -9069.11 -9293.51 -9484.83 -9463.29 -9493.57 -4071.89 -3561.26 -3351.97 -3401.83 -4826.08 -4096.41 -5395.85 -7730.51 -8304.51 -8524.42 -9195.01 -9360.08 -8725.50 -8670.64 -8444.85 -8372.23 -8803.47 -9094.90 -9168.15 -9379.90 -9515.50 -9527.70 -9525.03 -9502.10 -9528.73 -9529.11 -9523.12 -9525.35 -9519.96 -9522.18 -9496.26 -9514.80 -9503.83 -9502.13 -9499.20 -9491.37 -9481.92 -9476.66 -9470.20 -9454.96 -9458.95 -9451.74 -9450.21 -9449.01 -9456.09 -9467.91 -9482.19 -9497.34 -9525.87 -9553.38 -9585.66 -9610.64 -9642.41 -9664.00 -9685.94 -9686.26 -9636.17 -9594.90 -9575.04 -9386.11 -9168.13 -8970.43 -8778.59 -8615.01 -9008.43 -9169.99 -9208.82 -9391.88 -9502.08 -9499.23 -9476.33 -9455.33 -9412.60 -9377.16 -9375.50 -9348.69 -9342.88 -9313.69 -9299.28 -9286.02 -9265.90 -9239.81 -9220.51 -9193.69 -9158.60 -9158.67
-10368.22 -10367.95 -10362.44 -10358.86 -10356.33 -10355.06 -10356.15 -10358.82 -10361.79 -10370.32 -10376.94 -10389.15 -10401.87 -10414.28 -10426.23 -10439.92 -10455.05 -10464.08 -10474.14 -10478.18 -10480.43 -10479.64 -10476.92 -10459.90 -10453.48 -10411.53 -10303.73 -10186.88 -9973.16 -9837.16 -9593.63 -9475.54 -9424.08 -9170.87 -9036.06 -8990.06 -8911.39 -8896.89 -8937.95 -8886.03 -8989.37 -9084.86 -8974.52 -8859.06 -9037.73 -8906.97 -8970.07 -9145.93 -9085.99 -9200.90 -9436.61 -9639.73 -9726.01 -9691.19 -9384.13 -3229.88 -5237.49 -5173.41 -5502.09 -7832.39 -8752.35 -8246.69 -9166.31 -9498.25 -9588.26 -9565.25 -9570.63 -8808.93 -7847.88 -9336.04 -9408.57 -9438.79 -9477.73 -9520.62 -9561.89 -9569.99 -9565.68 -9556.34 -9554.17 -9553.28 -9555.78 -9551.99 -9548.96 -9536.51 -9542.38 -9534.65 -9526.96 -9522.51 -9513.94 -9508.01 -9501.63 -9498.16 -9487.65 -9482.03 -9473.73 -9468.68 -9462.03 -9457.91 -9459.09 -9465.19 -9474.11 -9490.20 -9513.75 -9534.41 -9567.79 -9606.08 -9630.43 -9651.51 -9680.74 -9696.90 -9696.74 -9674.80 -9642.21 -9620.00 -9605.67 -9472.26 -9434.82 -9281.02 -9061.68 -9338.24 -9525.14 -9526.43 -9522.15 -9523.84 -9504.20 -9471.86 -9455.58 -9419.00 -9401.94 -9378.74 -9362.84 -9350.46 -9335.51 -9312.25 -9295.14 -9277.30 -9249.54 -9227.20 -9196.64 -9164.60 -9164.67
-10362.60 -10362.53 -10358.30 -10352.29 -10351.36 -10351.06 -10352.18 -10354.56 -10358.33 -10365.48 -10374.77 -10380.84 -10394.63 -10406.80 -10422.63 -10433.59 -10446.89 -10459.77 -10468.84 -10475.03 -10477.68 -10480.50 -10481.20 -10460.38 -10468.26 -10457.06 -10447.85 -10281.52 -10192.45 -10016.86 -9926.92 -9942.41 -9826.75 -9551.81 -9392.22 -9211.53 -9254.20 -9184.57 -9094.65 -9172.49 -9332.15 -9344.69 -9301.65 -9304.15 -9312.32 -9249.04 -9313.71 -9617.40 -9540.06 -9544.04 -9673.37 -9727.23 -9826.61 -9808.13 -8930.55 -5166.52 -5747.58 -8272.31 -8746.45 -9707.61 -9715.08 -9801.53 -9780.97 -9715.47 -9772.51 -9733.08 -9589.57 -8802.14 -7926.60 -9456.86 -9599.92 -9659.00 -9650.74 -9635.85 -9619.56 -9606.31 -9589.13 -9597.06 -9583.65 -9584.07 -9580.19 -9575.81 -9571.45 -9565.28 -9556.38 -9551.66 -9541.56 -9532.20 -9527.86 -9521.82 -9516.81 -9508.88 -9499.07 -9496.18 -9483.33 -9475.48 -9469.46 -9467.50 -9467.85 -9472.11 -9482.18 -9501.31 -9525.76 -9552.00 -9584.20 -9612.81 -9637.38 -9664.58 -9686.51 -9699.21 -9698.04 -9693.55 -9677.54 -9647.15 -9638.19 -9612.66 -9590.51 -9559.49 -9566.49 -9557.86 -9549.98 -9536.50 -9537.38 -9526.99 -9501.24 -9482.07 -9450.21 -9421.24 -9405.09 -9388.33 -9372.44 -9350.64 -9339.37 -9321.51 -9300.32 -9287.16 -9259.20 -9230.27 -9198.55 -9168.17 -9168.25
-10357.90 -10357.83 -10353.02 -10349.48 -10346.00 -10345.02 -10343.46 -10347.52 -10350.86 -10357.26 -10365.96 -10375.60 -10387.90 -10395.12 -10413.02 -10423.80 -10439.76 -10451.92 -10462.71 -10470.42 -10474.68 -10474.99 -10477.67 -10477.62 -10473.46 -10472.03 -10461.88 -10413.20 -10317.37 -10233.24 -10260.96 -10210.54 -10054.42 -9852.38 -9917.23 -9737.19 -9572.70 -9608.78 -9608.48 -9528.65 -9480.73 -9719.01 -9648.48 -9667.50 -9652.10 -9754.00 -9776.55 -9948.03 -9936.75 -9910.50 -9909.28 -9882.97 -9897.77 -9851.16 -8791.99 -5938.55 -7077.04 -9354.44 -9844.37 -9843.90 -9823.54 -9841.34 -9814.00 -9796.88 -9764.06 -9744.97 -9701.70 -9620.67 -9544.51 -9580.93 -9668.40 -9671.73 -9660.02 -9644.90 -9636.75 -9630.31 -9628.72 -9615.94 -9617.38 -9610.13 -9603.40 -9596.41 -9586.24 -9576.24 -9567.96 -9561.90 -9553.28 -9547.09 -9539.89 -9533.10 -9521.65 -9514.03 -9507.04 -9497.60 -9491.72 -9483.27 -9477.09 -9474.29 -9474.82 -9479.86 -9496.93 -9510.43 -9534.63 -9562.30 -9600.16 -9616.14 -9654.19 -9679.97 -9693.48 -9706.77 -9709.51 -9702.56 -9669.48 -9655.00 -9639.68 -9625.10 -9610.98 -9576.66 -9577.97 -9576.35 -9557.16 -9543.42 -9540.89 -9523.74 -9495.83 -9477.54 -9443.97 -9427.91 -9409.57 -9389.32 -9372.99 -9359.21 -9340.86 -9318.93 -9308.31 -9287.78 -9267.04 -9231.95 -9206.64 -9172.42 -9168.72
-10353.03 -10352.96 -10348.88 -10341.98 -10342.28 -10340.69 -10339.74 -10341.29 -10344.59 -10347.52 -10355.46 -10362.78 -10375.87 -10381.89 -10399.09 -10408.28 -10429.11 -10437.94 -10442.42 -10456.29 -10466.48 -10468.27 -10470.80 -10469.73 -10471.64 -10473.72 -10468.60 -10455.91 -10402.42 -10379.57 -10392.73 -10336.98 -10214.44 -10162.36 -10158.59 -10088.23 -10030.70 -9842.56 -10029.37 -9984.89 -10019.41 -10016.09 -9952.64 -9933.63 -9900.79 -10052.31 -10053.09 -10052.39 -10046.28 -9988.02 -9973.93 -9937.69 -9942.73 -9901.64 -8359.78 -5634.30 -7900.72 -9592.36 -9904.20 -9878.73 -9856.40 -9832.21 -9808.47 -9790.73 -9761.91 -9739.27 -9733.56 -9708.36 -9697.10 -9696.72 -9689.33 -9671.58 -9670.99 -9659.04 -9647.62 -9648.76 -9649.32 -9646.28 -9638.36 -9628.88 -9623.88 -9607.27 -9601.14 -9590.99 -9584.70 -9571.66 -9562.27 -9555.38 -9546.36 -9538.95 -9532.19 -9523.13 -9511.84 -9504.35 -9493.86 -9488.29 -9481.71 -9478.96 -9481.15 -9491.29 -9499.63 -9520.21 -9538.68 -9580.63 -9602.13 -9627.49 -9660.65 -9687.36 -9697.32 -9703.84 -9703.86 -9694.91 -9681.30 -9664.64 -9645.55 -9628.54 -9601.19 -9584.31 -9573.82 -9570.92 -9551.90 -9539.72 -9538.27 -9512.30 -9492.74 -9473.43 -9449.17 -9426.38 -9411.33 -9392.12 -9378.82 -9356.16 -9346.03 -9328.51 -9307.33 -9292.47 -9268.29 -9231.69 -9196.89 -9165.74 -9165.82
-10347.89 -10347.82 -10342.41 -10339.68 -10336.11 -10333.58 -10332.29 -10333.64 -10334.72 -10338.87 -10348.84 -10352.29 -10365.14 -10375.93 -10381.72 -10395.59 -10411.15 -10421.24 -10436.57 -10438.52 -10450.83 -10456.92 -10460.68 -10461.89 -10465.14 -10467.42 -10466.82 -10461.31 -10446.72 -10420.36 -10408.76 -10368.12 -10308.43 -10311.14 -10281.37 -10282.03 -10257.52 -10157.04 -10215.37 -10209.02 -10155.25 -10126.45 -10119.13 -10153.30 -10144.63 -10130.39 -10129.55 -10109.17 -10079.10 -10043.88 -10015.84 -9997.65 -9984.33 -9859.17 -8230.30 -6184.76 -9056.98 -9675.88 -9902.88 -9884.20 -9859.14 -9831.83 -9814.64 -9789.41 -9770.80 -9751.74 -9741.08 -9732.01 -9729.53 -9710.36 -9702.49 -9692.91 -9691.29 -9685.19 -9675.02 -9677.05 -9662.23 -9662.56 -9653.18 -9641.55 -9636.07 -9620.65 -9610.92 -9600.77 -9591.20 -9581.79 -9573.05 -9560.02 -9550.94 -9544.41 -9534.62 -9525.14 -9516.49 -9505.84 -9499.59 -9491.43 -9486.95 -9484.25 -9485.72 -9492.88 -9506.02 -9522.06 -9554.57 -9583.29 -9608.38 -9646.50 -9672.00 -9687.06 -9698.51 -9701.59 -9698.04 -9687.79 -9670.63 -9656.20 -9639.27 -9613.58 -9589.88 -9580.72 -9564.92 -9544.83 -9536.41 -9530.19 -9519.93 -9503.58 -9482.37 -9462.29 -9444.22 -9425.22 -9410.39 -9389.63 -9375.08 -9359.65 -9349.44 -9328.24 -9308.09 -9285.59 -9257.68 -9231.80 -9194.83 -9164.64 -9161.05
