-11712.24 -11712.19 -11721.92 -11747.13 -11768.83 -11812.06 -11831.31 -11891.50 -11936.85 -12001.12 -12024.43 -12062.69 -12089.08 -12123.86 -12144.65 -12170.16 -12185.03 -12201.51 -12220.68 -12230.65 -12232.47 -12108.80 -11961.99 -11890.99 -11933.25 -12032.03 -11985.69 -11724.22 -10764.61 -9884.45 -7520.11 -2192.22 -121.66 186.50 219.21 252.96 321.59 357.60 380.95 425.45 399.38 390.96 435.62 409.60 331.82 347.16 316.02 256.71 221.05 214.82 192.58 184.73 176.28 168.70 159.26 143.74 134.79 132.95 -137.29 -481.25 -556.52 -448.39 -563.20 -449.50 -110.91 -494.89 -693.47 96.78 150.22 163.42 176.72 244.65 289.29 300.14 284.58 291.24 294.02 300.64 304.09 310.77 316.45 323.95 336.42 349.55 362.57 371.23 383.04 396.77 415.57 422.43 435.39 435.94 434.74 433.84 444.74 473.76 493.75 520.95 529.01 641.74 736.45 661.23 353.40 192.27 132.48 -465.62 -1625.97 -2964.16 -3001.37 -4307.09 -4577.52 -4669.02 -5084.40 -5320.60 -5530.68 -5749.84 -5951.89 -6060.21 -5754.40 -6480.90 -7924.44 -7808.25 -7625.87 -7438.13 -7363.20 -7354.80 -7344.53 -7325.58 -7309.22 -7288.96 -7344.93 -7695.24 -8357.51 -9005.58 -9088.61 -9171.61 -9162.07 -9155.52 -9148.03 -9142.36 -9142.43
-11699.59 -11699.53 -11711.75 -11735.06 -11755.89 -11797.37 -11829.20 -11900.42 -11979.18 -12004.82 -12046.41 -12089.24 -12109.40 -12140.53 -12156.46 -12165.47 -12183.69 -12198.79 -12212.51 -12223.45 -12210.46 -11995.28 -11745.59 -11705.22 -11701.97 -11722.75 -11668.94 -11622.03 -10904.28 -9931.55 -8316.18 -1193.28 157.66 195.45 237.32 256.17 311.29 376.60 399.67 438.25 463.59 435.44 529.63 513.91 413.39 432.80 409.13 317.17 266.88 243.67 215.25 203.17 195.86 187.54 179.35 170.80 164.32 163.64 150.03 137.21 150.89 148.61 162.14 154.68 156.55 172.47 173.38 164.28 192.32 214.82 233.74 257.01 276.26 276.18 273.63 276.95 287.82 292.01 296.86 308.76 313.58 327.17 338.90 351.25 366.40 373.60 401.56 415.39 427.35 438.26 446.44 444.45 441.25 443.47 455.95 474.31 486.70 510.60 549.02 589.59 855.49 848.76 558.67 279.50 142.24 125.52 -338.85 -1454.86 -2713.26 -4300.34 -4691.02 -4641.41 -4893.68 -5001.42 -5403.84 -5678.08 -6000.36 -6101.04 -5934.85 -6744.21 -7955.91 -7683.70 -7621.72 -7427.65 -7371.40 -7358.08 -7349.19 -7336.44 -7320.00 -7310.85 -7360.97 -7546.99 -8055.38 -8760.41 -9097.01 -9175.77 -9165.33 -9156.15 -9147.88 -9143.24 -9143.31
-11696.69 -11696.63 -11709.60 -11729.93 -11762.67 -11790.76 -11843.29 -11890.44 -11975.13 -12007.50 -12056.38 -12079.21 -12118.25 -12147.08 -12159.52 -12170.13 -12183.24 -12201.77 -12217.69 -12229.05 -12216.90 -11975.99 -11772.97 -11687.87 -11683.68 -11674.86 -11653.67 -11370.32 -10931.87 -8024.42 -3815.49 135.07 163.85 218.02 259.26 316.49 342.44 375.38 425.48 444.20 486.88 502.88 571.64 581.64 500.01 454.55 439.67 329.82 285.98 246.31 248.84 233.42 218.26 217.78 202.15 198.39 188.82 178.69 171.42 178.16 180.15 186.22 183.43 175.81 190.91 192.71 213.55 216.16 199.36 249.30 260.74 255.42 261.04 267.15 272.11 273.21 278.85 286.09 292.01 304.33 311.22 328.26 346.35 361.04 373.88 387.90 411.25 420.44 439.66 454.28 458.50 461.25 463.58 461.40 472.77 483.66 488.19 517.61 561.09 610.70 775.09 810.11 708.48 416.82 201.70 167.60 156.51 113.42 -1136.22 -3634.97 -4835.60 -4687.52 -4646.97 -4954.25 -5312.46 -5588.32 -5898.24 -6269.92 -6956.92 -8574.27 -8418.43 -7813.02 -7536.33 -7403.28 -7363.90 -7352.44 -7346.67 -7335.80 -7324.46 -7314.11 -7359.33 -7525.25 -7844.43 -8651.55 -9065.87 -9179.44 -9167.74 -9155.16 -9147.78 -9144.02 -9144.09
-11701.75 -11702.77 -11716.46 -11736.58 -11765.30 -11799.62 -11849.87 -11904.48 -11966.07 -12011.48 -12054.95 -12086.62 -12122.43 -12146.07 -12166.25 -12174.21 -12188.96 -12205.79 -12223.23 -12236.91 -12226.09 -11997.95 -11797.87 -11685.79 -11678.12 -11625.10 -11517.22 -10690.55 -9587.91 -6513.34 -526.85 139.17 190.65 213.19 265.37 314.95 353.24 392.31 428.72 460.13 488.22 558.35 610.51 662.81 632.79 499.89 416.84 390.46 324.01 286.93 269.94 254.28 235.49 229.64 223.68 220.64 216.12 208.00 205.68 193.13 204.50 194.02 209.05 198.33 212.61 221.23 249.57 252.13 251.70 256.46 260.77 257.99 258.09 259.71 263.59 271.69 275.48 284.06 292.16 305.63 312.14 330.73 347.55 362.65 378.45 396.00 415.86 428.62 444.09 462.23 476.56 483.18 485.12 477.55 478.07 492.78 494.46 503.49 553.92 570.65 729.32 858.67 837.71 505.23 315.16 230.50 192.42 1.19 -846.74 -4113.50 -4993.45 -4624.52 -4575.78 -5061.72 -5503.44 -5764.70 -5961.10 -6146.65 -6448.37 -6476.45 -7275.77 -7807.13 -7664.99 -7417.44 -7365.47 -7341.83 -7334.51 -7330.16 -7324.38 -7321.68 -7353.25 -7410.50 -7738.15 -8768.59 -9060.34 -9181.42 -9168.12 -9154.09 -9146.68 -9144.64 -9144.78
-11714.56 -11714.49 -11735.54 -11742.39 -11789.94 -11817.10 -11881.59 -11915.35 -11978.79 -12034.51 -12072.83 -12099.67 -12136.34 -12155.37 -12177.22 -12180.56 -12201.20 -12213.57 -12232.04 -12246.80 -12237.49 -12058.29 -11769.12 -11680.68 -11575.98 -11532.36 -11331.10 -10358.87 -8293.45 -2959.64 -476.39 157.98 206.90 228.67 253.28 330.24 361.56 424.36 437.93 462.54 525.01 555.04 597.87 634.79 653.63 518.61 467.97 393.35 348.33 322.57 288.43 276.33 257.95 247.51 241.67 238.25 238.50 234.22 231.82 240.55 260.44 251.16 250.09 273.84 256.83 257.64 279.14 277.04 266.46 265.12 261.84 258.56 257.82 258.22 261.84 265.75 271.96 281.77 288.34 302.78 313.48 327.37 344.06 362.94 382.89 401.30 419.88 430.17 460.48 480.19 493.41 501.66 505.55 510.59 498.33 496.28 494.86 508.76 554.72 571.28 658.06 809.91 913.91 635.85 371.48 236.47 189.28 132.57 -1050.40 -4521.46 -5135.71 -4570.23 -4823.81 -5385.60 -5597.08 -5781.24 -5928.82 -6086.47 -6313.77 -6279.97 -6398.01 -7523.85 -7588.37 -7488.16 -7385.71 -7328.81 -7327.22 -7324.84 -7326.60 -7324.63 -7375.06 -7594.38 -7972.90 -8640.78 -9115.47 -9171.77 -9160.36 -9156.68 -9152.55 -9145.35 -9145.42
-11734.56 -11734.48 -11757.22 -11770.65 -11803.05 -11843.10 -11879.99 -11930.26 -11981.04 -12042.88 -12069.01 -12110.18 -12135.99 -12159.56 -12179.80 -12189.59 -12201.62 -12224.49 -12238.59 -12255.19 -12234.35 -11994.17 -11408.22 -11456.67 -11186.46 -10626.47 -10346.89 -9418.06 -5289.76 -929.02 134.76 156.68 201.61 235.90 274.98 323.35 397.13 429.10 475.24 499.20 521.84 547.41 598.18 640.55 643.37 572.78 484.39 425.13 372.97 341.31 315.60 298.00 281.94 261.53 255.90 256.19 249.00 246.13 262.23 272.17 292.61 290.73 295.29 315.80 292.03 277.01 280.98 279.10 273.53 268.47 262.98 258.48 257.59 257.27 258.81 262.42 268.85 279.87 288.34 299.00 314.34 331.95 347.06 357.79 384.70 404.49 424.48 445.67 464.65 495.70 517.21 530.07 530.20 525.69 512.29 504.61 497.72 512.79 560.05 565.20 608.36 722.42 892.09 802.64 488.85 300.59 185.58 130.56 -381.34 -3172.98 -4925.53 -4682.60 -4928.36 -5285.38 -5617.58 -5744.92 -5925.23 -6033.99 -6000.97 -4973.14 -4631.02 -6728.85 -7256.38 -7543.03 -7375.54 -7333.93 -7309.89 -7314.86 -7314.11 -7318.38 -7348.97 -7598.82 -8542.87 -8952.14 -9107.50 -9154.10 -9142.97 -9155.85 -9155.85 -9146.03 -9146.10
-11760.59 -11760.50 -11781.93 -11798.55 -11835.37 -11860.40 -11902.05 -11942.11 -11999.27 -12032.28 -12063.94 -12109.96 -12129.60 -12155.62 -12179.78 -12191.35 -12207.19 -12227.57 -12234.31 -12236.85 -12169.48 -11607.08 -10843.57 -10404.35 -9547.70 -9564.20 -7904.91 -6393.15 -1581.20 139.42 151.38 181.95 212.33 278.57 314.83 341.83 403.65 464.63 521.71 532.19 557.83 565.44 609.43 639.18 622.03 542.53 471.69 429.79 388.65 353.34 342.55 316.31 301.15 278.59 281.05 275.51 272.23 296.42 297.62 317.50 334.52 333.98 334.32 343.21 332.47 307.05 293.47 281.27 278.41 273.08 262.22 259.69 256.96 256.95 258.33 262.69 271.97 277.56 286.13 296.60 312.65 328.99 347.96 365.31 392.46 403.41 442.83 451.42 471.76 518.49 530.07 547.65 547.94 546.61 521.23 512.34 505.64 497.44 523.76 549.60 595.46 645.08 917.26 946.02 406.62 210.12 139.99 122.18 -1111.51 -3579.39 -4582.71 -4577.53 -4832.78 -5171.72 -5593.65 -5718.39 -5881.49 -6041.15 -5928.43 -4811.94 -3808.96 -5349.20 -7147.31 -7661.40 -7479.28 -7343.27 -7298.39 -7285.44 -7278.78 -7260.72 -7330.20 -7528.25 -8420.52 -9127.16 -9191.07 -9169.57 -9139.04 -9152.65 -9150.66 -9146.61 -9146.68
-11789.27 -11789.06 -11803.17 -11835.60 -11853.70 -11878.88 -11928.32 -11965.76 -11997.21 -12045.36 -12074.01 -12108.32 -12130.82 -12150.96 -12176.60 -12191.97 -12208.38 -12219.94 -12230.24 -12172.99 -12019.70 -11378.67 -9856.61 -9016.31 -8355.63 -6746.81 -5645.23 -2700.82 -744.88 154.47 148.29 208.59 264.35 322.89 349.40 398.20 428.39 451.56 515.56 578.84 587.44 618.93 631.60 617.88 599.50 548.44 494.84 450.43 412.03 377.60 348.96 323.73 314.09 304.22 305.44 306.01 312.18 314.48 338.22 363.76 363.08 383.27 393.86 361.31 337.17 318.07 307.30 288.21 279.20 275.59 264.48 260.77 258.88 256.93 256.97 261.40 265.11 272.60 284.77 292.59 312.14 318.66 336.93 368.92 392.64 401.19 438.21 452.35 486.02 513.41 538.95 550.94 567.87 567.50 554.34 530.44 511.35 499.62 521.47 552.00 573.02 619.85 806.58 789.03 469.36 196.92 137.87 117.81 -1101.81 -2628.80 -4040.75 -4403.61 -4579.47 -5006.21 -5341.00 -5756.82 -5848.42 -6072.27 -5914.92 -4893.16 -3810.97 -4595.78 -7276.21 -7298.87 -7393.21 -7344.09 -7275.83 -7265.12 -7261.36 -7254.85 -7237.69 -7657.05 -8666.10 -9108.71 -9189.76 -9179.92 -9169.13 -9161.27 -9155.39 -9146.77 -9146.84
-11819.69 -11819.61 -11840.08 -11863.45 -11884.59 -11928.10 -11943.12 -11986.10 -12027.17 -12067.66 -12088.65 -12114.16 -12137.66 -12160.59 -12183.03 -12184.49 -12195.00 -12188.57 -12036.69 -12004.74 -11602.90 -10398.08 -9131.40 -7735.60 -6431.88 -4975.26 -3798.23 -1715.94 -90.99 175.17 181.09 243.42 302.36 350.75 413.51 422.16 476.98 484.18 509.24 604.50 625.73 633.72 657.99 629.76 594.87 535.77 506.95 471.07 399.89 388.51 365.42 350.18 329.31 320.14 321.01 337.98 337.49 345.67 379.41 420.79 455.18 440.27 401.34 364.00 346.22 322.29 314.44 295.72 287.22 277.45 271.72 262.19 259.97 258.56 256.94 258.27 265.00 273.00 281.62 295.19 303.47 323.94 347.69 356.49 384.72 400.90 428.82 454.08 477.06 508.13 535.07 558.25 572.79 571.67 566.29 534.06 517.86 505.74 512.10 526.72 539.00 540.97 716.66 856.45 494.81 213.38 164.16 118.79 -1103.95 -3050.11 -4173.42 -4399.99 -4541.84 -4902.64 -5257.17 -5666.19 -5871.35 -6048.89 -5932.47 -5216.58 -4077.87 -3687.33 -6024.48 -7272.97 -7415.87 -7347.48 -7272.61 -7255.22 -7250.28 -7240.86 -7229.84 -7612.76 -8619.06 -9122.84 -9189.01 -9178.07 -9168.07 -9162.19 -9155.00 -9147.77 -9147.84
-11850.76 -11850.67 -11872.79 -11887.67 -11913.95 -11953.69 -11977.70 -12012.91 -12042.70 -12077.90 -12102.39 -12128.06 -12153.27 -12168.22 -12165.08 -12148.02 -12029.93 -11909.17 -11616.58 -11124.12 -10568.35 -9636.16 -7908.03 -6966.28 -6185.45 -3937.64 -1883.44 -275.95 175.19 189.77 228.81 257.40 327.23 371.85 454.70 504.67 512.95 564.45 598.33 622.56 670.10 677.39 664.91 640.37 588.95 525.86 496.31 452.58 420.92 392.22 373.03 361.33 340.79 332.34 348.22 366.95 359.16 375.83 415.10 457.74 460.89 450.05 400.96 364.56 354.40 332.18 320.87 301.92 288.49 277.13 271.74 268.79 261.38 260.17 257.87 256.95 262.55 268.24 278.45 288.98 301.66 312.51 332.49 353.34 376.11 399.13 423.81 452.70 484.78 512.27 527.59 566.90 576.62 572.66 561.94 548.27 516.46 490.68 484.63 488.96 492.55 474.25 683.79 836.96 408.90 218.87 183.34 29.28 -1723.55 -3716.04 -4255.89 -4399.28 -4735.81 -5002.74 -5369.67 -5675.14 -5871.06 -6011.48 -5935.23 -5397.25 -4636.00 -5455.46 -7262.17 -7465.01 -7422.43 -7341.67 -7248.61 -7243.32 -7241.90 -7235.80 -7231.30 -7544.75 -8717.29 -9153.22 -9187.69 -9175.59 -9168.19 -9159.85 -9155.41 -9149.25 -9149.32
-11881.90 -11881.90 -11897.24 -11924.06 -11952.29 -11982.29 -12004.27 -12039.54 -12062.86 -12092.40 -12116.00 -12135.90 -12138.35 -12119.49 -12092.67 -11850.47 -11557.66 -10921.43 -10480.38 -10305.38 -10198.64 -8914.03 -7080.43 -6426.87 -4264.30 -2186.91 -511.15 158.59 182.48 214.41 265.28 302.96 321.74 325.10 390.89 439.74 465.93 548.14 619.47 673.99 726.50 712.34 682.08 647.87 591.96 536.61 518.82 470.31 443.30 408.36 377.32 368.98 361.11 347.95 365.40 389.97 397.15 430.42 477.04 495.18 463.05 435.37 388.61 364.31 360.32 347.92 332.90 309.16 293.36 286.57 274.44 270.99 264.70 261.49 259.25 256.93 258.64 267.02 277.63 285.74 301.72 315.06 324.87 346.54 376.07 402.62 420.94 462.11 485.39 506.45 543.86 565.88 575.35 570.68 560.94 550.95 523.56 478.70 471.58 464.46 456.93 434.01 599.04 705.06 451.72 195.51 156.69 -688.63 -1791.53 -3319.45 -4096.34 -4481.81 -4838.85 -5066.55 -5466.25 -5789.69 -5921.32 -6057.90 -6152.56 -5287.28 -4900.87 -6700.94 -7511.97 -7396.97 -7318.38 -7271.21 -7234.53 -7235.60 -7237.48 -7231.51 -7223.90 -7621.00 -8872.51 -9166.16 -9190.91 -9181.29 -9168.89 -9163.01 -9156.53 -9151.18 -9151.25
-11915.32 -11915.22 -11939.35 -11955.94 -11972.09 -12006.79 -12035.48 -12060.04 -12096.36 -12117.45 -12117.86 -12098.81 -12058.06 -11854.98 -11446.78 -11009.34 -10360.32 -10027.94 -9599.40 -9373.64 -9126.87 -8531.56 -6743.37 -5504.09 -3194.02 -1983.91 -130.68 172.38 193.43 207.98 275.91 328.01 358.95 392.64 415.03 456.88 502.46 539.78 616.03 696.57 750.08 691.66 654.19 623.97 580.64 549.83 537.08 509.95 463.40 430.42 389.02 376.85 371.71 381.11 398.84 414.10 419.81 463.29 514.37 516.11 485.45 434.19 422.17 394.69 377.88 367.94 335.51 317.18 312.24 293.43 280.23 276.76 270.21 262.52 260.02 257.66 259.21 266.08 275.47 278.10 303.49 313.59 323.15 346.88 364.85 393.39 423.23 451.96 482.91 506.70 531.84 566.05 569.84 564.86 554.30 544.14 508.97 481.64 453.47 425.25 421.42 409.65 418.55 452.16 343.73 182.93 -163.00 -1241.13 -2110.10 -3260.56 -3860.26 -4428.52 -4796.69 -5124.62 -5608.32 -5760.81 -5903.76 -5941.55 -6121.53 -5160.35 -4913.46 -6254.68 -7449.93 -7363.11 -7275.63 -7217.73 -7211.79 -7227.49 -7233.67 -7232.69 -7261.18 -7383.98 -8920.90 -9129.60 -9198.44 -9186.73 -9174.40 -9165.58 -9160.29 -9154.18 -9153.82
-11957.01 -11956.90 -11976.42 -11995.82 -12011.76 -12038.92 -12070.68 -12094.86 -12115.04 -12113.51 -12081.68 -11907.46 -11562.01 -11410.42 -10887.62 -10206.97 -9740.51 -9298.32 -9108.36 -9076.47 -8993.42 -8350.28 -6149.48 -4488.72 -3192.53 -2226.04 -408.67 173.75 207.50 229.64 279.80 322.05 367.75 381.48 456.77 463.29 505.03 569.89 606.19 679.34 724.96 674.74 624.38 592.85 560.69 535.88 508.52 499.22 473.97 446.78 410.19 388.66 394.81 422.82 426.94 449.71 449.98 476.79 517.27 540.10 506.72 462.06 430.03 406.69 395.03 371.99 348.72 329.19 316.17 296.17 286.74 279.85 270.16 263.31 260.91 258.19 258.85 265.08 273.20 279.87 292.25 305.16 318.86 341.79 359.81 387.12 409.74 439.74 477.47 511.64 522.50 555.84 569.55 567.64 546.14 528.23 506.42 487.75 454.37 424.03 384.56 353.13 337.02 350.81 291.44 158.20 130.56 -473.29 -1390.71 -3571.24 -4167.14 -4175.62 -4871.65 -5378.76 -5648.10 -5726.82 -5836.80 -5518.86 -5694.94 -5730.81 -6124.33 -7373.32 -7485.93 -7309.13 -7222.43 -7181.42 -7204.22 -7226.31 -7233.38 -7235.78 -7246.66 -7495.05 -8400.52 -9092.33 -9199.39 -9193.10 -9176.18 -9170.46 -9163.13 -9157.38 -9157.46
-11999.12 -11999.01 -12018.64 -12029.24 -12061.00 -12082.49 -12096.32 -12108.89 -12116.93 -12068.12 -11964.40 -11659.58 -10925.18 -10142.44 -9328.84 -9216.67 -8955.87 -8960.21 -9001.98 -9023.70 -8976.87 -8325.09 -6183.85 -3678.23 -3142.98 -2364.04 -1236.90 -21.11 208.36 221.73 259.50 300.53 319.87 373.18 428.63 476.39 549.65 574.52 609.97 654.10 667.85 628.05 594.03 553.93 531.87 521.10 493.61 482.04 476.06 463.47 452.23 448.72 447.15 444.13 445.92 470.79 474.06 500.32 554.29 549.30 523.07 470.19 442.25 415.33 400.79 372.68 352.83 332.07 314.72 304.29 286.58 283.19 271.29 263.54 261.30 258.39 257.19 261.15 268.44 276.26 290.05 301.54 320.84 331.35 372.34 389.56 412.31 436.22 469.80 505.66 526.50 548.61 562.94 562.33 548.54 529.43 511.03 478.60 461.31 421.86 399.01 351.05 332.68 286.81 211.42 174.89 119.41 91.68 -894.15 -2971.58 -3661.26 -4286.62 -4771.80 -5263.48 -5627.08 -5673.44 -5661.85 -5165.98 -4190.86 -3854.54 -5400.46 -7528.55 -7452.09 -7235.33 -7155.91 -7160.35 -7194.04 -7220.03 -7230.22 -7236.33 -7256.42 -7468.78 -8383.52 -8996.00 -9197.13 -9191.97 -9180.97 -9174.59 -9167.10 -9160.95 -9161.03
-12038.00 -12039.01 -12053.24 -12060.40 -12075.21 -12081.50 -12047.47 -12047.10 -11984.92 -11895.16 -11640.58 -11132.75 -9814.89 -9178.78 -8605.49 -8292.52 -8419.41 -8692.61 -8879.25 -8981.97 -8943.51 -8077.26 -6640.72 -3680.59 -3028.59 -2134.54 -1036.09 160.48 185.78 220.13 248.78 283.45 339.40 410.39 467.09 490.05 583.17 617.32 646.13 642.30 580.53 580.20 555.62 522.52 481.55 468.50 460.04 462.48 462.48 455.62 452.44 452.54 445.53 454.91 455.42 478.46 518.47 550.75 585.95 555.37 555.46 498.47 458.14 447.29 423.69 392.17 348.86 334.05 321.66 309.11 291.01 284.24 273.55 267.33 260.39 258.15 257.14 259.40 264.87 272.49 283.47 299.97 323.30 339.03 362.89 381.94 398.86 431.87 460.38 486.44 507.02 540.75 555.71 559.23 548.44 534.87 518.91 467.26 455.08 420.32 399.15 368.07 369.54 271.69 227.37 178.88 119.02 106.38 67.58 -1190.24 -3406.94 -4390.09 -4649.41 -5031.06 -5468.88 -5519.15 -5314.97 -4639.30 -2958.36 -1976.11 -4103.02 -6485.78 -7479.20 -7278.99 -7180.84 -7159.07 -7192.59 -7219.58 -7227.47 -7229.89 -7281.34 -7554.74 -8481.75 -9078.54 -9200.87 -9195.71 -9187.12 -9178.41 -9173.59 -9167.79 -9167.87
-12044.75 -12044.67 -12043.27 -12013.48 -11996.94 -11967.84 -11822.95 -11764.42 -11668.81 -11047.73 -10372.44 -9772.39 -8893.56 -7806.24 -7591.33 -7529.21 -7770.29 -8119.21 -8638.46 -8772.66 -8696.83 -7216.58 -5450.29 -3670.47 -3128.15 -2425.94 -1753.80 -306.69 174.91 186.70 228.97 285.14 345.30 412.97 467.27 490.07 567.97 630.42 667.28 655.97 584.07 496.18 483.94 500.54 455.14 429.38 427.63 417.47 428.99 439.62 437.51 438.77 435.13 445.83 460.40 475.58 524.64 562.93 611.46 629.20 614.00 548.89 499.34 471.50 444.57 398.18 359.43 342.57 331.28 307.52 295.84 288.02 274.43 270.30 262.48 258.92 257.64 258.28 262.65 271.71 280.09 294.25 315.72 331.67 347.54 375.95 401.45 424.58 458.22 480.82 500.65 535.25 549.33 559.75 554.96 538.59 513.87 474.61 450.90 397.21 381.52 327.21 302.74 262.57 211.69 181.33 136.57 92.40 -111.29 -1342.99 -3605.52 -4494.99 -4701.02 -5009.37 -5406.48 -5326.14 -4862.07 -4129.41 -2287.11 -1609.58 -2691.62 -5560.01 -7452.24 -7291.52 -7176.39 -7159.03 -7180.45 -7210.34 -7222.25 -7226.35 -7268.90 -7706.82 -8745.14 -9208.12 -9209.04 -9204.14 -9189.49 -9186.54 -9178.96 -9175.20 -9175.28
-11891.13 -11893.04 -11787.57 -11504.99 -11442.66 -11424.42 -11142.40 -10593.66 -10314.75 -9734.64 -8808.35 -7849.96 -7680.22 -7323.05 -7025.49 -7183.15 -7291.98 -7516.62 -7899.45 -8080.68 -8476.51 -7328.91 -6390.05 -4410.62 -3594.46 -2496.37 -1659.47 -235.39 152.41 186.81 233.78 297.04 359.06 417.93 450.00 457.20 496.26 550.36 588.63 579.91 552.39 485.24 445.34 429.42 442.69 409.17 397.43 394.42 398.26 373.20 392.89 409.13 426.80 437.83 458.05 458.61 500.51 547.72 603.94 640.09 624.53 580.13 525.17 477.55 451.65 403.72 393.23 358.11 332.50 312.38 299.04 288.82 275.73 269.11 263.99 259.48 258.27 257.24 263.59 273.50 281.77 291.48 305.12 322.05 344.61 371.53 406.09 420.28 452.21 480.31 497.75 535.25 548.22 566.44 562.27 543.69 502.59 461.41 426.13 397.52 375.12 314.73 266.50 213.80 187.35 159.73 133.99 102.75 -204.77 -1724.35 -3552.26 -4572.52 -4699.62 -5025.40 -5412.02 -5341.69 -4126.17 -3082.90 -1549.46 -1333.45 -2707.09 -6643.61 -7468.22 -7279.24 -7169.41 -7154.65 -7184.83 -7206.60 -7218.24 -7225.90 -7236.84 -7665.60 -8756.16 -9113.09 -9219.43 -9209.59 -9197.91 -9192.60 -9186.64 -9184.11 -9184.20
-11022.08 -11023.01 -10562.65 -10503.02 -10321.06 -9806.86 -9527.87 -8906.42 -8293.16 -7789.56 -7705.63 -7347.75 -7086.38 -6926.76 -6876.04 -6923.50 -7010.58 -7188.73 -7432.46 -7538.29 -7722.43 -7546.03 -6676.79 -5480.18 -3435.00 -2275.81 -1494.06 -491.29 138.27 180.59 221.60 283.20 332.50 379.30 429.02 402.50 452.65 479.94 508.08 483.79 464.42 440.05 417.83 389.50 401.76 378.84 383.19 372.51 368.79 367.34 373.49 375.97 411.96 433.00 443.16 450.88 471.05 513.06 581.03 610.19 596.38 567.17 521.35 473.45 448.83 416.20 396.79 396.23 352.45 326.60 308.32 286.63 279.45 270.65 264.20 260.13 257.94 257.01 262.55 269.84 282.11 292.68 305.66 317.58 347.56 371.80 393.13 420.59 445.44 476.70 497.96 532.10 548.68 567.83 566.09 548.15 493.82 457.68 401.04 369.93 360.97 292.68 248.11 215.70 183.24 146.33 135.54 -124.34 -822.53 -2246.63 -3935.17 -4408.09 -4645.67 -5082.51 -5456.07 -5266.70 -3953.57 -2216.06 -1101.46 -1150.90 -3318.77 -6497.16 -7399.71 -7211.99 -7159.02 -7149.50 -7184.89 -7210.79 -7223.53 -7237.48 -7277.33 -7593.02 -8556.71 -9131.91 -9226.17 -9220.21 -9209.78 -9204.80 -9203.10 -9194.26 -9194.36
-9052.54 -9055.26 -9030.92 -8630.91 -8718.70 -7911.87 -7831.35 -7475.74 -7402.29 -7114.58 -6935.53 -6898.42 -6867.71 -6851.88 -6862.75 -6893.26 -6936.23 -6983.39 -7094.38 -7125.19 -7157.71 -7056.97 -6566.34 -5947.23 -4557.66 -2529.63 -1820.19 -460.42 -34.48 164.43 182.94 261.50 298.14 367.42 376.20 381.75 429.45 422.89 437.29 417.22 387.69 388.28 385.80 385.33 372.62 362.43 356.78 353.34 352.54 358.84 370.49 377.82 386.15 405.79 418.83 441.94 448.87 491.60 523.63 573.18 590.98 559.40 518.17 476.05 466.33 441.18 415.52 406.65 355.56 335.12 315.75 288.23 277.53 268.43 262.80 259.22 257.42 257.54 262.90 270.42 280.58 296.30 312.95 327.07 343.20 371.00 384.00 422.50 429.52 475.85 486.93 509.60 539.34 552.61 547.29 507.12 480.84 429.09 366.66 334.24 317.27 268.83 226.35 207.15 179.03 127.16 103.24 -573.91 -1316.86 -2504.31 -3629.18 -4286.27 -4810.31 -5252.25 -5584.96 -4860.95 -3585.86 -1947.87 -1133.12 -1963.73 -4912.30 -7057.65 -7418.52 -7233.99 -7140.11 -7153.66 -7196.54 -7219.51 -7230.11 -7244.35 -7309.08 -7603.24 -8456.18 -9032.83 -9222.43 -9233.36 -9223.05 -9215.13 -9209.42 -9206.55 -9206.65
-7419.58 -7422.46 -7472.93 -7640.98 -7416.56 -7327.28 -7170.23 -7021.05 -6912.02 -6853.91 -6847.55 -6835.24 -6841.72 -6850.59 -6866.85 -6896.67 -6915.70 -6943.82 -6960.43 -6999.97 -6984.12 -6765.59 -6413.66 -6267.79 -4963.79 -2813.61 -2459.32 -730.62 -4.28 165.63 174.02 232.75 289.78 299.95 324.79 365.71 376.99 398.60 386.99 388.77 361.08 364.17 359.90 358.19 351.32 349.33 342.11 341.05 342.53 348.44 363.10 374.92 381.65 391.46 412.23 427.04 444.50 463.37 515.40 553.18 586.20 571.59 557.79 514.48 487.60 468.23 445.90 415.20 366.44 345.78 300.12 286.58 277.05 266.71 262.44 258.49 257.04 259.34 263.58 273.10 283.64 294.88 308.88 323.07 349.49 364.04 380.50 410.04 435.43 451.30 482.18 486.18 510.25 507.31 498.52 488.88 470.48 464.26 426.46 351.18 260.87 248.55 196.48 183.85 154.95 119.65 -158.87 -819.67 -1137.94 -1754.22 -2631.80 -4508.29 -5210.23 -5495.12 -5465.85 -4936.32 -3083.75 -1375.55 -2173.01 -4149.60 -6369.14 -7077.31 -7280.83 -7137.79 -7122.70 -7162.45 -7193.35 -7221.88 -7233.08 -7244.69 -7295.54 -7586.08 -8565.28 -9170.27 -9252.39 -9244.97 -9234.50 -9225.21 -9223.70 -9219.89 -9220.01
-6917.26 -6918.43 -6984.22 -7004.30 -6951.93 -6918.29 -6916.97 -6901.52 -6853.39 -6838.29 -6837.57 -6844.77 -6858.37 -6866.83 -6887.68 -6924.45 -6935.34 -6948.14 -6960.74 -6980.57 -6973.79 -6742.65 -6380.46 -6249.77 -6113.87 -3804.74 -2260.51 -258.83 144.37 160.65 188.80 204.91 250.50 269.00 303.38 330.41 336.06 340.53 330.62 342.08 340.20 320.80 331.77 327.64 323.57 323.04 323.19 330.99 331.18 339.78 359.72 367.96 372.08 384.39 400.29 422.50 434.34 453.59 498.93 542.44 585.17 573.28 550.23 557.98 536.07 516.62 467.59 438.43 381.18 349.23 308.00 286.87 274.36 265.42 262.33 258.71 258.30 262.54 266.45 277.24 288.05 292.78 316.23 327.17 339.80 357.40 380.32 399.26 419.21 447.85 467.16 491.07 494.48 479.15 450.62 450.78 464.44 447.04 411.20 347.61 248.62 200.56 177.03 150.47 123.62 79.48 -93.34 -653.03 -1188.76 -1485.27 -3212.74 -4733.62 -5399.12 -5666.00 -5509.40 -4296.70 -2026.69 -1359.71 -4125.25 -6316.77 -7300.11 -7269.81 -7157.36 -7110.50 -7100.20 -7151.56 -7202.56 -7220.23 -7235.75 -7250.61 -7309.50 -7590.01 -8362.90 -9179.43 -9262.66 -9258.22 -9243.26 -9238.96 -9235.08 -9233.60 -9233.73
-6858.86 -6859.00 -6880.49 -6892.40 -6893.37 -6896.88 -6896.94 -6881.27 -6862.46 -6855.30 -6856.19 -6860.69 -6873.93 -6885.19 -6900.02 -6932.01 -6944.28 -6958.40 -6972.53 -6980.35 -6942.75 -6744.94 -6397.75 -6278.28 -6144.93 -4583.62 -1352.49 -292.41 118.06 153.31 179.37 205.34 232.01 251.50 247.15 277.60 308.79 307.77 299.10 303.66 302.82 301.29 318.68 313.85 312.25 310.82 310.38 320.02 328.71 330.65 347.04 351.84 365.33 382.07 400.04 413.78 430.02 462.37 493.89 519.11 525.12 525.05 511.52 524.92 519.57 515.68 483.60 445.02 393.64 351.00 319.06 289.22 270.95 265.81 261.21 257.98 258.43 264.35 270.09 282.20 288.22 302.48 323.62 337.49 351.65 365.86 382.26 389.96 421.38 443.24 465.79 486.70 482.62 468.00 424.82 417.72 422.32 419.85 374.85 286.71 206.04 177.09 129.43 122.05 111.38 71.32 -392.01 -1049.74 -1163.07 -1739.53 -3517.31 -4437.14 -5543.52 -5600.64 -5152.02 -3921.85 -2254.75 -1274.07 -3189.98 -5385.58 -6712.01 -7039.93 -7103.50 -7089.13 -7113.86 -7155.09 -7206.60 -7216.86 -7231.21 -7261.27 -7316.43 -7661.90 -8630.47 -9147.70 -9277.64 -9269.74 -9258.70 -9255.21 -9252.65 -9248.59 -9248.76
-6878.86 -6878.85 -6888.40 -6900.65 -6903.14 -6908.43 -6910.62 -6907.90 -6883.07 -6875.28 -6881.49 -6881.29 -6887.99 -6893.22 -6917.66 -6939.24 -6951.95 -6969.56 -6979.37 -6990.47 -6975.58 -6733.31 -6439.20 -6255.71 -6240.74 -4329.45 -2973.48 -807.30 -27.44 146.15 166.48 175.00 197.69 215.22 223.83 250.53 255.27 263.61 272.74 280.99 282.62 287.91 294.83 300.17 300.84 297.23 304.30 308.34 316.67 326.84 336.77 348.00 357.82 379.07 395.87 409.33 424.64 467.41 489.51 505.34 508.29 488.72 473.06 444.45 430.91 443.95 404.96 390.38 386.85 331.29 305.01 277.75 267.27 262.29 259.62 257.45 260.27 265.83 275.41 284.99 295.37 312.62 325.23 336.83 359.06 368.94 382.74 390.29 415.09 436.42 457.87 478.47 470.95 440.41 400.27 378.42 365.86 435.66 333.80 210.55 176.81 145.78 118.88 109.19 86.22 -446.58 -1316.86 -1312.48 -1435.47 -1842.28 -3382.06 -4874.53 -5386.52 -5556.02 -5084.54 -3601.50 -2103.25 -1688.51 -2826.16 -4464.62 -6483.06 -6924.50 -7069.79 -7100.96 -7137.50 -7171.75 -7192.41 -7216.99 -7236.57 -7262.12 -7296.63 -7643.11 -8499.38 -8952.43 -9289.84 -9286.43 -9275.87 -9266.84 -9266.01 -9263.95 -9264.06
-6906.69 -6906.87 -6911.61 -6917.54 -6925.36 -6926.30 -6926.82 -6925.62 -6897.92 -6886.66 -6899.71 -6904.41 -6905.57 -6911.12 -6926.21 -6951.38 -6964.87 -6975.86 -6986.22 -6997.29 -6947.40 -6753.40 -6378.41 -6100.38 -6194.20 -5270.85 -3625.90 -2030.54 -528.40 -71.47 155.75 160.09 176.63 194.58 216.24 222.72 229.73 244.61 251.92 255.57 257.42 261.95 268.90 281.19 280.60 286.70 289.16 297.05 308.69 319.08 325.85 341.08 358.87 382.51 393.90 406.62 417.07 439.66 451.76 449.51 500.53 478.37 437.16 400.62 383.00 378.64 356.97 332.22 338.35 298.74 275.86 269.23 261.43 259.26 257.93 257.80 260.31 265.96 276.22 283.88 303.78 315.63 324.68 337.19 351.80 370.80 385.17 398.06 416.42 435.37 453.59 457.71 457.45 425.38 391.51 345.06 344.72 346.98 234.31 175.15 141.05 110.51 101.89 -72.25 -279.75 -1077.76 -1420.29 -1482.19 -1573.69 -2041.00 -3302.39 -5000.12 -5480.14 -5528.54 -5370.38 -4447.71 -1972.00 -1973.43 -2732.90 -4260.32 -6233.30 -6990.70 -7108.55 -7119.82 -7142.86 -7174.28 -7190.90 -7216.82 -7238.58 -7256.36 -7308.70 -7551.97 -8160.67 -9110.46 -9295.65 -9295.31 -9285.23 -9285.13 -9280.95 -9278.58 -9278.62
-6916.23 -6916.19 -6923.43 -6932.22 -6935.93 -6941.66 -6943.26 -6939.50 -6927.39 -6920.40 -6914.28 -6914.38 -6916.09 -6924.10 -6935.63 -6969.49 -6979.11 -6987.56 -7000.38 -7011.66 -7017.48 -6846.32 -5446.18 -4807.35 -6027.70 -6410.24 -4681.17 -3677.36 -1442.79 -348.75 -8.72 104.34 156.29 161.12 182.92 196.95 211.40 230.48 232.70 232.05 239.31 255.59 259.05 261.04 272.99 274.14 280.64 287.03 295.85 306.92 320.03 330.73 362.69 376.58 376.24 383.26 391.23 440.64 441.46 400.07 409.01 420.84 393.43 370.99 359.75 356.76 326.97 299.73 300.66 286.13 263.65 257.24 256.77 256.67 256.71 256.65 259.91 267.31 275.18 296.60 310.09 322.25 332.41 342.54 355.95 372.33 391.68 402.88 413.71 435.87 443.12 445.77 432.34 408.42 386.90 369.63 330.89 282.86 210.78 181.26 121.54 106.94 -152.94 -668.65 -1170.31 -1403.56 -1421.06 -1445.62 -1595.08 -2483.39 -3334.48 -5346.64 -5490.16 -5703.62 -5598.72 -4633.59 -3136.40 -2343.25 -3015.61 -5050.28 -6663.10 -7113.90 -7098.07 -7125.25 -7147.62 -7161.41 -7192.05 -7209.23 -7229.02 -7253.46 -7344.98 -7502.45 -8038.19 -8988.59 -9297.47 -9296.89 -9300.55 -9295.77 -9291.98 -9289.59 -9289.65
-6934.31 -6934.25 -6938.81 -6947.32 -6948.98 -6952.20 -6952.82 -6944.43 -6933.11 -6930.05 -6930.04 -6930.27 -6930.97 -6932.94 -6947.07 -6974.29 -6986.54 -6994.34 -7007.27 -7014.03 -7022.29 -6982.77 -5433.97 -4450.47 -5368.14 -6602.61 -6255.21 -5106.31 -2657.96 -491.22 -256.90 -107.53 146.51 153.56 168.89 182.05 182.36 205.64 209.91 209.00 212.25 223.72 246.99 245.89 252.66 256.23 269.84 279.53 282.59 291.34 305.45 324.36 337.31 344.91 353.03 363.69 367.47 395.17 403.20 381.81 353.16 371.19 354.98 322.69 304.26 306.63 292.80 278.33 265.67 257.65 246.87 251.89 254.94 255.49 256.26 256.57 260.65 270.10 276.32 288.45 308.93 317.31 337.14 342.59 367.22 374.96 392.57 405.27 422.00 432.72 430.61 421.31 386.56 366.47 363.48 377.55 337.70 230.37 207.43 171.83 120.73 92.44 -307.54 -1082.66 -1426.61 -1339.92 -1361.00 -1414.22 -1712.82 -2745.53 -3955.18 -5246.70 -5664.52 -5753.60 -5756.77 -5321.42 -4355.52 -3662.37 -4234.89 -5365.36 -6632.13 -7215.50 -7155.16 -7143.42 -7143.99 -7168.28 -7193.08 -7210.87 -7225.42 -7255.21 -7378.54 -7594.59 -7942.59 -8769.33 -9136.39 -9306.63 -9312.61 -9306.80 -9303.58 -9299.99 -9300.07
-6951.40 -6951.34 -6956.46 -6964.36 -6964.56 -6965.62 -6966.30 -6961.74 -6950.78 -6944.75 -6942.76 -6942.15 -6938.68 -6943.90 -6949.41 -6979.12 -6990.17 -6995.43 -7005.91 -7013.05 -7022.38 -6976.16 -6358.93 -5535.02 -5645.40 -6677.55 -6890.20 -4730.05 -3051.34 -550.69 -409.48 -373.64 11.24 132.40 143.80 159.07 175.07 184.15 195.72 198.67 198.32 197.76 210.95 226.51 239.76 243.05 259.15 265.28 272.85 277.88 289.18 287.84 295.62 313.97 322.81 336.94 340.37 344.82 337.13 325.99 311.27 307.08 303.70 295.84 289.71 278.47 283.13 259.34 248.49 239.67 236.43 240.11 242.33 250.45 255.67 255.67 255.33 263.17 272.93 295.07 311.79 324.23 338.12 345.71 364.98 382.65 403.64 412.72 428.91 431.29 414.17 400.07 383.31 342.94 332.89 334.85 262.00 205.58 196.45 169.04 117.53 83.41 -449.17 -1118.75 -1373.70 -1328.02 -1345.20 -1467.82 -1691.72 -2937.39 -4298.20 -5103.74 -5718.06 -5812.49 -5881.57 -5801.66 -5479.94 -5088.85 -5772.30 -7339.51 -7332.80 -7226.04 -7170.81 -7137.84 -7149.53 -7174.86 -7198.24 -7213.01 -7233.21 -7262.77 -7350.93 -7554.79 -8130.50 -8928.19 -9308.58 -9314.22 -9316.45 -9314.24 -9308.28 -9306.11 -9306.19
-6967.18 -6967.11 -6972.92 -6973.17 -6982.21 -6981.86 -6981.85 -6974.33 -6962.37 -6954.26 -6955.79 -6951.78 -6947.89 -6948.18 -6959.07 -6982.57 -6991.09 -6995.06 -7002.11 -7008.02 -7020.98 -6987.86 -6828.09 -6355.67 -5957.50 -6697.99 -7029.03 -6067.34 -3497.86 -842.08 -400.20 -391.85 -226.10 -40.94 65.95 61.91 163.63 161.45 175.57 176.76 179.39 192.62 199.48 203.42 221.66 237.12 247.32 251.86 257.25 262.01 272.23 272.56 283.50 292.84 295.95 293.54 305.97 292.47 306.58 289.59 283.28 269.01 262.36 265.77 250.16 248.18 247.48 244.45 230.00 227.19 225.34 227.36 229.73 243.68 241.48 243.58 251.50 259.18 266.45 291.96 316.07 324.70 337.64 350.64 369.00 390.34 414.98 426.06 436.72 425.03 402.25 350.16 349.65 346.00 315.84 238.07 203.26 190.66 178.96 149.75 106.00 -44.74 -629.17 -1231.82 -1301.15 -1306.16 -1341.44 -1516.63 -1701.05 -2880.57 -4254.53 -5465.16 -5719.24 -5876.11 -5992.63 -6150.27 -6185.35 -6133.89 -6179.04 -8097.66 -7547.37 -7240.59 -7141.33 -7132.37 -7157.14 -7188.56 -7197.63 -7216.40 -7227.93 -7259.12 -7293.11 -7607.04 -8466.84 -9000.05 -9308.79 -9315.92 -9317.68 -9313.95 -9310.77 -9309.40 -9309.49
-6982.58 -6983.36 -6987.52 -6991.10 -6993.24 -6997.09 -6993.89 -6987.64 -6977.97 -6962.97 -6962.95 -6959.36 -6957.24 -6956.28 -6967.79 -6986.89 -6992.24 -6994.54 -7000.78 -7006.43 -7014.16 -7024.79 -7025.72 -6764.85 -6606.99 -6988.70 -7044.99 -6763.91 -4629.28 -1509.19 -599.87 -660.16 -455.46 -410.96 -336.09 -196.14 54.36 115.96 138.61 158.45 160.80 163.71 179.04 193.25 201.09 210.59 237.57 237.03 240.11 249.49 256.35 263.09 268.12 276.71 279.64 267.97 268.65 276.02 279.37 254.83 255.16 253.39 243.04 239.26 237.20 227.45 223.14 216.07 219.03 218.15 210.55 210.28 211.86 216.50 223.86 231.11 243.87 256.68 269.12 285.93 306.95 319.40 337.73 363.44 373.89 387.49 426.09 440.02 450.99 429.29 403.02 340.96 316.62 304.34 265.80 221.18 177.40 153.12 138.27 89.58 59.04 -294.83 -647.75 -1108.41 -1252.67 -1292.76 -1372.13 -1586.88 -1922.88 -3049.75 -4633.09 -5423.53 -5773.99 -5933.10 -6092.69 -6313.22 -6641.81 -8490.96 -9299.58 -9061.87 -7647.22 -7209.53 -7130.52 -7129.98 -7160.75 -7187.60 -7202.20 -7215.97 -7226.55 -7253.26 -7302.17 -7499.67 -8509.10 -9045.15 -9306.99 -9311.10 -9314.61 -9312.27 -9309.52 -9308.19 -9308.27
-7000.53 -7000.47 -7005.24 -7008.07 -7013.87 -7013.51 -7017.51 -7001.15 -6990.57 -6994.29 -6991.13 -6983.97 -6968.94 -6966.65 -6975.92 -6980.18 -6976.09 -6984.27 -6985.50 -6990.77 -7001.30 -7017.49 -7022.68 -7027.91 -7032.28 -7070.60 -7077.17 -6982.21 -5894.45 -3996.36 -2938.86 -1844.47 -1771.82 -1453.06 -1122.48 -635.34 -372.80 -121.24 4.97 115.33 130.31 140.61 146.75 170.45 191.92 192.54 208.61 217.92 219.33 229.69 236.32 236.36 236.56 242.43 240.74 244.57 243.04 232.51 236.58 246.71 244.86 230.87 224.35 217.56 216.34 216.29 213.92 199.11 196.08 198.78 200.64 199.25 202.51 202.49 216.26 225.80 235.94 254.46 265.06 283.90 302.95 317.43 343.94 367.42 385.78 407.47 432.16 448.66 450.70 413.71 390.57 347.85 290.05 272.93 237.71 187.33 161.43 131.51 114.46 -30.49 -385.29 -881.46 -1021.18 -1137.98 -1227.07 -1287.53 -1439.42 -1691.15 -2415.33 -3398.10 -4950.44 -5550.46 -5796.85 -5924.04 -6069.20 -6326.92 -6726.24 -9128.49 -10880.64 -9658.61 -7687.12 -7228.98 -7121.74 -7139.71 -7166.81 -7194.49 -7210.14 -7217.48 -7226.18 -7244.51 -7297.39 -7414.68 -8913.87 -9166.24 -9303.99 -9305.31 -9309.29 -9307.26 -9306.23 -9304.66 -9304.75
-7029.02 -7029.98 -7028.73 -7032.15 -7031.58 -7031.72 -7034.67 -7035.59 -7028.88 -7021.78 -7015.96 -7013.52 -7007.18 -7003.04 -6992.56 -6970.41 -6965.50 -6964.70 -6966.58 -6976.40 -6973.60 -6989.21 -7015.91 -7024.11 -7038.72 -7052.83 -7066.32 -7071.58 -6969.60 -6006.88 -4900.73 -4608.52 -3177.70 -3143.81 -2734.26 -1724.95 -974.21 -929.03 -1183.96 -794.64 -378.19 21.02 132.18 154.20 177.84 185.25 189.27 192.40 200.46 221.97 223.77 225.83 217.01 222.24 222.48 227.56 226.27 222.09 214.84 210.61 214.66 211.50 208.23 202.50 202.18 202.83 193.69 190.33 186.99 186.87 191.17 188.16 194.98 196.23 207.14 222.13 232.26 250.72 261.45 278.58 294.72 318.44 334.46 366.09 402.99 418.35 434.86 442.90 417.64 381.13 332.78 303.28 275.35 243.55 212.93 165.43 116.85 110.12 -36.51 -376.66 -727.31 -1006.11 -1104.32 -1129.82 -1198.70 -1294.81 -1536.08 -1787.63 -2351.13 -3790.20 -5326.48 -5628.48 -5832.21 -5919.36 -6067.88 -6412.61 -8172.75 -11339.98 -11024.47 -9524.40 -7773.56 -7157.98 -7104.05 -7138.34 -7182.72 -7195.10 -7201.59 -7209.57 -7216.96 -7228.38 -7283.65 -7704.24 -8748.25 -9157.35 -9300.57 -9299.24 -9299.59 -9297.76 -9298.13 -9297.47 -9297.56
-7045.47 -7045.40 -7045.62 -7051.10 -7056.37 -7057.03 -7050.05 -7050.63 -7045.52 -7039.70 -7034.31 -7027.76 -7024.07 -7013.12 -7001.53 -6968.94 -6958.52 -6956.48 -6956.01 -6959.18 -6963.68 -6980.63 -7001.17 -7013.91 -7033.20 -7047.21 -7063.23 -7080.35 -7068.23 -7105.07 -6951.12 -6748.69 -6151.97 -5128.85 -3616.58 -2787.53 -1916.00 -1783.09 -1732.73 -1330.15 -952.45 -354.43 -7.96 87.30 135.62 146.05 155.75 169.58 176.59 188.05 191.39 203.00 191.45 191.50 197.75 202.57 204.09 204.36 202.14 199.34 190.10 187.59 186.73 182.29 179.52 175.62 174.23 182.31 175.06 176.00 176.84 182.11 186.85 194.34 203.07 216.63 226.21 243.83 253.22 274.75 289.32 311.90 340.99 369.81 403.88 426.42 443.13 443.72 402.36 365.77 314.03 276.62 293.98 225.05 160.56 140.43 107.29 -127.91 -328.86 -786.99 -1032.20 -1047.49 -1064.38 -1196.62 -1308.64 -1375.27 -1526.04 -1657.03 -2940.58 -4105.21 -5250.30 -5803.71 -5876.26 -5927.94 -6068.47 -6739.66 -8729.53 -12096.83 -10751.67 -9122.71 -7474.17 -7119.19 -7106.83 -7153.03 -7177.73 -7193.46 -7203.15 -7209.00 -7218.44 -7225.53 -7271.28 -7519.05 -8537.32 -9210.47 -9288.04 -9286.23 -9289.18 -9290.71 -9291.82 -9289.33 -9289.42
-7059.43 -7059.36 -7061.44 -7064.48 -7065.01 -7065.35 -7066.24 -7061.87 -7057.04 -7052.21 -7049.31 -7036.70 -7032.51 -7027.27 -7007.76 -6976.80 -6961.84 -6959.57 -6959.70 -6959.05 -6966.19 -6979.81 -6999.61 -7015.43 -7038.84 -7046.68 -7067.88 -7083.23 -7097.68 -7111.64 -7122.85 -7085.47 -7024.61 -6363.39 -4959.01 -3026.28 -1844.82 -1744.91 -1779.20 -1682.50 -1593.63 -1323.95 -486.77 -33.59 47.09 42.92 91.49 130.10 128.48 169.98 170.08 168.99 175.74 175.00 173.22 182.71 182.01 184.71 178.63 182.12 173.85 174.54 173.84 173.58 168.98 167.87 166.11 162.97 162.81 165.19 169.44 172.70 173.64 182.71 195.70 203.93 218.85 232.31 244.62 272.03 292.05 315.22 350.70 375.15 419.38 434.72 438.64 422.24 399.70 338.41 316.81 254.45 219.50 173.71 140.51 110.83 26.44 -341.73 -702.25 -1144.76 -1099.55 -1107.80 -1145.79 -1227.70 -1374.77 -1464.37 -1574.57 -2084.53 -3286.00 -4542.92 -5389.31 -5782.52 -5881.63 -5927.56 -6089.47 -6816.87 -9673.16 -12205.43 -10257.58 -8944.15 -7225.49 -7094.03 -7103.29 -7159.80 -7184.29 -7197.95 -7202.96 -7209.69 -7217.48 -7225.64 -7230.19 -7809.11 -8840.64 -9159.63 -9276.89 -9279.50 -9280.40 -9281.03 -9280.07 -9278.28 -9278.69
-7071.29 -7071.22 -7073.52 -7078.76 -7080.61 -7080.00 -7077.63 -7074.37 -7071.48 -7062.74 -7058.72 -7053.57 -7047.15 -7036.99 -7012.69 -6987.74 -6972.89 -6968.16 -6967.01 -6967.44 -6974.09 -6981.96 -7002.02 -7019.29 -7034.58 -7046.63 -7071.87 -7084.17 -7102.06 -7116.59 -7129.02 -7137.72 -7137.46 -6833.22 -6664.90 -3917.78 -2364.70 -1765.36 -1742.93 -1770.90 -1775.10 -1664.41 -956.22 -230.98 -227.57 -283.68 -121.10 15.29 8.26 127.47 149.85 158.54 161.97 158.74 158.57 156.77 163.80 158.76 161.81 161.53 157.74 156.57 165.80 151.18 150.24 150.89 153.11 151.98 153.51 153.40 160.86 161.36 165.01 170.62 186.86 197.50 213.06 223.41 240.96 272.47 289.86 325.09 352.73 364.37 412.93 432.64 447.78 431.36 385.81 348.71 300.70 265.18 220.80 154.18 118.79 102.93 -207.88 -627.84 -1089.87 -1184.24 -1168.52 -1190.33 -1187.44 -1305.70 -1377.91 -1533.48 -1682.90 -2237.85 -3284.54 -4818.77 -5442.35 -5823.49 -5886.76 -5959.87 -6060.18 -6526.54 -8268.32 -11971.21 -10018.84 -8295.62 -7255.66 -7074.07 -7124.95 -7159.98 -7192.27 -7198.96 -7203.57 -7210.18 -7215.53 -7225.70 -7231.34 -7574.31 -8968.12 -9200.22 -9269.98 -9271.17 -9269.86 -9271.93 -9271.63 -9267.28 -9267.36
-7080.79 -7081.42 -7085.27 -7086.29 -7088.28 -7088.48 -7087.36 -7084.49 -7083.70 -7079.00 -7074.63 -7068.33 -7064.89 -7048.02 -7025.72 -6995.95 -6987.95 -6983.69 -6979.79 -6974.87 -6982.37 -6992.69 -7010.25 -7024.76 -7041.54 -7053.82 -7071.23 -7088.29 -7108.22 -7121.46 -7139.22 -7152.24 -7164.02 -7136.78 -7005.58 -4997.89 -3031.49 -2050.94 -1942.26 -1818.71 -1766.69 -1640.25 -1069.55 -402.79 -317.69 -341.98 -241.98 -158.96 -85.11 -72.92 66.90 99.19 145.52 141.17 128.13 132.40 138.83 139.23 150.27 149.38 149.92 139.22 138.80 141.50 142.57 142.66 143.00 144.38 147.18 146.60 147.06 153.86 159.32 163.69 180.32 188.88 201.17 218.03 230.55 251.11 278.25 319.33 345.01 365.44 405.05 425.72 440.82 421.58 378.54 341.01 291.90 296.67 208.91 129.38 111.99 -39.64 -575.03 -1398.59 -1210.21 -1212.73 -1214.89 -1263.42 -1359.50 -1343.51 -1439.25 -1579.21 -1707.07 -2534.75 -3427.54 -5022.59 -5701.97 -5850.92 -5956.23 -5996.66 -6169.71 -7359.62 -9449.66 -11147.72 -9309.01 -7479.77 -7142.06 -7090.29 -7121.67 -7173.65 -7195.09 -7201.07 -7204.42 -7212.71 -7219.18 -7225.64 -7270.54 -7593.83 -8502.71 -9225.11 -9264.12 -9263.89 -9263.88 -9261.57 -9259.56 -9255.59 -9255.67
-7069.68 -7069.57 -7072.31 -7076.77 -7070.96 -7052.76 -7071.17 -7084.01 -7092.14 -7088.19 -7088.67 -7081.44 -7077.00 -7066.93 -7052.02 -7021.77 -7015.91 -7002.66 -7001.90 -6998.14 -7010.50 -7006.84 -7022.78 -7034.23 -7051.83 -7068.35 -7078.19 -7099.25 -7115.75 -7135.99 -7147.30 -7159.53 -7180.26 -7189.88 -7067.32 -6192.08 -4718.49 -3586.17 -2503.20 -2304.44 -2172.40 -2008.39 -1374.72 -724.35 -442.53 -350.25 -276.07 -219.10 -172.69 -95.33 -40.84 -17.37 27.36 88.56 96.98 93.55 102.20 100.27 91.41 108.58 126.61 127.38 123.20 116.13 124.07 135.29 137.17 141.09 140.56 140.51 142.31 146.85 149.79 158.41 169.50 177.51 192.86 209.91 225.39 243.94 271.83 290.80 335.91 356.35 388.55 413.46 424.43 400.40 364.60 339.17 302.72 231.54 200.54 113.76 107.41 11.92 -777.94 -1358.72 -1184.35 -1214.96 -1295.01 -1306.81 -1421.30 -1436.44 -1559.78 -1745.47 -2238.05 -3160.35 -4311.03 -5363.16 -5789.51 -5859.12 -5971.87 -6088.18 -6867.86 -9379.47 -12697.66 -11358.66 -8717.27 -7480.05 -7128.24 -7081.13 -7137.94 -7171.04 -7197.95 -7205.25 -7210.53 -7222.55 -7228.46 -7234.82 -7260.97 -7649.08 -8908.98 -9194.16 -9256.61 -9255.58 -9252.89 -9251.11 -9250.98 -9244.03 -9244.11
-7014.37 -7014.30 -7029.35 -7029.89 -7028.72 -7028.99 -7028.25 -7055.27 -7091.49 -7106.48 -7105.38 -7096.29 -7090.73 -7081.32 -7070.28 -7052.50 -7042.86 -7042.49 -7034.13 -7029.76 -7031.36 -7037.65 -7046.15 -7064.11 -7070.75 -7094.83 -7104.82 -7118.49 -7136.54 -7143.66 -7167.75 -7176.96 -7197.50 -7197.20 -7152.58 -6975.88 -6439.10 -6233.47 -4125.91 -3021.69 -2290.50 -1611.16 -1135.38 -621.98 -517.83 -383.76 -260.12 -185.80 -127.03 -89.82 -81.38 -69.06 -44.95 -32.89 -1.61 -4.63 -12.34 -10.50 -18.61 29.16 63.66 49.55 63.80 63.58 104.30 125.41 130.86 128.49 134.67 136.66 136.46 139.03 142.91 156.26 161.47 172.39 185.21 205.55 223.63 248.55 266.60 294.57 333.09 346.98 382.87 394.39 385.01 372.14 341.72 326.64 312.86 240.03 197.76 130.52 50.67 -40.58 -631.58 -1257.57 -1184.28 -1210.79 -1283.01 -1378.56 -1511.36 -1627.55 -1765.35 -2302.66 -2636.95 -3898.47 -5106.88 -5658.87 -5818.94 -5887.57 -6038.78 -6508.86 -8653.85 -11754.21 -12557.76 -10513.95 -8471.20 -7366.98 -7064.72 -7062.47 -7120.22 -7162.50 -7191.15 -7211.46 -7225.41 -7235.31 -7245.51 -7252.12 -7281.28 -7601.45 -8721.95 -9174.92 -9253.10 -9247.56 -9246.68 -9241.74 -9238.73 -9233.03 -9233.11
-7020.75 -7020.69 -7023.07 -7027.92 -7026.85 -7029.26 -7030.54 -7065.63 -7093.83 -7120.81 -7119.12 -7111.99 -7107.65 -7105.06 -7090.52 -7077.40 -7062.76 -7060.71 -7055.89 -7056.43 -7054.46 -7063.29 -7070.89 -7081.25 -7092.69 -7103.12 -7115.53 -7130.04 -7142.88 -7159.27 -7175.10 -7197.73 -7204.93 -7210.37 -7149.07 -7129.40 -7075.04 -6777.35 -5805.44 -3784.28 -2266.06 -1563.46 -861.44 -729.91 -494.33 -368.64 -271.38 -191.02 -148.59 -95.07 -60.77 -46.24 -46.05 -43.04 -44.89 -43.02 -56.07 -44.05 -52.49 -38.46 -8.41 -2.20 -4.94 -3.17 33.80 49.89 113.99 121.63 126.38 128.88 129.20 132.22 140.77 145.63 151.00 172.57 181.65 202.80 224.29 245.57 261.24 288.38 328.65 335.87 358.77 353.92 361.51 327.92 307.20 289.47 258.10 202.23 185.94 24.77 -115.79 -585.44 -1174.65 -1167.76 -1181.00 -1246.13 -1380.07 -1746.91 -1841.17 -2478.64 -2722.52 -3019.44 -4368.34 -4827.84 -5444.34 -5752.28 -5894.66 -5951.38 -6099.31 -8441.35 -10789.70 -12956.56 -11702.88 -10773.55 -8589.78 -7363.10 -7059.31 -7093.21 -7131.63 -7162.99 -7181.18 -7212.89 -7230.68 -7242.14 -7248.76 -7254.41 -7266.48 -7663.40 -8720.98 -9136.79 -9248.47 -9243.58 -9237.99 -9231.77 -9229.99 -9222.94 -9223.01
-7035.63 -7035.57 -7036.65 -7039.90 -7038.35 -7042.49 -7043.51 -7087.15 -7113.67 -7134.69 -7137.09 -7134.11 -7123.92 -7120.92 -7109.49 -7103.04 -7090.27 -7087.69 -7086.31 -7076.74 -7088.17 -7097.44 -7095.93 -7101.44 -7110.23 -7122.15 -7128.55 -7145.23 -7153.08 -7167.98 -7184.34 -7201.67 -7179.20 -7169.10 -7151.74 -7155.96 -7145.93 -7084.30 -6831.92 -4592.92 -2570.50 -1527.90 -988.30 -759.57 -477.94 -356.47 -269.81 -199.52 -145.33 -91.60 -69.89 -48.57 -36.80 -31.07 -30.18 -23.02 -15.28 -15.90 -9.17 -7.17 -10.76 -2.24 9.13 20.18 24.33 33.15 79.49 108.12 121.77 124.30 126.43 126.92 139.19 143.58 148.01 167.47 179.60 194.34 222.11 250.68 263.11 290.78 312.60 329.73 333.09 329.31 311.64 302.85 285.11 258.89 223.55 201.49 175.01 -113.09 -611.34 -936.61 -1077.32 -1133.40 -1228.90 -1399.51 -1854.76 -2152.97 -2395.10 -3129.68 -3813.69 -4452.98 -5023.51 -5544.80 -5787.41 -5938.57 -5957.56 -6091.33 -6476.52 -10065.11 -13036.65 -13121.29 -11949.23 -9558.67 -8302.40 -7178.58 -7074.25 -7095.64 -7132.96 -7167.93 -7192.17 -7213.04 -7236.66 -7246.06 -7252.24 -7257.69 -7290.84 -7589.68 -8680.41 -9138.13 -9246.85 -9238.13 -9228.48 -9224.04 -9220.86 -9213.92 -9213.99
-7049.97 -7049.91 -7048.86 -7052.36 -7054.65 -7055.69 -7056.93 -7081.77 -7144.48 -7156.80 -7154.58 -7152.28 -7152.01 -7145.60 -7138.64 -7122.68 -7115.79 -7107.29 -7102.55 -7109.81 -7107.02 -7109.81 -7114.41 -7125.79 -7128.81 -7144.28 -7152.71 -7158.36 -7169.05 -7179.46 -7192.95 -7201.08 -7192.14 -7180.27 -7173.98 -7168.55 -7157.33 -7096.35 -6998.74 -5235.41 -2491.82 -1436.73 -917.41 -720.29 -517.33 -342.69 -263.83 -196.11 -161.75 -115.77 -84.28 -60.78 -38.10 -28.29 -22.34 -10.19 -5.38 0.83 5.09 4.59 4.92 12.27 24.68 32.33 31.61 32.88 53.19 98.48 117.92 122.35 125.31 127.26 131.35 140.74 148.83 158.81 176.34 197.60 225.40 239.13 262.97 290.18 305.08 317.83 321.40 307.61 296.11 277.75 253.70 227.47 204.11 190.88 152.97 -279.85 -1109.78 -1106.83 -1128.57 -1286.62 -1629.87 -2152.11 -3321.24 -3212.24 -3766.87 -4422.51 -5064.92 -5424.14 -5577.29 -5808.10 -5872.44 -5995.48 -6111.28 -6265.77 -7586.65 -12725.13 -12933.69 -12379.32 -11069.51 -9344.12 -7697.69 -7215.11 -7087.90 -7106.22 -7141.60 -7169.97 -7196.33 -7218.73 -7240.05 -7247.57 -7253.92 -7258.19 -7282.72 -7913.62 -8493.02 -9145.09 -9237.45 -9228.29 -9223.45 -9218.41 -9214.59 -9206.10 -9206.17
-7065.38 -7065.32 -7067.77 -7068.72 -7073.68 -7075.39 -7074.73 -7104.23 -7150.10 -7166.37 -7166.81 -7163.12 -7160.90 -7161.32 -7158.23 -7144.45 -7138.81 -7133.03 -7132.02 -7125.54 -7134.93 -7136.97 -7143.70 -7149.79 -7148.22 -7161.33 -7165.84 -7174.66 -7182.13 -7187.40 -7196.56 -7193.96 -7198.37 -7197.08 -7192.08 -7177.40 -7124.68 -7074.91 -6220.27 -4572.81 -2626.21 -1358.56 -938.52 -764.20 -533.68 -445.66 -308.57 -207.95 -159.62 -119.99 -95.74 -78.31 -50.77 -27.63 -16.36 -5.27 2.25 4.44 7.40 9.34 10.48 14.12 25.94 27.43 22.62 21.53 25.67 60.26 100.04 108.11 112.85 117.32 130.08 139.02 150.17 158.02 181.48 205.84 215.60 238.74 255.23 282.27 292.91 306.83 296.38 282.06 261.25 223.01 212.99 208.35 171.52 149.83 -354.18 -967.97 -1190.90 -1157.36 -1383.88 -1852.61 -2390.37 -3191.33 -4211.70 -4862.62 -5044.74 -5310.29 -5474.69 -5628.08 -5737.74 -5867.56 -5901.63 -5963.91 -6023.76 -6448.91 -8640.19 -11383.95 -11897.30 -10974.19 -10535.21 -8690.58 -7479.14 -7163.64 -7099.68 -7123.63 -7155.81 -7177.36 -7203.56 -7227.55 -7243.84 -7249.52 -7255.02 -7257.21 -7296.77 -7788.91 -8505.84 -9212.42 -9232.45 -9225.25 -9217.29 -9212.24 -9206.63 -9199.59 -9199.67
-7097.83 -7097.81 -7098.26 -7113.23 -7117.31 -7121.72 -7128.04 -7136.82 -7161.37 -7168.38 -7167.18 -7165.80 -7165.79 -7169.19 -7163.40 -7159.89 -7157.37 -7157.00 -7150.46 -7151.83 -7153.58 -7155.27 -7163.65 -7168.14 -7168.17 -7178.84 -7180.99 -7187.84 -7192.60 -7198.20 -7203.47 -7205.09 -7207.31 -7206.97 -7198.50 -7185.13 -7141.50 -6532.56 -5140.62 -3529.98 -2289.16 -1539.92 -1079.51 -839.47 -706.83 -479.21 -304.11 -257.31 -195.13 -141.82 -114.57 -93.01 -60.39 -32.69 -24.73 -14.25 -8.62 -0.12 3.10 5.56 9.01 11.56 12.39 15.51 13.64 16.71 9.87 23.23 53.34 52.62 61.93 82.31 131.18 139.85 146.81 163.17 175.76 198.48 212.57 244.22 266.67 279.29 290.45 298.98 293.39 270.21 231.26 207.11 178.22 147.95 126.37 121.24 -388.11 -848.87 -1288.47 -1448.74 -2014.73 -3009.50 -3800.87 -5014.35 -5196.06 -5368.48 -5544.47 -5605.98 -5693.99 -5706.63 -5754.35 -5772.75 -5674.21 -5526.88 -6236.72 -8285.62 -8623.98 -9206.63 -9390.21 -9120.97 -8322.34 -7626.14 -7307.94 -7129.60 -7120.75 -7144.03 -7161.87 -7197.18 -7217.89 -7231.72 -7242.64 -7249.21 -7254.11 -7254.46 -7265.21 -7587.21 -8647.14 -9176.05 -9231.12 -9219.63 -9213.73 -9207.63 -9201.87 -9194.41 -9194.48
-7145.30 -7115.43 -7030.81 -7138.38 -7153.09 -7160.91 -7160.88 -7164.32 -7159.96 -7157.98 -7159.36 -7156.71 -7156.11 -7156.05 -7163.94 -7175.17 -7175.14 -7179.36 -7175.25 -7175.75 -7175.62 -7172.49 -7175.66 -7176.98 -7184.57 -7184.65 -7191.48 -7192.25 -7198.51 -7205.66 -7209.51 -7212.36 -7214.54 -7209.13 -7200.12 -7194.30 -7108.91 -6946.79 -5422.30 -3907.30 -2625.34 -1708.63 -1201.34 -989.70 -781.30 -481.43 -351.87 -273.17 -200.82 -166.79 -123.26 -95.17 -71.71 -45.40 -35.31 -30.49 -22.39 -6.53 -2.15 3.08 3.44 3.93 4.20 6.27 8.19 12.38 10.10 7.01 26.70 28.46 24.81 40.71 74.16 112.93 142.78 163.57 177.19 192.19 215.63 229.38 252.59 265.99 286.62 295.23 290.94 258.69 214.09 194.11 151.12 125.90 117.54 -58.86 -727.90 -1128.50 -1624.87 -2048.05 -3150.21 -3883.14 -4934.64 -5152.55 -5452.82 -5524.21 -5591.44 -5587.80 -5563.17 -5544.49 -5068.41 -5074.97 -4734.45 -4811.89 -5298.63 -6863.20 -6897.69 -7668.85 -7762.78 -7791.53 -7447.91 -7210.81 -7137.54 -7114.56 -7134.86 -7174.29 -7196.52 -7222.67 -7231.54 -7238.47 -7241.83 -7248.59 -7251.53 -7251.05 -7276.04 -7603.27 -8701.95 -9157.06 -9226.67 -9220.64 -9209.03 -9202.49 -9197.41 -9191.26 -9190.56
-7045.11 -7044.84 -6726.88 -6836.63 -7150.80 -7183.99 -7188.45 -7182.52 -7166.49 -7164.74 -7168.89 -7167.07 -7166.75 -7167.83 -7180.09 -7189.51 -7187.71 -7193.86 -7194.27 -7195.44 -7197.06 -7194.89 -7200.18 -7200.09 -7203.09 -7202.67 -7209.34 -7212.63 -7208.35 -7215.42 -7216.98 -7219.28 -7221.15 -7216.57 -7187.26 -7149.21 -7152.48 -6938.95 -5461.16 -3884.02 -2994.97 -1930.77 -1477.11 -1000.97 -760.38 -495.31 -387.30 -343.75 -248.75 -200.11 -159.37 -106.03 -84.66 -59.08 -53.35 -35.79 -27.65 -12.83 -10.29 -7.28 -4.71 -4.79 -3.60 -3.44 -2.58 -4.06 -0.74 4.37 5.94 7.59 14.78 17.92 24.55 73.08 127.33 156.59 174.27 185.20 207.61 220.66 243.96 260.96 286.23 289.94 284.39 251.22 213.96 189.56 133.76 125.19 17.56 -223.10 -1276.21 -1381.46 -2261.51 -2889.02 -4248.94 -4710.47 -5129.38 -5330.10 -5454.71 -5464.65 -5505.82 -5367.20 -5174.01 -4663.43 -3824.59 -3467.70 -2591.91 -2636.01 -4158.72 -5059.46 -6154.89 -5932.13 -6658.96 -6935.31 -7062.97 -7073.02 -7074.47 -7111.09 -7161.41 -7182.42 -7210.04 -7233.58 -7244.95 -7245.10 -7246.70 -7249.66 -7252.62 -7251.87 -7259.98 -7558.98 -8806.86 -9137.07 -9226.26 -9216.61 -9205.51 -9200.37 -9194.63 -9187.63 -9187.70
-6920.64 -6920.81 -6261.64 -6755.40 -7166.98 -7198.76 -7200.04 -7195.97 -7181.15 -7182.51 -7180.13 -7180.70 -7180.78 -7182.19 -7191.93 -7207.42 -7210.70 -7212.23 -7213.55 -7218.93 -7215.50 -7219.18 -7216.79 -7218.75 -7222.59 -7220.82 -7222.32 -7226.54 -7230.98 -7228.53 -7228.49 -7226.97 -7226.29 -7227.79 -7211.57 -7175.96 -7126.47 -6928.63 -5608.83 -4490.58 -3199.16 -2190.31 -1707.40 -1152.81 -784.07 -566.29 -502.99 -426.97 -349.03 -282.85 -205.88 -141.31 -107.14 -75.93 -60.23 -40.82 -29.93 -24.37 -16.79 -11.70 -9.33 -6.65 -7.97 -12.91 -15.73 -14.74 -4.39 0.79 2.11 6.99 16.53 22.80 22.75 18.05 101.36 147.26 167.77 190.44 207.42 223.38 236.05 257.36 274.56 275.40 270.36 243.64 237.73 268.17 134.49 119.26 11.31 -855.15 -1477.62 -1682.47 -2273.92 -3735.47 -4616.03 -5009.98 -5067.78 -5132.82 -5292.58 -5091.13 -4787.07 -4271.20 -3649.06 -2515.54 -1584.23 -990.38 -982.93 -1649.17 -2965.91 -3625.77 -4597.67 -5397.91 -6266.99 -6816.44 -6963.88 -7042.15 -7079.89 -7132.57 -7164.24 -7199.62 -7217.49 -7238.48 -7253.60 -7250.12 -7250.92 -7254.91 -7255.80 -7253.31 -7252.65 -7681.26 -8748.95 -9173.98 -9224.13 -9216.37 -9206.02 -9197.79 -9193.68 -9185.80 -9185.86
-7175.61 -7175.59 -6831.81 -7156.88 -7190.63 -7214.80 -7212.25 -7212.74 -7194.65 -7193.58 -7194.31 -7196.49 -7200.11 -7201.96 -7210.28 -7223.70 -7233.56 -7235.66 -7235.03 -7240.71 -7236.30 -7236.61 -7235.88 -7235.31 -7238.93 -7242.00 -7243.09 -7236.60 -7239.42 -7239.47 -7241.69 -7239.97 -7235.63 -7232.15 -7231.22 -7230.53 -7155.04 -6896.08 -5983.37 -4530.96 -3811.42 -2882.45 -2294.04 -1282.92 -929.60 -803.32 -671.55 -588.43 -475.67 -367.80 -242.68 -178.31 -127.78 -88.76 -73.25 -52.64 -42.87 -32.94 -23.67 -21.02 -16.76 -15.19 -16.04 -16.65 -18.18 -16.11 -10.98 -9.27 -2.80 3.84 13.71 23.05 25.33 24.55 99.23 151.28 157.18 193.81 212.30 218.14 228.01 242.48 259.69 262.27 265.94 254.16 240.41 337.04 183.64 -82.99 -465.29 -993.88 -1449.74 -1680.20 -2462.32 -3375.84 -4272.87 -4292.80 -4293.96 -3905.77 -4372.89 -3871.98 -3008.85 -2664.88 -2403.02 -1543.74 -490.84 -658.89 -1373.48 -2010.21 -2728.72 -3544.73 -4453.82 -5447.23 -6279.34 -6807.52 -6994.20 -7048.75 -7102.55 -7139.40 -7178.72 -7201.47 -7227.36 -7249.65 -7259.11 -7258.06 -7257.17 -7257.64 -7257.66 -7255.90 -7288.63 -7919.59 -8735.88 -9102.65 -9220.34 -9216.14 -9206.16 -9195.99 -9189.39 -9184.92 -9184.99
-7219.77 -7220.62 -7209.74 -7210.19 -7219.77 -7223.34 -7225.34 -7216.34 -7211.72 -7206.23 -7207.81 -7211.01 -7211.52 -7211.92 -7225.27 -7239.91 -7246.68 -7246.27 -7253.36 -7253.73 -7256.68 -7255.24 -7254.09 -7259.11 -7259.05 -7259.11 -7258.94 -7258.44 -7254.00 -7256.15 -7251.09 -7248.06 -7243.84 -7239.83 -7238.53 -7236.48 -7232.10 -6967.06 -6761.02 -5782.12 -4614.12 -3420.41 -2218.89 -1638.68 -1215.70 -1053.74 -848.82 -703.97 -550.33 -449.50 -379.73 -228.77 -188.82 -137.66 -93.81 -61.92 -48.65 -38.68 -33.01 -26.00 -23.81 -20.83 -20.83 -20.78 -20.10 -17.56 -15.01 -15.00 -10.72 -1.48 16.31 22.29 24.19 28.49 68.40 151.34 164.65 184.67 197.27 211.85 222.52 225.30 240.53 253.42 252.32 233.54 232.49 230.96 147.08 -153.14 -711.44 -1023.21 -1406.18 -1653.58 -2172.57 -2864.81 -3215.28 -3556.31 -3175.99 -2917.82 -2218.67 -1828.12 -1654.61 -1707.59 -1550.13 -1129.80 -1587.49 -1587.76 -2257.66 -2452.89 -3695.43 -4778.36 -5439.71 -6298.17 -6646.64 -6871.07 -7011.94 -7078.73 -7132.22 -7163.68 -7188.37 -7208.43 -7230.55 -7249.26 -7262.84 -7262.72 -7265.01 -7266.19 -7261.43 -7257.94 -7280.89 -7558.92 -8703.76 -9200.11 -9226.88 -9218.95 -9207.12 -9195.13 -9190.91 -9184.87 -9184.93
-7230.90 -7230.84 -7235.87 -7232.80 -7237.94 -7237.18 -7241.15 -7236.84 -7232.88 -7231.06 -7239.07 -7244.49 -7243.49 -7246.22 -7254.45 -7258.17 -7269.39 -7269.81 -7270.59 -7269.85 -7272.18 -7274.65 -7273.17 -7273.15 -7268.61 -7272.49 -7272.92 -7275.44 -7270.04 -7259.26 -7258.56 -7253.84 -7249.41 -7243.17 -7240.08 -7236.81 -7232.73 -7149.05 -6613.52 -6320.16 -5295.52 -4014.89 -3093.44 -2144.83 -1956.39 -1258.63 -1165.02 -1072.76 -768.63 -669.79 -443.43 -309.73 -216.25 -168.91 -110.67 -82.58 -56.35 -43.69 -37.16 -31.86 -29.39 -26.20 -25.79 -25.72 -23.44 -21.21 -15.56 -13.36 -8.47 0.08 17.10 23.71 26.83 30.93 78.49 140.37 158.80 169.85 185.22 192.48 204.25 217.89 221.74 218.06 218.92 216.84 195.28 179.94 148.52 -61.39 -849.63 -1489.71 -1418.95 -1508.30 -1722.17 -1992.60 -2330.64 -2761.08 -2033.95 -1223.88 -624.38 -529.68 -789.56 -1135.89 -1588.10 -1813.84 -1846.53 -1773.59 -2246.08 -3427.42 -5226.50 -5611.39 -6060.53 -6633.62 -6789.93 -6987.20 -7049.84 -7103.66 -7144.55 -7170.93 -7204.64 -7219.54 -7240.76 -7254.53 -7262.38 -7271.88 -7273.89 -7277.33 -7270.31 -7266.27 -7323.89 -7480.17 -8740.33 -9179.73 -9219.19 -9221.63 -9209.84 -9197.71 -9192.14 -9185.71 -9185.78
-7242.99 -7244.29 -7246.90 -7248.65 -7249.78 -7250.99 -7250.23 -7254.49 -7256.93 -7257.74 -7267.04 -7265.67 -7270.96 -7269.27 -7281.70 -7283.78 -7284.64 -7286.11 -7293.83 -7298.20 -7296.02 -7293.83 -7289.60 -7289.83 -7292.33 -7291.00 -7290.70 -7287.59 -7276.56 -7267.27 -7263.98 -7260.47 -7253.35 -7247.81 -7242.65 -7243.83 -7237.95 -7130.87 -7067.03 -6595.66 -5504.33 -4579.01 -3444.48 -2559.84 -1917.79 -1680.55 -1496.22 -1281.16 -977.92 -668.58 -469.71 -394.16 -258.81 -185.80 -133.78 -92.65 -71.86 -54.55 -46.65 -39.51 -34.25 -31.24 -30.12 -28.23 -24.75 -21.47 -15.29 -12.62 -3.02 4.21 17.46 22.98 27.89 31.03 60.54 121.93 142.52 159.86 175.29 189.66 196.00 208.17 209.43 204.12 202.84 180.01 164.10 145.18 136.01 -94.13 -852.64 -1530.14 -1571.91 -1563.80 -1689.51 -1987.49 -2196.28 -2328.51 -1562.91 -621.65 -146.86 -86.15 -890.88 -1223.96 -1669.23 -2048.58 -2409.51 -2687.88 -3083.83 -4573.84 -6106.24 -6580.73 -6799.89 -6909.64 -6996.11 -7042.90 -7075.53 -7111.30 -7150.28 -7187.00 -7202.95 -7225.25 -7246.25 -7255.95 -7267.15 -7275.76 -7281.98 -7286.16 -7286.50 -7282.66 -7310.98 -7466.56 -8642.76 -9153.60 -9173.24 -9195.75 -9216.43 -9200.71 -9193.75 -9187.42 -9187.48
-7255.07 -7256.39 -7257.26 -7259.26 -7260.00 -7263.79 -7265.99 -7268.50 -7271.89 -7275.80 -7277.20 -7281.46 -7281.48 -7286.21 -7288.33 -7296.63 -7300.73 -7304.15 -7304.87 -7306.25 -7307.01 -7307.18 -7303.03 -7301.69 -7304.37 -7307.38 -7303.85 -7302.95 -7287.58 -7277.18 -7274.14 -7266.83 -7262.86 -7252.16 -7251.20 -7250.06 -7252.92 -7202.58 -7095.52 -6644.23 -5624.52 -5076.35 -3986.36 -3216.83 -2374.97 -1850.48 -1806.02 -1491.51 -1187.33 -846.99 -605.56 -445.18 -302.16 -257.74 -166.22 -100.00 -83.23 -64.29 -49.17 -44.44 -41.14 -36.89 -35.78 -31.28 -26.21 -22.85 -16.69 -10.55 -2.00 6.00 15.67 22.77 28.92 32.85 38.69 131.70 134.37 150.08 168.65 181.81 186.32 188.57 198.54 196.16 176.12 166.25 157.46 146.99 125.51 -227.87 -1409.56 -1533.20 -1619.85 -1662.62 -1738.23 -2012.08 -2182.18 -2031.55 -1396.17 -842.51 -619.97 -626.66 -913.01 -1360.31 -1986.76 -2477.95 -3188.53 -3307.61 -3988.11 -5103.41 -6547.43 -6871.72 -6950.39 -7005.22 -7032.55 -7065.86 -7085.46 -7128.01 -7158.10 -7177.28 -7208.29 -7233.91 -7245.64 -7264.87 -7270.77 -7280.27 -7287.27 -7289.81 -7289.87 -7290.07 -7299.91 -7570.36 -8658.92 -9133.47 -9201.50 -9177.93 -9219.25 -9202.08 -9197.25 -9189.80 -9189.86
-7267.35 -7267.30 -7270.13 -7268.11 -7268.89 -7270.33 -7275.98 -7279.00 -7283.81 -7286.76 -7289.01 -7292.69 -7298.50 -7298.95 -7306.64 -7310.85 -7312.48 -7313.51 -7319.46 -7319.23 -7321.44 -7318.75 -7317.61 -7316.70 -7314.56 -7317.69 -7316.74 -7315.46 -7302.73 -7293.62 -7283.30 -7282.21 -7268.72 -7263.62 -7254.77 -7256.25 -7260.86 -7252.92 -7211.56 -6767.22 -6648.61 -5629.14 -5321.95 -4274.37 -2985.32 -2618.27 -2290.38 -1814.54 -1238.02 -991.95 -664.03 -525.84 -408.70 -287.98 -185.47 -114.55 -96.36 -69.47 -54.29 -48.70 -44.12 -39.31 -36.62 -33.20 -28.77 -25.66 -19.25 -13.43 -3.26 6.42 18.68 23.87 33.15 35.93 48.30 103.18 134.09 145.33 160.28 171.26 179.80 185.84 187.09 184.50 163.61 156.05 146.09 135.78 119.49 -491.35 -1178.79 -1526.16 -1716.46 -1812.36 -1848.83 -1967.95 -2065.42 -2026.74 -1603.54 -1297.40 -1185.06 -1246.97 -1439.63 -1675.41 -2298.02 -2610.54 -3187.17 -4135.40 -4792.99 -5871.71 -6753.69 -6927.13 -6987.29 -7012.76 -7047.48 -7084.15 -7107.75 -7137.89 -7165.89 -7183.71 -7218.40 -7244.06 -7260.62 -7268.48 -7274.53 -7284.87 -7289.55 -7289.44 -7289.79 -7289.51 -7324.48 -7660.90 -8229.68 -9071.49 -9233.66 -9207.43 -9221.57 -9203.73 -9201.96 -9192.85 -9192.91
-7279.64 -7279.58 -7279.89 -7281.16 -7284.14 -7286.57 -7287.72 -7290.95 -7290.87 -7294.45 -7299.87 -7304.75 -7303.29 -7306.83 -7313.19 -7320.96 -7323.65 -7327.57 -7328.33 -7332.29 -7334.92 -7332.96 -7328.93 -7325.71 -7330.07 -7326.66 -7328.22 -7326.41 -7315.40 -7304.72 -7296.76 -7291.76 -7283.53 -7282.52 -7274.43 -7266.73 -7268.39 -7258.25 -7240.05 -7178.34 -6800.24 -6373.21 -5810.00 -4931.31 -4181.53 -3004.31 -2247.51 -1817.49 -1251.21 -1050.01 -811.99 -632.05 -457.78 -342.69 -246.88 -170.44 -103.40 -81.31 -59.32 -52.24 -44.31 -42.19 -38.63 -36.00 -30.45 -27.05 -20.91 -12.77 -4.42 7.21 18.09 26.89 33.95 35.66 36.37 91.33 133.08 147.25 152.49 163.36 171.45 173.83 171.06 158.25 155.37 142.11 138.88 121.76 71.01 -174.12 -1064.20 -1335.93 -1814.70 -2002.30 -2093.27 -1910.68 -1857.21 -1625.30 -1592.07 -1392.81 -1408.38 -1479.96 -1576.91 -1895.34 -2273.73 -3239.14 -3667.82 -4145.60 -4256.97 -5358.00 -6605.52 -6878.45 -6990.88 -7021.81 -7054.54 -7089.64 -7120.65 -7141.23 -7170.26 -7189.80 -7218.67 -7245.95 -7263.12 -7271.48 -7281.39 -7287.45 -7285.96 -7284.31 -7286.35 -7296.12 -7324.57 -7940.35 -8487.64 -9087.80 -9234.17 -9228.25 -9217.50 -9207.96 -9202.05 -9197.72 -9196.51
-7292.57 -7292.51 -7298.89 -7303.32 -7299.05 -7297.11 -7303.27 -7303.42 -7302.77 -7306.39 -7308.94 -7310.02 -7314.81 -7318.94 -7325.47 -7333.48 -7337.31 -7339.12 -7342.04 -7340.97 -7342.76 -7342.05 -7338.14 -7337.91 -7337.81 -7338.05 -7342.49 -7343.41 -7332.97 -7324.61 -7315.75 -7311.24 -7299.93 -7306.67 -7294.02 -7274.57 -7273.05 -7259.90 -7259.67 -7243.55 -6942.94 -6644.49 -6024.44 -5153.39 -4521.07 -3478.81 -2885.04 -2090.79 -1404.37 -1041.88 -877.30 -624.42 -535.46 -350.93 -271.54 -182.66 -114.23 -91.21 -77.23 -54.36 -48.11 -43.84 -42.04 -38.27 -32.13 -25.73 -20.40 -13.02 -0.71 6.28 15.25 22.00 27.22 31.85 30.37 94.94 129.50 143.94 155.61 162.66 166.59 165.75 160.70 148.46 135.96 132.47 122.60 108.01 41.17 -90.92 -850.61 -1246.55 -1704.95 -2109.14 -2191.35 -1827.78 -1637.77 -1522.79 -1438.92 -1495.85 -1507.40 -1610.86 -1722.87 -1939.98 -2470.99 -3242.90 -3754.34 -4379.48 -4884.16 -5697.89 -6641.60 -6816.41 -6998.58 -7036.13 -7064.88 -7094.40 -7122.28 -7153.29 -7171.01 -7197.30 -7224.38 -7245.08 -7263.72 -7278.32 -7285.54 -7287.99 -7283.49 -7279.99 -7279.31 -7284.67 -7321.04 -7787.77 -8932.58 -9184.19 -9237.97 -9228.66 -9217.32 -9210.73 -9206.92 -9200.49 -9200.55
-7312.43 -7315.29 -7315.85 -7317.86 -7317.19 -7320.12 -7322.71 -7314.86 -7309.96 -7306.88 -7310.03 -7312.34 -7315.16 -7318.44 -7325.70 -7337.15 -7342.74 -7344.57 -7345.77 -7349.61 -7350.74 -7352.38 -7349.69 -7351.49 -7348.06 -7350.84 -7352.34 -7354.16 -7349.43 -7342.16 -7333.13 -7333.62 -7320.08 -7322.03 -7320.74 -7291.19 -7281.31 -7276.52 -7261.80 -7219.54 -7114.74 -6832.98 -5967.41 -5321.20 -4246.34 -3840.40 -3023.91 -2150.97 -1590.07 -1167.87 -930.07 -869.19 -661.14 -438.66 -336.56 -227.73 -159.79 -127.12 -88.14 -66.63 -50.44 -48.16 -44.69 -38.73 -33.90 -29.17 -23.39 -12.44 -4.52 8.12 11.42 17.66 24.59 49.01 73.45 113.54 141.55 147.34 162.43 162.89 164.31 164.66 149.33 139.01 128.67 113.50 116.52 91.38 51.57 -139.43 -866.27 -1024.54 -1403.22 -1790.96 -1892.47 -1661.82 -1437.20 -1434.16 -1435.69 -1688.53 -1964.48 -2030.38 -2094.36 -2583.52 -2394.65 -3169.30 -4620.03 -5126.21 -6163.58 -6297.93 -6492.04 -6820.70 -6970.02 -7048.35 -7073.81 -7110.48 -7142.60 -7163.71 -7173.50 -7203.26 -7234.40 -7248.86 -7265.69 -7278.64 -7284.86 -7284.25 -7279.32 -7274.05 -7270.12 -7268.21 -7306.43 -7486.61 -8489.11 -9187.86 -9235.30 -9228.43 -9219.50 -9213.12 -9209.13 -9204.82 -9204.88
-7335.31 -7337.83 -7335.01 -7335.35 -7337.29 -7340.53 -7341.90 -7336.62 -7308.74 -7307.05 -7309.10 -7310.67 -7314.54 -7317.35 -7331.20 -7340.64 -7349.05 -7350.32 -7352.10 -7356.00 -7354.65 -7359.11 -7355.82 -7359.02 -7362.23 -7362.45 -7362.15 -7363.97 -7373.23 -7370.59 -7374.75 -7355.11 -7347.22 -7336.82 -7322.71 -7296.46 -7284.37 -7281.20 -7281.71 -7275.58 -7228.00 -7015.56 -6519.21 -5411.94 -4742.03 -4012.33 -3510.99 -2613.32 -1748.57 -1350.08 -1241.35 -1141.42 -703.80 -565.59 -361.37 -266.32 -185.88 -158.82 -100.70 -69.73 -59.10 -51.78 -45.78 -41.38 -35.25 -33.99 -25.55 -19.76 -7.75 1.89 9.72 15.38 48.75 112.86 138.18 143.05 147.07 158.24 169.43 166.91 166.44 163.62 153.53 129.74 124.08 102.41 89.09 41.43 -62.86 -485.57 -1071.17 -1213.40 -1363.92 -1438.58 -1517.45 -1498.80 -1354.98 -1611.59 -1975.50 -3408.78 -3144.94 -3528.73 -4674.98 -4506.48 -4605.43 -4545.90 -5827.43 -6121.54 -6161.62 -6235.60 -6284.31 -6835.72 -6988.43 -7076.58 -7089.62 -7123.29 -7153.88 -7170.17 -7196.06 -7213.77 -7238.44 -7255.41 -7270.34 -7278.31 -7282.41 -7279.82 -7272.36 -7266.80 -7263.30 -7258.74 -7310.09 -7573.54 -8689.65 -9195.66 -9234.57 -9229.11 -9222.18 -9219.62 -9215.42 -9210.16 -9209.38
-7350.73 -7350.66 -7349.88 -7352.56 -7349.96 -7351.94 -7352.08 -7345.11 -7319.61 -7314.14 -7315.59 -7320.10 -7323.09 -7324.64 -7340.79 -7347.43 -7356.36 -7360.33 -7359.32 -7361.69 -7365.57 -7366.21 -7371.72 -7370.06 -7370.50 -7370.44 -7372.36 -7378.53 -7381.57 -7382.97 -7385.61 -7365.47 -7352.59 -7348.60 -7326.91 -7308.53 -7290.77 -7285.35 -7284.09 -7282.83 -7239.59 -7066.11 -6753.15 -6061.12 -5305.62 -4318.84 -3613.31 -2688.41 -2103.49 -1948.23 -1599.68 -1403.59 -1105.63 -721.91 -511.07 -347.06 -235.94 -148.40 -98.32 -79.92 -64.29 -54.53 -48.98 -46.36 -41.93 -36.95 -33.37 -23.49 -14.84 -8.30 -3.52 19.28 93.69 133.83 144.19 150.14 154.24 163.56 165.22 168.10 160.58 152.36 143.37 125.76 114.24 76.68 53.96 -48.51 -313.31 -381.22 -1244.94 -1348.31 -1437.59 -1489.03 -1428.16 -1373.48 -1361.65 -1574.88 -2662.35 -5653.87 -6101.29 -6033.95 -6130.85 -6225.61 -6152.39 -6162.03 -6147.13 -6183.36 -6196.45 -6215.28 -6274.77 -6723.75 -6998.16 -7087.15 -7102.19 -7140.39 -7166.33 -7179.20 -7206.03 -7231.25 -7241.63 -7259.99 -7273.88 -7280.88 -7287.30 -7276.72 -7268.97 -7260.44 -7255.61 -7250.95 -7299.87 -7424.90 -8559.87 -9204.52 -9234.02 -9230.87 -9225.44 -9222.19 -9218.12 -9215.08 -9214.79
-7362.17 -7362.10 -7361.02 -7362.95 -7358.59 -7365.66 -7365.04 -7347.37 -7337.91 -7324.76 -7326.18 -7330.39 -7333.30 -7336.41 -7345.26 -7358.39 -7369.28 -7369.75 -7368.42 -7375.30 -7375.04 -7377.68 -7378.92 -7380.98 -7381.97 -7380.46 -7385.19 -7386.83 -7385.16 -7388.97 -7388.38 -7377.88 -7370.87 -7364.84 -7341.07 -7321.33 -7295.33 -7293.09 -7289.87 -7283.91 -7280.45 -7184.72 -6846.82 -6155.64 -5729.51 -4862.95 -4422.84 -3592.98 -3258.32 -2576.95 -1960.62 -1695.11 -1330.07 -1028.97 -543.61 -403.45 -246.96 -152.93 -119.38 -98.33 -72.64 -67.53 -60.05 -55.70 -50.92 -44.52 -41.80 -36.35 -28.02 -18.59 -19.69 -10.90 87.01 129.69 141.26 146.18 148.00 145.70 148.61 160.03 147.47 130.33 120.71 110.85 76.30 5.50 -157.19 -209.60 -314.73 -415.41 -1226.67 -1423.66 -1428.79 -1434.99 -1399.89 -1350.27 -1418.13 -1984.65 -4397.38 -6237.81 -6368.55 -6410.35 -6389.64 -6359.01 -6299.70 -6222.89 -6189.42 -6200.85 -6206.42 -6227.91 -6309.82 -6718.46 -7035.22 -7105.22 -7129.03 -7145.38 -7185.27 -7196.51 -7224.78 -7243.05 -7252.74 -7260.31 -7273.68 -7279.03 -7286.85 -7275.05 -7263.34 -7257.18 -7251.96 -7248.75 -7288.75 -7610.56 -8702.69 -9176.77 -9236.56 -9233.07 -9230.04 -9226.54 -9222.67 -9219.47 -9218.83
-7373.13 -7373.06 -7374.97 -7370.55 -7372.94 -7374.89 -7374.48 -7365.28 -7341.69 -7337.83 -7339.58 -7343.73 -7340.50 -7349.20 -7355.57 -7369.39 -7374.41 -7378.20 -7382.39 -7383.84 -7384.08 -7385.51 -7389.49 -7388.32 -7392.36 -7393.16 -7395.20 -7393.79 -7389.25 -7394.25 -7390.21 -7382.91 -7380.32 -7368.65 -7346.26 -7324.21 -7305.49 -7297.27 -7289.55 -7285.55 -7281.61 -7258.42 -7002.23 -6619.45 -6250.65 -5749.32 -5026.49 -4662.83 -3611.76 -3118.86 -2487.64 -2062.24 -1676.33 -1079.74 -780.51 -540.81 -360.24 -190.15 -161.29 -132.86 -116.64 -105.75 -73.72 -77.76 -69.51 -67.35 -56.14 -50.14 -43.88 -47.42 -41.27 -32.13 50.90 129.62 129.83 137.12 131.81 126.35 127.43 122.95 117.17 109.58 94.10 71.47 23.43 -125.26 -219.07 -131.19 -108.85 -51.71 -555.87 -1311.16 -1330.16 -1344.20 -1402.82 -1417.68 -1646.18 -2128.89 -4912.07 -6196.75 -6235.95 -6045.79 -5902.41 -6373.35 -5921.62 -5936.81 -6177.94 -6194.56 -6223.08 -6255.10 -6312.63 -6871.90 -7012.04 -7122.75 -7145.60 -7163.45 -7194.08 -7218.41 -7226.10 -7250.44 -7260.47 -7263.85 -7272.28 -7278.88 -7283.23 -7268.13 -7259.50 -7254.04 -7248.28 -7245.69 -7295.20 -7551.64 -8474.00 -9152.63 -9238.28 -9235.34 -9232.41 -9229.24 -9225.96 -9222.05 -9221.81
-7380.09 -7379.56 -7378.10 -7379.41 -7378.94 -7380.68 -7380.63 -7375.39 -7358.52 -7348.79 -7353.04 -7354.44 -7357.97 -7366.92 -7371.29 -7383.02 -7386.17 -7389.58 -7390.25 -7390.78 -7395.40 -7399.80 -7406.18 -7403.52 -7403.22 -7404.12 -7402.83 -7401.58 -7397.25 -7396.67 -7396.23 -7387.81 -7381.17 -7365.90 -7349.79 -7329.75 -7315.85 -7299.12 -7290.69 -7285.44 -7277.56 -7269.42 -7212.82 -6890.19 -6594.29 -6112.41 -5774.35 -5015.96 -4120.65 -2985.25 -2704.54 -2166.84 -1669.12 -1251.67 -1053.01 -686.76 -417.22 -271.21 -218.82 -176.35 -168.68 -146.13 -105.88 -95.58 -86.77 -83.21 -70.60 -68.71 -84.43 -91.98 -88.25 -93.77 -78.21 15.64 104.37 118.60 122.35 119.96 113.89 104.08 95.79 94.68 14.32 -164.81 -338.89 -405.81 -251.88 -28.00 -26.12 -23.13 -266.56 -1021.81 -1071.25 -1119.67 -1351.00 -1779.37 -2159.61 -3100.70 -5162.25 -5574.31 -4656.83 -4565.28 -4313.50 -4908.97 -4441.15 -5081.63 -5421.15 -5972.03 -6294.35 -6323.72 -6486.57 -6744.37 -7118.27 -7147.33 -7151.91 -7182.10 -7202.78 -7221.02 -7234.42 -7245.72 -7266.55 -7270.05 -7273.38 -7278.07 -7280.85 -7274.55 -7260.14 -7251.20 -7247.77 -7244.36 -7244.33 -7703.15 -8669.69 -9162.47 -9239.06 -9237.94 -9234.14 -9231.46 -9228.93 -9223.29 -9223.35
-7361.71 -7365.22 -7365.72 -7368.21 -7363.56 -7367.21 -7362.04 -7370.56 -7379.27 -7383.21 -7374.57 -7383.31 -7390.21 -7391.30 -7392.41 -7391.96 -7392.39 -7395.85 -7398.36 -7399.61 -7402.54 -7407.52 -7422.40 -7419.51 -7412.70 -7409.76 -7406.64 -7405.65 -7405.25 -7401.76 -7400.27 -7392.50 -7385.41 -7372.70 -7346.62 -7331.93 -7317.80 -7300.87 -7290.96 -7285.38 -7276.02 -7258.32 -7234.48 -7132.84 -7064.35 -6818.44 -6075.04 -5878.88 -4866.86 -4041.89 -3685.50 -2707.66 -2115.14 -1583.45 -1071.25 -782.69 -489.36 -400.96 -238.38 -226.74 -189.69 -151.07 -124.26 -121.29 -119.95 -117.58 -106.78 -99.70 -125.14 -128.26 -140.43 -210.09 -222.27 -274.49 -277.98 -136.48 -314.27 -173.97 -509.73 -665.78 -798.96 -515.79 -809.97 -774.74 -918.23 -932.51 -647.64 -449.57 -302.27 -391.45 -774.16 -975.26 -1147.24 -1464.59 -1547.90 -2815.69 -3258.22 -4106.64 -4201.05 -4503.87 -3365.00 -3149.34 -2822.67 -2363.50 -2400.44 -3293.61 -4339.21 -5137.74 -6538.13 -6724.80 -6755.24 -6916.39 -7099.63 -7162.82 -7178.44 -7202.43 -7218.39 -7231.51 -7242.44 -7253.62 -7270.67 -7276.73 -7275.69 -7280.13 -7280.24 -7274.76 -7261.54 -7255.74 -7252.65 -7249.23 -7268.11 -7925.75 -8669.78 -9195.82 -9240.63 -9239.65 -9234.81 -9232.40 -9228.98 -9223.04 -9223.10
-7354.01 -7353.67 -7354.52 -7355.18 -7357.21 -7356.89 -7357.32 -7372.31 -7396.82 -7408.83 -7414.09 -7416.07 -7417.30 -7415.18 -7411.10 -7399.71 -7402.75 -7404.65 -7407.04 -7407.69 -7411.69 -7420.83 -7424.89 -7428.98 -7427.43 -7417.97 -7413.35 -7411.59 -7409.37 -7405.08 -7399.71 -7395.90 -7386.45 -7376.37 -7352.52 -7331.93 -7322.04 -7305.58 -7300.61 -7293.98 -7279.91 -7270.32 -7246.56 -7186.82 -7143.09 -6934.61 -6542.11 -6311.71 -5826.53 -5417.95 -4683.61 -3340.70 -3245.84 -1706.00 -1203.97 -1086.23 -804.47 -497.18 -410.07 -342.71 -285.96 -226.87 -244.56 -224.24 -184.42 -174.64 -206.57 -185.26 -202.25 -206.70 -246.64 -307.16 -448.78 -675.33 -731.23 -761.34 -842.11 -1070.94 -1492.97 -1461.69 -1418.68 -1364.54 -1432.60 -1442.11 -1668.31 -1538.72 -1237.03 -1155.18 -1026.66 -903.15 -1054.87 -1308.03 -1562.45 -2660.25 -4271.21 -4999.53 -6032.79 -5927.48 -5240.13 -4812.13 -4502.74 -4645.05 -3571.20 -2719.54 -2842.76 -2718.30 -2842.41 -4513.28 -6071.64 -6892.83 -7088.95 -7132.18 -7143.55 -7166.22 -7189.66 -7207.65 -7222.03 -7235.68 -7245.68 -7260.15 -7268.76 -7275.96 -7279.43 -7282.05 -7289.68 -7277.36 -7264.93 -7258.95 -7256.02 -7251.89 -7287.61 -7499.99 -8468.80 -9210.02 -9237.34 -9239.45 -9236.24 -9231.89 -9227.07 -9220.35 -9220.41
-7361.42 -7361.34 -7363.23 -7362.18 -7361.33 -7363.53 -7363.14 -7370.92 -7414.91 -7418.34 -7420.47 -7423.22 -7425.40 -7427.23 -7424.59 -7411.24 -7410.71 -7411.82 -7415.67 -7416.24 -7418.49 -7428.69 -7440.72 -7448.58 -7440.10 -7423.78 -7420.11 -7417.25 -7413.67 -7408.58 -7400.74 -7395.53 -7390.62 -7370.38 -7359.20 -7343.07 -7336.11 -7324.37 -7312.93 -7297.03 -7287.85 -7275.77 -7262.57 -7229.52 -7166.36 -7066.70 -6995.72 -6757.71 -6300.48 -5708.24 -4902.21 -4304.37 -3728.20 -2377.68 -2017.24 -1321.20 -1034.26 -811.25 -646.36 -549.55 -509.93 -336.84 -303.52 -304.93 -294.17 -338.13 -321.18 -315.93 -303.94 -286.12 -341.95 -442.54 -608.91 -755.16 -841.66 -863.08 -1018.54 -1364.77 -1523.70 -1524.65 -1543.23 -1594.46 -1545.77 -1490.63 -1554.29 -1560.73 -1648.63 -1491.03 -1397.64 -1570.62 -1647.39 -1676.55 -1944.19 -4378.70 -5957.24 -6507.65 -6501.06 -6573.19 -6582.57 -6216.59 -6592.35 -6211.17 -5460.68 -4893.33 -5107.16 -4186.16 -3005.11 -4711.90 -5409.91 -6641.66 -7119.32 -7147.97 -7171.06 -7195.29 -7216.88 -7221.98 -7236.39 -7244.97 -7255.94 -7266.61 -7273.98 -7280.76 -7282.04 -7290.75 -7294.69 -7279.58 -7262.99 -7260.67 -7256.19 -7254.16 -7289.10 -7599.35 -8433.28 -9179.44 -9241.79 -9239.67 -9236.08 -9229.79 -9221.05 -9214.79 -9214.85
-7369.85 -7369.78 -7370.86 -7370.87 -7369.77 -7369.04 -7372.66 -7386.03 -7420.70 -7428.16 -7428.87 -7432.45 -7435.94 -7435.56 -7429.49 -7419.43 -7420.18 -7420.19 -7421.06 -7423.54 -7427.84 -7439.30 -7457.15 -7454.15 -7441.97 -7429.47 -7425.22 -7422.45 -7420.41 -7412.01 -7404.98 -7398.76 -7394.49 -7382.94 -7370.18 -7357.43 -7350.23 -7329.47 -7325.02 -7305.62 -7296.43 -7282.27 -7271.55 -7254.55 -7252.86 -7214.71 -7118.13 -7055.70 -6592.25 -5860.68 -5158.32 -4609.99 -3979.05 -3051.02 -2554.26 -2206.30 -1604.41 -1276.70 -1049.55 -833.51 -731.04 -533.38 -534.98 -535.75 -512.46 -633.94 -547.62 -481.72 -486.14 -495.92 -498.20 -542.30 -743.23 -765.60 -852.94 -873.59 -989.76 -1335.72 -1467.68 -1421.07 -1495.53 -1574.09 -1552.00 -1611.57 -1792.29 -1755.53 -1819.62 -1789.33 -1893.02 -1971.44 -1981.89 -2242.45 -2486.38 -4303.89 -6021.33 -6571.84 -6614.67 -6696.58 -6767.74 -6777.42 -6780.96 -6736.42 -6791.65 -6695.68 -6510.60 -5673.04 -4161.87 -3373.19 -4362.63 -6108.71 -6855.40 -7185.83 -7196.78 -7221.37 -7235.50 -7241.81 -7252.00 -7253.27 -7264.12 -7275.28 -7281.98 -7287.61 -7290.03 -7295.63 -7302.35 -7285.21 -7266.12 -7261.30 -7258.77 -7255.99 -7297.50 -7741.79 -8554.57 -9188.36 -9240.99 -9237.80 -9232.29 -9224.33 -9218.01 -9208.90 -9206.26
-7377.60 -7377.53 -7380.04 -7379.79 -7380.48 -7379.00 -7380.17 -7392.15 -7426.94 -7435.79 -7438.11 -7438.52 -7443.23 -7442.48 -7438.57 -7428.54 -7426.32 -7429.96 -7431.52 -7431.29 -7435.12 -7446.08 -7463.16 -7462.65 -7447.19 -7434.99 -7434.12 -7430.53 -7425.04 -7418.62 -7413.27 -7406.41 -7401.83 -7394.55 -7381.21 -7371.04 -7364.02 -7356.20 -7328.53 -7320.55 -7303.10 -7285.02 -7276.66 -7271.13 -7266.56 -7248.82 -7184.27 -7078.90 -7019.14 -6085.93 -5641.60 -4849.67 -4293.63 -3727.61 -3076.40 -2440.50 -1993.30 -1837.83 -1621.83 -1160.54 -884.47 -740.47 -872.13 -864.59 -783.45 -839.15 -836.31 -693.83 -717.60 -760.50 -699.50 -695.38 -774.50 -618.58 -556.25 -309.12 -455.20 -1133.37 -1307.86 -1369.67 -1446.56 -1584.06 -1619.84 -1858.59 -1948.05 -1986.20 -2021.07 -2126.75 -2079.62 -2174.15 -2288.88 -2650.38 -3698.65 -5679.23 -6460.65 -6603.04 -6633.24 -6671.75 -6722.16 -6632.51 -6800.93 -6846.11 -6845.21 -6862.43 -6966.70 -6798.41 -5665.89 -4812.43 -4763.64 -5879.68 -6960.70 -7185.82 -7224.35 -7239.52 -7257.01 -7262.43 -7265.07 -7265.20 -7273.97 -7280.48 -7284.39 -7291.88 -7296.04 -7307.78 -7301.96 -7286.15 -7269.60 -7264.42 -7260.52 -7257.38 -7266.62 -7530.21 -8507.79 -9175.13 -9224.93 -9233.27 -9227.44 -9211.32 -9204.70 -9194.19 -9194.24
-7387.93 -7386.90 -7389.18 -7389.59 -7388.51 -7387.99 -7391.28 -7406.14 -7432.95 -7440.19 -7443.55 -7445.04 -7446.71 -7449.31 -7444.92 -7438.05 -7434.54 -7438.11 -7442.70 -7442.53 -7448.41 -7455.88 -7466.67 -7461.47 -7450.88 -7442.96 -7440.47 -7435.86 -7431.15 -7426.61 -7420.11 -7413.91 -7407.62 -7402.30 -7398.44 -7388.44 -7376.22 -7371.91 -7353.46 -7336.92 -7312.59 -7297.31 -7283.66 -7278.73 -7274.63 -7270.31 -7254.54 -7182.62 -6976.55 -6705.79 -6078.82 -5178.74 -4502.05 -3896.51 -3482.02 -2706.92 -2582.32 -2254.45 -1911.74 -1554.96 -1376.31 -1199.31 -1093.28 -1137.28 -1162.97 -1131.99 -1165.24 -1051.30 -1057.32 -986.82 -900.23 -834.37 -858.89 -513.72 -508.87 -407.78 -524.76 -1021.04 -1294.76 -1523.65 -1783.87 -1786.56 -1877.07 -1890.04 -2040.88 -2112.80 -2500.03 -2618.93 -2617.75 -3218.00 -2867.79 -3670.32 -6039.06 -6606.75 -6580.99 -6573.57 -6598.75 -6614.58 -5486.22 -5998.87 -6646.10 -6887.03 -6898.55 -6880.87 -6870.65 -6720.51 -6633.21 -5458.58 -5205.79 -6119.24 -6982.94 -7229.66 -7246.65 -7260.32 -7269.76 -7270.14 -7276.01 -7280.70 -7283.19 -7284.70 -7287.56 -7294.66 -7303.00 -7309.72 -7303.25 -7294.29 -7270.63 -7267.21 -7263.18 -7259.12 -7283.74 -7834.77 -8654.62 -9191.75 -9235.73 -9228.95 -9222.43 -9203.27 -9192.64 -9178.68 -9178.74
-7421.90 -7421.81 -7423.53 -7426.39 -7423.90 -7423.44 -7421.82 -7425.35 -7436.59 -7439.27 -7441.15 -7444.04 -7447.14 -7448.69 -7448.04 -7447.92 -7451.78 -7454.92 -7453.20 -7459.17 -7459.65 -7468.49 -7464.72 -7459.56 -7450.24 -7445.82 -7444.49 -7442.43 -7435.52 -7430.89 -7426.69 -7421.51 -7414.70 -7411.15 -7404.57 -7397.68 -7395.36 -7381.07 -7371.58 -7354.48 -7334.51 -7312.66 -7293.45 -7285.80 -7277.83 -7275.02 -7267.23 -7265.57 -7115.07 -6818.33 -6344.39 -5569.12 -4708.75 -3908.05 -3416.05 -3225.23 -2993.63 -2666.73 -2405.32 -1888.77 -1867.28 -1588.30 -1642.68 -1642.19 -1552.75 -1519.26 -1362.95 -1265.25 -1273.34 -1316.39 -1237.23 -1194.53 -1451.77 -1763.38 -1657.64 -1565.23 -1703.30 -1729.57 -1731.64 -2091.73 -2042.20 -2235.33 -2172.57 -2335.73 -2496.88 -3015.13 -4364.05 -4759.12 -4964.79 -5092.64 -4236.57 -5753.84 -6541.73 -6729.81 -6040.74 -5338.86 -6095.89 -5596.84 -5148.66 -6208.58 -6814.33 -6987.96 -6958.63 -6715.54 -6360.59 -5553.98 -5899.80 -4621.43 -5135.23 -6918.83 -7210.86 -7269.54 -7269.93 -7277.60 -7282.18 -7285.77 -7292.61 -7295.13 -7293.06 -7293.04 -7294.33 -7303.20 -7307.83 -7306.70 -7296.83 -7280.70 -7269.69 -7265.51 -7261.68 -7254.58 -7299.03 -7688.54 -8967.22 -9221.66 -9230.36 -9220.74 -9208.46 -9186.42 -9172.22 -9159.83 -9159.88
-7440.51 -7440.44 -7441.86 -7441.45 -7444.13 -7440.55 -7443.22 -7441.84 -7442.26 -7438.84 -7441.86 -7443.64 -7447.25 -7449.02 -7455.01 -7460.00 -7463.25 -7467.14 -7469.05 -7468.86 -7469.37 -7470.78 -7464.13 -7464.28 -7460.96 -7454.50 -7450.48 -7446.41 -7441.78 -7437.36 -7432.64 -7427.71 -7423.86 -7420.55 -7417.59 -7412.08 -7401.75 -7400.62 -7384.37 -7365.27 -7348.15 -7322.62 -7314.11 -7302.12 -7289.30 -7281.78 -7278.75 -7272.57 -7203.88 -6923.07 -6387.39 -5857.53 -4988.88 -4274.02 -3794.33 -3574.90 -3431.98 -3020.84 -2615.05 -2489.54 -2171.01 -2180.73 -1986.12 -1965.17 -1839.47 -1780.16 -1624.24 -1563.29 -1531.14 -1669.44 -2080.98 -1777.82 -2000.25 -2063.52 -2084.04 -2159.35 -2194.48 -2133.41 -2210.77 -2180.44 -2334.43 -2541.11 -2555.85 -3056.24 -3799.04 -5213.21 -5693.83 -6294.32 -6604.69 -6499.77 -6861.64 -6618.30 -6687.48 -6220.57 -4699.50 -4287.53 -4290.71 -4953.48 -5397.44 -6499.33 -6934.44 -7106.86 -6989.39 -5879.53 -4283.80 -4908.60 -6049.48 -4807.53 -5140.06 -7144.64 -7283.37 -7285.87 -7284.73 -7291.07 -7301.12 -7301.18 -7303.98 -7307.73 -7306.58 -7301.39 -7302.52 -7314.66 -7310.79 -7301.60 -7296.00 -7281.70 -7270.35 -7268.04 -7259.30 -7253.79 -7253.18 -7608.23 -8703.32 -9167.29 -9222.39 -9209.66 -9194.27 -9178.07 -9161.88 -9143.12 -9138.07
-7449.65 -7449.58 -7449.86 -7448.24 -7448.44 -7450.81 -7452.86 -7449.74 -7445.74 -7445.29 -7446.48 -7447.50 -7449.94 -7453.29 -7459.39 -7464.07 -7471.87 -7472.32 -7477.12 -7478.50 -7478.24 -7476.25 -7465.27 -7463.90 -7465.02 -7464.65 -7459.98 -7454.86 -7458.94 -7459.85 -7454.30 -7450.55 -7435.53 -7434.50 -7427.50 -7423.43 -7421.61 -7416.66 -7402.04 -7384.98 -7365.44 -7350.57 -7340.91 -7318.28 -7311.66 -7305.74 -7300.90 -7295.17 -7241.93 -7088.02 -6635.29 -5841.89 -5154.40 -4778.18 -4010.91 -3876.24 -3416.79 -3159.02 -2760.50 -2646.62 -2556.42 -2433.69 -2345.92 -2338.47 -2203.82 -2046.46 -2023.94 -1952.03 -1787.22 -2002.47 -2233.09 -2236.38 -2221.85 -2416.21 -2342.61 -2415.76 -2413.65 -2552.33 -2580.67 -2679.10 -2940.98 -4976.46 -5035.27 -5764.80 -6078.01 -6765.35 -6843.34 -6975.62 -7100.16 -6839.96 -6514.12 -5907.83 -5305.45 -4681.04 -4263.53 -3599.07 -3660.80 -3776.95 -4901.29 -6175.46 -6810.78 -7050.71 -6553.26 -5386.62 -4991.21 -6012.84 -6883.47 -6616.80 -6449.95 -7212.77 -7310.17 -7304.36 -7296.07 -7298.49 -7315.19 -7314.80 -7321.18 -7324.41 -7311.11 -7311.40 -7323.11 -7327.15 -7332.92 -7306.75 -7298.58 -7285.40 -7276.67 -7271.60 -7266.88 -7258.69 -7255.60 -7955.47 -8596.53 -9163.11 -9206.51 -9191.68 -9182.81 -9154.20 -9130.62 -9113.92 -9113.97
-7466.37 -7466.29 -7461.14 -7452.21 -7454.53 -7454.92 -7457.26 -7455.47 -7450.00 -7451.32 -7453.29 -7454.18 -7457.16 -7460.61 -7464.10 -7470.95 -7476.82 -7478.67 -7481.92 -7483.00 -7484.29 -7481.26 -7471.12 -7469.06 -7477.50 -7479.54 -7480.00 -7482.67 -7499.63 -7503.03 -7503.72 -7474.63 -7466.93 -7452.03 -7449.74 -7441.97 -7435.11 -7426.42 -7414.25 -7398.77 -7395.60 -7382.77 -7377.91 -7361.99 -7332.98 -7328.84 -7325.30 -7337.33 -7316.14 -7227.13 -6878.96 -6354.55 -5726.98 -4791.42 -4483.45 -4108.57 -3514.92 -3182.77 -2925.57 -2709.97 -2647.68 -2611.32 -2491.92 -2491.24 -2390.18 -2354.69 -2280.23 -2238.03 -2210.11 -2362.27 -2530.79 -2484.24 -2706.42 -2741.88 -2676.36 -2624.45 -3057.26 -2972.00 -3571.09 -5291.10 -6039.94 -6737.84 -6883.55 -7007.61 -7068.04 -7116.03 -6454.08 -6129.75 -6363.64 -5547.24 -5037.38 -5404.98 -5940.50 -6007.02 -5138.40 -5155.80 -5601.14 -5786.88 -5792.92 -6308.57 -6815.68 -6871.92 -6325.84 -5152.71 -5103.89 -7126.85 -7201.80 -7190.36 -7200.21 -7311.62 -7324.62 -7317.40 -7316.13 -7358.24 -7366.11 -7356.36 -7366.89 -7344.00 -7334.27 -7345.35 -7337.09 -7372.93 -7366.22 -7335.97 -7309.30 -7293.22 -7282.43 -7278.14 -7270.24 -7260.44 -7296.69 -7762.45 -8580.33 -9150.46 -9191.96 -9172.88 -9147.67 -9136.81 -9116.90 -9094.73 -9088.51
-7495.25 -7489.34 -7497.36 -7473.90 -7480.31 -7496.89 -7479.86 -7490.06 -7494.16 -7454.40 -7492.43 -7468.58 -7490.21 -7496.86 -7470.84 -7493.52 -7481.11 -7489.82 -7518.71 -7513.09 -7531.69 -7522.13 -7514.99 -7519.61 -7502.24 -7581.80 -7535.32 -7549.77 -7573.09 -7589.43 -7603.87 -7550.86 -7511.24 -7487.06 -7476.46 -7464.20 -7466.73 -7450.89 -7447.70 -7443.49 -7436.84 -7422.81 -7408.42 -7396.33 -7383.48 -7382.66 -7374.47 -7382.90 -7384.19 -7231.29 -7027.79 -6618.19 -5873.40 -5327.89 -4891.08 -4402.61 -3788.54 -3185.39 -3032.34 -2762.71 -2692.32 -2619.08 -2589.44 -2566.49 -2506.04 -2444.35 -2487.12 -2566.16 -2738.92 -2803.76 -2799.47 -2997.64 -3356.32 -3221.84 -3399.46 -3870.52 -3887.01 -4819.81 -6355.17 -6665.04 -6995.51 -7249.94 -7225.85 -7227.98 -7256.21 -7168.76 -6724.38 -6301.68 -6341.32 -5409.52 -4157.82 -4538.21 -6535.50 -7021.78 -7115.70 -7047.76 -7055.61 -6993.62 -7109.24 -7079.02 -7124.81 -6966.37 -6432.80 -6064.59 -5894.26 -7212.28 -7252.23 -7319.93 -7316.18 -7321.39 -7366.09 -7337.85 -7335.90 -7437.66 -7445.97 -7478.75 -7433.77 -7379.90 -7380.65 -7381.46 -7388.11 -7391.07 -7425.08 -7420.36 -7340.49 -7339.60 -7329.72 -7294.95 -7305.99 -7294.28 -7275.29 -7719.71 -8621.56 -9177.19 -9180.51 -9165.44 -9133.78 -9111.16 -9081.31 -9062.34 -9062.40
-7685.42 -7665.64 -7744.82 -7677.20 -7708.06 -7762.19 -7791.71 -7815.74 -7739.46 -7606.91 -7968.73 -7688.55 -7782.01 -7748.96 -7625.70 -7667.19 -8001.22 -7781.35 -7815.84 -7888.95 -7662.75 -7740.77 -8037.33 -7754.00 -7844.11 -7730.30 -7710.42 -7650.10 -7684.40 -7705.26 -7724.69 -7689.81 -7623.50 -7552.50 -7501.32 -7497.58 -7508.01 -7517.18 -7511.63 -7478.35 -7503.96 -7485.30 -7461.88 -7455.26 -7446.36 -7434.40 -7424.03 -7432.21 -7453.53 -7469.81 -7534.33 -7130.76 -6561.03 -5965.24 -5366.53 -4674.54 -4206.88 -3997.17 -3102.08 -2591.97 -2460.24 -2757.14 -2780.10 -2660.45 -2529.34 -2646.99 -2805.14 -3508.53 -3585.52 -3534.39 -3473.78 -3754.31 -4297.60 -5563.59 -5409.20 -5961.62 -6037.16 -7120.65 -7240.59 -7384.17 -7486.29 -7449.36 -7584.26 -7523.85 -7619.74 -7572.84 -7528.47 -7455.36 -6917.30 -5832.56 -6210.37 -7033.51 -7491.73 -7478.60 -7413.52 -7288.73 -7353.44 -7323.68 -7513.00 -7583.89 -7539.31 -7529.96 -7129.41 -7191.95 -7837.18 -7723.46 -7596.94 -7662.61 -7827.99 -7502.76 -7753.24 -7545.21 -7568.84 -7840.43 -7574.32 -7650.59 -7612.32 -7523.16 -7503.83 -7450.44 -7574.64 -7503.06 -7564.75 -7721.00 -7485.02 -7713.09 -7628.31 -7534.91 -7616.58 -7585.53 -7697.05 -7768.03 -8569.94 -9146.50 -9159.39 -9142.92 -9129.30 -9081.72 -9069.73 -9036.37 -9036.43
-8967.75 -8966.74 -8897.75 -8613.55 -8693.70 -8760.72 -8719.52 -8799.41 -8879.53 -8774.74 -8900.14 -8731.87 -8687.01 -8952.19 -8806.97 -8457.71 -8711.38 -8718.89 -9004.93 -8580.52 -8666.58 -8578.71 -8733.91 -8870.71 -8543.46 -8439.50 -8128.05 -7981.89 -7971.87 -8019.13 -7904.46 -7881.98 -7716.12 -7598.38 -7602.77 -7573.29 -7557.33 -7588.72 -7588.54 -7569.23 -7537.91 -7604.27 -7511.35 -7535.26 -7559.67 -7575.23 -7550.45 -7533.79 -7542.20 -7732.53 -7961.40 -7743.52 -7384.01 -6631.76 -6464.10 -4936.64 -4820.42 -4778.72 -3283.41 -1623.62 -2590.34 -3110.02 -3156.62 -2872.86 -2586.84 -2762.81 -5074.80 -6263.26 -6406.24 -5200.14 -4198.25 -4736.99 -6224.04 -7072.67 -7769.52 -8698.92 -8697.91 -8660.46 -8486.31 -8577.68 -8488.04 -8479.50 -8416.90 -8616.45 -8698.00 -8869.07 -8470.72 -8404.46 -8440.72 -8258.17 -8270.89 -8381.02 -8239.76 -8329.04 -8608.32 -8414.03 -8586.09 -8494.34 -8483.23 -8646.57 -8356.58 -8786.13 -8602.10 -8356.64 -8471.13 -8413.22 -8275.02 -8184.25 -8609.67 -8596.26 -8716.44 -8570.92 -8868.42 -8617.53 -8275.32 -8079.66 -7838.94 -7692.85 -7624.74 -7605.20 -7812.51 -7893.57 -7900.88 -8553.55 -8903.85 -8814.61 -8942.90 -8294.78 -8567.64 -8678.01 -8691.36 -8936.74 -8953.71 -9165.04 -9141.54 -9124.15 -9092.78 -9061.79 -9036.56 -9011.07 -9011.12
-9429.46 -9429.27 -9414.07 -9379.10 -9403.71 -9402.53 -9395.12 -9311.81 -9288.42 -9366.42 -9310.76 -9400.23 -9381.53 -9394.68 -9406.47 -9436.15 -9325.11 -9401.35 -9459.49 -9402.21 -9440.19 -9420.00 -9350.90 -9488.91 -9347.92 -8938.81 -8712.38 -8619.04 -8501.26 -8345.02 -8158.64 -8086.38 -7849.43 -7657.51 -7707.19 -7728.16 -7721.55 -7735.80 -7763.88 -7667.86 -7741.33 -7783.34 -7627.03 -7639.72 -7677.56 -7687.37 -7690.83 -7709.66 -7714.49 -7997.99 -8175.85 -8247.78 -8084.27 -8191.23 -8340.78 -4323.36 -3848.45 -3045.01 -2688.67 -1605.58 -1784.61 -4108.67 -5249.91 -6318.06 -6941.88 -6650.83 -8143.99 -8731.34 -8275.07 -8307.73 -7252.43 -6574.94 -7641.52 -8667.57 -9130.33 -9379.05 -9272.19 -9195.96 -9228.38 -9119.79 -9175.56 -9280.46 -9243.36 -9281.20 -9124.81 -9182.76 -9215.81 -9227.75 -9040.38 -9181.59 -9179.27 -9155.57 -9147.21 -9148.03 -9143.04 -9126.05 -9077.37 -9113.17 -9100.52 -9026.29 -9003.35 -9117.92 -9141.28 -9101.91 -9162.57 -9200.01 -9225.46 -9271.50 -9262.08 -9281.34 -9301.97 -9319.58 -9219.35 -9096.66 -8897.77 -8772.89 -8191.29 -7934.29 -7781.05 -7919.18 -8323.09 -8670.58 -8942.23 -9130.55 -9257.89 -9241.84 -9289.03 -9198.11 -9240.40 -9121.97 -9176.62 -9156.94 -9176.80 -9160.94 -9127.51 -9097.08 -9074.57 -9030.69 -9015.66 -8986.96 -8987.02
-9458.97 -9458.91 -9455.77 -9454.51 -9455.31 -9455.80 -9457.39 -9454.41 -9445.68 -9467.60 -9464.05 -9472.52 -9473.81 -9478.91 -9480.20 -9483.71 -9486.70 -9489.75 -9492.83 -9494.18 -9493.36 -9498.00 -9500.00 -9500.66 -9487.00 -9434.84 -9226.02 -9106.85 -8870.21 -8553.45 -8501.39 -8323.65 -8176.83 -8101.92 -7893.62 -7917.14 -7868.13 -7942.19 -7971.10 -7822.18 -7913.62 -8035.42 -7944.35 -7806.89 -7932.64 -7948.29 -8005.34 -7953.85 -8003.32 -8138.75 -8376.31 -8619.73 -8828.08 -8816.77 -8862.60 -3450.66 -2959.64 -2759.61 -2835.89 -4286.38 -3597.66 -4963.14 -7469.90 -8215.84 -8611.22 -9212.93 -9224.36 -8855.25 -8826.36 -8888.00 -8774.07 -9127.32 -9364.43 -9334.51 -9390.25 -9409.63 -9369.76 -9346.03 -9323.21 -9341.56 -9337.56 -9329.98 -9322.90 -9314.94 -9311.70 -9282.36 -9293.90 -9280.61 -9272.84 -9264.39 -9250.79 -9235.81 -9224.09 -9214.20 -9191.37 -9189.84 -9172.69 -9166.66 -9163.33 -9164.15 -9171.25 -9181.74 -9191.78 -9212.78 -9232.76 -9257.82 -9275.94 -9303.48 -9324.67 -9351.75 -9355.42 -9317.48 -9286.92 -9277.87 -9105.51 -8901.19 -8719.56 -8540.60 -8392.89 -8805.11 -8979.03 -9035.04 -9234.17 -9360.97 -9369.82 -9361.20 -9348.07 -9311.53 -9277.64 -9269.63 -9229.92 -9217.57 -9173.84 -9142.87 -9118.70 -9080.84 -9048.67 -9025.61 -8992.29 -8964.98 -8965.04
-9458.93 -9458.54 -9458.50 -9459.45 -9460.96 -9463.03 -9465.64 -9467.49 -9469.75 -9472.04 -9473.47 -9477.02 -9481.20 -9484.01 -9485.72 -9489.40 -9490.63 -9495.37 -9496.85 -9499.51 -9501.27 -9503.06 -9508.32 -9497.27 -9501.54 -9473.69 -9384.59 -9277.81 -9078.90 -8956.19 -8722.84 -8619.48 -8579.55 -8334.59 -8205.25 -8163.10 -8083.72 -8067.77 -8109.26 -8055.44 -8158.92 -8262.09 -8156.14 -8050.21 -8246.92 -8130.56 -8208.36 -8408.49 -8370.34 -8501.78 -8760.49 -8978.53 -9083.06 -9059.65 -8766.66 -2631.74 -4651.45 -4602.49 -4949.49 -7309.66 -8266.26 -7798.41 -8757.24 -9140.05 -9269.61 -9307.48 -9297.92 -8557.83 -7637.60 -9207.02 -9275.47 -9389.24 -9410.02 -9365.47 -9397.73 -9400.38 -9375.18 -9365.65 -9361.22 -9357.80 -9355.33 -9346.87 -9340.61 -9326.79 -9324.02 -9313.94 -9302.58 -9291.22 -9279.94 -9269.10 -9256.45 -9243.53 -9227.62 -9215.07 -9200.35 -9187.49 -9177.64 -9168.44 -9164.76 -9166.42 -9172.33 -9183.23 -9199.52 -9216.20 -9236.56 -9265.69 -9284.76 -9302.73 -9331.67 -9353.10 -9362.69 -9355.79 -9333.54 -9327.29 -9331.96 -9213.15 -9193.02 -9056.23 -8843.56 -9139.52 -9339.07 -9360.42 -9366.49 -9387.48 -9375.03 -9354.73 -9344.15 -9308.32 -9289.63 -9258.50 -9229.76 -9202.21 -9166.93 -9126.44 -9095.29 -9066.90 -9026.93 -9002.27 -8968.94 -8945.40 -8945.46
-9463.46 -9463.38 -9463.52 -9466.26 -9466.17 -9467.03 -9467.68 -9470.90 -9473.39 -9476.29 -9479.42 -9482.51 -9486.33 -9488.56 -9491.16 -9494.10 -9498.00 -9501.04 -9502.93 -9504.88 -9508.28 -9510.35 -9515.60 -9501.05 -9513.97 -9519.23 -9518.91 -9368.32 -9289.12 -9129.25 -9056.95 -9082.54 -8983.48 -8720.59 -8565.90 -8391.03 -8436.73 -8366.18 -8273.71 -8350.47 -8510.74 -8526.31 -8491.63 -8504.99 -8524.86 -8481.93 -8563.64 -8890.10 -8831.00 -8859.20 -9005.77 -9074.96 -9199.15 -9192.17 -8328.47 -4579.24 -5173.92 -7720.36 -8214.65 -9204.98 -9237.56 -9353.78 -9355.40 -9338.97 -9412.31 -9387.32 -9274.82 -8506.15 -7646.20 -9201.69 -9361.73 -9436.44 -9440.50 -9422.12 -9417.95 -9399.61 -9386.55 -9387.91 -9378.27 -9375.12 -9368.51 -9360.74 -9352.86 -9343.54 -9331.39 -9324.12 -9310.04 -9295.52 -9287.81 -9272.50 -9262.95 -9248.04 -9231.24 -9222.61 -9203.75 -9190.22 -9180.04 -9172.02 -9168.15 -9168.33 -9174.38 -9187.14 -9202.89 -9221.07 -9243.94 -9263.63 -9282.82 -9307.33 -9330.85 -9351.79 -9356.79 -9376.59 -9371.76 -9366.08 -9370.85 -9363.67 -9352.81 -9340.00 -9365.64 -9371.85 -9371.14 -9373.97 -9386.18 -9390.05 -9376.64 -9362.21 -9332.41 -9301.90 -9280.12 -9250.03 -9220.25 -9178.88 -9154.25 -9118.42 -9078.22 -9048.76 -9017.67 -8978.06 -8950.25 -8928.28 -8928.34
-9469.02 -9468.94 -9469.63 -9469.16 -9471.22 -9471.86 -9475.96 -9475.58 -9478.43 -9479.55 -9483.99 -9487.47 -9490.49 -9493.87 -9495.91 -9499.43 -9502.25 -9506.09 -9507.44 -9510.18 -9512.57 -9516.12 -9517.40 -9520.95 -9522.73 -9528.46 -9529.56 -9490.97 -9410.99 -9338.38 -9385.23 -9349.73 -9211.47 -9024.95 -9098.01 -8929.44 -8763.29 -8802.17 -8800.91 -8717.66 -8666.15 -8915.01 -8845.88 -8878.43 -8872.92 -8996.89 -9033.80 -9227.28 -9238.74 -9236.51 -9252.67 -9252.27 -9280.32 -9246.58 -8207.41 -5372.70 -6526.06 -8822.17 -9343.29 -9353.24 -9362.79 -9409.60 -9418.22 -9413.59 -9406.91 -9403.55 -9384.78 -9316.39 -9256.91 -9306.80 -9412.74 -9421.64 -9419.47 -9411.49 -9404.30 -9405.75 -9406.00 -9397.42 -9395.54 -9386.60 -9379.48 -9369.47 -9358.61 -9347.61 -9335.81 -9326.01 -9312.11 -9304.43 -9289.20 -9278.71 -9260.55 -9248.76 -9234.17 -9219.09 -9208.05 -9194.69 -9182.06 -9174.12 -9170.99 -9172.07 -9181.97 -9190.52 -9206.38 -9225.78 -9250.67 -9262.98 -9291.23 -9315.34 -9330.45 -9359.11 -9370.28 -9379.33 -9381.41 -9374.39 -9381.59 -9389.22 -9389.12 -9370.76 -9383.81 -9401.09 -9393.08 -9394.94 -9398.39 -9393.10 -9372.02 -9356.61 -9323.41 -9302.31 -9273.03 -9236.73 -9202.38 -9168.24 -9132.41 -9086.25 -9059.37 -9030.57 -8997.76 -8961.00 -8940.62 -8916.46 -8913.27
