-12486.00 -12486.82 -12494.44 -12491.34 -12443.80 -12267.60 -11827.65 -11395.77 -11215.05 -10981.96 -10909.73 -10893.10 -10891.76 -10894.85 -10896.56 -10899.38 -10899.64 -10898.07 -10897.44 -10894.09 -10894.03 -10894.53 -10894.85 -10894.30 -10892.81 -10892.27 -10891.67 -10891.36 -10884.96 -10881.42 -10882.98 -10887.35 -10890.66 -10895.33 -10906.41 -10928.62 -10936.14 -10952.15 -10960.38 -10967.67 -10977.61 -10982.38 -10980.59 -10978.06 -10979.78 -10981.82 -10980.69 -10977.96 -10970.40 -10964.67 -10952.11 -10949.26 -10943.28 -10941.96 -10939.93 -10940.80 -10947.33 -10950.93 -10955.31 -10960.74 -10967.32 -10972.97 -10984.45 -10994.02 -11002.30 -11009.28 -11014.59 -11016.32 -11016.21 -11009.70 -10994.85 -10988.20 -10977.51 -10968.38 -10962.72 -10951.67 -10952.39 -10966.00 -10968.48 -10968.79 -10967.94 -10943.97 -10887.75 -9764.40 -8953.90 -7480.26 -7409.50 -7873.57 -8193.44 -8322.91 -8261.68 -8071.55 -7751.71 -7635.60 -7932.75 -6798.82 -1796.22 -394.91 5.97 381.19 3247.22 3408.37 5906.75 5332.60 4272.87 448.38 -143.17 -2806.91 -7814.19 -7649.22 -7070.15 -6734.63 -6791.28 -6845.78 -6894.31 -6910.99 -6920.85 -6922.04 -6911.30 -6903.27 -6903.27 -6902.56 -6901.06 -6899.53 -6896.21 -6888.20 -6883.14 -6882.83 -6883.76 -6884.73 -6921.57 -7243.45 -8223.82 -8911.58 -8919.42 -8920.71 -8921.31 -8922.05 -8922.77 -8923.00 -8923.08
-12480.38 -12480.30 -12492.27 -12498.21 -12483.55 -12417.71 -12261.84 -11592.39 -11249.20 -11094.89 -10915.39 -10903.17 -10900.86 -10899.01 -10902.66 -10906.03 -10905.29 -10904.40 -10901.45 -10899.67 -10897.01 -10896.24 -10896.23 -10894.20 -10891.63 -10889.83 -10888.71 -10887.50 -10880.42 -10875.83 -10877.16 -10878.17 -10881.51 -10885.82 -10891.45 -10913.61 -10929.25 -10938.68 -10948.66 -10956.03 -10965.15 -10973.34 -10970.90 -10968.46 -10971.86 -10975.30 -10976.06 -10973.79 -10968.87 -10958.99 -10950.40 -10947.08 -10942.62 -10939.86 -10937.95 -10937.85 -10944.00 -10946.37 -10950.15 -10956.29 -10962.22 -10969.18 -10981.22 -10989.29 -10998.34 -11004.32 -11008.19 -11011.26 -11010.74 -11006.43 -10995.03 -10986.12 -10979.53 -10968.90 -10958.54 -10952.41 -10955.19 -10964.55 -10965.34 -10964.72 -10965.40 -10941.79 -10843.07 -10426.34 -9556.92 -7671.89 -7409.79 -7723.31 -8190.93 -8281.87 -8171.40 -7918.37 -7425.61 -7216.51 -7949.44 -6121.74 -1186.81 -653.16 6.66 2937.94 5793.86 5855.09 6497.52 6034.60 3586.63 404.71 -181.85 -566.68 -7698.55 -7733.95 -6982.04 -6805.76 -6831.26 -6862.65 -6909.47 -6920.17 -6926.46 -6930.52 -6922.63 -6908.16 -6907.64 -6907.60 -6906.19 -6906.11 -6902.33 -6890.37 -6889.53 -6887.43 -6887.01 -6888.16 -6933.97 -7220.30 -8515.05 -8894.63 -8918.44 -8920.98 -8921.36 -8921.60 -8921.71 -8921.97 -8922.20
-12472.31 -12472.23 -12485.78 -12495.08 -12498.41 -12457.05 -12371.15 -12153.94 -11615.56 -11210.59 -10973.51 -10918.43 -10909.24 -10905.87 -10905.66 -10908.71 -10907.65 -10905.90 -10903.65 -10900.71 -10897.11 -10895.97 -10892.06 -10886.10 -10884.22 -10878.11 -10874.34 -10877.55 -10874.13 -10866.85 -10867.29 -10867.35 -10867.95 -10874.20 -10879.85 -10898.26 -10906.14 -10917.41 -10924.81 -10942.36 -10950.06 -10957.70 -10954.73 -10953.01 -10963.00 -10963.92 -10968.17 -10966.69 -10965.13 -10957.05 -10953.23 -10948.48 -10944.77 -10941.19 -10940.05 -10938.11 -10941.72 -10945.72 -10948.66 -10953.49 -10959.51 -10962.91 -10977.47 -10981.63 -10986.05 -10997.16 -11000.94 -11004.53 -11006.20 -11003.65 -10996.66 -10989.59 -10982.89 -10975.43 -10962.97 -10956.53 -10952.81 -10958.17 -10959.25 -10959.01 -10955.71 -10923.67 -10880.80 -10505.43 -8930.22 -7834.55 -7318.74 -7432.18 -7966.58 -8051.40 -8074.27 -7773.55 -7320.29 -7394.86 -8040.19 -6410.75 -1119.46 -285.72 10.21 2138.35 3875.69 5149.20 5896.73 5274.20 3508.45 908.15 147.01 -605.09 -7334.91 -7717.37 -7032.93 -6824.42 -6833.67 -6890.86 -6913.49 -6929.24 -6937.47 -6937.13 -6926.02 -6914.09 -6918.91 -6917.62 -6917.56 -6918.59 -6912.11 -6900.74 -6890.97 -6891.44 -6891.32 -6891.41 -6940.15 -7241.89 -8436.98 -8818.50 -8909.73 -8920.96 -8921.09 -8921.11 -8920.95 -8920.41 -8920.48
-12459.82 -12459.74 -12476.32 -12486.85 -12500.76 -12496.00 -12449.32 -12248.44 -11905.43 -11266.43 -11084.48 -10993.70 -10932.38 -10917.69 -10913.56 -10909.78 -10906.99 -10904.87 -10903.49 -10900.07 -10897.10 -10891.12 -10885.41 -10879.47 -10874.69 -10872.31 -10867.60 -10864.37 -10861.03 -10860.06 -10858.42 -10857.15 -10861.76 -10862.07 -10868.96 -10875.13 -10890.30 -10897.65 -10907.18 -10920.20 -10930.11 -10937.15 -10938.29 -10943.09 -10950.67 -10953.87 -10956.34 -10957.27 -10958.17 -10957.24 -10955.87 -10952.25 -10947.56 -10944.68 -10942.04 -10940.33 -10942.33 -10944.61 -10946.77 -10950.94 -10956.48 -10962.69 -10969.22 -10980.10 -10982.08 -10991.27 -10994.84 -10998.17 -10999.43 -10999.94 -10999.57 -10995.76 -10991.17 -10981.78 -10975.51 -10962.87 -10957.33 -10952.10 -10947.11 -10943.47 -10937.72 -10912.35 -10751.07 -10319.43 -8690.67 -7458.99 -6962.91 -7235.36 -7733.73 -7832.83 -7805.72 -7701.11 -7422.42 -8326.02 -8440.83 -6282.32 -1158.83 -178.15 192.10 1093.32 2887.51 4737.20 5586.61 3452.04 2207.53 380.48 -223.53 -4959.41 -8090.70 -7457.05 -6881.22 -6829.73 -6862.66 -6901.12 -6931.60 -6938.63 -6943.51 -6945.37 -6945.04 -6942.98 -6939.99 -6939.34 -6937.48 -6935.22 -6931.16 -6909.08 -6896.09 -6893.60 -6893.41 -6893.52 -6936.56 -7270.97 -8278.13 -8817.95 -8920.43 -8920.57 -8920.66 -8920.59 -8920.36 -8919.87 -8919.94
-12453.12 -12454.47 -12465.17 -12482.51 -12497.03 -12504.19 -12481.09 -12355.94 -11957.37 -11540.45 -11292.92 -11214.40 -11199.97 -11011.83 -10960.98 -10920.57 -10912.03 -10907.80 -10904.74 -10902.00 -10898.10 -10893.44 -10886.05 -10878.89 -10873.44 -10869.31 -10864.22 -10861.13 -10858.60 -10856.67 -10854.81 -10853.52 -10852.42 -10852.51 -10855.69 -10866.40 -10876.99 -10886.39 -10894.35 -10907.76 -10917.93 -10929.89 -10932.65 -10932.28 -10941.36 -10946.09 -10952.54 -10954.40 -10955.02 -10958.80 -10958.57 -10953.92 -10950.80 -10947.14 -10943.92 -10941.91 -10942.61 -10943.90 -10945.80 -10948.17 -10954.86 -10959.97 -10965.37 -10972.97 -10976.58 -10985.23 -10988.20 -10994.17 -10996.37 -10998.07 -11001.78 -10998.82 -10994.33 -10987.93 -10978.86 -10973.05 -10960.64 -10953.97 -10946.03 -10944.48 -10938.88 -10912.98 -10860.47 -10225.53 -8691.05 -7384.15 -6954.89 -7228.35 -7510.33 -7601.42 -7755.91 -7867.23 -8062.64 -8632.24 -7920.55 -3791.77 -2686.51 -235.92 606.19 2101.88 3351.09 6537.56 6159.32 3401.62 1097.80 267.57 -2435.50 -7073.42 -8153.81 -7422.78 -6880.19 -6806.23 -6869.92 -6911.97 -6929.91 -6945.90 -6950.25 -6950.56 -6947.30 -6947.09 -6945.99 -6944.97 -6943.42 -6942.44 -6938.91 -6912.44 -6901.39 -6896.64 -6895.96 -6895.66 -6914.33 -7311.06 -8226.44 -8784.50 -8920.52 -8920.48 -8920.05 -8919.70 -8919.80 -8919.27 -8919.34
-12447.51 -12447.43 -12461.66 -12476.61 -12492.83 -12504.52 -12504.91 -12487.17 -12280.91 -12035.18 -11824.07 -11718.85 -11570.27 -11321.61 -11067.02 -10970.65 -10928.19 -10913.15 -10906.64 -10904.85 -10902.37 -10896.99 -10885.66 -10881.96 -10877.70 -10870.34 -10865.46 -10862.09 -10856.40 -10854.50 -10849.95 -10847.31 -10845.79 -10845.60 -10846.29 -10850.59 -10865.25 -10870.50 -10883.79 -10892.38 -10904.06 -10918.34 -10923.42 -10927.59 -10938.13 -10944.55 -10949.23 -10953.36 -10954.80 -10959.11 -10959.39 -10956.09 -10952.56 -10948.13 -10944.80 -10942.72 -10942.89 -10943.68 -10944.79 -10948.31 -10952.14 -10958.07 -10962.60 -10969.74 -10975.87 -10980.68 -10988.26 -10991.17 -10994.98 -10998.22 -11003.17 -11001.86 -10999.40 -10993.48 -10988.38 -10975.64 -10969.49 -10959.62 -10953.91 -10947.19 -10941.79 -10927.43 -10843.30 -10413.40 -8506.51 -7311.44 -7048.96 -7316.04 -7340.74 -7338.15 -7497.75 -8052.97 -8401.95 -9041.44 -7473.57 -3452.91 -1345.09 -97.02 398.67 3920.74 4748.95 6304.31 6034.16 5561.51 1571.88 219.30 -2127.55 -5150.50 -7307.31 -7259.61 -6825.63 -6817.87 -6856.31 -6919.19 -6934.62 -6951.14 -6953.23 -6952.62 -6949.91 -6948.58 -6948.13 -6947.14 -6946.43 -6944.33 -6937.82 -6908.66 -6899.86 -6898.09 -6897.11 -6896.52 -6903.83 -7191.71 -8199.72 -8870.25 -8920.45 -8920.13 -8919.74 -8919.06 -8918.60 -8917.89 -8917.96
-12442.36 -12442.29 -12456.99 -12473.24 -12488.69 -12500.87 -12513.21 -12510.02 -12444.64 -12327.95 -12309.84 -12248.84 -12095.52 -11519.68 -11385.67 -11075.20 -10949.01 -10942.46 -10912.79 -10906.54 -10902.82 -10898.77 -10892.35 -10885.12 -10880.57 -10873.69 -10869.03 -10861.82 -10857.12 -10852.44 -10846.85 -10843.40 -10838.61 -10838.46 -10841.39 -10847.53 -10854.43 -10864.39 -10872.88 -10881.83 -10895.39 -10910.98 -10916.98 -10919.35 -10931.86 -10940.85 -10946.35 -10952.21 -10955.21 -10959.04 -10959.69 -10956.35 -10953.56 -10949.35 -10946.65 -10943.47 -10943.01 -10943.08 -10944.86 -10947.04 -10950.51 -10954.15 -10961.04 -10967.17 -10972.41 -10979.12 -10986.16 -10990.22 -10994.65 -10998.96 -11004.60 -11003.28 -11002.42 -10997.87 -10993.62 -10986.43 -10975.80 -10965.26 -10959.94 -10956.61 -10947.62 -10937.13 -10861.11 -10366.30 -8690.25 -7634.77 -7185.70 -6730.34 -6308.11 -5262.98 -6847.87 -7811.53 -8449.34 -8680.50 -7815.57 -4505.18 -209.78 28.16 1201.08 3368.64 4949.44 6054.81 5581.85 6197.41 757.75 -885.76 -4608.50 -8000.30 -8268.77 -7196.06 -6829.26 -6826.71 -6862.99 -6923.58 -6941.51 -6951.15 -6956.07 -6955.44 -6951.97 -6949.96 -6949.14 -6948.05 -6946.91 -6945.09 -6937.20 -6915.11 -6900.38 -6898.63 -6897.41 -6896.95 -6928.38 -7340.69 -8391.91 -8826.01 -8919.90 -8919.65 -8919.00 -8918.24 -8917.82 -8916.76 -8916.83
-12438.09 -12438.02 -12452.52 -12467.82 -12481.10 -12497.32 -12512.90 -12524.29 -12529.75 -12502.21 -12502.64 -12514.56 -12389.65 -12145.96 -11661.39 -11398.17 -11092.44 -10982.09 -10937.71 -10911.68 -10904.66 -10898.78 -10892.45 -10886.49 -10882.95 -10876.27 -10869.49 -10863.31 -10857.23 -10850.83 -10845.71 -10840.57 -10835.58 -10834.44 -10833.63 -10840.24 -10847.94 -10854.30 -10863.57 -10875.68 -10890.46 -10902.06 -10908.74 -10918.28 -10925.63 -10937.27 -10943.36 -10950.16 -10953.56 -10957.84 -10960.15 -10958.13 -10954.06 -10950.24 -10947.21 -10943.49 -10942.95 -10942.87 -10943.38 -10944.67 -10948.89 -10952.66 -10960.26 -10963.94 -10972.05 -10978.70 -10984.71 -10992.01 -10995.59 -11001.77 -11008.30 -11009.27 -11008.08 -11002.46 -10999.70 -10994.17 -10985.96 -10970.53 -10962.32 -10958.05 -10955.31 -10938.37 -10851.83 -10368.57 -9321.92 -7466.38 -7047.22 -5446.97 -3134.83 -3295.89 -5257.96 -7906.34 -8727.15 -8229.20 -6940.95 -2762.60 -24.04 759.73 2645.68 4320.66 6026.12 6392.53 4329.39 3049.78 782.94 -591.86 -2762.34 -7412.56 -8336.28 -7613.60 -6983.56 -6854.30 -6872.38 -6918.78 -6939.45 -6954.66 -6957.29 -6956.90 -6953.24 -6950.30 -6948.25 -6947.09 -6946.49 -6943.77 -6938.63 -6909.31 -6902.81 -6899.37 -6899.70 -6897.47 -6950.72 -7221.93 -8604.18 -8845.88 -8919.23 -8918.84 -8918.22 -8917.38 -8916.96 -8916.04 -8916.10
-12433.69 -12434.92 -12447.22 -12459.53 -12474.99 -12493.66 -12506.45 -12528.10 -12546.57 -12552.26 -12563.36 -12550.95 -12514.82 -12455.26 -12068.68 -11791.22 -11486.31 -11077.66 -10972.93 -10917.94 -10905.31 -10898.07 -10893.08 -10888.06 -10883.23 -10878.67 -10871.74 -10863.90 -10855.81 -10852.29 -10844.98 -10837.07 -10831.53 -10828.41 -10827.70 -10834.92 -10840.10 -10849.20 -10856.75 -10868.84 -10882.41 -10895.33 -10904.90 -10913.19 -10923.63 -10933.01 -10944.58 -10949.30 -10954.22 -10957.07 -10956.39 -10953.55 -10949.56 -10946.38 -10943.95 -10940.67 -10941.07 -10941.92 -10942.06 -10943.55 -10946.79 -10949.40 -10957.12 -10964.87 -10976.49 -10985.56 -10989.02 -10997.22 -10999.42 -11004.87 -11011.11 -11013.09 -11012.20 -11010.42 -11006.27 -10996.92 -10985.92 -10958.88 -10947.89 -10942.80 -10940.75 -10923.67 -10800.48 -10090.31 -8660.44 -7268.06 -6188.46 -3929.09 -1688.53 -1607.49 -3628.97 -6672.73 -7631.57 -6458.77 -3505.04 -447.04 -156.71 295.32 2302.63 4441.98 6893.63 6892.25 4358.13 2430.30 846.47 -442.65 -2329.59 -5428.17 -7507.04 -7932.50 -7442.98 -6981.27 -6894.27 -6914.56 -6942.20 -6952.81 -6956.67 -6955.27 -6941.36 -6936.10 -6936.11 -6937.45 -6933.52 -6930.85 -6928.34 -6916.22 -6907.95 -6905.88 -6903.47 -6903.33 -6944.08 -7337.24 -8428.66 -8881.39 -8918.67 -8917.97 -8917.26 -8916.53 -8915.85 -8914.89 -8914.96
-12428.47 -12428.41 -12440.48 -12453.63 -12466.30 -12481.63 -12495.97 -12516.27 -12553.42 -12576.50 -12585.49 -12592.07 -12584.65 -12553.13 -12454.93 -12167.42 -11645.05 -11270.69 -11064.73 -10961.97 -10909.84 -10900.92 -10889.91 -10886.93 -10883.15 -10877.57 -10872.01 -10863.89 -10857.25 -10847.88 -10842.26 -10835.74 -10829.57 -10825.06 -10824.07 -10830.05 -10838.79 -10844.85 -10851.63 -10863.93 -10874.96 -10887.91 -10901.36 -10909.84 -10924.97 -10931.09 -10942.77 -10948.54 -10953.73 -10953.29 -10950.09 -10949.91 -10946.02 -10942.47 -10939.72 -10936.77 -10939.65 -10941.00 -10940.91 -10941.72 -10943.06 -10947.13 -10955.73 -10970.71 -10982.95 -10991.71 -10999.16 -11006.16 -11012.29 -11015.17 -11015.98 -11016.74 -11018.03 -11017.48 -11013.94 -11009.21 -10992.58 -10947.58 -10928.86 -10925.58 -10901.79 -10866.95 -10680.34 -9270.25 -7581.45 -5617.72 -4054.99 -750.29 -687.54 -924.98 -1951.24 -3985.24 -4628.30 -4117.30 -3588.69 -426.58 -28.52 2374.87 5950.93 5668.63 6275.19 4702.02 2250.23 1115.59 -11.61 -346.04 -1741.74 -2681.46 -3859.28 -6464.20 -7425.03 -7029.28 -6905.89 -6913.43 -6946.26 -6953.23 -6956.21 -6946.10 -6934.08 -6921.67 -6921.39 -6917.03 -6919.62 -6914.50 -6918.04 -6915.27 -6915.48 -6913.67 -6911.80 -6910.68 -6963.29 -7283.91 -8323.47 -8873.58 -8917.64 -8916.65 -8916.13 -8915.29 -8914.54 -8913.72 -8913.76
-12428.47 -12430.09 -12439.74 -12449.71 -12462.93 -12478.89 -12490.05 -12519.76 -12544.54 -12572.95 -12582.22 -12591.43 -12592.56 -12585.62 -12509.52 -12463.80 -12177.39 -11772.64 -11305.16 -10999.41 -10927.49 -10908.67 -10888.98 -10885.70 -10882.34 -10878.75 -10871.53 -10866.68 -10858.11 -10849.27 -10844.11 -10834.01 -10829.84 -10824.87 -10823.43 -10828.55 -10834.97 -10842.75 -10852.23 -10859.70 -10871.51 -10885.65 -10893.49 -10907.72 -10916.98 -10927.96 -10938.62 -10948.59 -10950.99 -10949.91 -10948.03 -10946.47 -10944.66 -10940.56 -10938.48 -10936.33 -10939.57 -10939.76 -10939.35 -10940.20 -10942.29 -10945.00 -10956.14 -10970.13 -10982.80 -10994.45 -11001.69 -11008.10 -11015.60 -11020.13 -11019.95 -11020.76 -11020.99 -11021.16 -11023.26 -11015.89 -10991.74 -10960.57 -10927.19 -10904.82 -10895.28 -10758.88 -10491.95 -9152.89 -6952.25 -4827.82 -1907.57 -700.70 -60.48 -429.72 -1906.95 -2167.56 -2077.05 -2114.80 -2596.26 -311.31 234.93 1779.64 3529.61 5056.71 6077.14 4987.07 3299.24 1793.06 150.32 -365.66 -1176.61 -2052.98 -4284.79 -7378.13 -7369.17 -6948.45 -6890.93 -6904.75 -6944.36 -6952.11 -6955.40 -6945.55 -6932.91 -6916.88 -6915.56 -6913.90 -6912.73 -6911.82 -6912.15 -6914.22 -6915.70 -6914.67 -6913.86 -6912.83 -6928.51 -7259.70 -8478.95 -8846.48 -8916.70 -8915.68 -8914.97 -8914.31 -8913.51 -8912.47 -8912.54
-12430.56 -12432.13 -12439.55 -12450.72 -12461.80 -12472.58 -12492.59 -12510.58 -12545.27 -12565.19 -12575.70 -12581.13 -12586.05 -12587.78 -12573.53 -12516.74 -12391.46 -12113.41 -11661.24 -11236.66 -10993.55 -10925.60 -10892.18 -10882.47 -10879.67 -10877.39 -10871.47 -10865.67 -10857.70 -10852.24 -10845.38 -10836.83 -10831.97 -10827.76 -10825.18 -10830.48 -10837.75 -10843.23 -10852.33 -10860.66 -10869.14 -10883.98 -10891.21 -10903.36 -10916.28 -10925.80 -10933.34 -10940.08 -10945.62 -10946.48 -10944.95 -10945.00 -10943.89 -10940.67 -10938.68 -10936.30 -10938.30 -10939.07 -10938.70 -10938.60 -10939.95 -10943.14 -10952.72 -10972.53 -10979.34 -10991.45 -10999.73 -11010.12 -11016.17 -11021.14 -11021.39 -11023.58 -11025.97 -11027.44 -11019.22 -11021.25 -11000.36 -10959.33 -10932.51 -10898.44 -10810.09 -10378.42 -10072.56 -8610.83 -6296.33 -4156.45 -1317.82 -214.30 15.74 -496.80 -1298.30 -1657.18 -1706.87 -1542.07 -798.14 -280.68 465.41 2219.54 3332.46 5547.81 5795.48 3715.17 2508.24 967.10 78.15 -690.73 -1230.24 -3175.52 -6183.76 -7455.86 -7320.99 -6940.01 -6872.66 -6902.22 -6939.93 -6952.22 -6955.19 -6952.25 -6932.76 -6915.92 -6913.24 -6912.48 -6911.31 -6910.36 -6910.68 -6913.93 -6914.74 -6914.14 -6912.75 -6911.57 -6943.94 -7429.55 -8348.62 -8854.92 -8915.38 -8914.89 -8913.95 -8912.87 -8912.22 -8911.21 -8911.28
-12434.13 -12434.07 -12440.76 -12450.12 -12461.62 -12470.89 -12486.82 -12499.70 -12542.63 -12554.93 -12567.34 -12574.69 -12578.49 -12582.10 -12574.63 -12552.14 -12507.40 -12363.63 -12052.55 -11560.73 -11083.83 -10939.18 -10912.10 -10882.29 -10876.44 -10874.43 -10869.88 -10865.39 -10858.78 -10853.63 -10846.19 -10839.34 -10833.54 -10830.25 -10829.08 -10832.10 -10841.98 -10845.34 -10854.83 -10860.71 -10869.89 -10882.40 -10889.15 -10901.20 -10908.29 -10920.13 -10927.27 -10935.88 -10942.50 -10942.56 -10941.90 -10942.39 -10942.14 -10940.44 -10936.71 -10936.40 -10938.33 -10938.66 -10937.64 -10936.65 -10938.41 -10940.82 -10948.01 -10965.02 -10980.34 -10986.93 -10997.31 -11008.11 -11014.95 -11021.67 -11023.23 -11026.16 -11028.29 -11030.73 -11012.15 -11009.11 -10993.52 -10964.19 -10910.43 -10834.96 -10709.30 -10265.05 -9607.26 -7948.60 -6539.51 -4407.34 -1389.23 -200.73 -137.30 -319.91 -1614.92 -1603.59 -1429.49 -1184.08 -700.12 -233.71 394.69 2277.19 3329.49 7108.73 7800.22 5392.54 1241.47 687.12 110.39 -598.31 -1640.44 -4045.92 -7453.04 -7533.80 -7220.40 -6827.60 -6853.56 -6907.21 -6942.04 -6951.57 -6954.33 -6950.94 -6929.16 -6913.91 -6911.59 -6910.30 -6910.11 -6909.06 -6909.55 -6911.70 -6913.48 -6912.54 -6911.14 -6910.77 -6946.62 -7137.26 -8084.84 -8826.88 -8914.21 -8913.29 -8912.38 -8911.81 -8910.65 -8909.94 -8910.00
-12439.36 -12439.30 -12448.14 -12452.95 -12461.42 -12469.56 -12485.79 -12504.10 -12536.90 -12549.86 -12560.56 -12562.88 -12568.33 -12571.28 -12566.09 -12556.26 -12524.92 -12448.78 -12315.77 -11865.30 -11372.01 -11090.05 -10925.87 -10889.01 -10877.18 -10872.53 -10872.32 -10868.23 -10863.24 -10854.03 -10848.78 -10841.98 -10837.48 -10834.93 -10833.75 -10840.54 -10845.83 -10854.49 -10857.47 -10865.74 -10873.13 -10883.91 -10890.43 -10898.42 -10906.26 -10915.25 -10923.84 -10933.07 -10939.04 -10940.19 -10939.58 -10940.83 -10941.07 -10939.67 -10937.39 -10935.96 -10938.56 -10939.40 -10936.89 -10935.87 -10937.39 -10939.60 -10944.72 -10961.85 -10976.71 -10983.70 -10995.03 -11005.23 -11014.80 -11020.70 -11021.45 -11026.71 -11028.71 -11026.70 -11018.78 -11014.06 -10979.72 -10875.00 -10849.92 -10763.68 -10386.06 -9587.56 -8787.74 -7872.15 -5840.44 -2840.65 -1247.46 -547.62 -839.22 -1093.78 -1608.34 -1481.26 -1221.93 -839.34 -528.32 -42.08 831.62 3475.78 5921.44 8434.71 8045.84 5522.86 3301.08 429.97 46.24 -217.15 -1590.22 -4148.11 -7205.52 -7476.94 -6969.89 -6793.78 -6843.96 -6900.40 -6940.82 -6950.15 -6950.80 -6945.19 -6926.86 -6913.11 -6911.32 -6909.98 -6909.78 -6909.07 -6908.34 -6911.10 -6912.37 -6910.93 -6910.07 -6907.70 -6932.13 -7180.95 -8290.03 -8827.45 -8912.54 -8912.71 -8911.36 -8910.36 -8909.73 -8908.62 -8908.68
-12448.72 -12451.52 -12455.48 -12460.87 -12466.98 -12473.88 -12489.51 -12502.53 -12526.95 -12541.21 -12548.89 -12551.91 -12553.49 -12554.37 -12555.08 -12554.16 -12548.48 -12526.60 -12460.55 -12195.65 -11740.07 -11194.50 -11033.55 -10937.02 -10890.37 -10881.26 -10882.71 -10877.19 -10872.42 -10861.07 -10860.55 -10856.17 -10849.10 -10847.19 -10853.12 -10854.22 -10862.73 -10867.56 -10874.42 -10884.85 -10897.43 -10897.50 -10900.12 -10895.65 -10904.11 -10912.98 -10918.96 -10926.79 -10933.41 -10936.49 -10939.02 -10940.80 -10941.27 -10940.84 -10938.59 -10938.66 -10941.81 -10942.69 -10939.82 -10937.92 -10938.68 -10940.43 -10946.90 -10955.07 -10967.08 -10974.80 -10983.55 -10989.54 -11002.72 -11012.74 -11017.45 -11019.28 -11019.10 -11017.95 -11021.55 -11026.12 -10821.22 -10564.40 -10346.88 -9998.48 -9188.74 -8872.01 -8143.31 -6916.32 -4155.99 -2761.88 -1189.95 -781.74 -1230.03 -1548.37 -1534.94 -1378.91 -926.25 -593.87 -326.31 75.98 1245.79 2643.53 4985.70 8497.01 7558.20 5390.38 2980.30 356.97 110.78 -323.48 -1376.80 -3735.62 -6705.89 -7459.49 -7086.07 -6795.16 -6845.09 -6893.82 -6931.27 -6941.34 -6942.90 -6937.73 -6929.05 -6921.92 -6919.05 -6915.35 -6916.95 -6919.04 -6915.42 -6906.93 -6905.01 -6904.06 -6903.87 -6903.53 -6935.46 -7065.29 -8413.85 -8832.94 -8911.57 -8910.78 -8909.60 -8908.82 -8908.09 -8907.28 -8907.33
-12461.58 -12461.58 -12463.30 -12468.33 -12476.70 -12483.32 -12491.03 -12498.96 -12529.23 -12533.09 -12538.21 -12542.70 -12545.31 -12547.51 -12547.21 -12546.28 -12547.05 -12538.32 -12506.56 -12394.32 -12117.16 -11509.86 -11177.67 -11011.40 -10916.95 -10901.06 -10895.85 -10891.16 -10874.71 -10873.44 -10867.71 -10865.15 -10864.66 -10863.35 -10861.97 -10876.86 -10887.02 -10895.27 -10897.50 -10902.29 -10912.49 -10911.38 -10906.20 -10896.61 -10902.10 -10905.95 -10915.30 -10923.41 -10927.25 -10934.65 -10938.61 -10941.74 -10942.95 -10942.38 -10940.15 -10940.66 -10944.80 -10945.74 -10944.47 -10943.14 -10942.06 -10943.34 -10943.68 -10945.55 -10949.26 -10963.42 -10971.95 -10982.31 -10992.00 -10997.36 -10994.44 -11003.88 -11007.49 -11016.30 -11019.27 -11003.05 -10699.49 -10158.76 -9814.62 -9320.63 -8580.07 -7999.94 -7384.26 -5140.52 -2683.16 -1549.98 -1194.09 -1227.28 -1375.34 -1367.71 -1376.90 -1045.73 -708.16 -555.83 -145.36 120.51 1486.08 2255.53 4320.72 7506.87 8480.70 5059.65 3380.32 426.14 -35.95 -453.50 -930.94 -3557.54 -6252.43 -7304.08 -7120.96 -6794.28 -6804.94 -6868.72 -6914.98 -6930.86 -6933.46 -6931.81 -6930.56 -6927.89 -6930.25 -6929.06 -6928.35 -6928.31 -6919.53 -6907.93 -6899.22 -6897.51 -6898.01 -6895.41 -6932.51 -7140.29 -8445.41 -8888.88 -8910.24 -8909.03 -8908.43 -8907.74 -8907.07 -8905.88 -8905.95
-12469.16 -12470.10 -12472.14 -12475.79 -12480.43 -12485.97 -12492.79 -12506.07 -12521.81 -12528.48 -12532.23 -12534.67 -12536.94 -12539.28 -12541.51 -12540.86 -12541.64 -12539.12 -12532.52 -12472.15 -12347.18 -11851.11 -11445.14 -11061.46 -10922.58 -10899.18 -10894.18 -10890.61 -10880.12 -10872.04 -10869.22 -10867.97 -10867.83 -10868.86 -10869.50 -10883.53 -10892.52 -10900.24 -10906.30 -10915.24 -10921.49 -10925.10 -10909.80 -10899.52 -10903.96 -10909.31 -10917.43 -10919.81 -10929.28 -10935.39 -10939.31 -10942.05 -10942.46 -10942.18 -10940.45 -10941.43 -10945.89 -10946.61 -10944.61 -10941.93 -10940.05 -10941.01 -10940.99 -10940.55 -10943.86 -10951.30 -10961.53 -10969.85 -10981.91 -10990.75 -10990.28 -10998.28 -11005.05 -11010.30 -11017.41 -10949.62 -10701.21 -9927.35 -9399.75 -8712.49 -8120.10 -7577.15 -6839.71 -4236.32 -2304.15 -1540.41 -1396.36 -1362.51 -1355.35 -1283.11 -834.60 -691.13 -486.68 -206.16 -18.10 197.42 1185.03 3743.54 4068.72 7741.96 8507.90 5691.12 3367.52 1488.10 -59.78 -453.47 -1066.47 -2717.98 -5811.09 -7401.69 -7118.04 -6927.99 -6810.77 -6871.89 -6901.14 -6915.23 -6926.01 -6927.78 -6929.37 -6929.08 -6929.27 -6928.88 -6928.53 -6927.96 -6923.42 -6903.93 -6898.08 -6894.27 -6893.79 -6893.24 -6893.55 -7468.09 -8084.16 -8861.31 -8908.85 -8908.13 -8907.29 -8906.51 -8905.60 -8904.49 -8904.55
-12476.16 -12476.10 -12476.04 -12479.65 -12483.17 -12489.04 -12495.23 -12504.43 -12522.09 -12525.76 -12529.43 -12531.79 -12533.14 -12534.43 -12534.25 -12533.63 -12537.33 -12536.81 -12535.10 -12518.91 -12442.68 -12178.50 -11881.72 -11227.17 -10997.46 -10914.30 -10891.47 -10888.42 -10875.85 -10870.70 -10868.02 -10867.10 -10866.74 -10867.41 -10868.28 -10866.47 -10869.79 -10891.82 -10898.71 -10910.50 -10918.67 -10928.27 -10914.57 -10904.17 -10908.30 -10914.07 -10919.69 -10924.49 -10927.88 -10936.26 -10939.45 -10941.01 -10942.04 -10941.04 -10939.41 -10939.67 -10943.97 -10944.64 -10942.59 -10937.94 -10936.65 -10935.59 -10934.88 -10930.93 -10935.41 -10942.39 -10953.89 -10962.49 -10972.75 -10978.72 -10982.87 -10990.13 -10997.85 -11006.98 -11007.00 -10927.74 -10605.77 -9807.88 -9035.67 -8097.73 -7671.63 -7569.97 -6217.85 -4402.06 -2053.73 -1505.06 -1340.73 -1302.99 -1161.96 -1030.03 -660.27 -333.45 -185.43 -83.93 96.67 265.56 1218.76 3551.64 4819.84 7560.92 7409.69 5370.69 3463.83 1941.10 149.84 -248.32 -750.99 -3881.41 -5982.34 -7538.23 -7202.84 -6945.73 -6838.92 -6835.86 -6873.03 -6900.59 -6921.66 -6924.93 -6926.15 -6926.89 -6926.03 -6925.99 -6926.05 -6925.95 -6921.82 -6902.25 -6895.48 -6892.05 -6892.01 -6891.33 -6920.80 -7240.29 -8291.74 -8844.44 -8907.67 -8906.28 -8905.55 -8904.24 -8904.02 -8903.09 -8903.16
-12483.15 -12483.10 -12482.83 -12487.28 -12488.94 -12491.46 -12495.37 -12503.32 -12516.69 -12524.60 -12526.95 -12527.43 -12528.48 -12529.30 -12528.44 -12527.75 -12529.95 -12533.34 -12533.10 -12529.97 -12492.41 -12374.09 -11949.16 -11729.29 -11116.96 -10936.40 -10891.65 -10880.02 -10875.42 -10867.73 -10863.15 -10852.47 -10853.57 -10848.98 -10819.58 -10822.74 -10800.68 -10770.48 -10806.36 -10821.23 -10889.93 -10892.17 -10889.63 -10890.16 -10908.33 -10909.22 -10920.10 -10923.05 -10930.04 -10936.89 -10939.13 -10941.60 -10940.69 -10940.56 -10937.48 -10936.76 -10939.40 -10942.24 -10940.63 -10934.50 -10931.83 -10929.89 -10929.85 -10924.47 -10929.68 -10931.99 -10938.66 -10956.78 -10961.30 -10968.21 -10969.06 -10984.60 -10984.16 -10996.39 -10998.91 -10915.23 -10455.54 -9727.45 -8329.12 -7917.96 -7513.46 -7058.27 -6707.16 -3987.12 -2476.24 -1466.75 -1249.95 -1085.99 -834.63 -660.62 -484.24 -159.42 -32.96 43.13 181.26 266.16 756.11 2200.65 3497.56 7906.26 6436.80 4521.54 3080.35 1333.07 208.67 -40.59 -470.74 -2720.93 -6547.92 -7201.65 -7604.65 -7250.46 -6895.39 -6835.75 -6849.99 -6879.01 -6909.80 -6919.30 -6922.07 -6922.87 -6923.04 -6923.01 -6923.72 -6922.99 -6915.98 -6905.24 -6893.18 -6890.74 -6890.49 -6889.48 -6952.69 -7166.70 -8578.53 -8789.89 -8905.62 -8905.06 -8904.49 -8903.26 -8902.52 -8901.71 -8901.75
-12491.35 -12491.30 -12495.77 -12495.94 -12494.89 -12497.10 -12499.39 -12502.82 -12517.84 -12521.47 -12522.41 -12521.99 -12522.86 -12523.88 -12523.13 -12523.79 -12525.74 -12528.03 -12531.75 -12531.33 -12525.23 -12462.64 -12254.38 -11659.76 -11120.50 -10928.17 -10879.56 -10869.01 -10833.62 -10686.97 -10711.62 -10792.35 -10716.49 -10733.38 -10693.48 -10497.38 -10196.84 -10381.46 -10370.50 -10389.35 -10607.63 -10703.09 -10748.10 -10799.45 -10798.60 -10827.56 -10851.02 -10873.38 -10912.64 -10915.43 -10934.36 -10933.71 -10936.36 -10930.04 -10934.46 -10929.03 -10938.10 -10941.00 -10936.86 -10932.71 -10928.85 -10924.80 -10918.28 -10902.14 -10898.66 -10910.82 -10918.07 -10904.53 -10917.24 -10930.50 -10766.14 -10781.22 -10850.92 -10834.87 -10829.14 -10635.93 -9984.80 -8960.25 -7657.48 -7317.88 -6577.32 -6413.57 -5199.07 -3490.49 -1727.44 -1298.06 -973.08 -881.86 -778.33 -425.90 -223.97 -3.59 118.20 155.73 211.50 275.20 851.64 2116.25 4349.46 7774.34 8569.03 6112.31 3237.14 2441.68 780.11 140.21 -669.41 -1618.19 -3218.55 -6140.41 -6876.85 -7386.03 -7232.40 -6850.52 -6831.13 -6868.82 -6897.25 -6910.24 -6919.47 -6919.91 -6920.12 -6920.65 -6921.28 -6921.22 -6916.88 -6900.45 -6892.20 -6891.20 -6889.79 -6889.49 -6932.68 -7269.53 -8334.24 -8840.77 -8904.44 -8903.64 -8902.60 -8901.84 -8901.54 -8900.27 -8900.33
-12512.54 -12515.68 -12513.87 -12513.84 -12504.92 -12509.87 -12517.19 -12513.75 -12513.01 -12509.50 -12505.05 -12506.84 -12506.41 -12503.51 -12512.14 -12525.01 -12528.02 -12531.88 -12534.06 -12534.73 -12527.84 -12467.82 -12231.55 -11869.18 -11144.27 -10824.49 -10820.72 -10802.18 -10663.86 -10425.94 -10379.66 -10504.38 -10060.48 -9946.60 -9747.39 -9390.38 -8681.15 -8522.84 -8771.03 -8964.66 -9224.43 -9020.45 -9911.15 -10525.02 -10364.33 -10650.11 -10570.19 -10597.48 -10559.41 -10802.00 -10893.73 -10901.84 -10926.13 -10910.12 -10900.11 -10909.16 -10932.97 -10942.22 -10939.01 -10931.61 -10927.33 -10920.60 -10905.32 -10809.81 -10790.27 -10782.86 -10772.25 -10795.44 -10809.48 -10754.40 -10169.45 -10227.71 -10039.16 -9946.28 -10130.35 -9825.53 -8931.99 -8101.68 -5826.79 -5050.47 -3859.34 -2815.97 -1943.31 -1628.54 -602.60 -642.08 -549.29 -449.87 -390.92 -240.54 13.46 78.94 144.42 191.26 232.30 285.92 693.72 1825.58 4793.57 7952.00 8876.82 7438.35 4374.60 3041.02 1493.96 321.36 -146.70 -766.39 -1430.51 -2501.40 -4922.36 -7072.22 -7419.18 -6959.93 -6826.01 -6849.25 -6888.92 -6906.78 -6917.76 -6921.09 -6922.44 -6923.68 -6924.61 -6922.94 -6921.14 -6906.23 -6899.73 -6901.12 -6900.56 -6901.27 -6944.09 -7240.05 -8319.89 -8826.94 -8902.96 -8902.42 -8901.17 -8900.15 -8900.18 -8898.85 -8898.92
-12539.23 -12539.17 -12533.35 -12531.62 -12534.10 -12538.33 -12533.57 -12523.87 -12504.82 -12493.19 -12493.55 -12492.80 -12491.72 -12493.62 -12504.13 -12527.31 -12531.16 -12533.36 -12538.12 -12538.77 -12522.47 -12440.61 -12241.20 -11489.26 -10809.30 -10346.49 -10515.52 -10562.34 -10258.68 -10063.12 -9872.99 -9584.75 -9403.96 -9101.58 -8605.89 -7888.92 -7392.37 -7379.10 -7496.00 -7403.40 -7677.04 -8183.41 -8388.95 -9394.03 -9605.43 -9936.77 -10379.63 -10288.49 -10375.43 -10615.77 -10862.10 -10866.01 -10858.60 -10861.20 -10863.88 -10874.32 -10921.89 -10943.19 -10939.83 -10932.55 -10927.73 -10916.66 -10897.18 -10726.13 -10655.09 -10677.55 -10664.59 -10702.92 -10624.73 -10433.44 -9754.28 -9150.57 -9128.04 -9023.84 -8655.30 -8119.27 -7416.23 -5207.06 -3150.95 -2456.83 -1435.29 -1122.96 -880.78 -208.72 -229.16 -199.88 45.79 -16.45 -63.66 49.00 94.13 142.10 197.65 221.76 244.50 287.16 572.02 1443.41 4720.62 6726.59 9187.07 9076.93 5158.41 2933.39 1005.64 422.72 246.03 -123.21 -573.40 -1474.25 -4173.97 -6384.54 -7473.98 -7084.52 -6846.30 -6815.11 -6871.27 -6893.41 -6917.04 -6921.51 -6923.69 -6924.07 -6925.52 -6926.34 -6923.55 -6914.35 -6909.65 -6909.17 -6908.63 -6909.47 -6951.32 -7364.87 -8521.58 -8768.98 -8901.29 -8900.74 -8899.89 -8899.42 -8898.70 -8897.43 -8897.50
-12544.87 -12544.59 -12543.12 -12541.77 -12540.25 -12539.92 -12539.26 -12522.01 -12500.36 -12488.61 -12487.57 -12485.86 -12484.44 -12486.11 -12504.95 -12522.15 -12526.97 -12529.28 -12531.50 -12530.78 -12509.98 -12325.17 -11663.68 -10836.57 -9847.24 -9767.01 -9721.36 -10097.83 -9852.64 -9572.11 -9358.04 -8802.39 -8354.09 -8136.32 -7845.27 -7267.75 -6896.45 -6812.88 -6904.35 -6924.23 -7071.72 -7143.92 -7673.10 -8418.70 -9048.23 -9343.99 -9805.85 -10108.77 -10247.94 -10404.96 -10698.06 -10773.46 -10833.30 -10818.43 -10841.67 -10852.05 -10909.16 -10935.93 -10934.07 -10927.70 -10922.91 -10915.65 -10892.72 -10687.92 -10625.09 -10611.17 -10610.09 -10599.38 -10571.57 -10110.81 -8872.17 -8753.27 -8578.05 -8344.10 -7863.68 -7635.70 -6018.65 -3565.78 -1981.73 -1404.23 -700.73 -352.51 -244.58 24.21 153.54 205.36 207.05 244.28 247.62 270.22 202.49 193.65 228.37 242.15 256.69 298.19 385.12 1880.25 4793.47 5919.22 7931.84 9143.12 6877.67 4162.70 2073.83 991.79 315.46 156.83 -318.82 -1917.51 -4810.55 -7026.15 -7545.29 -7222.12 -6823.96 -6803.00 -6838.75 -6888.56 -6910.58 -6918.88 -6921.58 -6921.57 -6923.08 -6925.11 -6922.30 -6915.40 -6909.68 -6909.39 -6909.40 -6909.13 -6924.42 -7585.24 -8531.43 -8814.72 -8892.17 -8899.46 -8898.49 -8897.94 -8896.62 -8896.02 -8895.83
-12547.29 -12546.64 -12544.79 -12543.02 -12541.56 -12540.34 -12537.10 -12524.45 -12505.87 -12486.19 -12483.99 -12482.25 -12480.54 -12478.95 -12496.31 -12515.73 -12517.89 -12523.34 -12525.78 -12523.28 -12488.25 -12256.65 -11299.49 -9991.22 -9191.94 -9033.43 -9286.40 -9442.70 -8938.74 -8934.11 -8917.45 -8377.94 -7643.36 -7296.78 -7268.78 -6904.45 -6183.35 -6217.23 -5900.32 -6577.08 -6535.65 -7000.66 -7423.89 -8077.35 -8381.74 -8614.12 -9350.58 -9700.03 -9787.44 -10113.50 -10409.28 -10622.21 -10607.88 -10725.76 -10792.80 -10854.68 -10874.04 -10920.61 -10917.42 -10910.40 -10906.38 -10900.17 -10874.38 -10665.84 -10588.20 -10574.41 -10449.66 -10447.81 -10386.79 -9941.68 -8806.03 -7936.33 -7623.20 -6383.28 -5312.43 -4271.90 -2361.91 -1994.72 -1220.76 -719.62 -224.81 7.70 109.87 232.62 261.29 249.59 247.19 247.90 289.19 323.60 324.31 332.94 277.70 274.85 271.76 322.75 366.21 757.48 1098.42 2993.22 4283.70 7323.43 7379.00 4728.87 4183.59 3702.44 578.77 142.64 -268.94 -1164.54 -4901.19 -6066.68 -7290.24 -7413.81 -6921.99 -6792.59 -6834.18 -6867.25 -6902.46 -6910.02 -6917.21 -6918.68 -6919.58 -6920.92 -6918.97 -6911.95 -6907.65 -6907.33 -6907.50 -6907.17 -7002.67 -7339.11 -7857.44 -8861.90 -8894.16 -8897.92 -8897.35 -8896.11 -8895.63 -8894.36 -8894.42
-12548.29 -12548.22 -12545.83 -12543.88 -12542.02 -12539.80 -12536.44 -12523.87 -12490.44 -12483.12 -12480.98 -12478.10 -12474.07 -12473.87 -12484.90 -12505.42 -12514.84 -12515.57 -12516.76 -12502.26 -12436.02 -12172.97 -11142.98 -10164.02 -8871.21 -8745.65 -8728.38 -8806.84 -8437.73 -8338.07 -8198.38 -7733.61 -6955.07 -5811.49 -4826.89 -3634.77 -4126.83 -3679.20 -3981.27 -4422.62 -5654.90 -6638.14 -7440.82 -7879.96 -8000.15 -8108.45 -8510.50 -8813.55 -9223.27 -9200.61 -9505.22 -9786.86 -10051.42 -10280.16 -10569.64 -10629.29 -10835.62 -10841.97 -10733.35 -10833.84 -10834.40 -10866.18 -10774.68 -10522.70 -10417.47 -10238.48 -10252.78 -9782.10 -9549.10 -8959.71 -7916.85 -7243.75 -7113.46 -4520.62 -3065.76 -2616.80 -1251.77 -419.86 -280.08 -42.11 88.91 140.84 200.68 210.95 226.11 232.90 200.73 219.42 259.06 290.01 318.89 352.51 324.38 296.77 283.33 340.96 375.52 477.15 684.44 2683.24 4294.18 6816.30 8122.84 7064.71 6166.82 4766.26 1940.19 467.15 -96.29 -1101.23 -2354.13 -4866.13 -6963.28 -7608.09 -6921.97 -6774.13 -6798.85 -6868.77 -6897.91 -6908.55 -6911.62 -6912.73 -6916.48 -6917.26 -6917.87 -6909.23 -6905.05 -6904.91 -6905.00 -6905.06 -6981.18 -7212.57 -8447.85 -8821.08 -8894.65 -8896.52 -8895.81 -8894.90 -8893.99 -8893.25 -8893.02
-12545.90 -12545.84 -12538.48 -12542.34 -12541.11 -12536.10 -12534.60 -12513.37 -12495.21 -12479.72 -12476.50 -12473.42 -12470.73 -12468.91 -12479.45 -12501.51 -12505.41 -12504.63 -12510.03 -12496.30 -12451.38 -12086.47 -10904.11 -9830.37 -8881.68 -8773.04 -8781.11 -8660.23 -8220.80 -7850.29 -7807.06 -7576.15 -5413.86 -3308.60 -2677.71 -2096.56 -1401.41 -1056.90 -1398.92 -1765.00 -1891.00 -5122.17 -7144.32 -7882.30 -7288.31 -7927.15 -7942.07 -7895.50 -8157.82 -8248.21 -8615.01 -8843.93 -9163.21 -9440.34 -9725.09 -10275.70 -10358.21 -10502.37 -10497.00 -10586.88 -10478.79 -9962.79 -10263.52 -10071.37 -9799.71 -9525.71 -9690.24 -8924.32 -8984.20 -8229.10 -6575.79 -4915.33 -2792.11 -2214.43 -1720.56 -1171.01 -295.28 -19.29 80.89 140.54 152.93 171.12 173.82 164.33 168.76 182.11 162.81 158.40 214.73 264.52 297.74 318.21 307.62 301.80 294.39 351.70 388.30 404.04 737.45 2565.45 5878.80 6039.45 8206.41 8252.84 7365.73 4976.95 2280.15 1028.90 223.78 -305.76 -939.54 -2787.88 -6889.91 -7615.05 -7143.19 -6839.24 -6802.18 -6853.30 -6887.04 -6902.25 -6906.09 -6909.33 -6910.61 -6913.76 -6912.58 -6906.06 -6900.98 -6901.53 -6902.16 -6901.21 -6961.43 -7393.77 -8394.78 -8841.38 -8892.82 -8895.20 -8894.65 -8894.01 -8892.95 -8891.55 -8891.61
-12524.49 -12524.45 -12518.56 -12525.54 -12518.56 -12516.18 -12514.07 -12501.16 -12485.96 -12477.85 -12474.51 -12469.88 -12466.78 -12466.14 -12476.99 -12496.83 -12499.51 -12500.37 -12501.45 -12490.72 -12433.22 -12132.77 -10893.64 -10056.91 -9108.98 -9131.09 -9255.17 -9066.57 -8068.27 -7453.22 -7059.73 -6380.83 -5333.36 -1532.18 -806.49 -132.83 -160.94 67.26 92.94 -251.34 -247.67 -711.71 -4384.47 -5167.43 -5039.61 -5827.67 -5342.06 -6039.10 -5865.25 -6893.55 -7320.42 -6941.17 -6800.15 -8217.37 -7643.92 -7715.99 -8254.95 -8742.96 -8625.78 -8762.42 -8330.21 -8872.91 -8372.97 -8619.26 -8121.78 -7412.87 -6987.37 -7267.96 -6687.52 -6184.13 -3934.68 -2105.94 -1355.48 -1202.75 -505.69 -28.48 174.63 221.47 204.35 163.25 139.65 147.27 141.00 135.35 132.02 139.38 141.88 147.80 170.40 220.21 268.21 291.25 294.35 300.13 318.73 364.45 390.49 406.08 693.75 1201.29 3689.29 4870.38 6816.41 8141.03 8289.30 5872.66 3489.96 1775.74 936.24 7.95 -905.63 -3105.99 -5749.76 -7562.70 -7296.30 -6829.68 -6792.85 -6824.66 -6866.66 -6888.54 -6894.07 -6900.24 -6900.34 -6900.77 -6901.55 -6894.53 -6887.50 -6889.03 -6892.72 -6893.80 -6941.47 -7242.33 -8192.32 -8840.17 -8887.19 -8893.67 -8893.10 -8891.75 -8891.00 -8890.15 -8890.22
-12510.09 -12510.13 -12508.40 -12507.04 -12504.65 -12502.62 -12496.94 -12487.75 -12481.85 -12475.24 -12471.18 -12467.39 -12463.86 -12461.78 -12468.32 -12484.31 -12490.11 -12490.60 -12490.58 -12485.02 -12430.48 -12280.05 -11477.72 -10458.03 -10386.90 -10021.71 -10330.74 -10266.87 -8097.86 -7120.28 -6264.72 -4683.04 -3205.45 -866.58 -129.22 228.57 318.95 306.63 323.62 315.16 316.54 222.81 -1030.26 -1303.21 -1215.46 -2699.55 -3119.39 -3445.03 -3722.88 -5092.15 -5506.07 -5712.06 -6002.57 -5967.83 -6159.51 -6522.24 -6552.20 -6520.24 -6707.43 -6466.92 -6464.14 -6656.86 -6388.54 -6740.09 -6285.27 -5923.77 -6076.32 -5260.76 -5172.44 -3880.11 -2009.71 -891.26 -575.77 -141.14 149.32 256.53 276.15 257.48 220.72 152.37 119.68 123.08 121.04 127.06 126.66 141.66 138.95 140.38 158.61 189.77 208.71 271.23 280.78 311.11 332.25 356.20 371.35 408.89 460.02 946.22 1697.64 3240.67 4700.15 6842.64 8558.93 7246.57 5749.61 3500.38 2158.73 272.86 -528.01 -3018.58 -6046.03 -7860.87 -7447.17 -6898.86 -6776.76 -6812.23 -6839.67 -6871.12 -6880.78 -6888.69 -6891.43 -6893.91 -6894.16 -6887.26 -6880.40 -6879.57 -6879.88 -6879.96 -6901.70 -7177.25 -8436.80 -8790.87 -8892.90 -8892.08 -8891.75 -8890.50 -8889.38 -8888.78 -8888.84
-12506.63 -12506.33 -12504.42 -12500.56 -12499.92 -12494.61 -12490.81 -12486.18 -12478.59 -12475.02 -12468.25 -12464.73 -12461.21 -12458.27 -12468.50 -12481.53 -12485.34 -12485.83 -12483.76 -12482.07 -12454.16 -12342.13 -11961.49 -11620.71 -11518.44 -11780.38 -11699.00 -11113.26 -8824.76 -6974.23 -6208.35 -4213.01 -2155.51 -906.27 -60.44 191.77 337.16 453.30 471.24 362.08 331.75 277.53 263.23 258.73 246.59 92.19 -142.97 -213.35 -479.69 -1820.43 -3342.74 -3628.32 -4963.64 -6011.54 -6034.17 -6041.99 -6127.24 -6045.89 -5907.99 -5914.31 -5865.32 -5865.90 -5892.30 -5881.09 -5485.69 -4512.32 -4638.82 -3955.91 -2824.04 -1814.03 -969.71 -293.35 -25.79 245.74 298.32 340.89 308.06 257.78 194.56 122.29 122.59 121.95 120.90 131.55 140.02 146.50 149.32 151.45 158.65 177.07 204.86 240.12 269.57 295.49 323.28 347.74 371.23 399.82 408.01 728.76 1636.99 2280.45 3960.34 6041.07 7332.89 8298.27 5990.33 4162.34 3405.60 324.87 -1486.57 -5090.52 -6569.70 -7724.47 -7416.22 -7095.87 -6839.85 -6785.75 -6819.07 -6856.39 -6873.96 -6879.87 -6884.71 -6888.53 -6890.02 -6877.68 -6873.80 -6874.89 -6876.18 -6876.90 -6894.37 -7154.69 -8324.18 -8851.45 -8891.73 -8891.18 -8890.03 -8889.41 -8888.47 -8887.70 -8887.47
-12503.01 -12502.89 -12500.69 -12498.71 -12495.11 -12492.12 -12488.98 -12483.76 -12473.65 -12470.35 -12465.09 -12461.70 -12457.08 -12455.13 -12462.78 -12480.61 -12482.09 -12479.15 -12479.07 -12476.50 -12467.62 -12449.92 -12395.22 -12298.88 -12310.03 -12340.51 -12159.47 -11826.60 -10386.64 -8178.18 -6517.60 -4539.23 -1533.51 -722.40 68.27 212.47 344.23 429.98 570.59 505.75 428.55 337.32 369.08 327.92 311.77 293.18 259.89 256.17 39.50 -327.29 -459.96 -646.05 -1845.63 -3630.04 -3600.43 -3942.82 -5551.07 -5951.42 -5516.57 -5642.66 -5606.09 -5711.47 -5709.97 -4714.35 -4387.17 -2786.48 -2026.63 -1672.67 -1269.65 -864.26 -441.85 112.14 247.65 309.86 337.63 366.82 324.91 259.02 174.60 133.38 124.58 132.09 139.01 129.00 138.30 145.80 143.06 148.14 156.15 168.42 203.77 235.62 254.12 285.28 320.13 346.67 369.30 386.63 396.50 403.10 1089.64 1705.64 3185.30 4802.84 6035.83 8052.81 7158.82 6306.40 5801.99 291.04 84.47 -1656.53 -3300.64 -5606.16 -7415.64 -7158.79 -6925.41 -6777.59 -6804.65 -6848.17 -6863.49 -6874.99 -6881.22 -6884.08 -6884.57 -6875.11 -6872.00 -6872.62 -6874.79 -6875.27 -6894.66 -7301.89 -8320.00 -8813.24 -8890.23 -8889.69 -8889.01 -8888.29 -8886.97 -8886.32 -8886.10
-12497.86 -12497.80 -12494.50 -12493.11 -12492.02 -12487.51 -12484.92 -12480.67 -12471.24 -12467.14 -12464.29 -12458.89 -12454.98 -12453.48 -12460.75 -12475.90 -12478.25 -12474.50 -12474.28 -12472.37 -12469.44 -12460.23 -12437.16 -12449.07 -12445.20 -12444.82 -12443.33 -12161.05 -10991.81 -9540.73 -7481.00 -5129.19 -1380.48 -400.31 105.16 239.65 313.85 385.80 513.18 576.89 514.33 365.26 459.79 376.45 340.87 340.06 361.44 418.93 318.69 262.91 194.92 -73.58 -250.68 -834.93 -1596.11 -2428.37 -3504.87 -4288.23 -4173.06 -4462.23 -4520.98 -4314.31 -3180.48 -2710.73 -2485.96 -1285.59 -1402.06 -1222.82 -623.48 -253.59 94.48 276.58 389.91 382.18 341.74 304.37 296.53 250.18 156.51 142.87 126.42 134.00 144.41 130.93 128.43 137.12 137.66 142.65 149.49 166.48 194.48 228.11 247.38 279.99 309.68 336.20 366.87 378.40 390.32 397.55 502.50 1155.74 2129.94 3798.68 5629.29 7210.97 8548.89 7590.13 5150.17 2441.13 747.54 -101.91 -1077.38 -3644.56 -7736.65 -7703.94 -6979.52 -6765.32 -6786.21 -6832.78 -6854.05 -6873.48 -6877.45 -6882.20 -6882.27 -6871.62 -6868.84 -6869.67 -6871.56 -6872.93 -6877.83 -7209.25 -8289.10 -8813.82 -8888.88 -8888.16 -8887.26 -8886.65 -8885.35 -8884.66 -8884.73
-12490.67 -12491.04 -12489.13 -12486.62 -12482.65 -12484.08 -12478.36 -12476.37 -12471.04 -12466.35 -12465.14 -12461.49 -12455.97 -12453.95 -12458.13 -12471.69 -12470.30 -12469.68 -12467.51 -12465.40 -12459.40 -12456.04 -12410.98 -12376.17 -12381.50 -12413.05 -12416.58 -12283.31 -11258.14 -9802.85 -7254.87 -3701.89 -1051.59 -40.22 156.12 257.82 294.74 366.89 462.73 572.21 521.52 450.67 511.61 526.22 470.58 465.84 603.19 616.85 437.91 278.94 261.59 192.13 190.79 18.37 -47.39 -816.95 -878.94 -1734.09 -1505.89 -1292.09 -2708.25 -2267.80 -1072.08 -1132.51 -596.49 -948.08 -950.51 -743.05 -386.10 0.21 275.39 385.85 383.85 345.29 266.29 267.13 243.05 214.34 170.13 150.28 150.33 147.62 127.16 127.23 127.97 130.13 136.12 141.06 151.00 172.55 199.19 226.02 245.92 265.96 266.93 316.82 353.23 369.34 381.34 393.33 391.76 483.05 857.74 3222.21 4564.90 6621.77 8008.37 8350.96 6493.96 2461.91 830.54 -15.66 -783.81 -2958.27 -6082.65 -7421.72 -7165.30 -6833.85 -6781.69 -6811.02 -6848.97 -6867.60 -6876.25 -6879.89 -6878.95 -6873.19 -6872.16 -6871.07 -6875.26 -6877.18 -6919.05 -7096.15 -8327.10 -8791.07 -8887.17 -8886.75 -8886.22 -8885.24 -8884.52 -8883.58 -8883.35
-12476.52 -12476.46 -12473.68 -12475.32 -12475.67 -12472.39 -12471.87 -12473.93 -12482.12 -12486.82 -12477.17 -12474.57 -12474.69 -12468.98 -12468.02 -12463.75 -12463.38 -12459.01 -12457.33 -12452.58 -12440.30 -12307.03 -12149.84 -12074.36 -12116.54 -12219.35 -12175.75 -11893.68 -10768.35 -9656.44 -7817.82 -3996.65 -839.90 104.14 213.49 290.21 324.17 396.29 383.88 499.70 499.84 564.92 705.95 739.37 572.75 511.51 742.11 656.06 485.69 343.16 262.57 254.42 240.76 225.69 214.15 80.32 -129.04 -129.77 -235.85 -376.43 -469.57 -413.95 -318.49 -249.83 -184.65 -377.67 -472.37 -181.32 116.66 253.15 309.06 352.53 311.30 290.44 238.40 218.82 164.02 156.09 145.17 138.38 140.55 142.36 123.32 126.21 127.26 128.34 133.38 138.24 152.53 172.39 197.79 223.90 232.37 251.43 256.52 279.27 333.52 359.50 368.96 376.17 383.83 389.61 793.98 1582.47 3723.39 5464.19 6119.84 7766.20 6447.54 4308.62 836.04 186.20 -741.89 -2079.15 -5198.63 -7392.74 -7345.14 -6894.29 -6771.92 -6817.12 -6846.79 -6870.22 -6878.23 -6883.74 -6885.91 -6889.22 -6881.85 -6887.64 -6891.04 -6886.56 -6921.83 -7284.06 -8293.97 -8843.16 -8885.76 -8885.78 -8884.54 -8884.10 -8882.79 -8881.92 -8881.99
-12464.71 -12464.65 -12463.17 -12462.53 -12460.99 -12460.04 -12459.12 -12471.12 -12494.79 -12496.20 -12493.80 -12490.40 -12489.30 -12484.29 -12474.40 -12461.23 -12454.30 -12449.94 -12444.07 -12441.97 -12413.50 -12187.18 -11928.73 -11884.77 -11881.52 -11906.76 -11846.45 -11770.24 -10909.48 -9615.41 -7979.08 -3040.13 146.00 208.53 264.73 285.27 355.70 555.41 608.18 631.99 715.41 652.85 809.70 852.82 723.28 789.33 830.13 717.85 534.09 338.05 275.08 261.29 251.82 246.79 238.87 220.18 71.90 26.97 -46.67 -21.84 -43.24 -52.74 -3.71 -3.47 22.88 120.09 112.00 142.37 272.71 325.38 302.52 309.71 263.60 195.09 102.89 105.04 115.66 123.57 131.84 129.87 121.24 123.07 124.24 125.77 127.71 129.77 133.19 140.37 154.15 175.70 196.16 209.54 219.52 250.48 250.55 253.06 319.60 340.09 349.87 356.55 376.78 379.54 456.89 885.43 3334.71 4252.43 5216.85 7103.19 6513.62 5859.52 3343.36 329.61 -284.23 -914.51 -4043.72 -6609.17 -7385.53 -6919.48 -6759.86 -6806.39 -6845.43 -6876.49 -6879.16 -6886.65 -6891.43 -6894.96 -6899.47 -6902.20 -6905.39 -6907.39 -6944.79 -7365.15 -8670.98 -8825.93 -8884.52 -8884.13 -8883.94 -8882.61 -8881.57 -8880.57 -8880.64
-12455.01 -12454.95 -12452.71 -12453.68 -12455.27 -12454.99 -12453.99 -12465.97 -12492.44 -12493.61 -12492.31 -12490.90 -12487.94 -12484.13 -12475.02 -12458.12 -12451.00 -12447.36 -12444.00 -12436.36 -12416.73 -12164.25 -11954.58 -11864.05 -11860.95 -11853.82 -11819.94 -11423.56 -10882.97 -8179.72 -5060.84 -857.02 168.00 250.67 273.66 336.18 424.84 581.47 661.16 635.07 685.36 744.48 818.65 865.95 854.90 799.64 716.71 688.35 566.13 400.95 298.47 283.60 264.93 252.15 248.71 239.63 223.31 194.71 123.79 138.25 160.00 157.26 144.94 153.83 219.20 215.14 249.27 288.55 312.31 281.84 246.82 178.32 106.12 132.72 106.65 113.42 111.42 112.94 120.42 123.23 123.40 124.15 124.64 125.62 128.22 131.92 137.98 143.82 162.48 173.33 190.47 208.00 222.93 245.61 245.87 257.43 290.27 326.94 340.99 353.31 362.66 369.52 370.02 480.48 2570.33 4560.69 6082.18 7184.43 6120.89 3272.88 1909.23 317.29 106.52 -858.69 -3404.48 -5502.76 -7532.34 -6829.18 -6741.48 -6786.50 -6826.06 -6867.15 -6881.05 -6885.32 -6890.55 -6893.76 -6898.46 -6901.85 -6904.44 -6906.69 -6940.38 -7394.85 -8528.84 -8816.42 -8883.35 -8882.70 -8882.22 -8881.29 -8880.03 -8879.25 -8879.32
-12444.76 -12445.58 -12445.80 -12445.73 -12445.79 -12446.30 -12448.75 -12455.49 -12482.12 -12489.83 -12489.31 -12487.41 -12485.69 -12483.48 -12471.30 -12458.68 -12450.24 -12447.55 -12445.66 -12444.82 -12420.83 -12182.35 -11976.03 -11856.64 -11849.56 -11776.19 -11617.36 -10522.46 -9268.56 -6380.34 -1724.63 -620.84 170.81 263.52 279.75 329.38 393.90 473.71 554.72 505.33 591.50 728.47 783.38 862.16 878.96 825.04 694.72 640.67 481.01 356.47 324.81 308.47 292.00 258.99 252.35 251.04 250.11 240.49 237.26 219.82 231.06 248.28 267.60 264.21 278.08 278.08 284.22 276.81 242.32 207.49 137.82 116.53 123.30 119.12 117.50 119.53 116.43 117.77 121.75 123.62 124.51 123.93 124.50 124.35 128.45 132.88 140.09 147.25 162.63 177.96 191.99 207.59 221.86 237.03 237.80 240.60 282.09 298.99 323.25 343.20 354.00 354.79 378.24 540.83 979.54 3206.51 5151.92 8179.52 8018.34 3970.69 1863.24 716.27 141.84 -2048.31 -4962.04 -7493.15 -7532.19 -6953.80 -6732.11 -6770.91 -6823.00 -6864.22 -6872.25 -6883.09 -6886.58 -6892.73 -6895.37 -6899.90 -6902.22 -6904.89 -6937.08 -7039.38 -8215.83 -8842.26 -8881.81 -8881.55 -8880.85 -8879.96 -8879.31 -8878.21 -8878.01
-12433.87 -12433.81 -12433.69 -12436.36 -12437.59 -12437.67 -12438.64 -12449.57 -12472.63 -12483.94 -12483.40 -12484.01 -12481.80 -12478.00 -12465.76 -12458.58 -12452.31 -12450.22 -12450.13 -12449.55 -12430.90 -12240.59 -11942.14 -11848.55 -11721.33 -11645.00 -11354.92 -10092.05 -7818.94 -3063.59 -1070.75 -123.72 269.13 284.25 284.62 376.34 423.35 542.77 503.58 585.11 567.89 610.02 711.18 812.05 871.00 838.85 857.19 732.03 593.52 476.79 358.22 329.52 318.15 304.35 284.22 267.42 263.09 255.57 263.42 282.55 303.20 311.83 306.03 313.76 306.77 290.59 278.01 230.14 194.61 135.29 97.12 121.19 123.38 123.91 118.68 119.50 117.96 120.31 122.12 122.26 122.62 122.28 122.72 125.54 128.15 128.77 130.59 141.28 170.82 189.77 199.60 215.55 227.88 232.97 235.07 242.94 262.12 289.64 319.58 333.14 343.60 345.61 374.66 449.78 712.08 2650.73 4679.47 7267.03 7372.70 4200.05 3221.74 1210.73 165.82 -1595.39 -4842.81 -7984.93 -7788.74 -6986.00 -6738.77 -6748.84 -6817.96 -6852.90 -6873.67 -6879.66 -6883.52 -6891.15 -6894.65 -6897.47 -6900.49 -6902.16 -6939.63 -7172.96 -8333.05 -8819.53 -8880.80 -8880.45 -8879.92 -8879.00 -8877.63 -8876.64 -8876.71
-12422.80 -12422.74 -12421.45 -12425.10 -12425.98 -12428.99 -12428.49 -12443.49 -12461.80 -12465.18 -12468.58 -12474.89 -12476.50 -12476.09 -12467.27 -12453.84 -12454.17 -12454.17 -12454.88 -12452.37 -12421.51 -12169.47 -11567.26 -11608.53 -11277.51 -10587.87 -10144.65 -9034.71 -5655.94 -1727.22 -459.98 63.13 278.93 285.67 307.45 368.67 533.28 633.07 528.61 657.92 624.17 691.19 786.71 816.57 826.89 763.60 804.56 796.66 603.90 502.03 414.10 355.52 338.86 322.92 312.84 304.13 278.19 273.81 316.45 329.15 349.16 401.79 427.53 362.11 332.16 301.44 270.43 236.40 178.73 138.18 103.75 113.26 119.59 121.91 113.20 115.27 118.59 119.96 121.46 122.04 122.11 122.73 126.49 126.89 127.05 128.10 131.48 141.18 161.82 186.35 202.60 217.50 223.78 229.70 243.92 266.96 277.32 290.83 317.50 322.05 330.35 338.52 378.07 435.07 629.20 2213.36 5319.24 8138.72 8443.84 6161.32 4010.34 2602.28 114.62 -372.74 -3812.01 -6546.14 -7701.32 -7181.03 -6862.13 -6769.24 -6808.31 -6848.80 -6866.27 -6877.59 -6883.51 -6887.40 -6885.42 -6891.44 -6894.89 -6901.83 -6911.69 -7178.01 -8270.25 -8762.56 -8879.29 -8879.40 -8878.56 -8877.49 -8876.64 -8875.35 -8875.42
-12412.93 -12412.86 -12413.89 -12415.67 -12417.50 -12419.75 -12423.36 -12427.32 -12441.76 -12446.79 -12450.54 -12459.55 -12454.91 -12459.40 -12457.69 -12452.34 -12451.23 -12449.50 -12447.46 -12429.63 -12347.08 -11768.98 -10991.14 -10499.50 -9483.17 -9423.24 -7508.78 -6380.30 -2744.73 -535.39 -55.94 218.06 287.08 314.85 383.70 374.28 513.05 687.81 721.13 689.24 733.60 684.46 773.57 772.23 777.31 729.70 687.42 715.35 676.34 532.20 458.72 393.01 373.75 343.48 339.58 342.30 327.35 355.86 348.58 457.65 476.06 547.38 496.65 399.42 347.53 315.81 275.86 246.10 220.96 170.94 109.03 112.25 124.13 124.76 113.07 113.57 118.89 119.74 120.59 121.45 120.87 122.30 122.93 123.46 125.01 131.48 143.23 148.01 167.64 189.90 194.87 212.88 223.40 228.31 232.69 255.98 270.02 276.84 297.02 314.98 326.31 336.09 376.32 402.20 816.52 2134.97 3837.46 4467.60 7750.38 7075.92 5537.47 2850.67 172.75 -325.89 -2465.73 -4206.37 -7038.29 -7332.21 -6974.63 -6777.56 -6794.92 -6842.29 -6862.95 -6876.71 -6879.70 -6863.71 -6867.85 -6867.83 -6865.89 -6861.33 -6921.48 -7108.55 -8097.98 -8834.23 -8878.23 -8877.97 -8877.38 -8876.31 -8875.20 -8874.08 -8874.15
-12403.13 -12404.00 -12404.28 -12409.03 -12410.05 -12411.35 -12412.88 -12422.44 -12427.09 -12431.58 -12431.89 -12437.27 -12441.74 -12445.02 -12447.73 -12444.31 -12444.09 -12442.30 -12438.77 -12352.38 -12172.95 -11489.43 -9891.30 -8954.97 -8180.64 -6368.88 -5113.51 -3113.14 -1564.98 -479.16 29.99 303.29 388.97 445.43 487.32 505.46 537.09 670.34 818.70 796.07 755.73 780.53 770.56 739.39 711.07 673.90 626.18 624.32 642.04 547.27 442.10 411.57 386.66 375.79 382.02 373.02 407.65 422.35 442.63 582.69 633.71 611.19 516.66 401.42 342.68 314.58 288.33 250.59 225.83 191.44 116.10 108.40 119.67 118.64 113.20 113.88 116.49 118.02 123.84 124.67 123.45 125.57 122.40 122.34 125.86 134.23 148.28 154.30 173.62 187.53 198.25 208.75 219.84 225.86 233.36 260.36 272.86 272.26 277.42 296.62 314.55 334.33 368.76 416.95 437.75 1559.37 2939.79 4812.19 7317.42 6511.41 4003.65 2628.42 441.65 -59.42 -1040.00 -4901.52 -6566.98 -7518.42 -7109.30 -6779.11 -6789.10 -6840.37 -6864.44 -6872.28 -6874.52 -6858.99 -6849.72 -6852.50 -6858.53 -6859.11 -6859.68 -7284.87 -8325.71 -8784.05 -8877.43 -8877.05 -8875.99 -8875.20 -8874.17 -8872.86 -8872.93
-12394.22 -12394.15 -12395.40 -12397.88 -12397.54 -12404.83 -12406.05 -12411.06 -12418.45 -12424.52 -12429.23 -12434.65 -12439.29 -12444.38 -12444.15 -12425.86 -12421.22 -12397.35 -12203.32 -12152.65 -11684.60 -10402.44 -9051.04 -7509.81 -6078.80 -4498.73 -3184.00 -1691.94 -475.43 108.04 267.66 386.14 481.88 567.05 626.94 616.67 657.61 741.68 800.93 823.48 795.49 788.95 782.17 743.67 712.36 677.36 673.53 634.20 519.95 512.25 457.15 428.74 419.13 407.71 404.51 414.88 449.93 515.87 567.29 635.84 623.88 567.30 467.55 387.26 344.39 319.50 299.60 256.38 233.54 167.54 138.05 118.41 122.84 116.75 125.19 128.35 123.27 119.97 122.92 125.32 125.05 124.54 120.97 121.90 124.79 128.43 137.81 153.39 168.37 184.11 197.68 211.25 223.93 230.94 234.79 246.35 261.76 273.90 268.83 285.24 314.53 329.00 337.26 392.57 443.52 2458.36 4025.01 5581.92 6757.34 5282.70 3402.90 1540.91 394.29 -51.78 -1219.33 -4363.80 -6948.10 -7456.15 -7035.22 -6762.89 -6792.06 -6824.65 -6860.67 -6874.21 -6874.78 -6855.28 -6847.90 -6849.64 -6853.65 -6855.61 -6857.67 -7260.09 -8279.46 -8790.84 -8876.26 -8875.94 -8874.91 -8874.39 -8872.97 -8871.69 -8871.76
-12387.19 -12387.12 -12387.59 -12390.61 -12392.60 -12395.50 -12397.30 -12407.51 -12414.36 -12422.59 -12427.49 -12431.36 -12438.77 -12434.27 -12412.21 -12376.21 -12223.66 -12064.50 -11711.58 -11124.15 -10489.90 -9509.88 -7643.32 -6613.92 -5793.47 -3396.51 -1764.13 -461.53 182.92 255.14 290.12 331.62 455.15 531.76 622.50 689.31 707.83 822.13 843.68 869.56 810.29 792.96 773.09 747.08 721.03 728.05 701.06 613.62 557.62 522.35 512.43 486.72 441.98 426.94 458.05 503.03 512.68 596.86 684.91 654.20 584.23 500.88 437.42 387.77 358.97 320.17 306.08 261.94 231.33 151.21 92.93 123.31 128.39 126.82 132.42 132.40 132.13 126.96 124.87 124.45 124.66 125.37 122.53 122.77 125.62 128.05 136.58 152.63 170.66 183.77 193.26 212.50 225.56 235.32 238.86 241.67 247.46 252.16 264.17 285.97 308.40 316.75 338.18 370.76 430.90 1818.28 2636.37 4109.73 6820.01 6631.09 4244.36 3317.35 274.79 -101.02 -1354.04 -4094.86 -6449.11 -7516.64 -6974.70 -6773.79 -6792.62 -6827.95 -6861.55 -6873.01 -6872.92 -6858.12 -6847.11 -6849.05 -6852.78 -6855.38 -6866.85 -7193.83 -8380.21 -8829.07 -8875.33 -8874.69 -8874.20 -8872.98 -8871.86 -8870.59 -8870.67
-12382.84 -12383.08 -12383.97 -12385.76 -12388.98 -12391.19 -12396.15 -12404.18 -12413.75 -12419.87 -12425.27 -12422.06 -12405.03 -12368.83 -12321.90 -12026.35 -11667.12 -10908.71 -10383.90 -10165.87 -10040.30 -8616.44 -6726.42 -6020.05 -3762.45 -1990.10 -750.09 127.56 244.23 278.32 319.06 345.76 376.02 432.25 495.94 569.83 610.61 743.85 862.86 887.09 843.78 800.47 773.95 745.63 719.82 731.00 708.36 643.55 610.90 573.97 536.07 532.97 492.40 457.16 507.85 551.59 520.65 586.36 669.70 620.34 530.81 526.83 495.79 411.11 355.73 325.63 309.92 284.77 252.51 234.37 172.85 144.19 150.15 149.32 133.43 115.68 121.75 122.45 123.68 122.42 124.89 124.40 121.21 121.73 125.02 132.52 136.89 150.09 161.87 182.10 196.53 207.12 221.33 235.14 238.86 243.16 246.66 252.18 257.69 272.74 288.24 290.87 317.67 346.71 395.43 2971.68 4589.59 5891.04 7705.90 7001.23 3852.62 1083.62 274.79 -70.16 -1207.09 -4251.62 -6300.83 -7274.26 -6932.58 -6763.87 -6785.30 -6833.48 -6855.68 -6871.10 -6870.45 -6855.51 -6846.80 -6849.22 -6852.31 -6854.83 -6856.62 -7262.60 -8527.25 -8837.36 -8874.32 -8874.28 -8872.82 -8871.71 -8870.55 -8869.51 -8869.58
-12383.39 -12383.31 -12386.05 -12387.12 -12389.15 -12391.89 -12397.14 -12404.80 -12415.07 -12417.39 -12404.23 -12365.20 -12304.48 -12051.81 -11560.90 -11035.90 -10265.63 -9866.30 -9353.70 -9079.62 -8790.92 -8168.19 -6351.93 -5075.18 -2742.48 -1884.53 -503.30 144.01 254.69 272.30 329.75 371.12 417.51 489.69 541.24 616.96 734.45 768.32 849.52 875.87 840.06 798.43 766.25 740.04 699.72 702.90 700.74 665.43 641.43 609.81 565.61 559.46 525.18 495.03 538.36 569.09 573.95 592.93 650.54 633.31 560.81 608.80 491.25 415.47 376.71 354.56 308.44 303.50 276.76 237.73 189.70 93.46 129.03 136.86 104.78 107.28 118.20 122.08 120.49 119.56 121.19 121.63 120.42 121.51 124.50 131.49 140.33 144.86 157.43 176.85 188.59 207.37 218.59 231.28 238.32 243.47 247.35 250.62 259.51 266.37 266.90 275.54 295.65 340.66 382.49 2532.28 4042.43 6022.15 7842.24 5807.38 3700.13 2561.12 523.09 -268.79 -2483.69 -4713.62 -6891.27 -7240.26 -6819.48 -6740.75 -6769.91 -6832.13 -6854.49 -6861.51 -6868.75 -6853.83 -6848.59 -6850.97 -6854.22 -6856.96 -6891.24 -7008.34 -8568.21 -8790.53 -8873.64 -8873.08 -8872.22 -8870.91 -8870.11 -8868.60 -8868.47
-12395.19 -12395.10 -12396.43 -12396.78 -12397.59 -12401.18 -12407.97 -12414.15 -12418.70 -12399.24 -12349.41 -12140.49 -11720.12 -11533.05 -10918.29 -10113.38 -9553.23 -9010.10 -8776.01 -8729.62 -8627.02 -7973.04 -5751.61 -4066.39 -2765.20 -2096.42 -914.77 -170.70 252.82 296.84 349.72 407.07 480.72 481.05 519.67 530.11 658.86 733.52 806.78 875.02 840.02 780.83 730.96 703.12 672.49 658.47 645.91 631.53 609.77 576.03 561.34 551.40 545.06 541.52 554.34 585.43 619.53 648.28 663.53 621.00 613.30 652.67 534.30 456.55 410.81 350.34 324.38 312.45 281.58 226.92 165.39 111.73 117.77 110.82 110.93 106.30 114.09 120.82 117.34 118.94 118.49 120.60 119.76 120.59 123.61 128.65 137.58 148.72 158.84 170.54 179.20 201.30 215.61 226.58 237.80 241.81 245.72 249.97 258.50 268.09 271.79 270.37 290.98 324.76 923.97 2527.82 3967.81 6747.78 7996.04 6531.34 6077.85 4800.53 -195.90 -861.54 -3455.03 -6203.39 -7356.72 -7164.91 -6830.87 -6732.47 -6754.17 -6805.92 -6832.15 -6847.82 -6851.00 -6852.42 -6853.39 -6856.05 -6858.62 -6862.07 -6867.45 -7209.55 -8224.22 -8823.04 -8872.92 -8872.58 -8871.29 -8870.36 -8868.61 -8867.28 -8867.36
-12410.62 -12410.53 -12410.75 -12409.17 -12411.85 -12413.29 -12411.97 -12412.95 -12407.20 -12337.85 -12212.94 -11851.06 -11025.38 -10127.65 -9191.75 -9035.31 -8701.26 -8658.52 -8662.43 -8668.41 -8607.19 -7946.16 -5792.68 -3255.43 -2704.27 -2266.48 -1691.89 -603.16 105.50 295.27 336.27 413.39 499.28 576.13 519.87 622.36 729.30 722.76 803.83 876.37 844.00 770.08 712.34 681.48 645.79 648.63 625.20 602.37 586.34 567.76 554.77 549.30 547.63 545.25 563.49 591.76 617.03 671.76 714.96 657.94 693.49 680.40 618.44 519.47 445.75 457.83 410.01 354.41 309.84 236.69 153.04 151.41 128.27 135.14 130.69 103.53 113.14 115.80 116.32 117.91 118.92 118.35 118.78 119.62 128.47 133.25 139.56 149.37 162.42 171.81 186.24 199.34 212.70 221.82 233.28 240.79 245.67 252.00 257.45 272.84 275.83 276.03 284.45 394.71 1740.92 2578.67 4987.90 7376.41 7063.92 5086.16 4620.12 1670.20 -404.45 -918.92 -2614.27 -5588.85 -6445.59 -7159.86 -6924.26 -6736.43 -6749.46 -6802.64 -6824.91 -6839.38 -6844.35 -6850.70 -6854.79 -6858.47 -6862.28 -6864.75 -6883.90 -7284.49 -8367.14 -8825.64 -8872.23 -8871.44 -8870.27 -8869.32 -8867.72 -8866.26 -8866.34
-12425.85 -12425.47 -12423.02 -12410.44 -12405.18 -12398.42 -12338.86 -12330.51 -12257.30 -12152.59 -11868.73 -11318.95 -9906.51 -9172.10 -8532.84 -8187.69 -8245.57 -8435.65 -8563.94 -8634.96 -8583.73 -7701.32 -6262.28 -3280.59 -2615.16 -2113.82 -1465.58 -280.75 237.29 297.98 304.82 357.10 487.77 678.74 672.49 672.57 806.64 824.43 858.95 878.89 832.89 801.66 723.26 652.41 635.55 609.53 592.04 593.43 573.30 552.96 545.56 540.05 537.38 549.52 558.63 581.35 620.27 684.50 743.14 727.40 784.77 835.12 705.15 674.96 611.38 611.16 542.32 528.74 384.46 273.44 216.56 206.13 168.20 139.66 138.53 122.55 137.16 122.54 119.31 119.55 119.44 118.51 117.50 122.55 129.84 138.06 142.82 151.21 157.10 168.68 180.28 196.16 207.90 218.60 229.47 236.26 242.81 250.34 254.57 269.25 276.62 279.54 285.42 680.22 1562.32 3179.32 5678.83 7595.82 6125.63 3487.96 1121.69 625.72 40.93 -935.90 -2167.01 -4252.67 -6451.71 -7148.79 -6923.21 -6727.35 -6757.19 -6788.83 -6820.97 -6836.61 -6842.79 -6850.12 -6855.90 -6859.48 -6862.47 -6864.46 -6922.35 -7216.15 -8236.47 -8806.32 -8871.42 -8870.64 -8869.96 -8868.23 -8866.60 -8865.35 -8865.43
-12411.69 -12411.62 -12393.15 -12348.39 -12314.25 -12265.88 -12104.67 -12035.45 -11930.46 -11295.85 -10610.07 -9971.90 -9064.80 -7928.36 -7673.62 -7578.74 -7749.00 -8004.08 -8385.63 -8483.25 -8382.39 -6867.00 -5082.21 -3288.84 -2764.38 -2164.75 -1779.86 -934.71 138.69 286.36 322.32 406.48 511.42 645.33 718.18 697.10 756.67 837.50 896.86 889.46 831.47 699.96 644.00 659.62 621.78 572.19 574.17 568.52 548.21 539.15 523.77 526.72 533.52 542.44 558.68 573.76 631.90 710.92 789.01 835.37 848.08 852.08 761.43 696.30 703.63 670.17 608.29 481.30 391.92 301.88 275.11 247.17 205.04 160.85 145.92 138.18 141.36 118.44 119.39 120.18 120.04 117.15 115.53 120.04 128.06 140.13 148.18 154.48 162.35 170.78 182.39 196.02 209.48 222.02 230.87 238.23 243.75 245.27 249.50 267.62 279.71 285.41 447.14 855.06 2163.44 2811.28 4810.27 6788.06 4690.31 3416.46 2137.84 375.48 -3.81 -630.76 -2249.05 -3834.98 -6601.35 -7228.65 -6935.43 -6732.06 -6760.53 -6796.16 -6824.19 -6834.64 -6840.83 -6850.99 -6854.57 -6859.40 -6862.49 -6864.53 -6901.43 -7339.49 -8394.31 -8837.81 -8870.86 -8870.34 -8868.50 -8867.62 -8865.59 -8864.51 -8864.59
-12239.62 -12240.57 -12117.83 -11818.05 -11737.69 -11705.63 -11408.95 -10849.01 -10564.11 -9973.49 -9036.70 -8061.55 -7886.38 -7500.14 -7209.65 -7316.82 -7394.34 -7559.47 -7842.01 -7974.84 -8230.59 -7070.45 -6120.23 -4089.56 -3278.84 -2199.78 -1643.19 -1096.09 -53.79 269.40 351.32 471.31 588.05 692.77 677.13 659.92 713.22 800.22 852.54 849.69 823.70 749.93 625.68 585.01 585.10 556.87 539.46 535.94 533.09 501.37 504.35 513.10 526.97 535.06 547.58 554.02 617.88 710.55 807.12 833.57 857.68 824.39 705.79 636.63 609.18 592.35 500.03 402.97 344.75 306.54 290.12 254.93 228.20 185.62 135.03 120.38 127.46 120.51 117.11 119.34 118.30 114.89 114.01 115.89 127.20 140.74 152.50 159.19 167.70 176.90 186.65 201.55 211.75 221.30 227.81 233.65 241.22 245.19 249.86 264.71 278.10 352.15 561.95 2338.92 3575.48 4269.60 6052.49 6562.99 6673.80 4687.03 2114.86 352.38 -84.51 -981.93 -2591.44 -4278.64 -6714.13 -7156.43 -6810.48 -6735.28 -6754.21 -6800.44 -6819.06 -6831.84 -6840.70 -6849.51 -6855.05 -6858.76 -6862.07 -6864.71 -6869.76 -7275.36 -8357.58 -8740.41 -8870.13 -8869.34 -8868.00 -8866.59 -8865.25 -8863.69 -8863.77
-11354.35 -11355.30 -10878.14 -10802.07 -10603.34 -10075.66 -9782.62 -9150.37 -8528.72 -8016.15 -7927.23 -7563.45 -7296.58 -7131.30 -7078.52 -7118.04 -7183.98 -7316.86 -7497.20 -7574.46 -7686.62 -7507.45 -6562.92 -5306.22 -3226.27 -2058.64 -1618.93 -1374.13 -166.65 249.93 314.24 435.39 549.15 580.63 586.24 518.86 633.27 733.22 774.38 749.32 721.27 683.66 621.10 562.08 538.24 505.64 513.62 500.89 495.32 489.93 493.28 496.44 515.52 527.40 534.77 563.52 605.34 645.85 725.68 785.62 786.20 720.62 645.37 572.49 534.79 493.39 463.21 416.67 369.05 324.88 307.21 276.87 251.16 194.63 116.43 111.16 115.15 121.27 119.99 121.25 114.61 112.99 112.83 116.23 128.38 137.55 149.86 161.46 173.83 180.03 191.02 202.28 211.68 219.73 225.62 231.06 238.50 245.11 251.99 287.06 370.42 577.27 1292.18 2110.17 3264.72 5264.84 6266.99 6806.82 5967.66 5955.94 1734.97 394.95 -58.98 -1776.21 -4151.64 -5446.42 -6732.16 -7032.45 -6791.42 -6727.96 -6753.49 -6790.60 -6814.91 -6831.24 -6838.14 -6847.28 -6854.75 -6861.41 -6864.44 -6866.87 -6900.79 -7263.54 -8281.02 -8815.94 -8869.53 -8868.66 -8867.15 -8866.14 -8863.92 -8862.92 -8863.01
-9370.28 -9373.02 -9334.82 -8915.42 -8992.98 -8165.36 -8074.53 -7707.38 -7630.05 -7333.46 -7147.83 -7107.95 -7072.30 -7053.88 -7064.82 -7090.36 -7126.23 -7162.09 -7244.89 -7265.64 -7279.03 -7117.75 -6608.61 -5917.17 -4508.02 -2410.07 -1878.13 -1377.60 -296.85 238.85 295.83 369.57 412.62 466.64 465.04 469.79 591.05 614.16 625.47 636.26 640.46 606.93 537.75 510.03 486.89 491.44 482.19 475.40 474.06 476.76 488.39 493.17 499.67 517.03 529.95 550.53 576.46 623.81 660.27 735.33 764.86 729.57 691.48 588.94 552.70 504.69 561.06 507.63 417.23 363.75 307.95 293.53 252.99 221.00 138.66 128.98 128.11 124.48 122.98 122.38 115.46 111.93 113.36 117.63 123.71 136.02 145.94 160.86 168.59 185.61 193.35 200.88 213.87 221.99 229.62 235.47 241.24 250.48 266.79 292.63 414.31 1193.58 2127.00 2026.87 3360.34 5853.62 6553.25 4471.16 3934.12 3266.20 634.36 251.62 -0.91 -1641.28 -4460.96 -6779.72 -7138.36 -6991.45 -6783.85 -6711.10 -6750.80 -6779.74 -6804.75 -6819.44 -6826.52 -6845.71 -6859.47 -6865.17 -6867.85 -6869.91 -6923.96 -7302.90 -8390.60 -8766.13 -8868.73 -8867.84 -8866.51 -8864.95 -8863.50 -8862.21 -8862.30
-7724.71 -7727.62 -7761.50 -7913.95 -7677.10 -7571.27 -7405.08 -7245.44 -7126.53 -7062.48 -7053.57 -7036.92 -7039.74 -7045.75 -7061.74 -7088.47 -7106.09 -7128.13 -7139.73 -7168.17 -7137.60 -6914.99 -6546.59 -6368.79 -5016.43 -2803.81 -2340.54 -1496.98 -377.90 252.17 287.03 323.18 360.14 370.46 412.47 527.96 663.91 581.74 530.01 535.69 583.95 573.92 500.14 469.40 469.43 469.16 459.91 459.49 458.96 457.24 480.22 488.67 493.34 504.38 532.04 534.61 572.26 601.83 658.32 683.88 734.98 760.78 758.53 660.85 678.90 595.04 686.12 616.59 493.11 408.44 332.35 308.06 287.00 239.61 185.81 148.89 136.77 125.07 122.49 116.32 110.78 111.48 111.45 114.35 125.30 131.43 144.80 161.56 174.53 182.64 192.16 196.75 212.74 228.23 236.91 240.41 246.87 250.23 278.39 347.56 441.42 2417.71 3493.66 3428.34 4963.69 6299.05 5411.47 3568.27 3237.70 1613.45 384.38 110.12 -174.30 -2723.35 -6072.98 -7054.60 -7192.41 -6870.18 -6695.38 -6702.92 -6752.80 -6782.22 -6800.47 -6815.50 -6822.48 -6847.74 -6858.63 -6865.68 -6869.68 -6871.43 -6910.77 -7353.09 -8448.57 -8822.73 -8867.96 -8866.97 -8865.60 -8864.72 -8862.93 -8861.51 -8861.60
-7211.24 -7212.44 -7262.85 -7272.00 -7201.43 -7153.05 -7141.94 -7117.15 -7060.34 -7040.10 -7032.65 -7035.32 -7043.35 -7050.71 -7069.49 -7102.02 -7114.66 -7125.04 -7134.55 -7143.51 -7134.56 -6895.97 -6525.76 -6380.77 -6217.11 -3820.93 -2355.49 -838.11 -19.92 219.85 296.97 313.89 345.84 396.88 448.00 538.23 628.36 604.10 475.32 470.79 539.33 540.82 498.33 447.79 429.04 421.61 426.22 438.66 437.24 443.41 470.98 481.46 488.40 502.49 521.49 545.78 563.91 591.73 634.32 695.64 754.05 783.53 777.96 798.75 792.88 720.69 750.84 708.95 568.71 450.49 362.88 339.26 324.44 276.18 264.89 192.12 156.52 118.35 120.37 111.35 109.50 110.49 110.77 111.94 116.97 125.01 140.31 160.14 171.85 188.06 190.36 204.02 212.06 225.33 233.69 246.36 246.82 271.03 324.30 456.76 1099.65 3429.93 4969.17 5921.41 7296.04 6459.71 4577.64 2651.28 2867.82 2441.82 191.23 -61.68 -604.64 -3354.53 -6149.12 -7570.06 -7044.97 -6747.18 -6670.27 -6713.66 -6760.11 -6785.85 -6799.75 -6811.81 -6823.37 -6842.30 -6858.10 -6864.11 -6869.98 -6871.46 -6912.87 -7292.98 -8186.60 -8807.33 -8867.21 -8866.47 -8865.05 -8863.67 -8862.49 -8860.85 -8860.94
-7142.34 -7142.54 -7150.12 -7147.14 -7135.79 -7121.45 -7113.31 -7088.16 -7060.54 -7044.45 -7041.46 -7042.82 -7049.95 -7059.56 -7073.97 -7100.80 -7115.04 -7122.70 -7131.84 -7136.41 -7092.17 -6890.29 -6538.95 -6401.96 -6236.62 -4616.17 -1647.73 -700.26 101.07 215.37 290.61 311.72 331.03 391.95 414.95 405.58 496.46 516.92 439.10 394.10 437.25 445.25 399.12 388.26 399.63 405.24 406.81 415.39 429.34 430.11 442.88 460.92 487.72 504.68 525.94 545.73 574.51 596.70 627.34 693.23 728.06 764.04 742.64 798.32 811.35 768.56 778.63 758.62 671.65 587.92 515.13 425.50 358.30 314.36 291.26 253.32 198.37 119.34 115.31 106.47 107.81 109.27 108.85 111.85 116.71 125.46 135.33 148.62 171.37 186.02 197.85 208.95 215.50 224.57 233.98 245.80 250.69 290.73 366.24 997.67 2362.10 3010.76 4538.44 6885.19 8053.59 6934.81 4973.30 1865.78 1477.67 769.56 189.06 -102.63 -1087.95 -2232.39 -6074.69 -7271.38 -7109.14 -6704.07 -6658.34 -6707.82 -6758.15 -6783.67 -6799.72 -6809.77 -6821.93 -6837.17 -6858.83 -6863.53 -6867.53 -6870.62 -6900.60 -7283.59 -8348.42 -8801.61 -8866.65 -8865.74 -8864.48 -8863.01 -8861.84 -8860.26 -8860.36
-7152.81 -7152.81 -7150.45 -7146.19 -7138.26 -7127.88 -7118.84 -7102.16 -7072.88 -7055.88 -7055.67 -7053.02 -7055.27 -7058.62 -7078.57 -7095.07 -7106.95 -7121.46 -7127.59 -7132.48 -7113.47 -6866.51 -6566.29 -6367.75 -6340.47 -4356.15 -2973.38 -1182.18 -234.87 136.70 280.94 286.43 293.39 323.93 348.47 348.19 318.13 320.68 343.77 337.29 368.52 371.16 351.29 376.13 382.47 383.79 400.73 389.40 402.38 426.34 438.97 465.74 483.81 503.55 524.90 538.57 561.38 605.49 622.43 684.86 721.45 701.34 642.89 675.32 660.45 679.41 668.31 674.03 703.05 588.94 517.79 415.23 376.82 338.76 309.79 259.88 188.88 121.98 108.85 106.41 107.67 107.50 108.32 111.21 118.18 123.36 135.19 148.48 170.64 186.07 199.76 213.64 220.43 224.74 233.66 244.10 258.72 306.67 483.11 1606.93 3063.50 3683.54 5983.55 7671.28 5683.16 4011.10 2378.82 2056.20 519.38 301.32 157.10 -461.91 -1107.90 -3018.12 -5778.54 -7447.89 -6915.25 -6659.10 -6671.51 -6712.85 -6755.98 -6778.91 -6795.52 -6804.89 -6823.14 -6838.48 -6851.85 -6861.73 -6865.81 -6868.67 -6879.63 -7266.35 -8339.48 -8749.57 -8865.60 -8864.95 -8863.70 -8862.32 -8861.27 -8859.72 -8859.82
-7171.54 -7171.35 -7164.24 -7155.64 -7148.25 -7141.40 -7128.09 -7116.25 -7083.05 -7062.30 -7062.52 -7061.21 -7058.53 -7060.68 -7075.57 -7097.08 -7108.08 -7114.53 -7120.31 -7127.31 -7067.22 -6869.03 -6490.39 -6200.92 -6282.34 -5316.01 -3638.27 -2160.52 -1091.05 -305.16 147.62 169.31 200.09 244.95 291.76 295.38 297.49 300.43 298.54 298.76 311.10 309.47 322.11 350.41 348.81 359.81 368.84 370.99 396.42 414.37 438.60 476.18 489.22 509.03 526.88 544.50 575.83 607.78 661.76 676.12 730.02 738.76 677.21 569.12 519.86 600.71 579.35 544.57 574.01 468.10 426.27 377.12 334.87 298.49 273.67 240.27 168.60 127.10 104.95 105.92 106.51 106.48 107.48 108.69 111.92 124.49 140.84 154.70 174.93 191.97 206.41 216.81 222.69 226.95 232.12 246.74 261.10 482.32 1033.58 1649.93 2233.24 4908.94 6409.32 7704.86 5932.45 4045.78 2944.07 1009.24 435.44 216.46 118.94 -298.39 -1035.01 -3295.38 -5960.98 -7287.75 -6754.76 -6689.62 -6687.19 -6738.78 -6765.63 -6786.66 -6801.67 -6813.47 -6827.13 -6841.11 -6845.04 -6854.83 -6860.97 -6862.68 -6910.64 -7261.99 -8082.87 -8809.66 -8865.28 -8864.43 -8863.09 -8861.57 -8860.68 -8859.24 -8859.34
-7171.83 -7171.76 -7169.39 -7159.57 -7152.09 -7143.67 -7130.48 -7117.95 -7093.82 -7078.69 -7068.40 -7062.10 -7059.04 -7059.79 -7067.27 -7095.82 -7104.47 -7112.73 -7115.88 -7119.78 -7119.16 -6944.67 -5532.20 -4885.10 -6097.80 -6448.77 -4688.99 -3665.67 -1529.66 -450.67 -145.69 -24.94 34.78 165.74 263.25 269.81 283.67 295.09 295.09 295.22 299.22 308.22 309.24 314.13 332.52 332.60 346.75 363.64 388.14 426.52 467.76 498.83 504.75 518.96 543.65 563.76 590.51 624.76 659.78 664.97 679.18 679.20 602.46 530.38 498.82 540.81 514.43 473.98 438.24 392.58 339.77 320.78 296.32 277.83 264.52 232.92 152.49 116.36 103.83 104.84 103.81 105.02 105.65 107.62 112.70 121.68 136.65 156.17 176.18 200.93 211.15 218.25 225.49 230.30 239.11 260.75 395.71 563.95 2306.79 2371.41 3366.58 5247.93 7392.50 7108.87 4648.82 4013.29 2579.81 806.89 387.15 187.43 68.75 -591.44 -1045.72 -4087.51 -6436.00 -7100.20 -6826.70 -6699.91 -6710.43 -6767.73 -6792.86 -6804.59 -6818.99 -6834.45 -6839.88 -6836.92 -6836.42 -6841.86 -6847.56 -6851.36 -6895.13 -7263.02 -8178.26 -8811.80 -8864.72 -8863.86 -8862.57 -8861.32 -8860.28 -8858.83 -8858.93
-7179.87 -7179.79 -7173.61 -7167.18 -7156.96 -7149.54 -7132.84 -7113.85 -7092.53 -7082.64 -7073.30 -7063.62 -7058.50 -7056.24 -7066.57 -7088.06 -7092.82 -7100.57 -7103.96 -7107.08 -7115.05 -7065.69 -5505.29 -4513.82 -5427.20 -6643.12 -6268.25 -5098.12 -2625.91 -506.68 -268.56 -225.59 -244.07 38.70 220.08 228.30 215.13 256.46 265.44 263.68 272.94 280.40 296.92 297.18 303.84 309.78 326.81 349.90 371.03 438.55 512.68 523.27 542.85 611.36 613.07 591.90 606.64 647.01 634.16 635.21 594.29 640.71 544.61 459.17 437.02 471.10 447.44 472.75 422.77 337.48 315.76 308.29 281.73 263.30 231.53 182.77 136.35 98.73 101.06 100.74 102.19 102.71 103.40 104.31 113.45 121.12 137.31 159.24 183.92 199.40 210.79 223.29 231.98 236.26 246.91 267.53 459.86 1845.94 3283.35 4457.74 5584.11 7342.49 7650.88 5412.76 4117.02 3217.87 1185.48 492.01 262.25 1.69 -249.40 -750.32 -3238.06 -5347.18 -6988.91 -7128.05 -6867.04 -6690.18 -6706.62 -6779.61 -6798.19 -6814.66 -6829.35 -6841.74 -6846.86 -6834.01 -6830.90 -6837.02 -6841.31 -6846.16 -6897.95 -7395.12 -8112.59 -8826.72 -8854.97 -8862.96 -8861.86 -8860.75 -8859.70 -8858.50 -8858.59
-7186.04 -7185.96 -7178.25 -7171.43 -7164.35 -7153.75 -7137.96 -7121.91 -7102.71 -7084.38 -7071.33 -7062.94 -7055.00 -7048.97 -7051.22 -7071.72 -7082.51 -7080.01 -7084.41 -7093.88 -7089.35 -7040.20 -6412.96 -5584.24 -5684.62 -6710.47 -6906.47 -4726.26 -3032.32 -491.00 -292.59 -293.80 -277.68 -199.90 63.80 124.44 156.85 219.73 236.31 242.30 218.47 209.27 240.77 270.51 280.49 288.31 300.23 309.14 356.33 455.87 505.47 614.37 602.23 596.87 586.52 602.61 619.75 663.95 631.02 529.34 511.32 598.06 548.86 447.35 424.45 440.40 431.44 393.13 375.63 321.84 300.27 281.39 254.52 243.76 205.85 123.05 93.45 94.32 96.48 99.28 100.16 101.21 101.80 103.21 110.53 126.94 146.61 158.25 182.00 202.34 212.43 224.07 234.32 240.27 252.13 282.16 776.92 2279.38 3052.93 4832.22 7141.49 7648.97 6168.10 4477.11 4296.38 3207.35 887.99 250.16 168.43 -300.83 -642.65 -981.54 -3718.44 -5606.92 -7111.99 -7022.91 -6727.08 -6690.46 -6731.07 -6775.59 -6801.93 -6818.86 -6827.82 -6838.25 -6843.22 -6832.08 -6828.66 -6834.22 -6840.40 -6844.10 -6891.76 -7195.86 -8062.71 -8805.84 -8863.31 -8862.37 -8861.51 -8860.53 -8859.30 -8858.24 -8858.33
-7189.54 -7189.45 -7182.40 -7176.61 -7168.69 -7156.66 -7145.63 -7125.23 -7102.21 -7084.60 -7070.99 -7058.92 -7048.77 -7041.77 -7044.10 -7060.88 -7064.92 -7060.45 -7063.01 -7068.13 -7071.52 -7031.68 -6865.61 -6384.61 -5976.39 -6713.49 -7038.01 -6061.90 -3481.23 -798.34 -322.35 -304.27 -302.73 -243.54 -26.61 31.66 123.29 146.37 198.06 162.01 124.19 169.91 201.49 232.57 261.28 265.06 283.09 284.74 352.27 373.76 466.33 558.45 509.14 458.92 505.44 520.68 533.37 543.40 608.06 532.40 426.25 521.19 463.79 416.78 378.17 361.45 337.99 344.93 317.54 275.53 265.98 254.68 246.44 197.88 149.40 90.50 87.63 89.99 90.58 96.68 98.34 98.64 100.03 101.92 111.07 129.39 152.12 164.35 182.07 203.67 214.02 231.12 238.44 252.21 280.92 1010.44 1885.76 2119.73 3515.18 6070.82 6371.71 5977.72 4731.76 3335.73 2498.07 1640.06 273.32 163.61 116.17 -334.77 -2150.96 -3980.25 -3950.46 -6001.56 -7204.49 -6786.19 -6678.38 -6696.40 -6748.40 -6773.41 -6798.43 -6811.07 -6822.56 -6833.99 -6839.01 -6828.59 -6825.97 -6833.65 -6837.87 -6842.92 -6855.19 -7369.24 -8356.14 -8776.22 -8862.88 -8862.18 -8861.02 -8860.03 -8858.89 -8858.06 -8858.15
-7191.05 -7190.63 -7186.29 -7178.19 -7168.35 -7161.41 -7149.20 -7129.80 -7102.39 -7083.33 -7067.53 -7057.40 -7043.56 -7033.77 -7044.41 -7050.06 -7053.28 -7046.67 -7048.36 -7049.15 -7047.05 -7049.16 -7044.61 -6780.11 -6617.47 -6989.85 -7041.54 -6748.64 -4602.68 -1472.41 -529.93 -564.37 -386.35 -384.46 -329.09 -169.41 -0.48 30.33 54.49 55.13 44.59 75.62 122.64 184.73 230.30 247.11 271.14 267.29 291.10 308.23 369.31 456.42 430.62 379.58 439.81 468.67 407.56 457.69 465.83 482.28 373.82 406.51 370.69 364.27 339.83 317.68 319.73 301.32 283.27 260.98 257.74 236.14 195.42 136.53 93.52 83.12 84.82 86.59 88.83 89.97 93.97 95.77 97.78 101.67 106.46 118.87 149.07 161.75 179.60 196.25 215.41 240.05 251.57 267.71 471.60 1505.04 3234.63 2704.65 3396.17 6971.12 6494.36 4154.94 2402.72 2850.10 1943.29 627.71 227.74 70.95 -94.41 -631.32 -4277.56 -5896.32 -6104.98 -7194.55 -7054.24 -6702.00 -6685.23 -6712.94 -6750.54 -6784.07 -6798.01 -6810.14 -6820.87 -6829.79 -6840.48 -6825.92 -6823.04 -6829.42 -6835.49 -6841.29 -6864.36 -7173.70 -8363.38 -8771.43 -8862.51 -8861.73 -8860.49 -8859.76 -8858.75 -8857.97 -8858.06
-7193.71 -7193.63 -7191.26 -7181.95 -7176.51 -7165.90 -7154.60 -7129.91 -7108.38 -7095.84 -7080.10 -7066.62 -7043.82 -7035.03 -7030.51 -7028.09 -7013.28 -7020.27 -7014.46 -7016.39 -7020.59 -7035.25 -7027.21 -7026.86 -7024.36 -7056.24 -7055.09 -6953.78 -5861.57 -3957.06 -2881.08 -1767.41 -1678.39 -1372.98 -1032.69 -507.02 -370.34 -227.39 -111.59 -33.09 -13.15 22.71 38.43 107.55 180.41 226.79 246.87 243.06 229.13 251.12 291.62 287.31 292.20 337.03 366.25 351.41 322.53 316.90 318.97 403.11 337.92 316.09 319.13 309.07 305.42 304.39 297.09 265.88 257.67 255.84 245.18 198.25 140.54 87.92 78.83 78.71 80.30 82.26 85.51 87.82 90.37 90.46 92.48 98.33 110.89 130.56 154.60 158.59 167.79 193.24 217.21 233.64 274.42 339.66 590.03 2820.30 4596.51 4246.41 5038.98 6591.60 6356.28 3570.13 2091.07 1307.64 890.80 322.12 163.43 -21.19 -382.43 -794.52 -5696.34 -7457.79 -7633.88 -7009.44 -6674.03 -6671.34 -6694.52 -6729.17 -6765.29 -6781.19 -6795.94 -6806.76 -6815.39 -6829.51 -6833.55 -6819.13 -6821.15 -6826.14 -6832.27 -6837.57 -6875.13 -6981.87 -8590.56 -8793.32 -8861.95 -8861.42 -8860.53 -8859.54 -8858.87 -8857.95 -8858.03
-7205.01 -7204.39 -7198.91 -7188.85 -7183.16 -7173.09 -7160.94 -7150.62 -7133.86 -7111.32 -7092.88 -7084.38 -7066.40 -7052.09 -7035.41 -7006.32 -6995.62 -6990.05 -6984.17 -6989.09 -6978.57 -6989.62 -7010.26 -7013.03 -7016.26 -7023.73 -7036.23 -7031.68 -6924.44 -5957.16 -4842.62 -4539.00 -3091.77 -3052.16 -2639.86 -1598.22 -923.89 -926.22 -1130.65 -790.68 -412.95 -50.77 8.12 68.97 130.88 175.53 202.18 106.50 129.84 243.05 258.86 272.33 270.77 291.07 298.25 303.71 305.15 298.04 284.08 283.17 295.18 293.91 294.57 289.59 285.86 278.61 265.86 257.92 253.95 213.94 187.00 127.41 89.97 68.58 70.45 72.42 75.48 78.06 80.62 85.07 84.98 86.05 86.85 92.68 98.37 122.41 147.89 166.20 176.22 197.08 218.82 240.68 310.91 420.89 1316.96 2951.09 4682.97 6086.39 6727.11 6507.13 5581.25 3947.10 2498.91 838.49 450.89 273.39 -10.04 -143.75 -455.99 -1466.00 -5010.51 -6878.22 -7273.12 -6911.26 -6672.98 -6680.02 -6723.43 -6747.95 -6769.88 -6779.70 -6786.92 -6800.62 -6809.61 -6821.87 -6826.92 -6815.30 -6811.04 -6817.36 -6823.06 -6828.83 -6874.76 -7282.01 -8305.20 -8699.95 -8861.74 -8861.07 -8860.69 -8859.37 -8858.75 -8857.99 -8858.07
-7201.49 -7201.40 -7197.47 -7190.70 -7181.42 -7173.93 -7163.98 -7151.07 -7132.32 -7117.62 -7100.59 -7080.85 -7070.40 -7050.66 -7028.17 -6988.80 -6970.17 -6964.22 -6957.12 -6954.78 -6955.12 -6968.21 -6980.35 -6988.84 -7000.72 -7012.27 -7018.71 -7029.75 -7014.78 -7043.56 -6884.92 -6678.27 -6073.73 -5047.38 -3531.91 -2693.70 -1809.57 -1651.84 -1583.99 -1209.85 -857.46 -328.77 -89.02 -0.53 23.40 29.13 41.71 53.85 59.67 149.81 224.62 261.30 259.48 256.54 261.82 263.25 265.78 266.45 261.50 265.32 270.21 262.23 259.18 261.70 261.62 252.59 248.39 254.69 208.14 155.65 127.55 84.53 70.75 65.24 67.55 68.10 69.83 72.94 73.97 79.18 81.35 80.94 85.35 91.41 99.78 122.77 149.46 160.86 182.06 197.30 230.73 258.13 354.52 890.59 1717.67 2450.80 4314.41 7269.10 7838.73 6200.79 3848.68 3479.70 1578.14 520.24 254.04 187.06 -56.37 -120.55 -1122.60 -2071.82 -3858.74 -6533.43 -7200.82 -7036.87 -6734.79 -6716.11 -6742.56 -6766.08 -6774.87 -6779.72 -6788.15 -6795.84 -6808.50 -6821.07 -6822.09 -6811.89 -6810.15 -6815.46 -6822.57 -6827.35 -6867.40 -7110.33 -8119.72 -8789.29 -8861.41 -8861.04 -8860.28 -8859.38 -8858.78 -8858.12 -8858.20
-7194.29 -7194.20 -7190.23 -7183.79 -7178.78 -7169.19 -7159.91 -7145.59 -7130.38 -7109.78 -7096.75 -7078.82 -7066.25 -7048.76 -7026.49 -6987.01 -6965.42 -6957.41 -6947.48 -6946.96 -6947.80 -6953.13 -6969.08 -6977.75 -6994.60 -7001.01 -7016.50 -7025.12 -7034.21 -7043.41 -7049.98 -7009.43 -6944.29 -6280.57 -4874.38 -2939.34 -1754.38 -1653.26 -1681.30 -1570.47 -1473.58 -1204.50 -471.88 -112.23 -61.43 -81.35 -53.10 -21.69 14.77 119.51 173.14 186.87 221.96 223.77 222.68 255.59 256.41 256.64 250.88 255.08 229.25 227.92 208.84 221.13 236.04 230.17 225.90 197.65 159.68 115.16 90.34 67.20 54.88 58.58 62.08 63.04 66.81 68.70 69.06 74.07 77.04 80.03 87.10 97.55 113.16 123.15 141.76 172.90 191.82 229.26 240.43 300.44 696.51 2157.38 3138.28 5464.23 6637.82 8040.70 8275.74 6491.95 3847.48 2093.32 551.92 338.09 201.79 62.47 -84.42 -670.43 -1506.72 -2394.78 -3970.62 -5825.24 -7240.15 -7112.52 -6763.68 -6744.36 -6764.63 -6774.57 -6776.91 -6778.55 -6786.08 -6793.48 -6804.63 -6819.24 -6819.51 -6806.64 -6807.93 -6814.03 -6821.03 -6827.15 -6830.18 -7404.19 -8432.89 -8747.38 -8861.33 -8861.01 -8860.30 -8859.35 -8858.82 -8858.39 -8858.41
-7185.41 -7185.32 -7182.87 -7175.52 -7170.71 -7159.84 -7151.56 -7139.65 -7125.34 -7110.00 -7093.25 -7078.54 -7065.62 -7046.82 -7014.26 -6980.34 -6960.41 -6951.70 -6943.92 -6940.24 -6939.95 -6943.80 -6960.36 -6972.71 -6984.69 -6992.47 -7007.37 -7018.40 -7031.88 -7041.93 -7051.61 -7057.62 -7052.06 -6746.92 -6577.39 -3830.44 -2279.87 -1686.17 -1666.57 -1691.00 -1684.67 -1576.68 -857.40 -187.76 -179.13 -174.23 -141.86 -76.38 -30.19 43.68 85.40 135.48 145.05 151.26 141.00 152.31 194.20 138.35 173.06 217.68 171.31 157.89 179.20 139.57 147.48 147.50 165.07 152.33 132.43 83.32 53.64 46.13 49.77 53.34 58.45 60.94 64.14 65.02 67.22 71.24 74.53 77.87 82.29 94.98 118.49 137.06 152.90 178.29 211.29 228.67 251.52 308.01 817.06 3320.18 4179.08 5426.22 7942.07 7913.39 6507.59 5602.54 4533.47 2398.20 1055.30 247.01 174.23 -215.35 -369.92 -1118.88 -2629.79 -3782.52 -4613.52 -6659.45 -7125.97 -6962.84 -6786.15 -6759.29 -6768.77 -6777.90 -6778.10 -6779.61 -6785.99 -6794.28 -6805.73 -6815.21 -6822.30 -6809.90 -6807.18 -6813.55 -6818.38 -6826.74 -6831.72 -7172.05 -8563.45 -8794.41 -8861.38 -8861.13 -8860.54 -8859.69 -8859.02 -8858.63 -8858.70
-7173.43 -7171.83 -7167.86 -7167.20 -7160.42 -7154.63 -7143.44 -7136.17 -7122.35 -7106.70 -7094.66 -7080.12 -7066.50 -7047.35 -7017.11 -6978.28 -6966.18 -6957.00 -6946.00 -6940.43 -6940.88 -6947.40 -6959.68 -6969.58 -6981.67 -6990.67 -7004.35 -7016.91 -7031.05 -7041.74 -7054.97 -7064.46 -7072.84 -7043.93 -6913.30 -4909.65 -2949.47 -1973.38 -1861.79 -1715.01 -1652.68 -1521.91 -956.97 -268.39 -206.71 -193.18 -158.55 -129.20 -75.04 -64.15 27.28 57.71 110.31 121.49 71.29 62.61 75.94 66.96 107.71 143.25 157.94 115.84 125.11 102.93 103.72 103.84 98.40 98.14 94.01 55.52 44.53 43.79 46.74 50.87 54.96 55.33 57.98 60.68 63.38 65.48 70.18 74.09 77.11 94.67 128.60 156.57 174.19 192.17 220.90 240.86 264.44 280.03 2373.92 4571.58 3537.31 5505.54 7030.68 6788.35 4429.50 3909.58 2864.86 752.99 259.17 218.85 98.59 -332.04 -530.59 -1469.89 -2423.94 -4934.69 -6202.88 -7144.78 -6952.95 -6909.07 -6773.09 -6769.78 -6777.97 -6779.56 -6777.99 -6779.57 -6785.15 -6795.43 -6802.53 -6816.16 -6821.15 -6810.23 -6806.82 -6814.88 -6820.86 -6826.96 -6871.22 -7194.49 -8102.47 -8822.37 -8861.38 -8861.25 -8860.57 -8860.09 -8859.41 -8858.97 -8859.04
-7139.78 -7139.65 -7140.24 -7140.57 -7126.36 -7091.29 -7109.58 -7117.54 -7115.51 -7102.68 -7093.91 -7078.84 -7067.23 -7053.51 -7031.68 -6993.26 -6982.00 -6964.74 -6961.70 -6953.47 -6958.35 -6954.14 -6965.81 -6973.29 -6986.59 -6998.41 -7006.19 -7022.25 -7034.98 -7049.89 -7058.77 -7068.23 -7083.21 -7091.52 -6972.01 -6101.96 -4633.35 -3494.28 -2379.51 -2131.90 -2035.40 -1736.03 -1141.66 -538.69 -388.00 -330.02 -184.41 -149.51 -146.78 -94.65 -28.05 -5.33 21.09 61.20 47.75 22.94 23.31 18.43 20.63 41.47 73.04 76.68 93.25 76.69 73.75 77.65 69.83 83.20 48.28 33.63 39.79 41.91 42.91 47.26 50.18 50.00 53.20 55.58 58.14 62.02 64.38 68.06 75.34 86.31 126.97 166.49 187.97 209.84 226.55 239.36 274.04 596.62 1939.49 4581.63 5161.42 7313.45 6775.82 5300.51 2506.28 3135.01 1448.34 539.07 212.11 153.56 -39.85 -457.08 -1431.87 -2900.01 -4046.56 -5525.02 -6746.29 -7059.36 -6917.01 -6835.01 -6781.83 -6781.26 -6786.33 -6782.04 -6771.91 -6775.43 -6779.35 -6783.52 -6796.71 -6805.95 -6816.44 -6813.32 -6812.98 -6824.47 -6830.17 -6836.02 -6862.62 -7250.16 -8511.34 -8797.15 -8861.88 -8861.73 -8861.02 -8860.52 -8859.76 -8859.39 -8859.47
-7061.79 -7061.71 -7074.09 -7066.86 -7058.62 -7056.54 -7044.30 -7068.30 -7100.82 -7101.99 -7095.70 -7081.40 -7070.52 -7054.71 -7033.82 -7014.48 -7001.98 -6993.88 -6984.38 -6974.82 -6974.25 -6977.17 -6982.90 -6995.33 -6999.93 -7017.82 -7025.48 -7035.85 -7049.53 -7054.74 -7072.77 -7079.29 -7093.98 -7097.14 -7054.86 -6881.36 -6347.97 -6254.34 -3998.04 -2815.92 -2493.34 -2105.12 -1377.09 -707.70 -532.06 -531.36 -380.44 -273.63 -272.32 -169.52 -128.74 -85.63 -45.50 -50.17 -43.52 -36.20 -28.92 -30.32 -39.71 -20.46 8.80 18.15 46.38 44.57 37.47 42.63 43.55 34.15 33.53 33.49 38.42 39.89 42.72 45.54 45.02 46.79 49.84 51.83 56.28 59.37 59.28 63.88 80.02 95.88 138.61 155.03 196.29 214.14 233.16 243.71 303.26 590.19 2458.19 4299.89 6670.80 9319.12 7976.11 4112.23 2274.17 1090.42 716.60 305.72 93.30 -46.26 -334.33 -904.77 -1910.42 -3964.86 -6033.55 -6911.27 -6955.82 -6971.04 -6858.39 -6810.04 -6791.61 -6792.79 -6790.02 -6781.84 -6762.00 -6752.20 -6756.11 -6762.19 -6776.87 -6786.63 -6804.33 -6815.71 -6830.63 -6839.37 -6848.11 -6853.33 -6882.53 -7201.13 -8324.02 -8779.25 -8862.19 -8862.06 -8861.32 -8860.78 -8860.35 -8859.90 -8859.97
-7046.88 -7046.80 -7047.81 -7043.58 -7042.43 -7034.97 -7031.92 -7064.31 -7086.43 -7103.86 -7097.28 -7086.33 -7075.08 -7066.31 -7048.00 -7029.59 -7013.64 -7006.65 -6998.11 -6995.11 -6992.59 -6995.94 -7001.04 -7007.99 -7016.10 -7023.77 -7033.18 -7044.24 -7053.44 -7065.15 -7076.28 -7090.59 -7096.11 -7105.46 -7108.55 -7047.87 -6978.62 -6786.83 -5424.89 -3665.09 -2704.07 -2471.65 -1351.75 -733.88 -662.13 -653.75 -543.11 -424.44 -485.84 -326.58 -201.10 -138.70 -118.85 -157.50 -142.26 -117.84 -69.25 -93.62 -84.64 -105.55 -80.55 -33.95 -11.09 -2.96 -8.08 6.03 18.39 24.54 29.73 31.88 35.42 38.08 40.74 41.35 42.68 44.96 46.59 49.40 49.60 52.37 54.13 59.80 81.92 104.50 155.57 174.05 186.31 220.05 238.64 259.02 312.20 2290.42 3159.59 5846.59 8316.15 8814.30 6898.09 4577.17 2510.96 1189.34 402.79 -124.35 -215.78 -878.56 -1474.73 -1448.73 -4302.30 -5969.76 -6736.39 -6816.50 -6839.37 -6820.13 -6798.05 -6809.77 -6801.11 -6802.95 -6793.15 -6787.16 -6766.43 -6753.00 -6757.71 -6765.35 -6774.27 -6784.22 -6793.93 -6816.80 -6833.66 -6843.90 -6850.86 -6856.22 -6867.20 -7264.55 -8330.97 -8749.68 -8862.97 -8862.55 -8861.84 -8861.30 -8860.81 -8860.47 -8860.54
-7041.86 -7041.78 -7040.33 -7038.19 -7035.85 -7030.86 -7027.50 -7064.00 -7089.03 -7107.19 -7102.68 -7093.10 -7080.56 -7072.54 -7056.54 -7044.92 -7030.30 -7024.64 -7020.78 -7010.03 -7016.91 -7023.15 -7020.75 -7024.26 -7030.30 -7038.74 -7043.09 -7055.72 -7061.26 -7071.18 -7081.49 -7091.72 -7100.25 -7109.70 -7110.09 -7053.20 -6984.93 -6959.76 -6521.80 -5070.38 -3152.35 -2569.23 -1830.08 -759.71 -662.55 -679.57 -694.46 -606.54 -624.33 -414.94 -295.08 -235.28 -243.72 -304.55 -222.56 -224.75 -175.20 -150.48 -140.05 -153.29 -128.43 -107.36 -50.95 -40.80 -21.99 2.73 14.29 20.75 27.04 29.58 33.65 35.03 37.10 38.06 38.47 38.74 41.07 43.16 45.43 46.98 49.87 57.42 77.80 114.03 139.86 159.25 198.96 213.46 249.83 312.34 672.36 2025.38 2989.48 4864.96 7516.70 7657.82 5233.90 3231.35 1292.40 985.61 -44.63 -373.33 -600.04 -1187.62 -2469.61 -3087.75 -5483.04 -6641.58 -6816.25 -6780.74 -6692.47 -6734.63 -6811.69 -6820.42 -6817.93 -6813.36 -6799.95 -6782.11 -6772.21 -6755.65 -6760.16 -6766.50 -6775.92 -6787.96 -6801.49 -6817.08 -6836.98 -6845.97 -6852.93 -6858.21 -6896.82 -7237.71 -8383.83 -8786.76 -8863.38 -8863.13 -8862.59 -8861.93 -8861.47 -8861.12 -8861.19
-7037.88 -7037.81 -7036.73 -7034.73 -7032.02 -7029.43 -7027.84 -7047.53 -7103.92 -7112.73 -7105.75 -7098.96 -7095.54 -7085.52 -7076.02 -7057.38 -7049.19 -7038.87 -7032.08 -7036.02 -7031.89 -7033.33 -7036.59 -7044.98 -7046.85 -7058.72 -7064.00 -7067.20 -7074.32 -7080.24 -7088.57 -7095.62 -7104.06 -7112.39 -7095.82 -7056.47 -7001.44 -6986.25 -6783.04 -6026.99 -4083.78 -3407.67 -1547.25 -740.54 -666.52 -691.53 -715.68 -739.76 -704.99 -573.91 -444.78 -468.37 -412.72 -379.60 -355.63 -292.64 -217.17 -204.73 -167.88 -158.27 -135.73 -110.99 -70.18 -44.94 -27.57 -5.46 5.34 16.13 23.38 27.86 29.71 31.93 31.67 32.87 34.39 30.82 36.24 40.37 42.93 43.04 44.78 54.87 69.10 103.50 144.61 175.82 203.71 228.48 281.67 345.62 2108.20 3937.70 4150.53 6051.28 8189.55 6454.92 5759.55 2530.22 1018.35 304.94 -436.01 -722.35 -1614.40 -2509.57 -3326.90 -4263.31 -6016.24 -6709.27 -6781.13 -6721.00 -6632.40 -6695.98 -6819.53 -6835.00 -6826.20 -6816.82 -6804.78 -6792.55 -6766.92 -6761.02 -6763.22 -6770.41 -6780.75 -6790.23 -6804.64 -6821.80 -6839.77 -6846.93 -6854.21 -6858.28 -6880.46 -7575.28 -8187.49 -8807.06 -8864.48 -8863.81 -8863.34 -8862.60 -8862.12 -8861.85 -8861.91
-7036.60 -7036.53 -7035.77 -7034.92 -7034.52 -7031.84 -7031.77 -7057.40 -7100.27 -7113.05 -7109.90 -7103.04 -7099.09 -7094.49 -7087.41 -7072.04 -7064.87 -7058.41 -7054.89 -7048.72 -7055.67 -7056.89 -7062.24 -7066.69 -7064.28 -7074.29 -7077.16 -7081.96 -7086.27 -7088.16 -7096.35 -7101.38 -7110.65 -7115.23 -7104.25 -7065.41 -6995.80 -6992.23 -6942.01 -6701.33 -6162.00 -4542.65 -1916.79 -960.51 -782.67 -874.95 -744.97 -993.70 -925.64 -795.89 -691.29 -680.47 -593.58 -459.86 -389.59 -340.97 -242.27 -217.65 -175.12 -152.08 -131.04 -112.66 -75.81 -50.65 -35.29 -18.53 -5.38 5.51 18.16 22.37 23.99 24.40 26.27 26.72 23.10 25.86 33.01 37.43 37.86 37.40 39.81 44.90 52.57 109.45 161.50 170.14 215.30 257.11 342.04 649.80 2715.18 3763.84 6489.68 8098.38 7654.76 4169.72 4596.05 1607.12 417.32 175.91 -272.28 -1462.31 -2344.87 -3790.63 -4210.44 -5458.20 -6331.10 -6701.07 -6699.13 -6630.68 -6622.68 -6674.71 -6811.67 -6840.16 -6835.06 -6820.06 -6810.79 -6798.96 -6781.67 -6766.11 -6769.82 -6779.21 -6788.88 -6797.14 -6812.31 -6829.31 -6843.15 -6848.49 -6855.99 -6860.03 -6901.54 -7393.83 -8113.26 -8829.82 -8865.42 -8864.99 -8864.23 -8863.46 -8863.05 -8862.65 -8862.72
-7054.41 -7054.38 -7054.24 -7063.49 -7063.49 -7065.45 -7069.03 -7076.30 -7100.48 -7103.67 -7099.73 -7096.11 -7093.41 -7096.49 -7086.05 -7081.94 -7077.76 -7076.29 -7069.93 -7070.46 -7071.63 -7072.98 -7080.31 -7083.98 -7082.99 -7091.51 -7091.77 -7095.05 -7097.09 -7098.82 -7101.14 -7105.72 -7110.27 -7114.61 -7112.80 -7088.57 -7032.34 -7053.56 -7064.06 -7057.02 -6830.10 -5041.42 -2208.91 -1588.05 -1718.07 -1551.47 -1884.21 -1805.75 -1381.10 -1119.25 -958.89 -831.77 -649.81 -497.37 -442.05 -369.47 -310.78 -231.72 -196.24 -167.74 -135.31 -108.68 -90.01 -63.04 -46.87 -24.44 -10.83 -5.65 4.75 9.43 13.56 17.05 20.75 20.32 20.20 23.05 28.29 33.06 34.29 35.63 35.04 40.52 52.54 87.80 150.64 201.39 239.67 272.12 772.53 1655.46 2688.02 2936.21 6924.46 8195.52 6140.94 2419.64 2632.27 1301.82 164.79 -453.41 -671.66 -1769.44 -3434.39 -5093.81 -5719.84 -6186.08 -6441.51 -6597.20 -6570.14 -6503.48 -6511.65 -6681.89 -6816.28 -6844.97 -6834.63 -6823.87 -6812.27 -6802.66 -6797.32 -6796.14 -6792.87 -6794.88 -6798.39 -6815.21 -6824.99 -6832.67 -6841.59 -6848.19 -6855.27 -6858.60 -6873.59 -7199.28 -8268.15 -8801.30 -8866.48 -8865.48 -8865.37 -8864.60 -8863.81 -8863.54 -8863.60
-7087.30 -7055.98 -6969.82 -7077.67 -7090.67 -7095.39 -7093.60 -7097.04 -7086.67 -7082.49 -7084.51 -7079.49 -7077.64 -7073.30 -7080.27 -7090.25 -7090.12 -7092.74 -7089.43 -7090.06 -7090.33 -7088.20 -7091.07 -7092.06 -7098.59 -7097.54 -7102.41 -7099.96 -7103.03 -7106.12 -7106.42 -7107.05 -7110.39 -7112.78 -7117.46 -7120.31 -7141.31 -7147.11 -7157.37 -7136.18 -6963.82 -4739.63 -3147.10 -3039.27 -2734.77 -2660.06 -2340.19 -1815.42 -1382.79 -1221.84 -972.27 -815.41 -705.74 -518.81 -453.71 -394.10 -345.68 -254.07 -216.39 -173.19 -154.99 -115.45 -92.64 -71.99 -53.63 -35.17 -21.23 -15.24 -4.51 3.85 3.29 8.91 11.62 13.18 16.75 22.00 25.67 27.98 30.92 31.36 28.47 31.97 47.27 76.69 140.29 213.86 249.17 323.43 1608.85 2267.53 3511.01 5482.27 9290.65 8886.02 6036.61 3498.14 1102.43 299.41 -19.16 -461.88 -1989.58 -2972.97 -4229.56 -5730.31 -6376.15 -6459.45 -6487.77 -6402.73 -6302.08 -6285.93 -6345.03 -6581.90 -6840.51 -6847.62 -6838.65 -6820.91 -6815.45 -6811.54 -6808.39 -6806.86 -6813.39 -6821.36 -6827.39 -6838.79 -6838.83 -6839.75 -6840.49 -6847.56 -6853.18 -6855.95 -6886.72 -7219.13 -8326.73 -8787.78 -8867.96 -8867.24 -8865.69 -8865.40 -8865.04 -8864.64 -8864.58
-6974.07 -6973.79 -6657.31 -6763.65 -7074.96 -7109.60 -7110.85 -7103.15 -7085.94 -7083.54 -7084.60 -7082.22 -7080.46 -7080.30 -7090.60 -7100.54 -7099.42 -7104.48 -7105.16 -7106.94 -7109.45 -7108.13 -7114.24 -7114.40 -7116.91 -7115.45 -7120.54 -7121.42 -7112.95 -7116.51 -7114.82 -7115.01 -7115.83 -7116.63 -7122.16 -7137.33 -7153.59 -7163.61 -7174.98 -7108.15 -7040.44 -5621.20 -4603.80 -3327.73 -3027.67 -2787.18 -2441.93 -2096.00 -1599.32 -1365.36 -1145.72 -873.87 -734.64 -537.62 -486.66 -358.05 -311.81 -259.21 -220.80 -187.50 -162.50 -125.91 -104.93 -79.77 -67.37 -55.20 -35.78 -21.06 -14.21 -9.07 -3.68 0.22 6.24 8.05 11.35 16.42 18.20 19.73 24.31 25.05 25.74 25.42 39.56 54.01 146.05 210.39 246.86 464.00 1973.44 3532.66 5324.98 7161.77 7070.62 7068.27 5473.93 3305.29 212.83 109.07 -79.71 -1161.30 -2483.12 -4798.37 -5487.66 -5595.93 -5990.72 -6430.70 -6345.67 -6273.70 -6240.38 -6243.17 -6281.29 -6558.86 -6829.57 -6849.06 -6839.47 -6829.96 -6821.25 -6819.14 -6820.68 -6821.38 -6829.48 -6833.79 -6839.16 -6846.91 -6851.02 -6845.96 -6845.39 -6849.15 -6854.08 -6858.65 -6871.30 -7177.18 -8434.35 -8769.05 -8869.05 -8868.81 -8867.35 -8866.56 -8865.79 -8865.59 -8865.65
-6839.52 -6839.69 -6180.21 -6673.02 -7080.91 -7114.63 -7115.72 -7109.86 -7093.48 -7093.02 -7091.19 -7091.11 -7090.44 -7090.81 -7099.37 -7114.02 -7117.49 -7119.51 -7121.26 -7127.43 -7125.64 -7130.73 -7129.88 -7132.61 -7136.11 -7133.76 -7133.37 -7135.68 -7136.43 -7130.12 -7127.17 -7123.00 -7121.70 -7123.72 -7124.96 -7143.05 -7160.08 -7163.22 -7172.42 -7110.02 -7068.72 -6682.22 -5656.55 -3874.97 -3100.06 -2837.56 -2677.96 -2361.37 -2012.41 -1707.15 -1344.86 -993.67 -809.77 -614.01 -495.26 -349.82 -284.11 -256.83 -217.52 -189.74 -168.05 -125.00 -103.52 -92.71 -80.18 -65.89 -44.18 -31.45 -27.28 -16.30 -9.72 -5.09 -0.69 -0.11 4.03 7.98 11.76 16.59 11.59 16.07 16.32 18.96 26.25 32.04 107.19 203.69 237.59 385.50 1540.29 3992.38 5232.98 6778.82 4516.35 4017.25 3671.94 663.60 42.22 -560.47 -1025.55 -1722.68 -2920.08 -5012.37 -5398.76 -5200.62 -5416.44 -6170.38 -6218.50 -6230.77 -6240.53 -6249.46 -6323.75 -6473.05 -6758.67 -6848.78 -6839.87 -6834.45 -6830.70 -6832.21 -6832.38 -6834.23 -6836.11 -6842.48 -6849.07 -6854.78 -6858.30 -6849.86 -6849.91 -6854.77 -6858.88 -6860.95 -6866.07 -7302.78 -8379.06 -8811.45 -8870.62 -8869.93 -8868.73 -8867.74 -8867.02 -8866.77 -8866.84
