-12411.05 -12410.99 -12406.90 -12406.15 -12409.18 -12414.19 -12409.83 -12400.91 -12382.54 -12373.96 -12374.54 -12376.63 -12379.82 -12383.84 -12402.28 -12431.91 -12442.57 -12451.43 -12461.91 -12471.13 -12469.15 -12440.11 -12391.51 -12124.44 -11805.83 -11719.53 -12120.29 -12257.71 -11955.29 -11838.01 -11615.53 -11222.19 -10962.36 -10531.55 -9865.70 -8993.63 -8392.11 -8371.37 -8539.70 -8435.69 -8807.46 -9432.84 -9611.29 -10801.21 -11107.33 -11548.36 -12148.64 -12052.04 -12148.89 -12387.39 -12634.31 -12637.46 -12628.57 -12632.97 -12636.75 -12648.86 -12697.75 -12720.44 -12718.12 -12712.72 -12709.72 -12700.55 -12681.80 -12510.53 -12439.47 -12458.38 -12444.02 -12477.64 -12396.29 -12197.37 -11513.27 -10881.50 -10849.97 -10709.74 -10197.47 -9440.56 -8503.48 -6034.27 -3876.52 -3311.94 -2419.17 -2021.14 -1345.23 -452.05 -439.35 -220.20 91.94 105.30 183.42 244.51 255.15 270.47 279.53 282.96 287.29 271.42 -69.82 -540.90 -2070.30 -2950.51 -2664.43 -2460.42 -2450.52 -1623.20 -1756.78 -1434.84 -1570.52 -596.32 -555.82 -498.24 -859.75 -3143.69 -7476.26 -10690.58 -14011.80 -15110.51 -15123.24 -14928.41 -12160.16 -10057.50 -7604.00 -7211.54 -7113.58 -7100.93 -7088.93 -7062.40 -7038.13 -7019.04 -7007.59 -6995.50 -7026.00 -7433.32 -8581.26 -8824.82 -8949.76 -8944.86 -8939.55 -8936.42 -8933.58 -8927.95 -8928.01
-12414.64 -12414.65 -12414.82 -12415.45 -12415.81 -12416.59 -12417.44 -12401.43 -12382.97 -12375.93 -12375.74 -12378.01 -12381.86 -12385.93 -12411.88 -12434.99 -12448.96 -12456.82 -12466.01 -12471.55 -12466.71 -12375.00 -12007.24 -11437.27 -10714.85 -10855.13 -10870.64 -11530.52 -11326.89 -11177.10 -10899.90 -10149.75 -9525.38 -9219.22 -8831.15 -8159.92 -7729.67 -7637.58 -7759.44 -7785.72 -7984.05 -8038.91 -8630.25 -9475.21 -10327.47 -10740.95 -11386.37 -11808.86 -11969.18 -12096.25 -12413.71 -12515.13 -12597.54 -12578.88 -12612.26 -12626.04 -12685.58 -12714.11 -12713.39 -12708.99 -12706.11 -12701.41 -12679.43 -12476.08 -12411.73 -12394.14 -12390.76 -12372.76 -12333.92 -11842.41 -10506.17 -10376.38 -10142.84 -9848.26 -9196.41 -8846.91 -6933.97 -4295.64 -2639.02 -2022.12 -1033.42 -403.69 -345.83 76.85 215.22 237.41 234.05 246.45 240.85 262.01 281.62 284.36 292.76 300.45 303.80 280.37 80.68 -769.57 -1837.88 -2096.89 -2802.45 -3190.16 -3315.85 -3154.55 -3108.82 -2924.26 -2192.30 -1583.46 -921.36 -761.95 -793.51 -3730.91 -6583.34 -10121.92 -13487.11 -15010.81 -15001.40 -14745.22 -12091.65 -9496.64 -7552.95 -7152.06 -7119.35 -7104.92 -7097.98 -7072.95 -7045.85 -7025.37 -7011.78 -6998.67 -7001.66 -7650.62 -8590.02 -8869.16 -8939.58 -8941.88 -8937.95 -8933.89 -8928.87 -8925.75 -8925.59
-12416.16 -12416.06 -12416.38 -12417.25 -12418.14 -12419.63 -12418.21 -12408.75 -12390.65 -12377.87 -12379.12 -12381.54 -12385.10 -12391.69 -12420.11 -12442.12 -12452.44 -12461.35 -12469.98 -12473.73 -12457.08 -12314.34 -11615.04 -10573.76 -9866.06 -9755.34 -10198.02 -10488.76 -9969.43 -10148.94 -10239.04 -9534.42 -8554.63 -8137.29 -8090.49 -7681.50 -6889.16 -6937.55 -6602.77 -7371.50 -7315.41 -7837.94 -8289.04 -9004.71 -9404.41 -9718.27 -10744.98 -11233.15 -11323.04 -11671.39 -12018.28 -12306.61 -12288.86 -12456.65 -12551.05 -12628.53 -12647.69 -12699.19 -12697.28 -12693.05 -12690.31 -12688.01 -12662.28 -12454.61 -12372.18 -12354.83 -12182.04 -12172.42 -12084.87 -11516.30 -10315.36 -9265.43 -8879.93 -7467.48 -6309.47 -5092.46 -3055.96 -2617.09 -1692.78 -882.24 -67.23 182.07 191.63 261.79 262.00 271.77 288.61 268.48 268.96 285.60 284.24 289.92 324.97 340.44 328.91 298.73 273.78 -72.31 -285.24 -663.93 -1565.21 -3272.35 -3554.13 -3635.19 -3777.53 -3921.38 -3326.88 -2717.54 -2125.64 -1734.15 -952.28 -1823.13 -3501.61 -8373.05 -13815.54 -15133.29 -15024.67 -14203.51 -12049.26 -10822.75 -7445.82 -7225.84 -7107.45 -7106.16 -7101.86 -7078.46 -7054.17 -7031.25 -7014.00 -6998.25 -7078.52 -7405.71 -7919.77 -8914.08 -8940.91 -8939.99 -8937.10 -8931.14 -8929.12 -8924.41 -8924.47
-12417.26 -12417.20 -12417.89 -12419.00 -12420.32 -12422.11 -12422.27 -12413.04 -12384.73 -12381.44 -12382.27 -12385.82 -12391.47 -12397.13 -12415.43 -12441.01 -12455.71 -12466.80 -12475.15 -12469.86 -12424.66 -12220.90 -11378.05 -10556.32 -9415.42 -9316.91 -9324.60 -9471.06 -9177.78 -9209.25 -9111.32 -8621.39 -7756.63 -6535.66 -5460.03 -4129.18 -4645.21 -4141.46 -4492.09 -5067.60 -6349.75 -7474.95 -8342.88 -8799.03 -8902.60 -9031.20 -9569.75 -9987.41 -10513.05 -10417.54 -10756.84 -11137.39 -11511.98 -11837.72 -12247.90 -12339.84 -12602.10 -12607.11 -12481.20 -12606.01 -12609.19 -12649.30 -12544.88 -12284.86 -12156.54 -11909.83 -11917.44 -11263.85 -10928.10 -10225.31 -9013.60 -8341.83 -8215.72 -5407.00 -3829.50 -3247.22 -1639.06 -556.34 -289.92 51.63 241.16 251.51 274.53 284.46 287.83 297.70 301.44 288.48 293.17 297.71 322.87 328.54 364.51 373.68 360.98 301.38 277.62 132.75 73.24 -424.59 -1254.15 -2742.27 -3487.67 -3858.47 -3909.40 -4091.13 -4195.88 -4097.37 -3611.27 -2663.70 -1858.65 -1295.50 -2842.89 -6352.28 -14530.61 -15299.29 -15186.09 -12881.29 -11166.86 -9912.97 -8098.70 -7366.99 -7109.45 -7101.42 -7110.62 -7090.49 -7061.34 -7039.57 -7017.58 -7003.23 -7059.26 -7282.46 -8506.64 -8875.60 -8942.41 -8936.70 -8934.27 -8929.60 -8926.30 -8923.73 -8923.07
-12415.36 -12415.30 -12412.33 -12418.99 -12420.33 -12421.43 -12421.74 -12407.05 -12393.69 -12385.58 -12387.14 -12390.86 -12394.76 -12399.10 -12418.44 -12452.66 -12462.14 -12472.46 -12478.85 -12474.60 -12441.75 -12136.50 -11130.67 -10205.87 -9386.89 -9291.36 -9318.29 -9195.35 -8786.85 -8480.04 -8495.12 -8268.54 -6051.86 -3790.21 -3005.91 -2384.04 -1535.46 -1174.39 -1477.99 -1973.69 -2066.02 -5597.80 -7473.50 -8815.78 -7963.42 -8819.75 -8840.46 -8779.37 -9087.95 -9185.02 -9612.13 -9880.22 -10334.65 -10719.17 -11176.73 -11895.03 -12019.20 -12201.64 -12204.32 -12317.98 -12197.14 -11609.09 -11957.95 -11754.01 -11398.48 -11025.43 -11165.39 -10155.21 -10170.44 -9188.69 -7507.65 -5772.05 -3543.25 -2873.47 -2179.39 -1256.80 -200.17 118.29 246.92 246.67 250.97 260.03 275.80 287.69 292.48 301.15 310.20 322.76 324.33 338.82 357.07 384.32 398.84 391.18 345.79 298.32 293.66 265.96 145.49 -188.53 -1580.58 -2570.97 -3476.68 -3718.78 -3711.10 -4001.24 -4300.85 -4310.14 -4230.50 -3750.96 -3053.46 -2606.31 -1992.56 -3882.28 -12035.48 -15095.90 -14231.89 -11944.61 -10811.01 -9618.94 -7751.51 -7309.63 -7130.05 -7094.96 -7102.92 -7095.28 -7073.13 -7051.15 -7021.74 -7006.23 -7046.03 -7466.11 -8456.35 -8896.16 -8939.72 -8936.55 -8932.89 -8928.82 -8925.73 -8921.35 -8921.41
-12394.44 -12394.40 -12392.42 -12402.79 -12400.31 -12402.17 -12405.90 -12398.99 -12389.93 -12387.93 -12390.27 -12395.74 -12399.61 -12409.82 -12429.07 -12456.17 -12462.42 -12474.77 -12479.78 -12478.64 -12432.14 -12177.93 -11116.11 -10397.50 -9578.31 -9594.20 -9700.46 -9515.64 -8570.86 -7986.71 -7641.73 -6941.71 -5883.77 -1837.52 -892.52 -111.46 -154.05 113.27 178.95 -214.25 -221.70 -706.04 -4207.05 -5015.33 -5073.59 -6409.44 -6156.00 -6856.96 -6656.28 -7730.91 -8178.50 -7794.34 -7648.08 -9326.55 -8754.73 -8956.34 -9622.34 -10203.55 -10095.15 -10268.22 -9762.06 -10366.46 -9798.82 -10068.19 -9425.84 -8547.20 -7968.44 -8208.37 -7545.76 -7027.47 -4745.07 -2869.99 -1946.86 -1691.39 -628.39 112.82 246.74 255.36 256.50 254.39 260.37 268.66 276.85 288.69 299.35 310.21 334.84 336.52 343.25 377.05 383.68 408.85 418.88 403.91 384.34 331.32 321.83 370.48 184.23 -80.54 -1144.37 -2177.91 -3148.17 -3335.31 -3561.67 -3862.80 -4177.84 -4222.72 -4289.32 -4361.11 -3961.88 -3454.59 -2910.94 -6944.58 -12589.14 -13365.33 -11518.53 -10032.81 -10152.82 -9133.00 -8276.35 -7449.18 -7149.79 -7086.56 -7094.06 -7090.15 -7069.39 -7049.51 -7023.59 -6998.84 -7033.58 -7321.80 -8258.98 -8896.12 -8934.85 -8935.46 -8931.69 -8926.43 -8923.29 -8919.79 -8919.86
-12380.28 -12381.04 -12381.81 -12384.95 -12387.03 -12389.82 -12390.06 -12387.96 -12387.51 -12389.32 -12393.32 -12398.45 -12402.90 -12410.14 -12426.52 -12453.37 -12467.27 -12473.51 -12481.70 -12479.98 -12435.93 -12307.75 -11622.37 -10745.93 -10684.97 -10364.90 -10626.72 -10554.96 -8507.20 -7579.63 -6771.47 -5214.30 -3666.03 -1150.12 -102.49 235.72 267.38 273.10 265.37 260.58 256.47 236.30 -984.34 -1246.65 -1257.43 -3099.02 -3818.55 -4140.06 -4417.40 -5850.33 -6277.29 -6498.38 -6816.04 -6772.84 -7038.37 -7514.62 -7584.18 -7575.58 -7787.42 -7536.09 -7533.83 -7787.17 -7425.35 -7826.52 -7288.82 -6833.31 -6980.26 -6099.21 -6000.72 -4698.10 -2780.84 -1419.96 -892.72 -283.31 150.52 292.70 272.45 267.31 259.42 254.22 261.53 267.53 281.45 291.43 297.81 325.81 338.81 357.00 375.86 394.97 410.25 434.77 448.59 419.81 408.97 389.29 390.05 421.91 372.05 -46.15 -151.08 -1189.41 -2425.04 -2902.24 -3194.08 -3635.79 -3862.11 -4029.55 -4207.44 -4434.50 -4562.01 -4712.86 -4918.08 -7352.91 -9865.41 -7915.49 -6289.99 -8355.94 -8642.49 -9009.02 -8315.50 -7701.18 -7255.19 -7078.62 -7091.74 -7094.29 -7072.08 -7047.94 -7028.72 -7000.72 -7002.94 -7262.03 -8506.18 -8851.84 -8944.33 -8937.25 -8931.96 -8926.23 -8921.72 -8918.40 -8918.46
-12376.57 -12377.02 -12377.80 -12379.27 -12381.31 -12384.39 -12385.24 -12386.11 -12385.87 -12387.87 -12394.62 -12398.43 -12404.57 -12412.31 -12433.20 -12453.14 -12467.95 -12475.35 -12482.06 -12483.77 -12464.35 -12370.47 -12043.83 -11751.33 -11662.03 -11884.18 -11806.21 -11287.41 -9153.23 -7408.64 -6707.69 -4759.95 -2682.09 -1194.27 70.80 204.71 261.99 346.02 358.63 285.34 266.97 244.18 237.47 228.83 193.80 -11.79 -370.84 -433.24 -805.20 -2331.94 -3965.57 -4271.34 -5739.06 -6814.51 -6851.89 -6869.85 -6988.07 -6934.61 -6770.19 -6807.57 -6741.77 -6733.17 -6763.39 -6756.55 -6366.12 -5352.32 -5462.32 -4777.79 -3634.19 -2558.05 -1565.54 -466.05 -89.82 257.81 322.72 357.11 315.71 266.18 256.23 252.22 255.18 270.16 279.73 293.44 311.16 331.68 350.43 372.88 396.07 398.56 424.38 466.24 466.58 462.41 454.50 430.05 421.74 481.30 520.03 284.06 9.96 -362.19 -1599.58 -2126.49 -2892.21 -3437.30 -3729.28 -3870.23 -4175.97 -4483.33 -4813.03 -5082.67 -5118.66 -5651.33 -4817.27 -4101.23 -3687.19 -4845.01 -6862.45 -8444.31 -8328.04 -7725.38 -7324.92 -7117.97 -7092.92 -7093.57 -7084.49 -7058.51 -7029.96 -7010.09 -7007.65 -7250.54 -8403.83 -8917.65 -8945.18 -8940.94 -8930.94 -8925.71 -8921.10 -8917.89 -8917.15
-12371.93 -12372.58 -12373.51 -12375.22 -12376.38 -12378.99 -12381.59 -12384.55 -12382.77 -12385.64 -12392.04 -12397.27 -12403.35 -12413.41 -12429.85 -12459.23 -12467.55 -12478.66 -12481.46 -12484.76 -12481.31 -12468.38 -12423.40 -12339.73 -12347.07 -12369.20 -12202.60 -11892.85 -10547.88 -8493.15 -6991.33 -5120.18 -1925.39 -937.94 190.17 226.91 257.52 308.95 424.41 386.95 335.54 264.59 265.27 251.80 271.46 258.40 246.41 243.88 -43.62 -615.23 -789.96 -970.81 -2381.08 -4359.63 -4353.78 -4691.50 -6317.86 -6742.45 -6309.77 -6445.83 -6407.36 -6526.47 -6527.03 -5510.99 -5204.57 -3603.46 -2849.27 -2493.71 -2017.33 -1430.23 -789.57 88.42 256.20 302.36 338.13 367.42 306.12 257.62 254.13 252.33 256.39 268.24 277.65 295.99 314.21 327.76 362.71 385.59 407.81 435.11 470.76 481.58 502.36 515.03 495.66 443.51 465.52 492.23 555.98 608.38 301.60 127.23 -358.95 -1906.47 -2488.37 -3164.38 -3541.42 -3747.92 -4039.17 -4177.75 -4294.04 -4989.46 -5218.89 -5164.36 -4892.86 -4351.13 -3944.34 -4231.79 -5658.64 -7718.21 -8012.49 -7638.46 -7381.89 -7184.36 -7109.80 -7105.29 -7088.04 -7074.10 -7035.06 -7017.42 -7017.47 -7408.75 -8417.05 -8898.58 -8945.11 -8941.84 -8935.20 -8927.21 -8920.02 -8916.69 -8915.88
-12364.95 -12364.89 -12364.39 -12367.18 -12371.92 -12372.44 -12375.02 -12378.79 -12378.99 -12382.71 -12388.73 -12395.39 -12403.05 -12410.46 -12431.03 -12456.15 -12466.48 -12474.04 -12478.39 -12483.81 -12485.44 -12479.23 -12459.95 -12471.49 -12465.94 -12460.57 -12453.65 -12185.61 -11054.69 -9707.38 -7914.13 -5650.37 -1565.93 -427.91 199.54 231.05 248.67 290.39 391.77 444.48 406.41 307.21 336.93 298.26 292.04 278.04 274.04 291.19 255.68 246.94 238.33 78.88 -540.23 -1282.04 -2108.42 -3031.16 -4162.02 -4960.57 -4860.73 -5197.27 -5248.19 -5022.80 -3890.99 -3453.83 -3242.15 -2054.29 -2214.26 -1995.07 -960.08 -374.75 14.42 286.28 361.73 358.80 337.33 304.50 274.59 256.02 252.66 253.56 258.76 268.44 278.32 295.38 310.23 330.48 364.06 378.88 418.40 449.10 471.58 492.48 517.67 547.55 536.51 527.12 533.04 533.74 545.39 571.30 570.68 335.94 39.15 -963.36 -1978.10 -2708.38 -3472.11 -3785.65 -4016.89 -4034.83 -4359.44 -4861.16 -5031.88 -5260.29 -5406.38 -5319.28 -5291.65 -5219.26 -5659.97 -7221.99 -7671.46 -7585.39 -7395.54 -7199.09 -7123.32 -7114.60 -7107.26 -7088.91 -7060.30 -7029.81 -7020.64 -7353.00 -8385.02 -8894.42 -8955.78 -8944.77 -8935.06 -8928.98 -8920.10 -8914.68 -8914.74
-12354.96 -12356.16 -12357.03 -12357.48 -12356.57 -12365.41 -12363.33 -12371.33 -12375.24 -12380.98 -12386.71 -12396.06 -12404.70 -12411.54 -12425.64 -12449.71 -12458.62 -12467.87 -12474.43 -12476.79 -12476.88 -12475.59 -12432.59 -12397.31 -12400.37 -12426.10 -12422.09 -12288.77 -11298.77 -9988.50 -7447.53 -3593.47 -1222.65 169.30 208.68 224.14 235.70 291.55 360.37 443.20 411.04 387.36 370.42 354.95 362.13 353.95 409.57 394.07 311.50 262.60 252.51 243.91 221.95 -46.46 -232.88 -1154.19 -1230.11 -2219.48 -1999.00 -1844.40 -3308.02 -2828.70 -1596.06 -1714.43 -1129.94 -1606.45 -1657.36 -1252.07 -583.93 -49.66 258.47 356.23 353.29 333.17 284.95 282.10 264.87 253.34 250.58 255.46 264.02 269.94 285.50 308.23 323.86 345.52 368.31 398.56 435.13 458.26 476.91 513.03 537.31 560.00 580.48 559.50 565.67 582.92 594.33 580.42 605.62 474.05 325.34 -128.53 -793.88 -2829.67 -3241.05 -3535.62 -3812.41 -4169.89 -4576.74 -4629.08 -4896.99 -5197.18 -5314.34 -5408.08 -5522.49 -5591.85 -5781.72 -6338.69 -7717.07 -7642.47 -7420.90 -7229.45 -7143.59 -7128.06 -7123.21 -7095.31 -7076.27 -7061.04 -7085.56 -7284.91 -8404.88 -8806.96 -8892.28 -8953.27 -8940.73 -8927.99 -8921.60 -8915.01 -8913.80
-12336.75 -12336.70 -12335.89 -12342.34 -12346.58 -12350.09 -12352.99 -12364.86 -12379.38 -12397.09 -12397.59 -12407.41 -12415.03 -12424.66 -12433.32 -12441.57 -12449.00 -12453.46 -12462.11 -12462.99 -12456.68 -12326.43 -12171.31 -12096.07 -12134.89 -12233.63 -12180.24 -11902.97 -10859.28 -9886.29 -8197.16 -3323.89 -728.23 198.99 218.65 226.99 245.64 302.61 322.40 388.92 389.36 447.73 546.04 507.73 428.25 419.35 520.34 419.32 334.50 300.45 257.12 251.89 237.89 218.78 137.51 -58.07 -203.25 -228.31 -540.20 -796.17 -858.92 -769.42 -659.18 -584.78 -436.88 -656.02 -801.13 -279.77 156.40 265.16 298.28 338.68 312.58 297.18 271.94 267.32 259.62 251.81 250.55 257.18 262.97 274.78 293.18 311.80 333.09 354.17 380.64 408.64 454.44 472.19 487.54 543.62 556.61 605.01 607.34 613.84 611.38 634.28 643.97 633.03 620.58 682.00 414.44 98.63 -505.02 -2245.58 -2872.91 -3492.80 -3681.71 -3921.71 -4230.25 -4411.46 -4842.61 -5054.78 -5228.56 -5431.59 -5616.11 -5716.79 -5422.07 -6204.62 -7689.41 -7597.09 -7416.40 -7229.97 -7154.83 -7151.88 -7140.52 -7124.88 -7109.77 -7085.98 -7146.11 -7491.32 -8151.90 -8794.57 -8876.12 -8954.27 -8942.00 -8932.53 -8921.44 -8913.00 -8913.07
-12319.34 -12319.29 -12319.66 -12322.65 -12323.87 -12329.64 -12332.28 -12355.67 -12390.05 -12399.45 -12406.70 -12417.95 -12425.09 -12433.20 -12434.43 -12431.64 -12437.10 -12442.11 -12443.90 -12448.15 -12426.48 -12205.05 -11948.79 -11905.72 -11900.69 -11921.10 -11856.44 -11788.15 -11000.65 -9916.94 -8567.51 -1862.69 203.53 213.66 222.08 225.01 243.21 373.15 434.03 472.13 532.69 492.73 650.14 657.06 569.86 621.51 611.59 476.28 348.74 315.57 274.46 261.55 252.51 244.92 209.56 176.99 149.76 139.67 -45.01 -154.34 -207.03 -235.96 -91.07 -112.14 -38.17 166.80 154.76 126.01 276.87 324.14 309.34 317.16 293.23 269.78 256.88 257.67 252.65 249.46 251.20 258.04 263.01 279.70 295.84 314.60 339.29 354.94 396.94 423.38 452.31 476.40 517.51 541.48 552.30 623.01 649.54 673.86 656.16 668.51 694.34 684.17 721.77 755.31 636.65 269.17 -556.99 -1552.44 -2451.18 -3081.53 -3703.31 -3949.91 -4135.31 -4333.01 -4655.00 -4744.49 -5110.79 -5363.84 -5665.24 -5756.58 -5600.33 -6459.32 -7717.74 -7479.73 -7419.36 -7228.30 -7171.77 -7160.21 -7155.73 -7144.60 -7131.21 -7121.50 -7167.28 -7350.31 -7854.38 -8555.93 -8888.37 -8961.68 -8946.90 -8933.79 -8921.00 -8912.45 -8912.51
-12302.23 -12302.18 -12300.08 -12305.05 -12313.78 -12318.07 -12323.42 -12343.96 -12381.29 -12387.79 -12400.84 -12407.37 -12417.62 -12426.73 -12426.57 -12422.54 -12424.78 -12429.09 -12438.36 -12440.41 -12425.60 -12179.29 -11972.11 -11882.53 -11878.56 -11868.30 -11835.51 -11486.40 -10996.16 -8601.41 -4518.20 -146.43 203.47 219.67 225.60 246.98 262.67 367.63 476.36 473.80 526.38 588.05 689.53 737.34 695.69 615.26 530.46 469.46 385.98 330.99 313.15 294.84 264.77 261.15 243.69 231.57 221.88 216.44 178.00 146.25 166.62 180.95 142.16 173.84 235.83 250.28 279.83 309.50 313.88 303.50 300.69 285.95 267.84 261.47 254.40 251.22 250.48 249.73 250.41 258.12 264.22 282.92 304.18 326.09 347.52 372.85 401.35 422.28 463.84 483.13 531.68 549.56 570.75 624.98 664.52 682.55 699.07 720.27 730.02 754.05 748.52 744.95 723.52 619.29 -23.79 -473.77 -1190.74 -2266.53 -3365.97 -3887.59 -4158.79 -4368.14 -4403.62 -4697.85 -5027.56 -5271.87 -5563.41 -5924.10 -6622.31 -8275.32 -8169.28 -7608.94 -7338.71 -7206.87 -7170.45 -7162.93 -7161.78 -7154.45 -7143.22 -7130.57 -7171.98 -7335.21 -7649.58 -8450.68 -8860.45 -8968.32 -8951.64 -8932.46 -8920.07 -8912.00 -8912.06
-12282.34 -12284.29 -12286.19 -12288.52 -12292.35 -12298.66 -12310.72 -12322.43 -12357.24 -12376.80 -12388.36 -12395.70 -12407.82 -12418.15 -12420.03 -12416.98 -12422.32 -12427.03 -12434.52 -12440.28 -12423.99 -12191.31 -11987.04 -11871.49 -11865.99 -11800.58 -11663.99 -10701.32 -9560.40 -6881.86 -1196.38 -45.29 202.86 217.32 238.55 252.62 258.74 338.92 412.69 377.20 462.48 589.11 662.44 746.53 743.48 626.39 483.06 450.76 371.97 347.76 331.99 299.17 275.40 266.62 257.41 239.45 230.36 223.44 225.10 224.31 222.90 231.65 241.64 244.27 261.49 278.60 301.06 303.15 290.52 282.95 278.88 271.10 262.52 254.09 252.71 248.80 248.91 249.50 252.71 262.49 267.53 285.73 306.50 329.28 354.53 385.84 408.46 432.06 463.49 484.93 538.33 549.89 579.19 626.37 665.56 681.17 742.31 754.20 780.17 809.89 709.21 597.46 642.88 670.86 267.82 -50.60 -474.69 -2427.03 -3374.62 -4075.94 -4265.06 -4289.53 -4331.80 -4805.57 -5217.39 -5446.50 -5625.18 -5801.98 -6103.99 -6170.34 -7034.07 -7606.02 -7469.35 -7225.52 -7177.05 -7158.19 -7156.98 -7156.00 -7151.40 -7146.57 -7176.00 -7228.30 -7549.03 -8573.27 -8859.51 -8972.71 -8953.11 -8931.93 -8919.69 -8912.32 -8911.55
-12258.99 -12258.94 -12259.46 -12265.82 -12273.96 -12277.69 -12284.54 -12304.56 -12336.73 -12362.87 -12373.89 -12386.10 -12396.77 -12401.18 -12409.21 -12407.26 -12414.03 -12421.96 -12431.61 -12441.00 -12426.59 -12242.68 -11948.82 -11862.53 -11748.93 -11689.62 -11445.44 -10350.57 -8241.36 -3726.56 -1398.05 -18.37 213.80 225.98 234.00 248.21 284.53 392.36 386.49 421.03 464.54 489.71 564.34 664.14 777.93 675.68 622.10 505.52 398.83 374.06 325.50 308.97 292.52 277.97 265.56 250.91 241.43 234.50 233.85 243.48 252.86 258.31 267.27 295.55 300.16 301.14 297.23 272.16 270.56 269.61 264.47 252.29 251.64 249.86 246.69 244.55 246.37 249.70 253.07 262.81 270.17 284.61 309.41 330.53 364.40 398.46 419.91 439.03 481.98 496.94 534.69 577.69 618.50 639.80 675.88 715.04 745.55 761.85 806.67 860.77 750.60 617.62 458.82 513.96 390.34 54.69 -245.64 -886.02 -2756.51 -4180.69 -4341.12 -4229.44 -4579.86 -5129.43 -5311.83 -5465.97 -5596.50 -5739.83 -5972.42 -5952.31 -6158.32 -7321.19 -7398.49 -7301.46 -7202.69 -7152.74 -7154.12 -7157.54 -7159.47 -7156.61 -7202.82 -7418.65 -7790.19 -8449.28 -8917.15 -8963.16 -8946.34 -8935.86 -8924.18 -8910.77 -8910.84
-12232.09 -12232.04 -12227.86 -12238.02 -12242.29 -12254.95 -12255.22 -12287.17 -12313.71 -12326.85 -12340.59 -12366.39 -12379.76 -12391.37 -12396.49 -12396.65 -12406.41 -12417.64 -12425.67 -12436.09 -12410.51 -12166.21 -11577.25 -11626.29 -11346.52 -10749.29 -10411.73 -9451.90 -6025.63 -2226.54 -810.15 65.43 215.05 232.93 238.34 252.43 354.63 422.62 397.89 467.72 486.23 555.02 644.13 674.06 738.69 689.58 627.56 562.47 403.81 380.62 355.06 324.21 310.47 287.53 276.64 266.41 258.70 252.17 275.07 277.40 270.25 305.58 332.58 323.50 327.94 308.21 288.35 270.20 267.30 261.13 257.99 250.90 249.47 247.14 245.35 245.18 245.94 249.95 254.53 261.60 274.83 295.57 314.59 327.00 373.10 400.05 424.24 461.10 481.77 522.07 546.90 597.26 620.04 650.08 689.63 722.62 753.00 781.41 849.38 904.59 913.90 735.71 486.55 925.07 904.10 380.97 -205.38 -1195.26 -2796.92 -3744.88 -4241.07 -4303.93 -4680.92 -5033.32 -5320.82 -5429.02 -5585.80 -5685.52 -5654.29 -4674.49 -4385.67 -6526.96 -7068.39 -7361.80 -7198.38 -7160.09 -7144.85 -7152.06 -7151.49 -7153.41 -7181.29 -7428.06 -8364.13 -8765.78 -8909.79 -8949.13 -8927.83 -8933.37 -8927.19 -8909.83 -8909.90
-12202.69 -12202.64 -12203.30 -12208.74 -12214.52 -12224.03 -12238.53 -12248.70 -12276.20 -12293.31 -12309.29 -12341.28 -12345.35 -12367.27 -12379.61 -12385.61 -12391.80 -12402.12 -12411.31 -12404.99 -12333.71 -11768.73 -11003.90 -10562.26 -9682.17 -9675.47 -7987.59 -6843.92 -2746.28 -190.57 204.80 204.08 234.31 246.90 265.23 283.84 341.99 452.58 528.62 507.11 565.72 537.40 602.50 672.77 689.42 643.26 575.00 521.57 464.13 404.84 374.60 336.67 323.30 302.19 296.83 288.54 285.15 286.30 287.18 312.13 315.26 373.09 401.52 366.10 327.59 303.67 286.08 271.88 268.44 264.29 254.48 251.84 248.11 246.86 245.40 245.14 247.73 249.94 254.44 260.85 279.68 298.13 318.94 346.70 381.07 394.43 452.08 468.90 482.35 543.18 554.32 585.63 622.52 661.91 699.57 720.73 756.90 779.21 832.09 891.84 874.19 671.44 497.45 946.61 822.23 171.92 -45.37 -1074.31 -2667.91 -3491.59 -3824.41 -4224.39 -4573.50 -4902.47 -5284.09 -5391.23 -5539.55 -5692.16 -5584.04 -4514.01 -3563.98 -5155.54 -6964.89 -7484.05 -7305.78 -7178.27 -7135.65 -7129.33 -7123.46 -7105.53 -7167.92 -7360.23 -8245.64 -8942.10 -8996.10 -8962.96 -8924.63 -8928.98 -8920.46 -8908.39 -8908.45
-12168.99 -12171.89 -12169.88 -12183.19 -12186.81 -12191.23 -12198.91 -12231.14 -12245.04 -12264.86 -12270.45 -12297.00 -12320.89 -12334.13 -12352.25 -12365.86 -12378.66 -12387.32 -12397.06 -12330.89 -12174.22 -11529.35 -10004.82 -9159.42 -8485.62 -6824.52 -5685.65 -3378.09 -1222.94 226.79 237.85 249.81 265.72 270.56 297.26 376.33 362.67 437.96 583.04 605.96 601.27 638.06 636.30 651.41 639.09 602.17 561.77 537.75 499.36 403.43 378.39 347.66 335.06 326.57 315.05 318.19 293.84 308.55 336.15 391.19 407.87 430.60 412.94 344.54 313.54 298.30 287.04 277.37 268.35 265.96 256.85 252.57 249.96 247.39 245.58 244.88 245.71 249.26 256.33 263.48 283.22 288.65 307.43 349.72 373.75 388.79 445.91 470.27 489.24 532.11 561.48 584.25 637.27 660.69 698.93 739.13 756.42 785.77 829.56 879.07 845.24 757.56 733.53 886.66 846.05 313.77 75.06 -944.37 -2330.51 -3088.48 -3650.58 -4051.78 -4314.64 -4725.96 -5035.17 -5419.93 -5504.35 -5721.31 -5572.38 -4597.66 -3573.92 -4407.56 -7099.08 -7127.51 -7227.20 -7182.56 -7119.50 -7113.63 -7109.34 -7101.85 -7082.61 -7492.44 -8491.18 -8927.69 -8994.58 -8974.71 -8952.53 -8935.35 -8923.05 -8906.01 -8906.08
-12131.21 -12131.16 -12130.33 -12136.74 -12131.26 -12162.61 -12168.01 -12187.43 -12204.48 -12229.06 -12251.79 -12277.92 -12296.10 -12321.97 -12336.48 -12332.37 -12350.28 -12342.06 -12182.47 -12150.31 -11746.51 -10539.61 -9270.55 -7859.20 -6531.26 -5030.66 -3827.94 -2109.96 -149.10 239.93 251.20 268.40 286.71 325.92 422.84 445.08 452.61 503.71 578.78 641.36 623.37 649.06 679.44 649.57 623.92 584.90 556.24 530.22 459.38 440.40 405.30 379.71 353.19 342.32 340.07 354.20 341.07 349.33 411.45 472.80 508.55 468.14 406.08 342.15 320.44 297.50 290.21 279.79 274.15 267.04 263.02 254.50 250.81 249.48 245.48 244.35 246.11 249.69 257.57 271.08 278.78 295.95 323.51 337.90 368.88 393.03 425.66 465.79 492.20 525.98 562.02 598.56 644.61 665.73 691.60 718.48 755.65 786.61 828.92 845.37 812.35 925.88 970.74 1067.20 691.23 254.07 161.09 -113.90 -1350.24 -2815.44 -3664.81 -4123.64 -4274.10 -4611.24 -4938.78 -5329.85 -5524.99 -5699.45 -5595.26 -4922.92 -3862.70 -3497.37 -5853.03 -7107.61 -7255.47 -7191.87 -7122.74 -7107.58 -7102.95 -7092.41 -7077.34 -7450.17 -8445.25 -8941.54 -8992.67 -8971.09 -8948.78 -8936.16 -8919.44 -8903.89 -8903.96
-12090.31 -12090.27 -12083.50 -12094.87 -12101.53 -12108.27 -12111.57 -12155.78 -12174.69 -12206.35 -12229.51 -12249.34 -12283.05 -12298.84 -12295.63 -12284.29 -12165.16 -12046.09 -11752.23 -11257.34 -10701.38 -9769.70 -8036.01 -7072.54 -6275.81 -3953.84 -2237.36 -642.67 242.95 253.15 272.35 287.17 308.45 335.65 457.03 508.05 499.15 609.04 694.30 758.14 685.58 697.86 681.32 657.00 629.61 604.57 573.02 527.36 476.60 449.98 416.01 403.01 374.53 352.44 379.27 388.95 357.41 388.76 509.51 516.71 488.92 440.41 388.99 339.29 328.11 307.38 296.32 282.88 274.28 265.56 260.31 258.07 252.07 250.77 246.17 244.25 246.07 248.02 257.46 268.52 279.04 288.69 312.31 334.31 363.83 393.66 420.88 465.35 501.73 533.73 554.29 600.36 641.73 682.72 705.18 732.21 773.12 793.17 831.89 881.96 893.86 956.40 1014.88 1088.41 933.33 278.69 198.12 -51.35 -1287.33 -3124.13 -3871.44 -4127.77 -4464.56 -4704.16 -5044.70 -5336.88 -5524.82 -5664.59 -5608.73 -5107.67 -4429.57 -5279.93 -7100.78 -7308.83 -7268.64 -7191.64 -7103.75 -7101.05 -7098.58 -7088.81 -7078.51 -7383.49 -8543.28 -8967.51 -8990.08 -8964.02 -8947.79 -8927.60 -8915.70 -8901.52 -8901.59
-12046.79 -12049.30 -12045.43 -12042.94 -12052.34 -12055.93 -12082.21 -12106.90 -12150.51 -12170.53 -12196.07 -12226.53 -12232.45 -12217.33 -12203.70 -11964.70 -11673.87 -11041.25 -10599.92 -10429.35 -10323.75 -9032.13 -7187.64 -6516.10 -4286.88 -2455.73 -1047.01 151.71 249.02 268.04 283.91 305.91 321.77 362.76 401.85 451.18 454.99 536.10 673.68 761.88 755.60 715.08 683.87 658.08 633.79 617.16 581.31 530.76 496.57 471.42 446.97 442.58 409.92 380.84 393.42 418.14 412.93 478.02 542.12 525.19 472.55 428.46 381.00 344.94 330.22 321.37 304.39 285.47 275.84 270.20 261.32 257.72 253.03 249.95 247.88 244.15 244.71 248.92 257.63 266.97 281.96 297.18 312.44 334.81 372.43 403.11 428.30 482.75 513.09 534.40 575.30 605.27 630.17 677.22 698.75 743.72 765.01 785.98 831.82 859.32 920.87 940.29 1001.26 1041.83 893.86 299.84 157.72 -704.45 -1453.53 -2750.20 -3733.78 -4206.78 -4562.60 -4768.08 -5140.22 -5450.06 -5575.74 -5713.53 -5829.82 -5025.82 -4702.74 -6535.70 -7355.66 -7246.86 -7173.83 -7130.17 -7094.88 -7096.43 -7095.96 -7085.10 -7072.15 -7458.02 -8695.62 -8976.46 -8989.05 -8970.96 -8941.16 -8925.59 -8910.50 -8898.73 -8898.81
-12002.14 -12002.10 -11994.50 -12005.81 -12011.72 -12016.86 -12033.25 -12061.61 -12085.96 -12125.24 -12133.11 -12143.40 -12114.96 -11924.86 -11524.08 -11098.08 -10456.69 -10132.12 -9705.84 -9481.46 -9235.41 -8640.97 -6838.88 -5571.36 -3243.00 -2319.33 -666.92 193.34 251.02 262.35 302.07 319.87 321.45 375.84 404.02 439.84 530.34 544.14 639.42 735.46 739.28 692.38 663.97 645.13 626.19 623.57 605.12 584.94 554.67 516.41 469.78 450.64 422.07 415.30 421.82 447.73 462.91 472.60 527.16 529.69 494.32 418.26 411.63 372.49 340.55 328.73 306.22 287.63 283.90 272.74 265.53 263.30 257.51 250.10 245.78 244.18 244.72 248.73 257.82 261.94 288.46 297.73 312.61 340.77 367.29 401.62 437.94 472.60 511.36 535.95 567.10 613.83 636.20 679.29 699.55 741.23 763.80 781.90 838.54 860.08 892.78 937.89 968.82 981.42 765.90 297.14 -55.00 -975.48 -2003.00 -2956.51 -3461.86 -4128.77 -4516.96 -4833.54 -5286.20 -5426.94 -5565.25 -5611.51 -5805.97 -4917.02 -4709.27 -6099.71 -7304.99 -7222.23 -7138.49 -7082.75 -7077.65 -7090.60 -7093.27 -7084.75 -7103.68 -7218.96 -8740.79 -8934.59 -8992.19 -8968.01 -8944.01 -8923.12 -8911.95 -8897.12 -8895.55
-11963.62 -11963.56 -11953.08 -11952.57 -11963.23 -11978.43 -12003.65 -12027.79 -12057.40 -12082.43 -12064.40 -11883.31 -11589.85 -11450.73 -10945.16 -10276.99 -9819.17 -9387.83 -9197.82 -9172.22 -9094.16 -8450.30 -6237.96 -4552.12 -3250.02 -2446.08 -1063.89 16.96 252.89 273.71 306.47 319.87 350.78 383.31 408.83 437.24 512.95 545.13 609.82 713.79 729.41 676.34 637.89 609.59 599.95 589.10 568.61 557.27 537.81 516.64 485.41 449.89 446.94 458.71 448.38 486.23 509.79 506.90 523.84 535.47 517.89 451.19 403.13 380.94 368.72 338.97 324.07 300.17 289.56 278.12 272.02 265.82 256.38 249.39 246.50 243.81 244.42 247.68 256.47 265.00 281.73 296.25 314.95 343.84 362.40 397.53 423.44 457.18 501.43 541.60 554.36 600.58 626.97 665.70 710.39 737.22 759.02 787.09 829.08 840.88 862.14 908.18 918.28 866.92 616.43 221.23 171.64 -702.81 -1732.14 -2993.02 -3566.23 -3738.87 -4587.00 -5085.43 -5336.12 -5401.16 -5503.80 -5203.20 -5407.23 -5506.39 -5965.86 -7231.95 -7350.17 -7177.31 -7092.78 -7052.00 -7073.07 -7091.93 -7091.38 -7087.16 -7087.93 -7322.17 -8216.22 -8893.27 -8987.20 -8970.04 -8937.76 -8924.13 -8904.72 -8892.02 -8892.09
-11925.39 -11925.34 -11909.71 -11906.66 -11898.38 -11908.13 -11951.20 -11967.21 -12008.03 -11961.94 -11892.14 -11607.69 -10901.29 -10137.54 -9350.82 -9259.09 -9009.44 -9026.88 -9078.19 -9104.06 -9064.42 -8416.90 -6265.84 -3734.14 -3143.77 -2536.05 -1654.54 -134.26 251.50 271.75 302.18 314.41 351.12 417.47 434.89 491.14 545.04 534.40 599.86 704.84 716.47 656.51 627.69 582.46 557.78 565.49 555.27 531.11 522.11 519.20 501.67 499.17 496.10 489.15 480.77 509.70 528.42 547.36 577.08 554.86 557.02 490.02 438.27 398.02 373.52 351.80 331.13 306.02 292.76 285.64 274.18 271.21 257.03 247.62 245.35 243.26 243.23 244.92 251.61 263.24 284.56 299.40 322.16 336.12 385.33 409.80 436.33 468.59 496.62 539.88 565.68 594.66 629.01 655.09 700.00 736.69 761.71 794.99 815.23 834.36 797.97 846.33 899.13 883.68 433.63 233.78 140.77 -546.97 -1981.89 -2968.54 -3461.68 -3845.10 -4459.10 -4974.83 -5324.94 -5357.95 -5343.70 -4869.82 -3936.20 -3659.96 -5254.13 -7399.03 -7325.95 -7111.54 -7032.11 -7035.04 -7064.97 -7087.43 -7087.86 -7083.54 -7090.71 -7292.71 -8186.69 -8786.18 -8975.53 -8955.63 -8932.29 -8918.40 -8900.57 -8887.28 -8887.35
-11884.36 -11883.26 -11865.24 -11848.64 -11840.15 -11843.32 -11800.05 -11824.79 -11794.35 -11732.55 -11524.51 -11042.21 -9749.58 -9153.53 -8603.09 -8307.90 -8453.38 -8744.68 -8941.66 -9053.86 -9020.94 -8160.65 -6722.75 -3739.86 -3026.57 -2360.10 -1487.48 -24.65 240.11 271.42 295.32 308.68 346.68 467.00 528.86 534.40 619.97 630.57 672.53 698.24 640.52 637.70 603.45 560.03 540.18 533.99 526.37 517.18 511.95 503.10 498.77 502.23 495.62 497.71 498.72 522.49 551.52 585.28 627.12 595.03 623.77 607.07 486.41 469.60 438.89 414.60 353.45 323.85 306.93 294.98 278.24 272.17 259.99 250.57 241.76 241.81 242.35 243.64 247.37 258.55 273.90 295.42 325.47 348.67 376.82 402.06 430.02 467.89 496.37 527.26 548.90 595.64 631.00 650.48 700.10 728.33 748.25 806.20 819.53 834.03 811.00 711.48 893.11 719.35 447.88 190.77 62.31 -316.64 -1495.78 -2522.46 -3589.14 -3896.48 -4296.28 -4747.79 -5177.77 -5216.53 -5020.44 -4374.37 -2761.95 -1828.39 -3978.53 -6366.69 -7363.18 -7163.44 -7063.89 -7036.96 -7064.44 -7085.21 -7082.48 -7074.76 -7106.26 -7366.34 -8276.69 -8858.68 -8966.80 -8948.40 -8933.93 -8910.44 -8895.36 -8884.42 -8884.50
-11813.41 -11813.38 -11775.79 -11722.78 -11690.03 -11660.16 -11511.86 -11480.68 -11426.37 -10822.64 -10172.73 -9634.98 -8787.49 -7738.76 -7552.47 -7523.83 -7783.60 -8148.40 -8687.26 -8830.20 -8759.33 -7288.17 -5526.17 -3735.01 -3157.91 -2467.15 -1970.13 -590.61 204.35 249.29 284.45 312.99 363.41 449.15 531.94 546.93 630.85 700.79 756.31 745.12 656.69 562.68 539.52 549.97 517.97 503.13 499.46 489.17 489.52 492.35 490.86 491.81 490.46 497.14 511.81 525.28 556.32 588.60 656.87 685.48 680.29 651.94 579.50 519.64 495.36 460.71 396.75 335.84 326.89 300.97 285.59 275.93 260.85 254.76 244.08 240.91 241.01 242.32 243.86 257.17 268.35 291.76 322.66 350.01 368.55 407.16 436.90 463.39 493.44 520.23 547.16 592.76 619.98 650.96 693.42 725.82 742.01 786.07 811.75 843.12 827.52 653.45 668.77 502.23 271.53 187.13 132.28 -57.68 -1406.58 -2527.23 -3546.12 -3919.47 -4355.73 -4722.54 -5113.92 -5038.99 -4596.09 -3892.70 -2129.18 -1488.86 -2579.15 -5454.69 -7343.90 -7182.60 -7064.39 -7038.21 -7054.79 -7071.82 -7072.08 -7063.72 -7085.23 -7510.44 -8531.04 -8978.17 -8963.68 -8951.04 -8918.43 -8907.55 -8889.00 -8880.81 -8880.88
-11587.99 -11588.20 -11444.71 -11125.18 -11044.60 -11035.64 -10762.71 -10234.88 -9989.17 -9473.92 -8577.64 -7672.73 -7535.08 -7228.89 -6960.09 -7156.41 -7284.77 -7526.60 -7929.62 -8121.79 -8532.81 -7391.25 -6456.12 -4469.08 -3638.78 -2469.35 -1810.70 -746.64 9.35 243.20 259.46 317.18 400.21 507.24 529.02 515.17 546.41 622.74 684.92 677.21 646.05 574.01 510.41 488.51 502.77 489.83 474.71 471.28 475.01 458.49 468.08 478.30 490.55 496.31 512.80 528.22 555.10 597.03 662.60 699.56 679.08 645.94 579.30 522.34 479.81 443.50 423.46 356.66 333.00 308.07 293.58 281.21 266.09 256.27 244.90 238.32 234.47 234.45 242.77 251.42 269.48 290.57 308.48 335.27 367.33 405.70 438.73 456.66 493.88 524.96 553.97 596.35 618.47 653.05 688.33 709.84 746.13 789.02 810.30 845.60 787.65 755.65 667.70 299.35 226.83 179.80 76.62 -67.32 -412.63 -2334.93 -3452.86 -3934.77 -4259.67 -4681.99 -5097.42 -5029.76 -3887.72 -2889.41 -1428.13 -1228.16 -2611.87 -6545.91 -7369.51 -7176.48 -7060.72 -7036.83 -7057.04 -7067.33 -7064.07 -7051.82 -7047.16 -7455.32 -8532.13 -8878.32 -8961.70 -8940.63 -8916.99 -8900.04 -8888.29 -8877.07 -8877.15
-10655.22 -10656.22 -10152.80 -10064.07 -9866.66 -9345.47 -9092.58 -8496.57 -7907.05 -7459.60 -7450.20 -7149.98 -6916.73 -6807.66 -6787.98 -6863.13 -6983.30 -7187.90 -7451.81 -7567.03 -7765.75 -7594.99 -6734.73 -5537.32 -3466.18 -2229.65 -1655.02 -1162.56 -74.58 239.10 270.30 329.63 381.56 443.17 473.41 431.68 484.66 534.12 577.08 556.49 541.02 514.89 488.91 451.49 456.31 436.33 451.84 454.84 450.40 450.66 457.94 458.99 477.40 487.41 492.79 522.59 546.29 568.53 631.43 663.00 625.14 577.97 561.36 507.51 470.95 432.72 402.91 394.48 355.20 327.60 306.87 284.74 274.57 258.79 244.92 236.69 230.83 230.29 235.47 240.48 254.24 285.46 300.70 318.06 371.64 403.25 429.46 462.58 510.33 526.24 552.91 595.33 619.67 652.03 688.64 708.90 740.74 779.78 818.02 856.82 903.47 996.75 572.17 298.59 226.08 190.80 44.76 -338.58 -879.10 -1940.46 -3035.54 -3177.99 -3702.47 -4391.34 -4927.45 -4782.76 -3631.32 -2046.86 -996.08 -1062.31 -3236.14 -6410.78 -7307.59 -7111.52 -7052.51 -7034.62 -7055.52 -7063.95 -7057.01 -7050.90 -7076.10 -7373.72 -8320.75 -8875.02 -8957.06 -8937.79 -8911.59 -8899.37 -8881.05 -8872.93 -8873.01
-8632.73 -8635.52 -8576.08 -8133.32 -8213.44 -7390.99 -7332.54 -7020.40 -6983.60 -6755.62 -6627.16 -6659.19 -6670.05 -6716.85 -6760.19 -6814.81 -6893.41 -6965.99 -7101.17 -7142.05 -7187.66 -7099.98 -6614.36 -5999.48 -4592.08 -2503.70 -1895.16 -1060.62 -198.93 229.42 246.85 301.96 315.06 389.43 395.68 404.98 468.68 468.76 463.21 462.50 474.65 461.08 443.13 444.83 422.73 418.67 421.96 427.26 431.33 442.63 454.19 456.85 459.96 476.42 484.85 505.56 520.59 547.88 562.51 612.68 627.25 586.13 544.89 494.71 491.01 464.24 423.07 412.56 368.06 346.50 320.00 290.45 271.04 256.53 242.68 232.73 228.96 229.07 229.30 239.30 246.75 274.20 307.99 327.44 364.47 395.04 423.74 466.64 483.64 523.64 547.28 581.11 634.37 654.97 684.71 728.87 737.32 791.07 836.08 858.93 983.14 824.56 346.66 276.12 234.73 140.57 -11.49 -228.25 -829.78 -1391.54 -1839.91 -2549.09 -2929.57 -3540.15 -4596.75 -3810.99 -3054.61 -1730.11 -1025.07 -1888.42 -4840.35 -6980.35 -7333.71 -7139.65 -7037.19 -7036.38 -7062.19 -7069.55 -7055.57 -7052.35 -7096.78 -7373.34 -8204.20 -8763.60 -8936.42 -8934.10 -8910.61 -8890.63 -8878.63 -8869.68 -8869.76
-6962.93 -6965.88 -6973.96 -7112.55 -6872.25 -6789.27 -6648.24 -6532.34 -6484.66 -6465.51 -6520.70 -6552.41 -6641.80 -6687.21 -6741.68 -6802.73 -6848.16 -6909.19 -6942.99 -7004.55 -7005.56 -6796.31 -6454.31 -6313.24 -4996.04 -2813.95 -2433.36 -947.69 -30.46 218.45 226.23 266.94 308.69 314.78 351.70 416.21 460.45 449.69 410.97 416.56 444.22 438.93 399.19 404.15 394.34 398.94 397.97 402.55 418.36 431.02 446.38 451.60 454.52 461.51 484.02 494.08 513.53 529.09 557.18 598.04 646.20 624.13 594.38 532.79 523.75 496.14 498.04 427.58 375.96 358.91 308.29 290.84 272.15 253.35 241.90 230.56 227.10 226.33 226.01 232.30 241.13 258.50 292.63 317.92 370.00 380.00 411.78 456.13 481.22 506.78 550.41 572.86 627.92 657.12 675.55 722.52 751.78 750.06 808.16 876.16 956.22 523.80 302.44 274.88 198.36 95.18 -76.88 -179.28 -380.66 -706.38 -1127.40 -1732.47 -2078.35 -2419.41 -2656.20 -2770.14 -2086.11 -1007.55 -2067.23 -4081.43 -6306.23 -7007.57 -7201.97 -7044.00 -7021.16 -7042.55 -7058.55 -7065.62 -7053.87 -7048.11 -7074.17 -7336.92 -8298.52 -8887.48 -8949.60 -8926.66 -8903.56 -8890.65 -8875.63 -8866.14 -8866.23
-6440.70 -6441.92 -6467.41 -6463.64 -6386.93 -6356.32 -6376.34 -6391.64 -6400.32 -6430.39 -6497.29 -6551.35 -6626.68 -6674.92 -6745.96 -6822.28 -6864.93 -6901.29 -6932.37 -6980.02 -6978.76 -6764.52 -6413.57 -6286.84 -6149.66 -3822.80 -2315.07 -392.39 169.38 210.45 235.71 240.22 271.41 288.82 337.88 382.21 391.87 392.00 355.03 372.93 384.41 356.73 373.43 359.52 355.31 357.43 365.53 387.11 390.84 413.14 428.52 432.07 437.51 451.98 471.26 495.70 507.38 522.76 550.82 598.23 656.33 656.10 601.96 618.10 608.77 562.76 549.77 508.55 423.00 364.70 317.24 292.40 269.39 249.46 240.22 230.27 225.94 225.18 225.15 227.93 236.51 245.49 291.39 314.70 345.83 373.43 417.67 448.80 477.25 519.89 525.69 587.58 609.89 637.02 652.64 730.31 748.79 756.82 835.70 957.15 754.41 309.11 252.11 205.48 103.11 34.03 -28.66 -123.30 -335.14 -469.25 -1156.15 -1497.82 -1743.12 -2031.19 -2194.05 -1765.04 -987.52 -956.64 -4009.01 -6261.21 -7245.97 -7206.15 -7082.02 -7019.99 -6996.02 -7033.61 -7061.10 -7061.62 -7043.29 -7040.70 -7069.56 -7329.85 -8083.29 -8878.23 -8942.62 -8924.57 -8898.08 -8882.11 -8872.82 -8862.15 -8862.24
-6378.30 -6378.46 -6364.95 -6342.98 -6333.15 -6342.24 -6356.26 -6377.39 -6400.37 -6456.30 -6512.73 -6561.57 -6632.57 -6696.52 -6747.49 -6816.97 -6864.18 -6898.06 -6937.16 -6966.12 -6947.32 -6760.20 -6422.01 -6311.64 -6174.31 -4606.82 -1473.06 -440.63 123.48 188.68 229.52 240.19 244.73 264.81 274.33 267.10 302.03 332.46 327.87 319.18 301.88 294.53 320.06 310.86 334.98 342.59 343.25 364.79 382.66 388.74 402.99 409.12 431.76 453.46 470.77 485.88 505.74 523.54 545.33 588.91 595.02 603.99 581.77 622.34 654.09 601.91 598.96 543.65 469.73 411.89 359.56 295.59 265.47 252.26 237.49 228.10 225.63 225.26 224.94 227.09 232.60 254.86 288.11 322.11 350.40 381.83 420.88 438.84 471.33 503.12 520.07 572.97 607.29 631.96 642.83 694.20 701.36 728.25 887.60 768.52 346.31 310.17 234.25 135.64 83.42 31.97 -47.64 -198.76 -324.10 -573.33 -1070.82 -1340.00 -1665.36 -1696.56 -1626.25 -1282.60 -869.23 -907.73 -3060.04 -5341.24 -6666.47 -6982.59 -7028.39 -6999.16 -7007.33 -7036.00 -7055.91 -7050.78 -7036.12 -7035.10 -7072.98 -7389.12 -8336.68 -8835.41 -8943.09 -8919.60 -8895.83 -8878.89 -8869.47 -8858.84 -8858.92
-6409.81 -6409.98 -6385.71 -6369.46 -6358.06 -6365.87 -6387.26 -6429.65 -6430.17 -6485.33 -6535.35 -6587.95 -6647.00 -6691.14 -6765.52 -6812.68 -6850.23 -6910.68 -6937.74 -6965.05 -6968.78 -6741.05 -6453.93 -6282.24 -6268.35 -4347.79 -3000.22 -965.71 -113.55 145.89 221.70 227.43 235.67 245.35 250.98 253.38 255.49 271.16 291.41 281.59 279.30 286.89 299.23 301.60 303.58 308.74 329.94 335.30 346.62 373.89 389.81 406.83 425.17 452.66 465.86 478.91 500.92 531.30 544.91 593.01 594.08 561.11 526.18 536.45 525.62 526.61 506.04 489.89 489.55 411.63 363.78 280.86 263.42 247.56 236.18 227.37 225.52 225.30 224.92 226.93 242.62 265.62 289.27 310.89 356.23 374.67 412.12 437.60 465.67 498.90 512.26 559.06 603.56 625.01 602.85 650.69 644.99 740.71 930.03 524.86 292.57 271.28 179.82 98.54 39.01 -8.21 -109.41 -199.25 -439.44 -636.71 -1054.15 -1438.31 -1585.45 -1658.03 -1561.87 -1239.21 -903.98 -1439.25 -2736.75 -4430.79 -6447.06 -6874.64 -6998.58 -7014.55 -7026.04 -7046.99 -7049.38 -7040.64 -7030.18 -7027.52 -7046.46 -7358.05 -8191.59 -8624.76 -8931.02 -8917.28 -8893.48 -8875.30 -8866.64 -8855.80 -8855.90
-6461.84 -6461.86 -6438.69 -6413.41 -6416.81 -6411.33 -6429.08 -6456.24 -6457.77 -6503.56 -6571.81 -6614.37 -6667.54 -6715.78 -6769.67 -6828.12 -6871.26 -6905.80 -6935.15 -6966.04 -6938.14 -6754.74 -6390.06 -6120.13 -6216.93 -5287.39 -3651.18 -2114.45 -792.45 -187.98 141.14 126.58 142.98 199.26 247.76 247.21 250.95 254.32 255.17 255.82 255.62 271.02 283.55 294.36 291.00 296.48 300.58 309.70 326.07 358.68 376.03 405.52 433.15 455.64 463.60 463.85 494.06 526.67 557.83 564.61 600.44 585.43 525.57 456.94 422.98 448.93 427.66 400.05 413.29 337.74 307.38 286.25 260.92 243.05 229.99 226.27 225.32 225.27 224.94 226.21 248.36 265.51 279.97 306.42 330.99 374.96 409.60 439.58 466.51 496.65 524.16 565.96 590.53 606.18 574.18 605.33 664.16 912.58 864.52 454.19 333.48 217.01 178.32 92.82 31.91 -45.71 -107.78 -250.61 -406.96 -679.67 -1052.16 -1495.19 -1622.57 -1665.06 -1668.45 -1508.54 -1180.65 -1523.14 -2624.98 -4228.12 -6200.99 -6941.83 -7041.47 -7035.94 -7035.39 -7041.04 -7035.00 -7026.78 -7018.17 -7017.06 -7042.04 -7252.70 -7845.67 -8762.89 -8931.91 -8912.83 -8889.22 -8872.40 -8863.54 -8852.99 -8853.10
-6503.76 -6503.82 -6487.53 -6462.18 -6461.24 -6477.11 -6500.92 -6517.28 -6546.91 -6572.72 -6601.42 -6647.52 -6696.24 -6732.08 -6773.07 -6848.68 -6877.40 -6914.64 -6950.55 -6979.62 -6999.35 -6842.37 -5450.42 -4820.66 -6046.69 -6428.48 -4696.20 -3697.99 -1515.57 -446.59 -127.57 -31.38 -2.38 116.24 218.32 228.01 238.67 249.57 245.34 240.12 240.53 258.02 269.49 271.22 278.20 273.88 281.21 292.58 299.19 329.32 372.45 393.28 456.51 465.80 484.42 456.76 477.37 533.76 541.65 491.99 496.22 517.01 457.50 425.01 409.47 423.23 378.83 345.31 336.87 318.54 288.55 271.41 251.40 239.10 225.39 224.46 224.78 225.07 225.40 240.70 255.89 273.49 292.38 309.44 337.65 375.78 407.98 439.62 462.83 502.52 530.00 554.92 582.48 582.85 537.85 601.18 659.44 908.48 541.31 347.96 224.99 190.05 138.21 62.30 -41.43 -114.99 -213.84 -310.70 -412.97 -750.54 -1038.96 -1592.58 -1639.79 -1753.37 -1780.86 -1664.26 -1500.15 -1515.35 -2758.84 -4980.68 -6617.78 -7068.61 -7031.04 -7040.29 -7038.72 -7034.99 -7034.59 -7025.19 -7011.01 -7009.81 -7063.55 -7200.74 -7705.71 -8630.27 -8921.17 -8902.74 -8888.16 -8872.64 -8861.67 -8848.81 -8848.91
-6559.36 -6559.37 -6536.08 -6528.55 -6513.45 -6519.76 -6540.93 -6554.42 -6573.68 -6594.37 -6632.43 -6683.49 -6714.23 -6743.17 -6792.58 -6850.88 -6885.46 -6917.21 -6959.24 -6976.81 -6999.76 -6972.02 -5437.25 -4459.62 -5384.69 -6622.87 -6272.76 -5119.96 -2668.83 -541.85 -306.46 -231.89 -173.44 40.95 154.78 195.89 190.49 222.23 215.90 213.80 213.30 222.74 248.05 244.05 247.04 252.09 258.05 271.80 277.36 293.32 327.38 377.60 430.06 419.68 449.27 448.86 443.91 516.20 508.12 467.64 433.25 461.35 409.10 368.46 357.24 364.44 332.47 326.67 305.85 286.91 272.27 262.38 246.96 235.20 224.52 223.69 224.11 224.99 226.02 235.91 255.15 264.74 299.27 309.01 355.60 374.51 407.25 443.11 467.84 496.59 523.15 555.99 571.28 557.84 503.82 593.52 678.78 471.23 313.57 297.94 244.84 147.75 64.01 -52.61 -84.59 -162.75 -259.93 -313.92 -479.08 -838.31 -1210.57 -1582.36 -1733.48 -1795.13 -1878.64 -1975.18 -1924.50 -2349.90 -3324.85 -5274.67 -6546.85 -7163.60 -7090.78 -7055.40 -7040.00 -7032.10 -7028.40 -7013.52 -7006.77 -7003.11 -7089.30 -7275.44 -7601.72 -8402.78 -8750.23 -8895.31 -8886.62 -8870.47 -8858.29 -8846.90 -8847.00
-6616.84 -6616.83 -6592.77 -6591.21 -6579.90 -6574.74 -6597.05 -6613.23 -6619.21 -6646.69 -6680.33 -6707.16 -6732.67 -6775.88 -6795.67 -6860.31 -6895.16 -6917.66 -6954.52 -6973.74 -6996.48 -6962.75 -6357.66 -5540.76 -5658.13 -6698.09 -6911.64 -4751.00 -3071.83 -554.06 -378.87 -391.79 -276.46 -155.56 -9.87 75.72 139.39 166.22 173.28 183.60 163.01 151.72 188.43 220.02 229.77 236.62 249.21 250.24 252.17 264.30 292.44 350.11 385.22 381.36 401.98 396.52 388.05 471.73 439.50 392.35 371.19 383.00 368.39 344.90 335.86 321.89 322.97 296.68 285.70 274.71 267.23 251.91 235.67 230.86 223.33 222.20 222.66 223.87 225.41 241.94 260.12 275.91 301.37 313.70 346.64 385.84 422.02 441.80 462.98 504.35 526.24 552.05 569.83 545.07 477.17 543.15 417.43 305.67 299.65 253.63 204.27 114.34 -24.13 -125.72 -141.53 -195.57 -275.60 -379.86 -484.64 -920.38 -1337.52 -1567.15 -1771.21 -1832.59 -1908.43 -2004.82 -2126.90 -3083.06 -4534.46 -6801.64 -7224.64 -7168.42 -7104.07 -7047.50 -7036.53 -7031.92 -7025.88 -7008.97 -6995.14 -6996.92 -7050.58 -7236.09 -7785.64 -8554.07 -8910.43 -8893.90 -8884.60 -8871.37 -8855.19 -8844.40 -8844.49
-6672.90 -6672.87 -6655.19 -6634.28 -6652.34 -6643.84 -6652.02 -6660.83 -6668.88 -6680.14 -6720.19 -6738.70 -6759.69 -6781.74 -6820.68 -6866.74 -6896.41 -6919.64 -6946.75 -6963.63 -6995.19 -6973.09 -6822.21 -6357.62 -5967.56 -6714.71 -7050.85 -6092.44 -3523.10 -856.67 -397.87 -412.87 -386.74 -277.27 -89.01 -43.62 78.51 59.91 109.83 108.07 96.24 121.36 169.97 201.55 220.23 224.86 233.07 234.09 237.18 235.50 268.74 296.80 310.04 317.83 351.91 351.09 347.34 349.76 358.46 329.92 320.57 324.15 305.33 305.41 290.68 290.28 288.39 285.31 270.42 263.70 252.46 238.49 231.62 223.57 220.16 219.95 221.74 224.17 228.33 241.90 266.13 279.05 302.91 321.67 357.95 389.43 428.98 443.45 467.56 516.51 527.18 530.56 554.14 563.09 622.38 584.84 308.24 289.74 280.55 223.74 145.60 45.90 -91.67 -213.09 -226.41 -250.07 -335.24 -450.49 -510.94 -916.44 -1345.68 -1699.58 -1775.79 -1881.80 -1993.35 -2224.23 -2403.46 -2867.96 -4172.07 -6932.69 -7296.12 -7141.12 -7068.82 -7045.30 -7038.21 -7042.56 -7028.73 -7005.93 -6992.41 -6993.19 -7001.30 -7277.36 -8109.81 -8626.58 -8908.89 -8895.84 -8880.37 -8865.26 -8851.27 -8843.03 -8843.11
-6726.35 -6726.88 -6715.44 -6700.20 -6694.34 -6706.24 -6697.08 -6704.46 -6728.11 -6714.72 -6747.11 -6759.24 -6785.99 -6806.98 -6836.65 -6877.85 -6902.43 -6925.49 -6947.11 -6963.89 -6984.44 -7007.77 -7016.55 -6764.89 -6614.84 -7000.76 -7063.03 -6786.95 -4654.11 -1534.03 -606.85 -652.55 -505.03 -506.39 -436.55 -279.39 -67.78 -41.49 -33.44 28.40 44.21 65.91 121.87 177.05 194.16 204.19 226.36 223.46 227.14 229.54 236.48 262.23 266.34 294.53 312.69 282.71 283.55 298.96 298.38 300.51 305.93 294.27 279.11 279.72 280.82 277.55 274.04 260.58 260.03 255.36 244.96 233.04 222.24 217.64 217.33 218.64 223.62 227.81 236.75 253.06 269.80 283.52 308.70 345.71 366.44 380.76 429.65 450.12 466.70 517.65 523.78 496.79 500.15 561.85 521.31 390.01 293.09 262.28 208.53 134.76 103.34 29.26 -65.83 -197.63 -260.55 -294.27 -389.44 -499.35 -613.14 -983.44 -1471.22 -1701.56 -1811.72 -1934.29 -2086.40 -2329.10 -2798.97 -4915.94 -6822.64 -7876.65 -7335.09 -7112.90 -7051.86 -7039.52 -7044.08 -7036.29 -7026.64 -7005.54 -6986.53 -6977.10 -7003.10 -7173.90 -8151.67 -8670.38 -8909.53 -8892.03 -8875.37 -8862.90 -8849.60 -8841.12 -8841.21
-6779.14 -6779.11 -6770.56 -6759.46 -6761.16 -6755.31 -6769.90 -6755.17 -6757.86 -6786.44 -6803.07 -6807.97 -6812.11 -6824.30 -6858.84 -6877.05 -6895.86 -6915.33 -6933.52 -6946.83 -6971.09 -6997.39 -7011.96 -7024.08 -7038.22 -7081.75 -7092.55 -7001.64 -5919.18 -4022.93 -2959.93 -1853.93 -1777.20 -1477.49 -1148.12 -638.98 -478.34 -342.65 -238.88 -146.02 -135.44 -84.63 -12.79 87.25 130.84 178.34 201.98 200.59 193.21 211.06 223.53 236.10 238.59 249.97 244.57 246.62 245.34 244.45 253.60 259.62 262.60 256.33 259.13 257.77 255.61 258.41 256.67 239.77 239.01 239.96 234.59 221.96 214.62 213.12 215.30 216.79 222.21 235.20 239.52 254.63 272.33 290.55 320.81 350.77 375.86 400.16 420.13 453.23 477.37 520.73 526.15 501.59 427.72 601.95 509.94 279.57 252.93 232.86 161.10 104.24 56.23 -14.67 -73.33 -158.04 -251.76 -309.19 -430.41 -530.26 -770.12 -1092.62 -1562.26 -1742.38 -1816.32 -1921.31 -2059.35 -2327.49 -2790.98 -5421.54 -8372.56 -8108.74 -7328.71 -7109.14 -7038.32 -7040.89 -7048.23 -7040.90 -7013.33 -7005.98 -6983.82 -6964.32 -6996.88 -7091.87 -8550.11 -8787.65 -8903.78 -8886.74 -8874.05 -8859.31 -8850.91 -8840.59 -8840.67
-6838.46 -6839.62 -6827.07 -6813.63 -6803.84 -6801.23 -6813.23 -6822.88 -6824.53 -6835.16 -6846.67 -6853.78 -6866.54 -6878.40 -6881.59 -6875.32 -6887.11 -6895.94 -6913.74 -6937.82 -6941.52 -6967.62 -7006.29 -7019.23 -7040.77 -7060.37 -7078.15 -7088.54 -6990.26 -6030.91 -4925.56 -4630.13 -3192.88 -3160.47 -2755.76 -1729.22 -1048.46 -1059.01 -1275.17 -949.42 -580.30 -227.16 -98.08 54.20 90.93 118.33 143.17 104.79 135.80 201.80 213.26 227.02 227.06 232.71 237.85 241.92 239.83 228.90 228.71 241.39 247.33 243.48 241.80 240.04 240.13 238.90 232.95 231.05 232.13 221.18 219.30 206.88 210.37 211.60 212.00 213.15 221.75 237.26 242.75 253.68 267.45 291.90 306.85 344.66 370.71 400.38 419.73 472.31 500.36 524.53 533.58 493.97 408.30 463.47 405.45 273.08 219.85 196.23 141.67 85.51 51.26 -8.10 -59.57 -144.03 -218.88 -303.21 -479.80 -585.78 -760.79 -1220.08 -1686.67 -1771.36 -1854.58 -1918.11 -2058.70 -2405.16 -4226.98 -7570.01 -8416.33 -8022.93 -7318.64 -7045.04 -7019.48 -7037.94 -7048.01 -7035.67 -7021.16 -6992.60 -6973.76 -6956.06 -6980.35 -7374.31 -8393.66 -8781.29 -8903.82 -8880.28 -8874.06 -8855.65 -8848.54 -8839.26 -8839.35
-6880.51 -6880.45 -6867.57 -6868.61 -6874.60 -6874.67 -6855.66 -6865.01 -6871.24 -6872.45 -6879.92 -6889.92 -6895.87 -6900.24 -6903.22 -6883.40 -6887.81 -6892.46 -6905.89 -6920.18 -6931.28 -6958.85 -6988.35 -7006.62 -7033.44 -7052.41 -7072.60 -7094.38 -7086.24 -7125.72 -6974.79 -6774.22 -6178.37 -5156.56 -3646.58 -2814.00 -1938.38 -1789.38 -1724.02 -1362.04 -1018.45 -488.90 -223.94 -35.21 0.88 -47.43 -35.28 9.52 51.87 147.66 185.57 211.25 213.82 215.97 219.43 224.04 222.28 218.23 217.61 223.02 228.23 224.71 224.82 221.29 219.00 212.30 206.38 226.01 203.46 198.47 202.57 204.53 206.82 209.58 210.94 213.22 221.48 238.21 241.75 255.59 267.65 284.27 310.75 339.74 368.88 399.80 440.26 457.20 509.34 526.59 547.72 493.02 388.63 349.17 311.95 278.94 196.79 159.52 127.66 57.76 6.73 -16.80 -79.96 -213.62 -315.82 -372.35 -495.64 -551.06 -951.30 -1318.89 -1670.24 -1838.97 -1887.61 -1927.70 -2060.47 -2735.93 -4782.88 -8445.91 -8431.09 -7820.51 -7157.31 -7012.47 -7020.42 -7042.93 -7047.50 -7030.59 -7003.40 -6988.52 -6964.04 -6946.67 -6964.34 -7188.82 -8189.81 -8833.54 -8894.26 -8877.44 -8865.87 -8854.96 -8848.16 -8839.26 -8839.34
-6917.07 -6917.01 -6909.34 -6906.15 -6902.09 -6899.59 -6903.95 -6901.02 -6902.12 -6910.95 -6918.30 -6911.14 -6917.61 -6927.07 -6915.03 -6896.33 -6894.16 -6900.61 -6915.55 -6918.81 -6936.50 -6957.64 -6985.95 -7008.03 -7039.72 -7050.02 -7077.13 -7095.49 -7112.80 -7129.82 -7143.43 -7109.49 -7050.28 -6392.47 -4990.85 -3059.66 -1878.59 -1777.82 -1807.63 -1700.25 -1605.22 -1336.50 -603.32 -231.00 -146.05 -227.34 -190.85 -172.26 -103.84 73.80 128.39 142.42 175.77 177.55 173.28 203.93 203.19 207.67 199.80 212.49 174.59 173.75 173.86 187.23 175.58 173.37 173.74 168.93 174.11 179.86 194.07 198.68 202.97 206.47 208.75 211.86 224.73 234.57 239.25 252.30 268.22 286.32 316.70 341.75 384.02 404.99 431.91 457.33 490.22 531.72 552.58 546.55 542.07 327.82 302.62 248.62 176.67 135.91 107.62 30.77 -45.35 -102.97 -157.73 -245.54 -366.07 -432.69 -506.95 -677.34 -1055.42 -1451.54 -1713.30 -1833.91 -1888.22 -1928.19 -2082.51 -2833.55 -5860.57 -8745.13 -8230.19 -7735.08 -7020.08 -6987.37 -7018.50 -7043.88 -7044.68 -7027.31 -7003.63 -6982.66 -6964.70 -6942.16 -6930.12 -7473.57 -8488.00 -8792.94 -8886.21 -8875.97 -8864.78 -8852.62 -8845.51 -8838.92 -8838.19
-6949.79 -6949.73 -6942.06 -6944.19 -6944.07 -6939.67 -6936.47 -6935.67 -6940.10 -6933.99 -6941.18 -6945.46 -6946.15 -6946.58 -6932.79 -6918.22 -6912.99 -6916.14 -6924.42 -6931.66 -6948.05 -6959.81 -6988.11 -7012.19 -7032.94 -7048.02 -7078.32 -7093.90 -7115.37 -7132.30 -7147.83 -7159.21 -7161.01 -6860.92 -6693.29 -3949.44 -2399.08 -1803.88 -1783.32 -1810.24 -1812.47 -1699.04 -993.66 -324.94 -317.37 -318.29 -292.89 -231.39 -172.78 -59.52 -6.28 90.12 105.41 79.92 89.48 113.95 164.37 147.12 149.94 151.89 122.97 113.08 133.47 81.40 78.54 82.67 110.77 126.71 156.65 166.99 183.76 191.38 198.58 201.74 207.97 211.43 226.18 231.78 239.30 252.48 263.16 295.98 313.89 332.63 381.08 402.82 437.15 461.50 490.07 526.86 567.39 617.77 495.59 299.90 274.00 223.32 134.33 93.98 23.74 -36.60 -127.30 -175.62 -175.29 -310.43 -366.67 -474.19 -546.16 -722.28 -1042.42 -1540.93 -1737.79 -1858.49 -1894.34 -1958.52 -2053.89 -2539.18 -4382.76 -8788.45 -8123.35 -7457.71 -7039.96 -6985.87 -7034.26 -7044.50 -7043.90 -7023.43 -6996.57 -6979.62 -6967.22 -6939.79 -6928.34 -7244.10 -8612.90 -8833.99 -8886.35 -8876.23 -8864.96 -8854.10 -8845.06 -8836.96 -8837.04
-6976.68 -6977.33 -6973.63 -6968.11 -6966.77 -6963.78 -6965.11 -6961.05 -6967.79 -6971.08 -6972.32 -6972.24 -6977.85 -6965.46 -6952.70 -6933.40 -6931.45 -6934.44 -6941.23 -6941.32 -6957.01 -6973.74 -6997.38 -7017.18 -7039.08 -7054.65 -7076.38 -7096.69 -7119.60 -7135.39 -7155.85 -7170.71 -7184.38 -7159.94 -7030.90 -5026.77 -3064.06 -2087.24 -1982.81 -1861.78 -1812.75 -1688.70 -1103.78 -432.81 -358.04 -337.88 -302.66 -251.53 -194.52 -172.68 -96.84 -73.16 -1.46 -15.67 -62.38 -11.94 45.09 14.45 57.43 51.98 103.54 55.32 50.80 55.30 66.62 82.35 95.18 121.86 152.45 158.37 169.51 185.89 193.32 197.53 202.54 212.35 225.14 230.64 235.06 243.04 257.08 294.39 312.17 339.61 379.15 402.36 453.08 473.67 503.44 548.67 589.96 617.70 402.87 279.34 253.97 158.73 87.38 16.73 -31.73 -96.70 -179.95 -251.80 -363.51 -342.07 -408.57 -493.16 -549.68 -782.64 -1067.72 -1572.83 -1812.15 -1872.59 -1956.21 -1993.75 -2164.10 -3381.22 -5737.04 -7720.52 -7841.55 -7125.10 -6998.36 -7001.42 -7022.75 -7047.35 -7038.12 -7012.89 -6996.34 -6974.05 -6958.50 -6940.09 -6959.57 -7266.34 -8158.13 -8858.29 -8883.69 -8873.39 -8862.29 -8854.57 -8844.65 -8835.81 -8835.89
-6978.48 -6978.37 -6973.62 -6971.45 -6964.52 -6950.20 -6964.70 -6976.99 -6989.91 -6991.94 -6999.57 -6996.99 -6998.98 -6993.17 -6985.87 -6965.68 -6966.40 -6960.35 -6964.04 -6967.98 -6987.60 -6989.28 -7010.41 -7026.19 -7048.94 -7069.85 -7081.51 -7106.72 -7126.04 -7148.69 -7161.81 -7176.47 -7198.60 -7210.39 -7090.59 -6217.85 -4747.42 -3618.68 -2540.22 -2344.49 -2216.25 -2057.31 -1423.93 -774.29 -488.23 -399.37 -313.16 -245.50 -191.82 -151.15 -119.35 -106.25 -74.72 -59.28 -73.60 -75.48 -77.48 -77.41 -43.02 -46.46 -43.01 -19.99 20.69 41.82 60.78 78.45 101.21 123.49 136.84 150.51 167.31 179.06 184.42 190.45 194.48 202.41 221.38 229.22 233.21 238.74 253.23 271.85 311.08 327.41 376.80 408.28 447.39 483.91 517.22 546.09 529.10 676.33 398.61 270.32 242.49 162.47 69.47 6.36 -59.94 -112.25 -227.46 -277.84 -412.46 -413.11 -478.56 -542.98 -669.05 -902.73 -1263.72 -1617.87 -1833.25 -1865.07 -1969.95 -2081.15 -2866.17 -5459.93 -9012.98 -8562.58 -7582.09 -7120.55 -6986.99 -6988.89 -7026.40 -7036.91 -7032.77 -7010.52 -6994.96 -6975.35 -6961.73 -6948.00 -6944.71 -7321.83 -8560.02 -8834.28 -8881.93 -8874.21 -8861.12 -8854.07 -8844.39 -8834.77 -8834.84
-6933.14 -6933.08 -6942.20 -6941.89 -6937.80 -6935.71 -6937.95 -6963.58 -7000.30 -7024.68 -7027.01 -7021.18 -7020.22 -7017.30 -7015.63 -7001.41 -6996.10 -7005.35 -7000.64 -7004.86 -7010.33 -7021.78 -7034.16 -7057.75 -7067.17 -7095.78 -7108.00 -7124.83 -7145.65 -7154.37 -7181.45 -7191.64 -7214.37 -7216.58 -7174.12 -6999.29 -6465.45 -6261.14 -4158.79 -3057.80 -2330.56 -1655.79 -1181.85 -671.42 -569.37 -437.15 -312.11 -235.13 -174.63 -132.09 -113.40 -93.62 -81.69 -74.68 -72.58 -71.47 -69.95 -65.67 -62.62 -55.57 -48.44 -16.86 13.15 37.03 46.78 80.33 96.95 112.47 130.74 144.22 160.94 169.95 179.39 189.66 191.46 197.35 219.83 229.65 234.07 240.75 248.74 275.95 310.84 325.99 378.86 392.00 454.05 474.03 518.38 548.76 507.42 440.31 331.14 277.54 227.71 163.41 90.16 -3.67 -68.88 -134.04 -204.04 -268.64 -399.23 -477.64 -532.46 -660.47 -756.35 -1051.93 -1389.61 -1592.87 -1733.30 -1841.49 -2015.21 -2493.25 -4651.75 -7840.24 -8944.53 -8178.31 -7418.34 -7025.87 -6948.39 -6967.75 -7003.18 -7012.52 -7018.56 -7008.65 -6997.85 -6984.50 -6968.72 -6957.50 -6967.01 -7269.60 -8374.87 -8818.21 -8883.30 -8870.38 -8860.59 -8850.92 -8843.81 -8833.84 -8833.91
-6948.20 -6948.14 -6945.32 -6949.09 -6944.53 -6948.35 -6949.18 -6982.99 -7014.59 -7047.84 -7049.46 -7044.41 -7045.54 -7048.37 -7038.89 -7031.92 -7021.34 -7025.71 -7027.18 -7032.82 -7032.76 -7049.87 -7060.80 -7075.40 -7090.24 -7103.35 -7118.39 -7136.03 -7150.27 -7169.39 -7187.09 -7211.98 -7220.50 -7227.27 -7167.96 -7150.30 -7098.71 -6803.20 -5834.22 -3816.46 -2300.72 -1601.48 -904.25 -774.57 -542.68 -419.55 -323.22 -241.53 -198.16 -143.04 -105.49 -86.76 -78.59 -74.28 -71.47 -68.03 -64.81 -58.69 -57.36 -50.21 -42.05 -21.60 -5.35 13.09 41.37 57.24 80.61 99.60 122.23 137.72 152.73 164.49 174.71 181.36 185.58 202.35 217.93 228.21 234.69 240.96 246.54 271.58 311.33 324.95 390.11 425.28 441.70 469.61 492.24 564.37 668.78 340.75 322.65 252.78 203.06 156.51 72.63 0.30 -85.55 -159.28 -238.31 -431.64 -495.81 -648.04 -715.97 -796.58 -1102.03 -1226.77 -1388.51 -1516.89 -1696.32 -1815.03 -2030.17 -4405.79 -6780.73 -9064.41 -8513.04 -8181.61 -7415.45 -7016.57 -6952.63 -6976.08 -6997.03 -7001.97 -7000.15 -7003.53 -6995.60 -6979.88 -6965.44 -6952.29 -6950.12 -7326.77 -8374.54 -8782.75 -8882.73 -8871.47 -8859.14 -8849.05 -8842.58 -8832.99 -8833.06
-6970.30 -6970.24 -6967.37 -6969.97 -6965.06 -6970.63 -6971.87 -7017.42 -7044.91 -7068.20 -7075.13 -7076.16 -7068.72 -7070.46 -7064.54 -7063.55 -7055.55 -7057.64 -7060.51 -7055.52 -7072.25 -7085.68 -7087.67 -7095.91 -7107.91 -7123.17 -7131.60 -7150.94 -7160.42 -7177.52 -7195.74 -7214.87 -7193.48 -7185.06 -7169.98 -7175.43 -7167.69 -7107.69 -6857.94 -4620.19 -2602.27 -1561.72 -1024.31 -798.58 -519.21 -399.69 -313.15 -244.67 -192.11 -138.21 -114.15 -93.86 -80.14 -73.73 -69.71 -63.16 -55.33 -51.92 -45.44 -43.06 -35.37 -28.03 -10.92 5.53 29.02 52.33 76.75 94.98 115.12 127.25 146.45 155.11 166.62 172.15 179.52 195.21 212.61 224.91 235.50 242.80 249.01 283.59 305.46 331.51 360.89 389.00 434.09 446.32 479.89 542.72 566.01 320.79 298.51 221.07 164.93 136.75 87.23 -9.87 -108.22 -184.26 -384.65 -491.72 -589.44 -770.92 -925.94 -1068.21 -1222.82 -1355.55 -1437.90 -1552.04 -1594.57 -1837.70 -2341.45 -5991.68 -9039.29 -9185.73 -8523.32 -7715.20 -7289.63 -6962.72 -6954.94 -6973.97 -6988.00 -6989.10 -6992.44 -6991.40 -6984.21 -6973.46 -6959.22 -6947.12 -6966.06 -7253.52 -8332.67 -8784.22 -8884.86 -8870.01 -8856.47 -8848.22 -8841.79 -8832.24 -8832.31
-6990.53 -6990.47 -6985.45 -6988.08 -6990.10 -6991.19 -6991.79 -7018.21 -7083.11 -7097.57 -7099.84 -7101.58 -7104.06 -7102.09 -7098.59 -7087.40 -7083.52 -7080.00 -7080.23 -7091.85 -7093.69 -7099.37 -7106.99 -7122.16 -7127.08 -7146.02 -7156.59 -7164.01 -7176.69 -7188.71 -7203.81 -7213.25 -7206.03 -7195.52 -7191.29 -7187.01 -7177.30 -7118.29 -7023.11 -5261.10 -2520.27 -1466.33 -949.43 -754.40 -553.01 -379.09 -300.72 -233.72 -201.33 -156.10 -124.18 -101.14 -80.25 -70.43 -64.16 -51.75 -47.68 -40.99 -36.40 -36.97 -31.37 -20.91 -5.31 10.22 23.28 45.58 60.88 83.41 104.52 121.06 137.55 148.99 151.24 160.00 173.72 179.98 206.79 226.04 237.85 240.62 253.36 289.85 305.29 314.01 354.47 396.07 412.45 401.03 491.54 676.97 410.22 297.93 268.29 198.22 123.39 89.85 46.44 -65.94 -191.25 -368.02 -703.85 -701.35 -854.54 -1008.28 -1162.25 -1248.53 -1317.01 -1409.77 -1476.81 -1589.67 -1743.21 -1972.13 -3418.96 -8714.26 -9047.18 -8667.72 -8124.59 -7585.60 -7106.34 -6972.72 -6957.38 -6968.58 -6976.92 -6979.76 -6980.93 -6981.65 -6975.50 -6965.83 -6954.10 -6945.97 -6953.45 -7573.47 -8145.80 -8790.97 -8878.04 -8864.25 -8856.68 -8848.28 -8841.43 -8831.61 -8831.68
-7009.34 -7009.29 -7010.05 -7010.08 -7015.57 -7017.41 -7016.11 -7046.54 -7093.19 -7111.46 -7115.64 -7116.15 -7115.91 -7121.30 -7122.74 -7112.45 -7110.98 -7108.85 -7113.35 -7109.22 -7122.81 -7128.60 -7138.98 -7147.65 -7147.84 -7164.12 -7170.02 -7181.30 -7190.24 -7196.72 -7207.61 -7206.10 -7212.19 -7211.75 -7208.22 -7194.64 -7143.88 -7095.38 -6242.51 -4597.15 -2650.90 -1385.89 -966.69 -792.79 -564.38 -475.98 -341.37 -239.44 -191.87 -152.78 -129.92 -113.51 -84.83 -63.30 -53.29 -39.48 -32.48 -30.05 -29.47 -26.10 -24.67 -18.55 -2.67 6.91 13.69 29.75 43.45 65.17 93.40 114.82 126.04 129.50 137.98 144.92 147.40 165.99 200.21 225.73 230.01 239.99 249.53 271.13 294.61 330.84 375.35 384.31 405.17 386.84 585.09 408.50 283.86 256.66 179.22 120.61 69.82 48.15 -86.62 -261.85 -399.57 -594.23 -852.02 -1017.30 -1083.37 -1184.41 -1232.10 -1292.81 -1357.60 -1466.55 -1538.14 -1682.87 -1789.61 -2401.35 -4764.42 -7803.77 -8493.98 -8106.26 -7929.39 -7383.46 -7036.47 -6964.60 -6955.40 -6964.63 -6967.91 -6967.49 -6965.76 -6969.98 -6962.61 -6956.71 -6943.73 -6933.48 -6961.06 -7445.85 -8157.01 -8858.43 -8874.09 -8865.00 -8854.83 -8847.33 -8840.36 -8831.12 -8831.19
-7044.12 -7044.11 -7044.12 -7059.84 -7064.10 -7068.80 -7076.21 -7086.50 -7110.87 -7119.95 -7121.72 -7123.57 -7126.48 -7132.08 -7131.53 -7130.30 -7132.84 -7135.72 -7133.34 -7137.95 -7142.68 -7148.35 -7160.45 -7167.40 -7169.79 -7183.42 -7186.55 -7195.35 -7201.44 -7208.42 -7214.69 -7217.64 -7220.89 -7221.60 -7214.30 -7201.96 -7159.58 -6552.11 -5161.00 -3551.47 -2311.48 -1563.68 -1103.67 -865.13 -732.14 -505.14 -329.35 -280.89 -220.36 -167.98 -138.46 -116.90 -85.17 -58.13 -48.80 -39.58 -33.39 -24.70 -22.74 -20.64 -19.24 -13.76 -10.81 -3.30 2.68 23.42 34.84 44.53 66.11 90.01 105.08 113.57 125.30 127.93 133.27 152.62 176.91 208.29 220.80 240.01 250.70 267.77 300.46 325.35 370.28 393.15 418.39 412.94 759.76 233.99 221.72 195.67 130.18 82.76 30.27 -85.59 -272.04 -508.33 -714.03 -993.33 -1048.87 -1112.47 -1180.13 -1246.15 -1310.01 -1348.38 -1394.15 -1518.86 -1564.36 -1681.90 -2822.46 -5144.82 -5696.21 -7059.98 -7580.97 -7499.37 -7261.25 -7069.49 -6992.66 -6962.49 -6965.12 -6967.51 -6967.06 -6968.50 -6965.72 -6961.05 -6952.70 -6946.28 -6936.21 -6924.21 -6925.90 -7241.52 -8295.89 -8821.82 -8874.49 -8860.79 -8854.98 -8847.51 -8839.34 -8830.76 -8830.83
-7094.04 -7064.51 -6980.64 -7088.25 -7102.72 -7111.28 -7112.89 -7117.05 -7116.10 -7115.90 -7117.95 -7117.86 -7119.94 -7124.26 -7135.78 -7150.03 -7153.66 -7162.12 -7161.41 -7163.76 -7167.68 -7167.62 -7173.98 -7177.89 -7188.36 -7189.81 -7198.74 -7200.82 -7208.63 -7217.38 -7221.96 -7225.56 -7228.75 -7224.05 -7215.77 -7210.78 -7126.31 -6964.96 -5441.27 -3927.45 -2646.07 -1730.04 -1222.89 -1010.66 -802.43 -502.19 -373.17 -291.75 -219.20 -183.90 -141.43 -109.66 -89.01 -58.82 -50.84 -42.80 -34.95 -21.96 -17.42 -18.14 -15.94 -15.21 -13.21 -7.20 0.91 15.83 26.45 34.56 54.21 80.14 83.81 96.88 104.67 109.95 121.87 147.30 170.33 190.46 213.42 226.98 244.56 250.82 304.48 326.62 356.06 389.39 421.38 722.80 548.92 212.85 188.83 144.85 79.13 30.72 -69.45 -200.97 -503.88 -689.05 -932.21 -1002.34 -1097.38 -1136.79 -1197.78 -1261.36 -1335.17 -1364.39 -1425.91 -1529.06 -1554.85 -1855.55 -3386.33 -5856.80 -7071.91 -7152.71 -7126.57 -7097.10 -7005.07 -6946.04 -6934.70 -6954.63 -6961.88 -6971.50 -6976.29 -6975.07 -6968.41 -6958.15 -6943.23 -6934.27 -6922.05 -6915.98 -6930.89 -7254.94 -8348.76 -8802.55 -8870.76 -8864.12 -8851.34 -8844.93 -8839.39 -8831.81 -8830.59
-6996.01 -6995.73 -6678.21 -6789.16 -7104.32 -7137.88 -7144.61 -7140.07 -7125.38 -7124.81 -7131.50 -7131.98 -7134.53 -7138.27 -7154.54 -7166.90 -7167.09 -7178.50 -7181.67 -7186.25 -7191.45 -7191.25 -7200.91 -7203.50 -7208.80 -7209.91 -7218.92 -7223.86 -7219.72 -7228.47 -7230.75 -7233.68 -7236.21 -7232.23 -7203.20 -7165.86 -7169.45 -6956.47 -5479.04 -3902.20 -3013.33 -1948.99 -1495.69 -1018.66 -778.17 -510.61 -401.33 -354.68 -257.53 -207.71 -168.05 -113.79 -89.72 -62.87 -54.06 -36.44 -27.76 -18.07 -13.19 -12.03 -12.42 -12.34 -12.65 -10.60 -5.44 -0.56 13.40 31.57 43.85 54.24 69.80 79.45 91.77 96.10 103.26 130.20 156.50 163.16 197.18 213.57 238.24 252.55 307.71 325.33 335.00 373.97 403.03 572.81 285.28 197.42 157.00 105.52 0.47 -25.42 -251.16 -389.55 -720.65 -835.26 -960.59 -1046.70 -1120.72 -1178.62 -1220.32 -1250.96 -1289.72 -1306.54 -1330.18 -1424.15 -1730.56 -2464.31 -4060.45 -6279.53 -6954.77 -6861.80 -6888.69 -6870.64 -6895.60 -6913.04 -6918.60 -6940.41 -6960.31 -6963.71 -6969.89 -6969.55 -6962.04 -6942.46 -6932.08 -6925.03 -6917.06 -6905.61 -6910.78 -7206.64 -8452.34 -8781.70 -8870.52 -8861.38 -8850.30 -8844.95 -8838.12 -8830.35 -8830.41
-6873.70 -6873.87 -6215.23 -6709.91 -7123.32 -7155.59 -7158.53 -7155.10 -7141.04 -7145.86 -7144.56 -7147.27 -7149.69 -7154.91 -7167.52 -7186.63 -7192.55 -7198.77 -7202.68 -7212.93 -7211.44 -7219.11 -7219.41 -7223.98 -7230.80 -7230.33 -7233.93 -7239.80 -7245.91 -7243.69 -7244.05 -7242.87 -7242.53 -7244.64 -7228.20 -7192.77 -7143.33 -6945.59 -5625.97 -4507.43 -3215.73 -2206.80 -1722.89 -1167.70 -797.07 -577.67 -510.84 -433.20 -352.77 -284.43 -204.59 -134.38 -99.17 -70.50 -52.41 -31.92 -19.59 -13.82 -10.29 -9.65 -9.91 -10.64 -10.53 -12.53 -14.21 -7.93 8.21 22.37 27.50 43.23 54.40 63.92 72.92 71.47 85.66 111.16 136.01 153.31 179.17 214.06 227.68 247.20 291.85 315.49 328.90 363.51 489.48 983.17 248.85 189.30 152.11 28.91 -69.45 -153.73 -315.60 -620.34 -824.60 -960.69 -986.36 -1031.23 -1135.16 -1189.78 -1204.35 -1258.03 -1234.07 -1115.01 -1126.22 -1286.81 -1845.63 -3257.86 -4808.85 -5817.44 -6473.77 -6804.13 -6810.64 -6847.59 -6870.75 -6893.26 -6907.58 -6935.19 -6952.01 -6960.54 -6958.41 -6960.51 -6953.78 -6933.25 -6925.58 -6917.64 -6909.76 -6902.40 -6897.83 -7324.50 -8391.68 -8817.28 -8868.35 -8861.41 -8851.76 -8843.87 -8838.90 -8830.29 -8830.36
-7129.75 -7129.72 -6786.52 -7112.91 -7147.55 -7173.58 -7172.10 -7173.62 -7156.30 -7157.70 -7160.69 -7165.20 -7171.05 -7176.43 -7187.45 -7204.65 -7217.58 -7223.91 -7225.90 -7235.38 -7234.69 -7237.78 -7240.15 -7242.44 -7249.29 -7254.98 -7257.64 -7251.66 -7255.87 -7256.42 -7259.80 -7258.30 -7253.67 -7249.97 -7248.56 -7247.89 -7171.99 -6912.76 -5999.76 -4546.74 -3826.75 -2896.91 -2307.31 -1294.37 -938.34 -809.67 -674.29 -586.19 -470.89 -358.42 -232.47 -162.94 -111.04 -69.86 -53.28 -31.45 -19.80 -12.78 -6.39 -5.73 -6.22 -7.40 -9.35 -11.54 -13.14 -6.85 3.05 7.60 20.59 28.18 38.02 50.13 55.50 59.62 77.59 88.07 106.51 159.48 188.05 213.42 221.16 225.93 260.50 280.97 304.94 327.68 339.96 848.42 371.00 191.25 131.36 33.59 -120.62 -237.52 -476.42 -672.06 -914.99 -990.70 -938.78 -991.05 -1106.44 -1199.57 -1271.75 -1441.49 -1865.59 -1866.27 -1572.50 -2119.18 -3617.71 -4336.09 -5141.09 -5962.82 -6403.80 -6725.12 -6807.96 -6844.64 -6868.60 -6888.42 -6910.23 -6924.70 -6937.51 -6945.46 -6952.03 -6952.90 -6949.60 -6931.99 -6920.20 -6914.46 -6906.34 -6899.14 -6929.11 -7560.62 -8376.87 -8744.27 -8863.98 -8861.30 -8852.32 -8842.69 -8835.77 -8830.29 -8830.36
-7173.72 -7174.56 -7164.34 -7166.12 -7177.97 -7182.66 -7186.86 -7178.80 -7175.33 -7171.97 -7175.48 -7180.77 -7183.81 -7186.42 -7203.80 -7221.12 -7231.86 -7235.10 -7245.97 -7249.85 -7256.74 -7259.19 -7261.07 -7269.68 -7272.39 -7275.04 -7276.54 -7277.92 -7273.40 -7277.07 -7271.26 -7268.13 -7263.31 -7258.69 -7257.22 -7254.27 -7249.37 -6983.30 -6776.94 -5797.00 -4628.67 -3433.25 -2230.39 -1646.85 -1223.04 -1054.94 -845.36 -699.03 -539.30 -434.07 -359.02 -203.07 -160.68 -108.39 -60.96 -32.60 -16.88 -8.86 -5.92 -3.31 -4.04 -6.31 -8.87 -9.89 -9.03 -5.12 -1.51 -1.79 4.53 17.96 30.84 36.00 38.90 50.68 59.07 77.25 114.33 147.00 166.37 201.23 218.94 223.86 238.69 261.92 273.78 295.53 321.13 606.46 654.77 531.81 113.53 46.42 -140.10 -312.01 -456.20 -662.61 -795.91 -1229.94 -1120.01 -1042.00 -1126.13 -1261.89 -1463.58 -1824.63 -2703.87 -2929.44 -3704.80 -3956.48 -4663.84 -4889.48 -5531.63 -6236.34 -6498.94 -6766.99 -6802.02 -6839.56 -6867.82 -6894.87 -6914.54 -6926.75 -6932.52 -6936.81 -6938.63 -6941.98 -6940.31 -6929.88 -6919.92 -6912.85 -6904.77 -6897.48 -6918.73 -7196.83 -8342.78 -8841.10 -8869.88 -8863.55 -8853.10 -8841.93 -8837.40 -8830.30 -8830.37
-7183.34 -7183.28 -7189.21 -7188.46 -7195.92 -7196.71 -7202.29 -7199.99 -7197.77 -7197.92 -7208.99 -7216.24 -7217.85 -7222.28 -7233.56 -7240.72 -7254.97 -7258.54 -7264.49 -7267.07 -7273.83 -7280.78 -7282.74 -7285.58 -7283.23 -7290.82 -7293.10 -7297.86 -7293.08 -7282.27 -7281.90 -7276.57 -7271.18 -7263.35 -7259.61 -7255.06 -7250.21 -7165.57 -6629.08 -6334.73 -5308.57 -4026.16 -3102.97 -2151.64 -1959.56 -1257.44 -1159.87 -1062.11 -752.70 -648.01 -416.97 -277.81 -182.50 -130.03 -70.15 -41.79 -18.91 -7.79 -4.49 -3.29 -4.00 -5.66 -8.01 -9.39 -9.84 -8.62 -2.68 -0.66 3.33 9.44 22.96 24.32 30.55 35.24 43.85 60.85 92.76 109.25 147.97 155.70 184.49 218.94 224.70 225.43 240.61 270.89 288.01 278.59 531.09 304.64 -73.71 -300.91 -214.11 -299.33 -385.98 -611.59 -860.08 -1417.22 -1181.43 -1118.58 -1211.78 -1469.85 -2119.44 -2506.66 -3136.65 -3577.13 -3818.05 -3908.80 -4315.28 -5107.92 -6264.04 -6464.19 -6637.13 -6809.43 -6819.90 -6845.94 -6869.56 -6891.93 -6913.47 -6923.49 -6934.54 -6930.62 -6932.74 -6933.66 -6931.07 -6923.37 -6922.33 -6918.96 -6909.19 -6903.15 -6959.09 -7115.93 -8377.88 -8819.80 -8861.10 -8865.66 -8855.27 -8843.89 -8838.13 -8830.44 -8830.50
-7194.19 -7195.55 -7198.82 -7203.46 -7207.01 -7210.52 -7210.95 -7218.07 -7222.65 -7226.19 -7238.20 -7237.95 -7245.33 -7245.93 -7262.12 -7266.43 -7270.91 -7275.47 -7288.57 -7297.11 -7298.40 -7300.25 -7299.34 -7304.73 -7310.56 -7312.44 -7314.53 -7312.46 -7302.46 -7293.14 -7289.83 -7285.51 -7276.53 -7269.92 -7263.02 -7263.11 -7255.53 -7147.01 -7082.35 -6609.40 -5516.59 -4589.93 -3453.38 -2565.45 -1919.10 -1679.86 -1487.46 -1267.73 -959.24 -643.44 -436.85 -357.10 -215.68 -141.88 -88.12 -47.73 -27.62 -12.83 -7.35 -4.67 -4.45 -6.76 -8.49 -10.05 -10.10 -8.33 -5.02 -3.17 2.19 7.22 14.21 18.08 17.79 22.72 31.26 42.84 55.25 88.57 110.45 131.29 165.93 196.79 213.18 219.17 235.37 246.94 255.95 228.72 186.87 36.67 -171.66 -371.08 -379.81 -368.87 -465.27 -757.39 -982.01 -1382.30 -1354.48 -1276.20 -1292.48 -1477.82 -2375.22 -2637.78 -2936.10 -3184.70 -3552.59 -3833.69 -4088.71 -5457.20 -6565.74 -6768.47 -6837.77 -6858.73 -6869.81 -6869.79 -6876.07 -6891.26 -6908.03 -6921.59 -6926.12 -6926.64 -6928.47 -6927.47 -6925.80 -6925.01 -6925.42 -6924.99 -6921.37 -6916.03 -6944.26 -7100.97 -8279.29 -8791.99 -8814.45 -8838.60 -8860.50 -8845.69 -8838.67 -8830.74 -8830.80
-7205.39 -7206.88 -7209.00 -7214.05 -7217.69 -7223.65 -7227.08 -7233.36 -7239.08 -7245.46 -7247.90 -7253.82 -7256.11 -7263.23 -7267.93 -7279.12 -7287.36 -7294.22 -7299.86 -7305.02 -7309.59 -7315.97 -7315.42 -7319.42 -7324.73 -7332.34 -7330.16 -7331.45 -7315.73 -7305.51 -7302.10 -7293.35 -7288.35 -7275.09 -7272.56 -7269.29 -7270.73 -7219.21 -7110.16 -6657.46 -5636.09 -5086.45 -3994.10 -3221.92 -2376.65 -1845.46 -1797.07 -1476.89 -1166.12 -819.19 -570.19 -405.74 -257.91 -210.19 -117.56 -51.98 -36.45 -19.90 -8.97 -7.71 -7.95 -8.73 -10.84 -11.10 -10.83 -10.23 -8.35 -6.63 -2.95 1.37 5.77 7.06 10.10 14.73 26.03 41.62 48.08 81.08 105.22 116.81 132.87 147.91 197.63 212.62 216.47 237.38 229.30 220.07 141.69 -72.39 -527.30 -463.35 -441.96 -471.96 -543.79 -862.15 -1179.36 -1496.39 -1437.17 -1391.92 -1531.40 -1704.88 -2034.60 -2185.46 -2402.03 -3035.26 -3551.03 -3804.77 -4330.11 -5363.76 -6611.19 -6837.74 -6861.86 -6868.69 -6873.39 -6880.24 -6878.10 -6896.12 -6903.73 -6909.64 -6918.39 -6923.16 -6926.52 -6927.95 -6925.64 -6925.31 -6926.43 -6925.49 -6922.27 -6922.15 -6931.89 -7203.80 -8294.82 -8771.25 -8841.77 -8819.74 -8862.29 -8845.91 -8840.38 -8831.12 -8831.18
-7216.20 -7216.14 -7221.15 -7221.76 -7225.67 -7229.15 -7237.07 -7242.95 -7249.98 -7255.61 -7258.72 -7264.97 -7272.88 -7276.40 -7286.36 -7294.42 -7298.53 -7303.19 -7314.52 -7319.22 -7325.64 -7328.08 -7330.89 -7335.54 -7336.64 -7344.80 -7345.84 -7346.41 -7333.55 -7324.78 -7312.69 -7310.99 -7294.97 -7287.76 -7276.09 -7276.01 -7279.14 -7268.88 -7226.14 -6779.89 -6660.33 -5639.12 -5329.86 -4279.60 -2987.12 -2614.16 -2281.97 -1800.83 -1215.43 -964.66 -628.01 -485.13 -364.24 -240.18 -136.92 -66.82 -50.04 -25.41 -14.87 -12.20 -11.09 -10.32 -12.34 -12.03 -12.96 -13.71 -13.56 -12.15 -7.66 -2.64 1.41 3.04 7.16 11.18 23.23 35.98 49.67 72.77 101.57 112.89 118.01 142.09 159.69 190.44 190.39 202.52 197.48 191.68 74.63 -220.21 -515.02 -557.84 -588.40 -622.87 -668.06 -898.03 -1253.63 -1684.14 -1642.97 -1618.35 -1702.09 -1815.01 -1851.32 -2049.57 -2430.82 -2687.49 -3263.38 -4207.95 -4811.43 -5851.29 -6696.04 -6838.33 -6871.09 -6869.62 -6878.07 -6890.38 -6889.72 -6897.94 -6901.60 -6908.26 -6917.73 -6925.67 -6929.91 -6930.58 -6926.26 -6926.96 -6927.54 -6923.55 -6921.82 -6920.95 -6956.70 -7294.27 -7864.60 -8708.51 -8872.31 -8848.03 -8862.92 -8844.23 -8842.14 -8831.57 -8831.64
-7226.73 -7226.68 -7229.08 -7232.45 -7238.15 -7243.63 -7247.97 -7253.77 -7256.59 -7262.43 -7269.79 -7277.84 -7278.09 -7284.50 -7292.75 -7305.10 -7310.21 -7318.67 -7324.04 -7331.85 -7339.67 -7343.47 -7344.89 -7345.18 -7355.08 -7355.14 -7359.42 -7358.96 -7348.66 -7337.51 -7328.11 -7321.62 -7310.57 -7307.17 -7296.76 -7285.50 -7286.06 -7274.25 -7254.43 -7191.28 -6811.57 -6383.21 -5817.94 -4936.89 -4184.45 -3002.10 -2239.46 -1804.83 -1230.69 -1025.48 -779.41 -594.76 -415.68 -298.34 -201.77 -125.42 -60.39 -40.06 -19.89 -18.15 -12.83 -13.06 -14.45 -14.93 -15.26 -15.96 -16.40 -13.90 -11.57 -6.86 -2.80 1.46 5.42 10.44 15.02 31.71 50.97 79.82 94.06 108.47 113.46 127.93 144.39 149.20 168.48 180.92 190.24 178.99 74.19 -62.60 -508.80 -584.24 -708.11 -842.58 -953.70 -1003.69 -1292.30 -1580.07 -1631.85 -1653.52 -1703.95 -1747.33 -1788.07 -2014.55 -2329.99 -3252.76 -3665.57 -4133.20 -4220.37 -5305.03 -6527.36 -6782.68 -6870.69 -6872.56 -6880.51 -6892.32 -6895.28 -6898.44 -6901.58 -6905.27 -6915.70 -6927.38 -6930.78 -6930.81 -6930.81 -6929.77 -6923.12 -6918.90 -6918.76 -6928.08 -6957.10 -7574.16 -8122.70 -8724.03 -8872.09 -8866.81 -8855.94 -8846.49 -8839.48 -8833.53 -8832.23
-7238.21 -7238.16 -7246.16 -7252.78 -7252.74 -7253.10 -7262.90 -7265.35 -7267.83 -7274.67 -7279.77 -7283.17 -7290.28 -7296.59 -7305.55 -7317.19 -7323.78 -7330.33 -7338.06 -7340.74 -7349.37 -7351.70 -7354.35 -7358.53 -7364.07 -7367.81 -7375.60 -7377.85 -7367.99 -7359.00 -7348.18 -7341.91 -7327.21 -7331.01 -7316.27 -7293.94 -7290.96 -7274.80 -7274.08 -7256.73 -6954.79 -6655.37 -6033.53 -5160.20 -4526.42 -3479.18 -2880.72 -2081.37 -1388.36 -1019.45 -849.40 -590.01 -499.53 -309.63 -230.78 -143.74 -75.28 -55.91 -44.16 -23.01 -18.77 -17.54 -18.40 -18.82 -18.09 -18.14 -17.60 -15.11 -11.25 -9.16 -5.13 -2.00 1.84 7.39 9.46 24.75 38.27 71.34 105.16 115.40 133.17 149.82 145.77 149.50 154.75 170.98 185.42 155.62 74.39 -11.38 -530.20 -773.77 -910.28 -1060.88 -1194.27 -1146.40 -1319.89 -1506.22 -1537.70 -1659.88 -1678.76 -1781.08 -1862.31 -2016.34 -2496.27 -3242.12 -3735.48 -4344.90 -4837.01 -5633.64 -6554.66 -6715.23 -6866.81 -6879.18 -6887.72 -6893.26 -6899.75 -6904.61 -6903.92 -6911.60 -6919.97 -6928.85 -6932.39 -6933.86 -6934.18 -6931.75 -6922.28 -6915.61 -6913.39 -6918.31 -6955.06 -7422.15 -8568.07 -8820.35 -8874.81 -8865.95 -8853.92 -8847.16 -8841.60 -8832.91 -8832.97
-7255.39 -7258.29 -7260.84 -7266.15 -7270.35 -7274.85 -7280.82 -7277.07 -7275.83 -7274.84 -7281.01 -7286.96 -7291.21 -7296.14 -7305.96 -7320.90 -7330.11 -7336.19 -7340.65 -7350.64 -7355.34 -7362.87 -7366.00 -7372.39 -7374.21 -7382.83 -7386.14 -7389.65 -7385.11 -7376.94 -7365.37 -7364.25 -7347.04 -7346.53 -7342.34 -7309.94 -7297.98 -7291.76 -7275.61 -7232.71 -7127.18 -6844.45 -5977.30 -5329.89 -4252.25 -3844.17 -3022.50 -2144.75 -1578.65 -1152.54 -909.79 -846.05 -633.00 -408.20 -304.78 -196.44 -129.94 -97.85 -60.67 -40.04 -26.06 -25.11 -24.15 -22.65 -23.04 -22.16 -21.37 -17.67 -14.73 -8.14 -6.25 -3.27 0.78 8.53 16.17 25.64 82.64 112.55 165.39 168.43 177.44 170.62 167.88 154.90 153.09 163.90 194.59 164.05 75.86 -45.74 -687.33 -762.59 -940.39 -1042.26 -1193.14 -1245.32 -1303.34 -1481.59 -1547.71 -1815.40 -2068.35 -2149.12 -2191.07 -2633.48 -2420.54 -3164.40 -4589.66 -5084.82 -6106.64 -6226.96 -6402.38 -6705.71 -6837.74 -6890.77 -6893.63 -6904.38 -6909.73 -6913.21 -6908.50 -6916.98 -6928.26 -6931.61 -6935.31 -6937.49 -6935.50 -6928.79 -6920.57 -6912.83 -6907.32 -6904.21 -6942.14 -7122.11 -8124.80 -8823.72 -8871.38 -8863.90 -8853.85 -8846.26 -8840.83 -8833.78 -8833.84
-7274.39 -7276.31 -7279.22 -7281.45 -7289.37 -7295.01 -7299.99 -7298.00 -7275.01 -7275.23 -7279.59 -7284.81 -7291.77 -7295.71 -7313.44 -7324.76 -7336.77 -7341.21 -7346.61 -7355.43 -7358.93 -7368.89 -7370.48 -7380.06 -7388.77 -7393.28 -7395.37 -7399.04 -7408.60 -7405.14 -7407.00 -7384.76 -7374.23 -7360.23 -7343.52 -7314.57 -7300.48 -7296.08 -7295.62 -7288.96 -7240.73 -7027.81 -6530.95 -5422.42 -4751.63 -4018.86 -3515.65 -2613.74 -1743.42 -1341.81 -1227.54 -1123.65 -680.76 -543.92 -335.44 -242.15 -160.39 -136.22 -77.79 -47.62 -39.37 -32.81 -27.51 -27.03 -25.97 -28.79 -27.32 -24.87 -17.55 -11.48 -5.30 -4.02 19.42 73.63 106.26 144.40 182.93 189.15 194.31 198.21 199.99 194.45 187.25 174.35 161.19 153.18 122.73 100.61 3.36 -375.86 -914.97 -1015.85 -1046.40 -1145.58 -1174.98 -1272.40 -1326.79 -1675.70 -2035.10 -3437.71 -3167.09 -3570.35 -4689.95 -4514.49 -4586.18 -4525.24 -5785.13 -6069.01 -6104.66 -6157.71 -6196.07 -6711.82 -6850.40 -6913.98 -6909.86 -6913.53 -6923.63 -6924.86 -6923.23 -6929.71 -6937.82 -6937.92 -6942.65 -6943.59 -6937.64 -6930.34 -6917.49 -6909.40 -6902.31 -6897.07 -6947.47 -7210.44 -8326.16 -8831.41 -8869.15 -8862.70 -8854.32 -8848.37 -8843.33 -8834.95 -8834.83
-7286.87 -7286.80 -7289.72 -7296.82 -7299.40 -7305.70 -7311.27 -7307.57 -7285.63 -7283.16 -7287.39 -7295.09 -7300.64 -7304.51 -7325.15 -7332.66 -7344.88 -7352.02 -7354.29 -7360.88 -7368.29 -7374.87 -7385.42 -7391.26 -7395.29 -7399.00 -7404.40 -7412.20 -7415.97 -7416.50 -7417.44 -7394.93 -7377.46 -7371.15 -7346.66 -7326.26 -7306.21 -7300.03 -7297.91 -7296.35 -7253.03 -7079.57 -6766.47 -6074.29 -5318.02 -4328.81 -3622.02 -2694.25 -2103.96 -1947.05 -1594.94 -1395.03 -1093.79 -708.97 -496.13 -331.06 -221.51 -131.60 -83.55 -64.12 -48.47 -38.73 -36.14 -36.36 -35.15 -33.92 -34.33 -28.30 -22.82 -17.85 -12.13 -0.50 70.66 139.21 181.51 184.51 193.77 199.21 209.58 216.47 212.77 209.59 203.35 188.24 166.96 75.57 10.75 -21.64 -181.22 -243.08 -1084.82 -1177.18 -1240.91 -1289.88 -1254.24 -1312.54 -1398.81 -1605.88 -2640.94 -5597.62 -6033.45 -5987.37 -6091.03 -6190.71 -6113.58 -6117.31 -6099.19 -6125.95 -6123.97 -6126.79 -6170.08 -6599.03 -6854.66 -6919.37 -6920.31 -6929.33 -6939.12 -6934.86 -6935.72 -6947.01 -6944.28 -6945.53 -6950.37 -6948.52 -6947.59 -6931.62 -6919.82 -6907.73 -6898.29 -6893.07 -6940.02 -7063.79 -8197.61 -8840.41 -8867.87 -8862.96 -8854.70 -8848.89 -8842.50 -8837.13 -8836.04
-7296.21 -7296.14 -7302.66 -7305.93 -7306.26 -7318.73 -7323.74 -7311.53 -7304.99 -7295.69 -7299.88 -7306.48 -7311.78 -7318.78 -7330.68 -7345.34 -7358.94 -7361.04 -7361.12 -7375.14 -7376.73 -7384.37 -7390.54 -7397.35 -7403.90 -7405.82 -7415.31 -7418.72 -7417.48 -7420.49 -7418.44 -7405.18 -7394.81 -7386.37 -7359.92 -7338.25 -7310.12 -7307.18 -7303.65 -7297.61 -7294.53 -7199.27 -6862.06 -6170.28 -5743.97 -4876.27 -4434.62 -3603.65 -3266.28 -2581.75 -1963.05 -1694.90 -1325.37 -1025.53 -536.93 -396.72 -238.01 -144.07 -108.81 -87.85 -61.77 -56.70 -50.15 -47.93 -45.02 -42.09 -42.26 -38.83 -32.14 -23.30 -21.25 -10.89 75.14 158.90 189.60 195.01 200.06 206.36 209.21 213.70 212.15 206.53 202.00 191.45 162.83 53.17 -113.08 -122.20 -176.13 -264.63 -1064.44 -1253.18 -1256.21 -1284.63 -1298.09 -1316.31 -1417.97 -1935.58 -4303.44 -6132.69 -6278.57 -6326.38 -6323.08 -6295.92 -6242.81 -6167.64 -6126.81 -6126.33 -6125.07 -6129.99 -6194.74 -6580.86 -6883.42 -6935.18 -6936.65 -6937.82 -6950.41 -6951.51 -6960.69 -6959.07 -6957.21 -6953.84 -6953.87 -6953.69 -6953.49 -6934.06 -6918.48 -6909.71 -6899.76 -6893.88 -6931.77 -7250.91 -8341.02 -8812.74 -8869.55 -8863.12 -8857.50 -8850.02 -8844.36 -8838.01 -8837.03
-7304.77 -7304.70 -7311.53 -7312.70 -7319.90 -7327.83 -7332.78 -7329.07 -7310.44 -7309.68 -7316.39 -7322.94 -7319.89 -7333.48 -7341.99 -7357.86 -7363.93 -7370.02 -7375.84 -7381.65 -7384.08 -7390.38 -7398.79 -7403.20 -7411.61 -7414.40 -7422.23 -7422.21 -7418.95 -7422.69 -7417.63 -7407.43 -7401.97 -7388.23 -7363.01 -7339.43 -7319.59 -7310.86 -7303.08 -7299.43 -7296.06 -7273.84 -7018.06 -6636.00 -6267.90 -5766.73 -5042.98 -4677.99 -3623.05 -3129.90 -2495.47 -2069.54 -1681.10 -1082.18 -781.81 -539.74 -358.41 -185.79 -155.89 -126.61 -109.66 -98.29 -66.00 -72.39 -65.38 -64.80 -55.04 -49.90 -42.96 -44.72 -35.26 -24.99 38.72 155.55 161.30 191.64 192.90 195.53 198.14 199.84 199.29 199.03 197.56 166.40 110.10 -80.10 -141.74 13.59 40.71 113.48 -386.81 -1139.85 -1163.77 -1222.82 -1341.04 -1361.76 -1567.24 -2019.82 -4784.79 -6069.12 -6118.52 -5948.75 -5816.76 -6301.55 -5849.62 -5864.97 -6101.57 -6113.00 -6133.03 -6145.53 -6190.30 -6724.12 -6858.18 -6947.63 -6948.67 -6951.46 -6961.90 -6965.37 -6965.31 -6971.13 -6968.73 -6962.35 -6960.06 -6956.52 -6955.02 -6932.18 -6920.25 -6908.38 -6900.66 -6894.78 -6941.65 -7193.36 -8113.68 -8788.88 -8870.74 -8863.79 -8857.75 -8850.92 -8845.07 -8838.92 -8838.00
-7309.62 -7310.39 -7312.29 -7319.44 -7326.75 -7331.72 -7338.37 -7339.50 -7326.83 -7323.04 -7332.10 -7335.85 -7341.29 -7352.62 -7358.36 -7371.94 -7376.44 -7381.79 -7384.02 -7387.28 -7394.59 -7400.87 -7411.95 -7414.14 -7418.28 -7422.78 -7425.05 -7425.69 -7422.76 -7422.27 -7420.55 -7410.37 -7400.87 -7383.58 -7365.46 -7344.04 -7329.51 -7312.12 -7303.95 -7299.19 -7292.39 -7285.43 -7229.83 -6907.84 -6613.03 -6131.21 -5793.08 -5034.18 -4137.74 -2998.55 -2717.72 -2178.87 -1678.42 -1260.09 -1060.42 -691.16 -419.48 -270.85 -217.18 -172.86 -164.28 -141.15 -100.52 -91.77 -82.80 -79.13 -66.64 -63.76 -75.31 -79.81 -71.92 -78.38 -83.89 37.26 94.98 114.95 141.60 155.02 139.67 156.74 157.43 164.37 123.35 -101.36 -299.01 -300.67 -105.98 139.32 165.84 175.58 -87.83 -870.20 -947.70 -1027.76 -1271.41 -1663.09 -2017.44 -2954.53 -5007.99 -5429.71 -4529.29 -4449.97 -4213.08 -4823.71 -4357.37 -4998.01 -5332.27 -5871.57 -6185.62 -6203.63 -6347.88 -6594.94 -6947.47 -6964.68 -6959.53 -6964.74 -6973.09 -6974.47 -6970.18 -6973.33 -6978.21 -6976.38 -6965.51 -6964.06 -6956.56 -6946.62 -6926.97 -6911.22 -6904.46 -6896.77 -6893.03 -7346.96 -8309.59 -8798.71 -8870.29 -8865.79 -8857.30 -8851.65 -8847.43 -8838.90 -8838.96
-7289.21 -7294.05 -7298.23 -7308.43 -7309.43 -7317.67 -7318.31 -7335.09 -7349.71 -7359.78 -7354.36 -7367.68 -7376.92 -7379.10 -7380.43 -7381.45 -7383.26 -7388.92 -7392.19 -7395.00 -7399.17 -7407.06 -7424.45 -7426.67 -7422.23 -7422.44 -7424.31 -7425.88 -7425.58 -7423.07 -7421.23 -7410.88 -7403.00 -7388.32 -7360.43 -7345.06 -7330.16 -7312.80 -7303.41 -7298.82 -7290.66 -7274.30 -7251.73 -7151.72 -7084.08 -6838.77 -6095.32 -5899.40 -4886.01 -4059.86 -3702.45 -2722.90 -2127.97 -1595.02 -1080.56 -789.39 -493.82 -404.06 -238.13 -225.84 -186.84 -147.23 -119.46 -116.05 -114.23 -110.49 -98.39 -90.17 -108.80 -109.15 -116.63 -173.51 -191.23 -241.57 -259.06 -125.52 -306.42 -189.17 -527.12 -694.19 -821.32 -506.44 -748.18 -764.12 -869.28 -791.21 -508.24 -294.95 -128.96 -241.52 -653.06 -854.57 -1042.86 -1355.16 -1431.07 -2637.15 -3070.36 -3920.18 -4021.21 -4335.08 -3217.78 -3022.33 -2706.37 -2255.39 -2299.93 -3194.76 -4232.98 -5027.45 -6418.03 -6593.97 -6608.89 -6757.23 -6927.46 -6975.22 -6979.13 -6985.73 -6986.81 -6987.98 -6984.16 -6983.64 -6987.06 -6984.93 -6972.07 -6971.69 -6961.12 -6950.60 -6932.09 -6920.93 -6913.43 -6904.55 -6918.38 -7570.47 -8310.46 -8831.15 -8871.47 -8867.26 -8856.96 -8852.34 -8847.57 -8839.89 -8839.95
-7279.61 -7280.43 -7286.09 -7292.11 -7299.95 -7308.32 -7313.91 -7336.43 -7368.71 -7388.15 -7397.80 -7404.80 -7407.53 -7406.31 -7402.12 -7391.02 -7395.27 -7398.29 -7400.89 -7401.58 -7406.28 -7417.19 -7424.56 -7431.27 -7433.05 -7425.73 -7425.83 -7425.81 -7425.01 -7422.60 -7416.72 -7413.05 -7401.21 -7389.93 -7364.40 -7343.21 -7332.79 -7316.58 -7312.04 -7306.06 -7293.96 -7285.88 -7263.35 -7205.36 -7162.62 -6955.06 -6563.01 -6332.65 -5847.14 -5437.68 -4702.08 -3357.08 -3261.11 -1718.92 -1214.73 -1095.17 -810.96 -501.39 -410.82 -341.80 -282.68 -222.52 -237.92 -216.41 -176.29 -163.54 -190.55 -166.44 -177.38 -177.23 -209.91 -264.70 -393.90 -618.99 -676.86 -684.75 -763.36 -1014.67 -1426.05 -1427.13 -1363.08 -1289.12 -1338.88 -1359.10 -1536.17 -1408.67 -1128.10 -1055.97 -918.05 -802.32 -961.12 -1206.80 -1440.54 -2514.62 -4071.21 -4773.89 -5806.54 -5711.31 -5047.11 -4631.75 -4343.30 -4499.09 -3442.09 -2599.61 -2729.95 -2603.44 -2722.42 -4391.45 -5939.74 -6752.83 -6932.23 -6962.57 -6965.77 -6977.82 -6986.47 -6991.13 -6993.06 -6992.98 -6990.72 -6993.31 -6990.65 -6988.79 -6982.89 -6975.76 -6979.95 -6956.96 -6939.89 -6927.83 -6919.27 -6907.84 -6938.48 -7147.22 -8110.67 -8845.56 -8868.87 -8866.16 -8860.05 -8853.07 -8848.55 -8840.93 -8841.00
-7285.34 -7285.27 -7292.99 -7299.00 -7304.70 -7314.42 -7322.11 -7334.95 -7390.28 -7398.99 -7405.45 -7413.50 -7418.17 -7421.68 -7419.76 -7405.75 -7404.72 -7405.24 -7408.85 -7409.17 -7411.62 -7422.35 -7436.52 -7444.86 -7440.87 -7428.09 -7427.64 -7427.02 -7424.46 -7420.78 -7412.57 -7407.71 -7402.66 -7381.10 -7369.60 -7352.47 -7345.59 -7334.03 -7323.47 -7308.75 -7300.65 -7290.38 -7278.71 -7247.15 -7184.81 -7086.46 -7015.76 -6778.12 -6320.50 -5727.20 -4919.87 -4320.52 -3742.87 -2390.40 -2026.83 -1328.78 -1039.85 -813.99 -646.83 -546.57 -505.52 -329.74 -295.46 -294.27 -278.32 -318.84 -299.13 -286.52 -268.58 -246.03 -297.39 -390.55 -547.33 -688.29 -765.84 -780.43 -930.46 -1269.03 -1419.32 -1414.44 -1430.60 -1481.27 -1443.62 -1389.04 -1459.21 -1487.28 -1588.99 -1423.64 -1331.09 -1488.41 -1560.89 -1559.98 -1778.27 -4147.00 -5707.89 -6246.98 -6260.03 -6346.11 -6366.63 -6025.37 -6414.76 -6052.98 -5316.04 -4758.21 -4976.19 -4056.60 -2875.35 -4575.67 -5267.42 -6489.37 -6955.04 -6977.02 -6986.95 -7001.10 -7008.05 -7004.41 -7005.90 -7000.05 -7001.93 -7004.29 -6997.64 -6997.38 -6992.54 -6986.01 -6985.62 -6962.76 -6938.04 -6932.56 -6919.30 -6913.11 -6940.80 -7245.18 -8075.10 -8815.24 -8874.02 -8867.43 -8861.64 -8854.93 -8847.96 -8842.06 -8842.12
-7292.50 -7292.43 -7299.67 -7305.10 -7311.52 -7321.10 -7331.56 -7351.45 -7394.85 -7409.36 -7417.34 -7424.26 -7431.30 -7432.38 -7426.93 -7416.11 -7416.40 -7414.48 -7413.95 -7415.41 -7419.50 -7430.75 -7449.19 -7447.76 -7438.66 -7428.30 -7427.97 -7427.26 -7425.41 -7420.40 -7414.05 -7408.17 -7403.08 -7391.04 -7378.65 -7364.69 -7357.99 -7338.21 -7333.46 -7315.76 -7307.24 -7295.08 -7285.88 -7270.31 -7269.44 -7232.17 -7135.84 -7073.69 -6610.18 -5877.44 -5174.22 -4623.34 -3990.40 -3061.58 -2561.49 -2211.96 -1607.67 -1276.69 -1046.77 -827.57 -722.63 -521.04 -518.31 -515.97 -490.50 -604.66 -515.07 -443.92 -441.42 -450.48 -450.22 -493.99 -681.35 -693.22 -771.65 -786.50 -897.12 -1240.14 -1369.16 -1315.26 -1390.90 -1488.35 -1480.15 -1552.61 -1781.33 -1736.10 -1797.00 -1742.50 -1830.21 -1875.08 -1835.31 -2041.39 -2246.75 -4034.66 -5744.78 -6299.96 -6357.13 -6451.77 -6537.89 -6569.51 -6592.51 -6565.96 -6629.65 -6544.81 -6369.19 -5535.17 -4019.10 -3227.14 -4212.97 -5948.34 -6688.12 -7004.91 -7009.05 -7021.63 -7027.54 -7023.75 -7020.85 -7012.00 -7011.78 -7012.83 -7009.01 -7005.34 -6998.82 -6996.13 -6995.71 -6972.14 -6944.15 -6932.60 -6923.83 -6915.51 -6948.90 -7387.93 -8196.44 -8825.74 -8873.97 -8869.62 -8861.46 -8854.48 -8849.83 -8844.23 -8843.32
-7300.39 -7300.32 -7308.56 -7314.82 -7323.08 -7331.43 -7338.24 -7357.33 -7401.03 -7417.58 -7425.19 -7431.20 -7440.12 -7440.81 -7438.02 -7427.29 -7423.79 -7425.60 -7424.33 -7422.49 -7425.33 -7436.00 -7453.06 -7452.47 -7440.20 -7430.26 -7430.36 -7429.62 -7427.10 -7422.60 -7417.22 -7411.69 -7407.75 -7399.80 -7386.59 -7376.36 -7369.51 -7361.83 -7335.47 -7328.00 -7312.06 -7295.41 -7287.97 -7283.43 -7279.83 -7262.27 -7199.55 -7093.18 -7032.87 -6098.87 -5651.84 -4858.39 -4301.22 -3733.61 -3079.74 -2441.92 -1989.00 -1831.56 -1612.82 -1149.12 -870.73 -721.86 -848.02 -837.64 -750.74 -802.92 -791.79 -646.12 -666.65 -711.61 -669.47 -676.55 -731.02 -562.15 -500.31 -233.31 -381.52 -1048.35 -1236.33 -1296.21 -1390.47 -1553.63 -1596.66 -1870.59 -1951.59 -1985.87 -1991.06 -2012.67 -1954.69 -1979.46 -2051.14 -2393.37 -3426.26 -5386.66 -6168.08 -6317.96 -6362.39 -6412.32 -6481.44 -6410.71 -6597.32 -6658.40 -6674.66 -6700.40 -6812.36 -6647.81 -5515.32 -4657.96 -4603.26 -5713.23 -6786.05 -7003.00 -7033.11 -7037.47 -7045.36 -7041.47 -7031.46 -7025.74 -7022.34 -7018.88 -7015.07 -7008.39 -7006.44 -7009.16 -6994.98 -6972.73 -6947.79 -6934.54 -6925.21 -6913.67 -6918.52 -7177.39 -8149.90 -8814.07 -8861.74 -8869.52 -8864.31 -8855.25 -8851.06 -8844.47 -8844.53
-7311.60 -7311.38 -7318.80 -7325.13 -7330.60 -7338.03 -7350.01 -7373.26 -7407.15 -7421.35 -7431.15 -7438.05 -7444.15 -7448.76 -7445.25 -7438.07 -7432.88 -7433.11 -7436.38 -7433.10 -7437.76 -7443.97 -7454.12 -7449.60 -7439.87 -7434.00 -7433.57 -7431.43 -7429.05 -7425.89 -7421.47 -7415.91 -7410.98 -7405.78 -7401.52 -7391.48 -7379.53 -7375.44 -7357.61 -7341.99 -7319.04 -7303.82 -7292.19 -7287.11 -7283.54 -7279.92 -7264.23 -7193.35 -6986.61 -6713.72 -6084.03 -5182.39 -4504.04 -3894.90 -3477.40 -2701.51 -2572.89 -2242.25 -1895.94 -1534.67 -1352.44 -1170.48 -1061.61 -1101.67 -1119.03 -1084.77 -1108.70 -992.46 -1004.51 -964.32 -925.85 -888.31 -879.57 -488.17 -515.20 -399.57 -503.59 -1004.83 -1281.82 -1511.61 -1793.44 -1798.22 -1892.71 -1905.94 -2017.18 -2063.95 -2371.50 -2434.25 -2396.71 -2941.97 -2574.49 -3371.78 -5729.16 -6297.69 -6279.26 -6282.61 -6316.83 -6346.35 -5234.37 -5769.10 -6433.96 -6694.96 -6720.02 -6711.91 -6707.99 -6561.34 -6474.13 -5295.89 -5038.63 -5947.07 -6803.24 -7041.64 -7050.64 -7056.67 -7057.34 -7048.86 -7044.50 -7039.66 -7031.09 -7023.44 -7016.86 -7013.20 -7013.40 -7011.34 -6995.69 -6982.78 -6946.47 -6936.58 -6925.55 -6915.40 -6935.06 -7480.77 -8298.19 -8833.38 -8876.70 -8870.55 -8864.64 -8857.07 -8852.17 -8845.73 -8845.80
-7346.71 -7346.61 -7354.46 -7361.17 -7367.23 -7374.14 -7379.02 -7390.72 -7410.14 -7421.01 -7427.20 -7436.95 -7444.48 -7448.54 -7448.86 -7448.65 -7450.70 -7451.23 -7446.47 -7450.66 -7448.61 -7455.57 -7451.12 -7446.07 -7437.53 -7434.15 -7435.20 -7434.39 -7430.17 -7427.19 -7424.77 -7421.15 -7415.48 -7412.27 -7405.80 -7398.88 -7396.20 -7383.24 -7373.61 -7356.31 -7336.84 -7315.52 -7297.85 -7290.78 -7282.78 -7278.06 -7271.77 -7268.55 -7117.13 -6817.53 -6343.24 -5564.21 -4701.55 -3899.16 -3406.07 -3209.43 -2974.18 -2642.62 -2377.75 -1860.79 -1831.75 -1550.23 -1599.42 -1590.19 -1496.31 -1458.45 -1297.68 -1198.85 -1227.03 -1328.51 -1300.69 -1285.44 -1535.71 -1845.24 -1724.02 -1621.66 -1753.86 -1772.35 -1763.37 -2132.26 -2075.85 -2225.21 -2146.06 -2254.78 -2366.33 -2866.89 -4123.49 -4508.21 -4686.50 -4791.77 -3930.77 -5436.44 -6223.70 -6414.28 -5728.93 -5040.37 -5808.80 -5324.65 -4891.66 -5973.02 -6601.26 -6785.49 -6774.58 -6538.64 -6191.99 -5388.15 -5736.41 -4454.94 -4963.85 -6741.19 -7027.43 -7078.20 -7071.65 -7070.39 -7066.92 -7062.67 -7058.78 -7051.26 -7041.73 -7031.03 -7023.37 -7022.61 -7017.45 -7005.77 -6987.21 -6961.09 -6943.54 -6932.14 -6922.76 -6908.60 -6948.38 -7335.66 -8612.19 -8867.27 -8878.44 -8872.36 -8866.74 -8859.02 -8853.12 -8847.09 -8847.16
