362.47508 456.72202 447.98333 483.01916 490.47721 641.01895 735.46671 827.57600 848.07029 961.90661 1055.75231 1106.19042 1112.93318 1203.69247 1248.61771 1319.19146 1534.73305 1437.37352 1383.39075 1252.88811 1000.79533 875.18341 707.31031 624.05412 497.77947 432.59142 346.23088 265.20006 197.53474 180.66365 145.25618 109.45029 126.11536 145.37152 163.64485 134.35922 89.68823 54.45914 19.86480 -7.52031 -3.35863 -3.22889 -16.91759 -29.16829 -18.51146 -29.12040 -47.81204 -51.10450 -61.94668 -76.69471 -88.10984 -80.67813 -85.34447 -87.32692 -88.65500 -96.77680 -97.66357 -91.45698 -103.19811 -102.54109 -103.78138 -107.59548 -103.08607 -120.32698 -121.66337 -141.56611 -143.25147 -159.33487 -171.72113 -206.31508 -198.33176 -211.41729 -213.48141 -205.70032 -191.33712 -182.90659 -200.58631 -219.96769 -210.64556 -260.13838 -367.54633 -424.84556 -489.46734 -768.44283 -850.25404 -878.81736 -957.88938 -1037.13281 -1046.56227 -1055.98544 -1052.96914 -1056.11920 -1042.00280 -1039.80646 -1050.57422 -1054.96090 -1061.25756 -1077.54437 -1093.34692 -1111.44365 -1124.56524 -1144.54053 -1131.47695 -1163.73218 -1233.45464 -1320.22502 -1345.35382 -1444.76493 -1474.25916 -1561.20385 -1612.25372 -1663.58810 -1785.59419 -1845.06720 -1866.66796 -1926.96131 -1954.92072 -1965.85704 -1996.46070 -1994.51422 -2022.36251 -2026.05534 -2029.06324 -2044.40568 -2035.81689 -2055.68959 -2056.18830 -2069.16670 -2080.99138 -2077.76792 -2087.43187 -2103.10140 -2103.20436 -2116.73508 -2131.64686 -2123.62350
475.79642 547.10713 485.66761 471.01760 493.21113 539.00102 592.58367 771.11050 807.23780 923.62328 1002.64157 997.02327 985.65850 1043.79919 1074.17311 1234.18138 1301.77628 1365.03646 1343.46946 1203.25197 1124.92286 882.73544 669.51491 645.01147 539.66563 434.19765 349.50355 293.11945 167.93101 157.55774 120.06637 136.74993 164.25352 179.37676 196.78507 166.47420 106.24029 54.90642 37.25985 -8.38710 -12.68725 -5.71962 -16.91262 -17.28421 -27.39939 -30.51361 -33.54611 -45.41120 -48.81306 -64.43417 -71.03638 -83.01825 -87.52444 -80.44776 -88.72488 -97.05677 -92.07794 -91.26317 -94.34485 -95.49815 -93.87883 -111.59134 -103.06205 -106.20195 -120.67813 -137.63258 -134.49627 -152.35291 -158.37827 -160.69681 -185.05866 -191.43404 -196.70926 -181.53008 -172.31341 -156.93823 -157.52569 -172.40960 -173.37244 -245.08969 -350.79854 -396.12805 -491.41391 -679.05757 -809.80432 -870.11877 -969.43940 -1023.91340 -1060.72621 -1066.07517 -1088.58154 -1086.19219 -1072.51852 -1083.90218 -1075.27064 -1098.95842 -1098.25725 -1096.09383 -1111.83960 -1118.55622 -1120.43857 -1110.09816 -1120.32641 -1125.53491 -1162.85752 -1202.00813 -1259.58720 -1308.60584 -1423.63821 -1463.29870 -1558.40544 -1632.82565 -1717.95063 -1797.28867 -1854.40459 -1921.64511 -1958.61088 -1974.55238 -1991.49297 -1997.48998 -2029.41894 -2033.70419 -2036.68163 -2040.95728 -2058.15457 -2054.41588 -2069.17020 -2066.34385 -2079.64832 -2091.38887 -2098.41274 -2104.39238 -2108.36975 -2139.15677 -2148.38468 -2139.00777
672.14708 605.25599 599.36333 477.21257 470.65789 505.65948 533.28678 587.97189 704.34019 858.97833 926.73661 954.23648 961.82483 905.27213 942.06184 1050.91543 1232.17907 1286.95762 1291.01148 1242.00923 1176.10552 821.66398 716.69645 567.27471 520.84054 481.75958 396.53495 260.28921 195.96064 146.44224 145.81194 167.90646 182.79934 211.43510 211.94009 182.51543 139.17713 93.84652 24.77641 0.57476 -3.35304 -8.86819 -23.35179 -10.00933 -19.69268 -29.82869 -29.71439 -38.93110 -51.76388 -56.09333 -54.09635 -73.22955 -75.24008 -88.41026 -99.47979 -87.26958 -95.56372 -108.36629 -95.88316 -103.21008 -100.32417 -107.90660 -103.11026 -93.53075 -104.00563 -100.52908 -114.69206 -124.28907 -152.57661 -152.50299 -170.49762 -164.96658 -154.23585 -153.05272 -153.89222 -152.77855 -144.53080 -155.78226 -163.29171 -195.44477 -279.00040 -378.49935 -430.71144 -601.05063 -709.03480 -847.11572 -910.48364 -976.33121 -1020.35320 -1069.35909 -1076.47750 -1081.68424 -1092.60809 -1089.11938 -1112.64383 -1138.60149 -1133.28549 -1133.12089 -1129.69812 -1124.89696 -1117.66620 -1108.01220 -1106.81525 -1116.50953 -1147.44911 -1171.15107 -1250.90704 -1270.33824 -1270.87596 -1388.93876 -1453.68909 -1552.04686 -1604.42098 -1775.10145 -1814.60870 -1909.75359 -1957.61595 -1986.80036 -2005.84954 -2025.54491 -2025.05627 -2024.00322 -2038.14402 -2044.77009 -2050.29437 -2057.82616 -2069.22871 -2065.05930 -2091.48919 -2085.59169 -2106.88919 -2099.81185 -2116.33677 -2148.33021 -2146.05842 -2145.50438
623.63564 657.19395 612.49581 531.98146 493.87939 457.90433 477.51404 550.44428 610.14485 639.14472 846.41702 912.38234 868.07579 848.12894 882.22494 1041.52191 1097.79481 1202.91372 1218.66597 1124.00617 1037.29422 815.99279 769.24203 612.44190 500.65430 411.72907 375.82681 264.90603 158.67298 143.37011 187.52067 191.72922 213.74451 219.09069 221.50138 205.13973 134.99915 108.96956 58.77138 9.07628 -8.80075 -4.07437 -15.19085 -23.41229 -16.74489 -26.63392 -25.02854 -34.54943 -40.59960 -46.03078 -59.49267 -80.67201 -79.70163 -88.27322 -93.65022 -101.85767 -107.06268 -92.21723 -103.98603 -119.16499 -98.88251 -99.49798 -96.75011 -90.58639 -95.02739 -99.88763 -105.33943 -103.04297 -121.35569 -140.58298 -148.32510 -136.07624 -136.68415 -140.59121 -146.73444 -132.07644 -121.32273 -130.97205 -135.78674 -189.18984 -237.50000 -333.62812 -417.99513 -525.55496 -694.23193 -793.64948 -824.79528 -923.04461 -978.48938 -1031.13608 -1076.70174 -1089.35058 -1104.52680 -1118.02853 -1137.53008 -1137.92537 -1137.93646 -1136.55055 -1146.82902 -1131.68420 -1105.37196 -1099.22799 -1084.64409 -1093.80172 -1117.18777 -1146.42918 -1190.04736 -1227.76994 -1246.71548 -1302.58464 -1399.75109 -1427.54073 -1618.71206 -1709.06150 -1822.89275 -1861.81307 -1922.89342 -1980.82235 -2022.67537 -2019.41684 -2041.03314 -2040.93731 -2035.74190 -2049.91820 -2037.76407 -2053.79751 -2061.03282 -2080.13198 -2090.28707 -2099.54834 -2096.36978 -2121.07149 -2125.52627 -2152.00978 -2157.94118 -2160.14489
712.59014 685.61684 628.00380 570.00869 517.52387 454.80754 470.92876 504.44127 513.03079 596.35485 739.40434 796.10853 775.74451 725.29495 833.66798 955.59214 1042.56980 1083.29742 1111.03379 1066.56837 930.75939 876.46986 737.73575 658.83852 519.04252 395.08153 319.88657 185.25512 154.92875 166.68843 181.03467 215.75160 230.82599 228.45393 238.73851 218.34599 142.65245 101.79845 52.48610 24.70177 -8.79134 -0.63988 -14.52403 -11.77167 -16.30115 -19.53743 -33.74694 -25.09043 -42.30298 -45.59186 -45.44326 -67.04810 -80.23594 -95.55663 -88.66377 -89.81698 -103.19983 -101.40098 -110.68092 -110.83077 -99.73992 -90.55558 -91.23949 -90.81327 -89.41265 -86.78444 -86.51909 -103.02489 -108.39757 -119.08784 -113.47960 -143.47516 -138.81004 -144.71862 -137.12757 -116.93375 -105.43162 -103.58596 -115.39735 -172.69606 -197.06822 -291.58359 -395.67268 -476.79371 -621.62993 -730.10760 -794.23098 -885.57050 -976.11375 -983.72559 -1037.31319 -1091.70136 -1116.38744 -1140.47972 -1145.69777 -1147.21287 -1152.80569 -1153.60969 -1150.28996 -1155.80878 -1120.42380 -1107.98852 -1105.69478 -1097.23143 -1102.08050 -1139.50430 -1141.72747 -1171.62056 -1220.61850 -1265.11953 -1313.67441 -1459.02927 -1514.06315 -1705.46160 -1790.62821 -1841.76635 -1909.04560 -2021.53981 -2018.23996 -2034.83644 -2032.34501 -2030.82836 -2031.04481 -2041.05726 -2038.68086 -2063.70925 -2057.36878 -2086.06622 -2083.53115 -2087.20264 -2111.20187 -2104.15216 -2111.59941 -2127.95264 -2156.61564 -2155.35302
663.44390 724.98021 711.79246 609.39171 525.63277 453.85707 445.36500 438.10592 513.58955 570.38215 638.53263 746.17567 706.58030 697.48797 770.07848 888.90740 924.01866 1030.51799 1043.30305 1036.17263 1006.65679 887.86091 799.90896 682.83620 558.19093 395.27087 314.58550 250.71868 189.27441 179.03782 199.43713 230.06258 244.00523 226.36158 202.43785 193.35915 123.22756 114.72891 63.11493 12.87947 15.16992 -6.24296 -5.10503 -12.43893 -7.32945 -20.94996 -32.12293 -23.21131 -24.29540 -50.00562 -48.47465 -60.18389 -86.70472 -85.10998 -87.54759 -93.78865 -112.58663 -119.10015 -112.02360 -111.09790 -107.47850 -95.50525 -101.89918 -86.11338 -79.05888 -79.24498 -85.89063 -91.64517 -102.18800 -114.31204 -111.47352 -120.90175 -124.71796 -119.84028 -107.40634 -97.32091 -98.03582 -98.30976 -106.86438 -146.94059 -154.04871 -190.38710 -325.57146 -429.77079 -508.85969 -655.71049 -730.83828 -827.30166 -893.36420 -978.43053 -1030.35013 -1072.69975 -1112.95370 -1142.22536 -1144.70943 -1142.73179 -1153.61016 -1153.56296 -1164.39695 -1147.12218 -1132.61830 -1118.17990 -1099.67540 -1109.50901 -1108.25381 -1095.34379 -1118.25249 -1134.93465 -1184.78740 -1195.11314 -1248.63242 -1421.25706 -1500.21029 -1702.60616 -1807.16042 -1842.34422 -1874.06696 -1982.02691 -2011.84300 -2016.82971 -2024.06290 -2014.46796 -2025.57984 -2032.87047 -2032.02930 -2040.38710 -2051.96801 -2072.50270 -2092.02567 -2086.64310 -2102.15816 -2112.37701 -2118.18567 -2137.50989 -2156.53130 -2161.91728
873.85948 798.48573 744.41375 623.87556 548.35555 491.78124 449.14862 396.07730 474.55978 471.72647 590.13044 643.87274 688.39454 654.16193 669.12995 789.52235 884.76791 991.50628 1036.87313 995.79599 1030.69811 963.14254 855.24792 789.33326 605.49630 473.59916 381.95778 285.21442 177.44933 177.50643 192.37085 217.48435 213.24567 198.96117 198.84029 165.00671 128.06771 119.11691 76.67865 25.72928 4.10152 -0.51189 1.61617 -12.60371 -17.58309 -20.28082 -12.65481 -20.11025 -31.49004 -39.70365 -53.54915 -74.51824 -92.96760 -89.23095 -93.03512 -99.50192 -106.90838 -111.72883 -108.08855 -113.99274 -103.40289 -107.85436 -97.36581 -94.89629 -89.96926 -84.58477 -91.03832 -87.76539 -91.09828 -96.23270 -114.49279 -109.17289 -116.73232 -103.02420 -95.83041 -104.00458 -108.84229 -102.19014 -110.02502 -141.29822 -143.79960 -189.98944 -246.00442 -348.65344 -415.32534 -579.59406 -696.04213 -765.19989 -803.57277 -871.56367 -985.85558 -1066.67797 -1068.71440 -1134.96789 -1141.38650 -1148.08996 -1161.65419 -1159.00704 -1154.73312 -1140.26520 -1150.29826 -1131.75746 -1117.22018 -1113.26770 -1117.50219 -1105.69018 -1099.71330 -1082.94115 -1117.22889 -1139.20947 -1169.67713 -1259.28496 -1517.39945 -1651.01588 -1719.85955 -1777.40167 -1838.26438 -1935.02109 -1973.88181 -1992.44067 -1990.83736 -1999.48761 -2007.78261 -2011.22521 -2020.66161 -2032.16345 -2044.92327 -2075.19963 -2070.17618 -2095.44196 -2087.64341 -2106.45553 -2116.34961 -2121.49518 -2140.53191 -2142.33544
805.12788 883.57608 829.91445 704.97318 671.87971 577.06549 475.54685 455.20559 455.68541 478.55837 495.73119 597.98485 618.22805 593.50861 577.77676 610.49587 723.86824 817.18404 951.03248 943.09934 964.77461 986.70601 935.51859 858.26775 677.58137 529.27806 403.16218 366.85549 228.29379 180.99244 184.61119 183.43179 197.93328 183.06267 180.87230 190.75538 155.26626 129.53028 91.08687 32.37716 13.63766 8.85168 -3.21228 -5.40520 -4.08900 -16.92202 -19.34532 -15.96580 -43.00042 -29.30796 -50.85857 -53.83448 -74.16860 -92.13811 -82.10762 -90.03242 -102.85130 -105.24441 -98.81071 -104.79394 -107.00719 -100.71897 -88.73169 -90.06146 -90.53113 -75.94549 -80.37388 -84.24250 -79.04355 -95.27525 -93.25488 -95.99498 -99.57328 -103.69836 -102.22776 -90.79031 -89.96688 -90.71569 -96.80510 -102.45969 -136.16770 -155.30062 -190.43315 -253.62949 -376.69909 -504.04135 -619.84168 -653.87883 -767.37208 -828.62238 -893.47166 -964.87884 -983.10046 -1073.91414 -1125.46851 -1119.63027 -1138.31852 -1156.33596 -1162.85017 -1159.50818 -1148.79725 -1141.69264 -1127.56936 -1110.04002 -1111.57229 -1098.04205 -1090.86996 -1087.12608 -1074.74721 -1098.71305 -1137.21027 -1247.99816 -1415.21979 -1574.63729 -1682.70127 -1747.17494 -1787.60366 -1892.20837 -1949.36850 -1940.86183 -1962.40485 -1949.83867 -1956.34807 -1974.64171 -1999.66833 -2004.75462 -2012.25559 -2050.04740 -2067.26279 -2071.54478 -2083.31480 -2096.63763 -2108.36329 -2125.78329 -2128.36473 -2127.05718
866.80731 937.92455 838.58677 767.08023 709.18611 611.43947 600.83796 518.18229 509.88933 517.60593 489.61134 489.41900 493.31546 483.77840 487.71728 509.89014 576.48077 782.06706 785.77048 799.19167 876.31740 909.52892 911.00969 836.07738 730.83143 571.56183 390.61137 331.74446 246.78582 209.37769 192.51063 182.05791 177.63265 174.22093 186.29102 191.84392 152.44115 140.40982 99.32362 65.51664 21.36058 6.41443 -8.39817 -8.85742 -5.20687 -18.81796 -18.46221 -22.93093 -25.49168 -35.63752 -45.89280 -51.31495 -68.49965 -78.62395 -96.15692 -94.94728 -97.62527 -104.59984 -111.89487 -98.12278 -99.31125 -102.81841 -99.35869 -91.25643 -79.14954 -73.67405 -78.60448 -76.90785 -86.41483 -91.56314 -91.02247 -106.15789 -99.82570 -96.26702 -95.47224 -89.61077 -90.91159 -89.97238 -80.15089 -83.55050 -100.14459 -100.33446 -148.17642 -231.37703 -270.59954 -384.55163 -450.88401 -590.33633 -669.55380 -732.01760 -862.50720 -864.88662 -958.00870 -1044.46506 -1075.78875 -1104.42775 -1122.75582 -1142.71174 -1162.27334 -1151.93620 -1151.90408 -1153.65900 -1146.76590 -1125.16637 -1124.39559 -1109.39642 -1065.52983 -1064.42737 -1068.22354 -1086.37986 -1114.01088 -1191.38368 -1333.57859 -1479.97176 -1644.31173 -1680.79756 -1761.05773 -1812.34067 -1854.01841 -1879.14920 -1870.37053 -1865.41113 -1861.54364 -1881.71720 -1904.08540 -1958.92712 -1995.32088 -2022.22441 -2048.94056 -2060.40036 -2075.42047 -2080.66833 -2093.67519 -2111.99478 -2125.47459 -2107.81848
1097.96392 1012.16939 997.52554 811.47226 813.26782 741.46031 740.86472 666.56302 549.56332 558.54120 538.92309 473.62608 445.96907 453.77599 443.41106 478.17339 491.48617 609.38402 633.65502 763.89427 788.75782 868.94749 845.28640 822.90159 825.18195 684.13625 642.09833 493.91651 346.98244 214.98218 197.54157 180.72011 166.27996 171.13599 176.69945 195.26267 176.76875 151.20681 131.31767 80.55050 43.94305 41.04350 -13.39085 -5.83903 -5.39310 -14.38419 -17.51189 -20.80161 -21.04799 -36.46917 -34.54562 -54.81541 -56.71700 -67.45873 -86.75683 -89.57363 -101.96802 -104.81676 -103.96451 -107.42164 -101.50374 -110.57760 -105.66765 -104.88422 -89.42888 -83.23697 -68.99672 -74.67875 -73.75308 -87.58020 -91.36050 -83.72826 -96.52775 -100.18928 -93.08411 -88.47663 -87.57994 -71.27571 -70.25266 -62.40440 -72.55960 -92.61387 -140.80294 -180.09946 -262.12359 -290.68716 -415.24829 -457.77845 -492.09692 -651.01452 -824.73964 -845.82606 -923.10645 -999.93189 -1037.43751 -1074.89926 -1087.15752 -1130.39263 -1135.60702 -1153.63141 -1151.45045 -1153.40875 -1137.53495 -1133.32686 -1117.19653 -1105.71345 -1080.39728 -1070.91069 -1058.94364 -1059.61807 -1082.49025 -1090.64751 -1293.36717 -1384.19622 -1487.76730 -1547.38171 -1679.14924 -1757.35936 -1788.34723 -1780.97487 -1779.55028 -1830.15886 -1847.41191 -1873.24811 -1874.82237 -1900.79875 -1945.20832 -1951.81602 -2032.19078 -2050.88658 -2052.59966 -2073.57282 -2083.22144 -2095.46312 -2101.71918 -2131.64701
991.35705 1124.64624 1055.90082 903.98642 906.90374 891.31196 890.62449 727.80454 812.25719 670.02727 681.14685 583.71591 453.44183 457.73589 449.16076 450.29089 474.08965 529.25680 607.09231 562.08175 742.98813 809.55535 859.84783 847.19686 820.19352 783.05484 689.47481 624.30044 569.68651 407.49367 245.59352 236.87153 198.34703 166.12947 168.34511 180.21645 174.44013 166.99730 133.53300 108.46752 73.74844 52.78307 20.30389 -3.43176 -10.77756 -9.45513 -14.61142 -9.62768 -15.11628 -19.49907 -29.85016 -39.60118 -55.03059 -67.31889 -79.47672 -88.65407 -111.14896 -104.46373 -100.15181 -106.15823 -108.85935 -103.38884 -107.65007 -93.11426 -93.24934 -76.18011 -79.33351 -78.50076 -87.90458 -86.98844 -104.38816 -95.19705 -95.45072 -104.57175 -105.15357 -89.54633 -69.41727 -64.10333 -66.00879 -62.12610 -76.41083 -75.82615 -102.90975 -155.80031 -194.73151 -278.87024 -307.23684 -366.29616 -375.46686 -489.53293 -577.23713 -776.42665 -867.84431 -998.56128 -1039.76738 -1059.50552 -1096.23561 -1115.82624 -1139.01298 -1132.20914 -1144.98355 -1148.42057 -1136.50833 -1126.71181 -1106.21068 -1109.68154 -1092.09432 -1078.55475 -1056.39828 -1049.95210 -1063.59908 -1126.28166 -1174.89213 -1308.04108 -1440.25302 -1487.99651 -1533.32195 -1557.26341 -1673.35170 -1753.99110 -1723.51863 -1751.52404 -1739.73423 -1795.11263 -1809.72372 -1873.40662 -1862.13894 -1915.56728 -2007.39761 -2019.20332 -2027.45928 -2046.81628 -2056.33230 -2076.67386 -2068.19553 -2045.62678
1390.86092 1252.93604 1268.44726 1037.79568 1077.22573 1092.90975 1105.37550 1004.33972 868.35382 850.48366 856.32821 680.38070 598.05184 546.61089 492.26224 446.06222 441.31914 482.61963 498.15289 566.41919 621.34541 758.71589 836.29905 868.15953 843.50836 729.65082 716.33129 710.92926 636.58722 567.81150 469.58363 307.67554 232.46227 184.35325 179.01722 189.10212 185.25660 171.52001 168.07546 118.10271 104.69757 67.67547 22.12257 -1.35017 11.71676 -14.05736 -10.97288 -12.21072 -17.06934 -17.70906 -32.31146 -32.12809 -55.01242 -67.59526 -79.25534 -88.26920 -81.60585 -91.80438 -89.19799 -99.79670 -108.92584 -99.73212 -99.51583 -93.94593 -83.97508 -81.15191 -81.46531 -84.11524 -91.08903 -83.88744 -94.62525 -100.48276 -94.05772 -105.27776 -86.18261 -83.52839 -68.00866 -63.17344 -67.73657 -54.65633 -60.88742 -67.53057 -102.23554 -127.26897 -144.76298 -219.13157 -254.18570 -326.96268 -375.74325 -483.17428 -531.35509 -608.12134 -718.28174 -807.29783 -958.54297 -970.83963 -1048.39179 -1095.97474 -1115.09198 -1112.83646 -1130.06412 -1129.53317 -1128.14362 -1114.84984 -1109.18603 -1107.03620 -1093.78517 -1083.85065 -1058.09477 -1038.74563 -1055.42048 -1100.41204 -1173.14341 -1222.92965 -1367.82713 -1428.60180 -1449.53465 -1517.03552 -1537.23265 -1613.77205 -1616.81676 -1642.99273 -1659.44547 -1699.96246 -1723.51911 -1785.84391 -1832.93970 -1830.58510 -1938.94698 -1992.83842 -1999.43092 -2036.54663 -2021.84289 -2043.86225 -2046.11750 -2092.48085
1220.22077 1416.30372 1270.80125 1159.18764 1136.86123 1186.20634 1334.14379 1333.65165 1110.82727 1011.61295 907.75387 844.39926 693.49443 620.61835 511.77909 437.27499 407.46028 425.80671 446.14463 506.44947 532.75730 775.49745 846.58312 842.81636 807.95031 677.81121 650.12205 676.35105 797.87411 750.10382 604.16236 404.70258 294.88660 205.34378 195.04283 182.63422 194.60591 193.93393 175.54371 142.47338 112.97427 82.72970 36.96903 30.23828 12.78637 -8.45695 -17.84075 -9.75926 -20.33660 -26.99334 -34.06966 -25.93132 -31.20446 -50.40486 -67.07980 -76.53731 -80.93598 -90.20267 -97.90407 -101.99125 -96.38331 -101.98860 -108.19455 -101.59628 -95.98566 -82.03664 -74.75224 -74.30204 -86.09858 -94.84355 -101.60350 -99.57849 -115.24117 -103.98381 -103.96597 -87.66428 -79.49311 -63.47592 -54.66406 -55.06921 -57.40753 -67.78720 -89.67510 -148.13184 -156.51900 -207.02454 -218.66374 -241.38818 -334.37352 -387.36210 -506.70607 -574.49362 -643.26463 -762.84179 -854.14021 -855.07671 -1027.71794 -1066.85557 -1079.68115 -1109.54674 -1108.22027 -1115.81843 -1121.07237 -1115.14591 -1102.85164 -1096.80967 -1085.15250 -1069.03907 -1061.60555 -1050.35397 -1073.76075 -1118.28385 -1180.47166 -1191.51363 -1273.72209 -1372.37865 -1385.38033 -1388.13134 -1402.11035 -1395.59752 -1467.08864 -1502.46064 -1538.27971 -1613.38368 -1643.97706 -1719.10095 -1745.84492 -1808.79381 -1852.46303 -1912.48884 -1943.97959 -1945.12406 -1979.62815 -2009.64491 -2003.21350 -1962.17116
1433.25796 1619.70209 1384.22547 1242.99532 1333.98246 1474.64597 1551.06195 1544.27491 1364.38079 1278.83718 1104.99175 991.01401 842.12399 647.15007 568.95052 503.05330 451.34509 426.31342 435.88066 471.40034 474.37550 648.53252 755.95657 768.90582 724.53029 597.44784 576.16258 730.30837 775.87822 852.04764 757.78893 449.54331 371.98488 327.04222 236.99343 207.57040 196.19983 194.75541 195.74011 180.54049 138.20632 90.74711 65.35595 48.13923 10.60898 5.06508 -1.90265 -8.29999 -12.34557 -18.96017 -31.35182 -29.84711 -35.20369 -55.05903 -69.93595 -65.00801 -81.29917 -83.01993 -92.40045 -113.07323 -97.57686 -106.16085 -100.02079 -104.81801 -104.02975 -91.24226 -86.82962 -81.73333 -94.56620 -91.36414 -102.17211 -104.73501 -100.86120 -101.66703 -105.88271 -89.99410 -79.94852 -68.75864 -59.41459 -62.10002 -64.14335 -74.34898 -85.42573 -119.52915 -166.02356 -191.72916 -203.52291 -238.09128 -286.67279 -349.13639 -445.27361 -514.48282 -606.50513 -747.79416 -779.77756 -810.86763 -891.06715 -958.40157 -1051.53863 -1071.06444 -1097.62152 -1111.83962 -1100.17359 -1106.46273 -1106.86869 -1100.71146 -1086.49712 -1081.96958 -1056.35210 -1068.41000 -1066.94188 -1108.41313 -1131.46452 -1214.10077 -1257.81445 -1308.86353 -1313.42759 -1339.69172 -1321.45389 -1368.41541 -1379.45276 -1425.04081 -1491.74253 -1484.81890 -1515.38795 -1599.91367 -1699.32082 -1738.35694 -1759.30595 -1787.64764 -1836.48498 -1896.90053 -1907.80885 -1948.91617 -1957.22264 -2010.28343
1683.03443 1811.49659 1723.38130 1574.04896 1789.62508 1789.71159 1673.60795 1674.21432 1567.60519 1397.78766 1234.16839 1086.24290 896.60540 780.94449 640.97694 582.75982 484.21528 472.20348 437.40297 435.22426 430.60416 561.20547 638.59708 729.37786 657.04419 591.07686 592.80330 683.99328 879.99438 841.51425 808.88016 635.66927 457.32005 336.76286 257.11595 226.90480 213.70563 192.16526 210.29452 188.18384 135.02886 109.37981 97.25283 69.84310 22.67315 2.36650 -7.99565 -6.15878 -12.38365 -27.87520 -18.86723 -26.27559 -35.32713 -41.91571 -59.09353 -62.06959 -72.99274 -86.52349 -100.77987 -92.75319 -95.74540 -112.04756 -102.78794 -102.25775 -90.98156 -97.45332 -84.46103 -91.68860 -87.52133 -87.57292 -91.28082 -95.92390 -87.38360 -92.35941 -95.21349 -74.89194 -82.18755 -67.97026 -72.13053 -52.88385 -68.78022 -78.54633 -88.18344 -118.72795 -156.46498 -188.26443 -196.93673 -240.76772 -277.99916 -347.32763 -415.63874 -467.18135 -587.27048 -607.38459 -702.90692 -731.35742 -840.30847 -884.29721 -963.52383 -1020.98090 -1062.28208 -1078.06750 -1078.90145 -1086.71328 -1098.34678 -1085.09074 -1090.34924 -1071.48830 -1059.10304 -1063.90643 -1082.71554 -1095.60059 -1157.36490 -1210.47722 -1264.54016 -1280.19249 -1312.03281 -1275.58272 -1286.49569 -1292.87434 -1348.79997 -1355.69757 -1381.97702 -1414.58244 -1468.35303 -1470.59307 -1526.35326 -1557.56782 -1617.80209 -1722.35585 -1797.12350 -1837.19951 -1869.37315 -1850.02731 -1904.89793 -1841.15761
1860.33418 1934.64255 1741.61322 1774.65849 1849.81096 1973.75022 1780.52965 1775.46057 1646.50788 1558.44816 1364.62624 1243.73696 1067.86285 841.84078 705.56249 605.97578 504.07186 474.29556 461.50326 442.43890 412.50124 461.44784 492.84594 622.84272 603.69351 548.84612 565.40758 703.57009 869.52420 878.91800 855.76433 761.30989 422.85034 358.69306 273.23485 241.17230 222.92967 230.01076 233.66911 217.05453 179.75357 137.34414 129.20072 66.39150 39.35338 11.18021 12.90059 -3.30279 -11.38073 -19.15658 -17.73258 -29.18748 -38.20972 -33.54503 -43.94070 -53.03953 -63.61092 -91.00769 -85.69684 -95.50466 -107.33779 -99.02119 -113.69223 -99.39507 -98.58393 -106.06636 -95.93601 -73.62706 -89.17058 -85.25842 -89.86366 -97.89558 -98.03590 -100.85334 -100.53572 -91.22158 -78.45658 -79.01732 -72.09690 -71.81077 -63.23940 -82.63653 -92.59953 -112.12158 -148.69283 -170.98994 -194.76860 -248.24391 -295.87246 -312.53063 -372.41638 -387.53175 -435.40530 -534.35905 -573.91242 -698.81430 -749.33592 -843.78933 -886.52091 -932.51918 -981.21811 -1021.73359 -1061.32837 -1082.46400 -1090.21133 -1086.96584 -1093.48266 -1066.89862 -1058.25832 -1065.22976 -1068.26346 -1111.24089 -1149.73205 -1208.68581 -1226.28529 -1249.91506 -1251.98626 -1221.76735 -1197.62395 -1238.01900 -1241.34056 -1259.40793 -1262.83963 -1320.86796 -1321.59580 -1359.77443 -1447.85174 -1459.02043 -1577.90332 -1618.53799 -1685.79497 -1804.70646 -1800.68809 -1852.23670 -1832.53327 -1909.96701
1979.53424 2014.30283 2001.69934 1883.31929 2055.39759 2066.54981 2022.61926 1954.60561 1870.02932 1587.02958 1449.01171 1350.50703 1105.06767 952.26547 748.95065 702.11716 513.78116 507.52592 486.06210 429.70722 417.63966 380.80618 465.39659 479.55459 480.59862 460.82359 519.53884 696.25564 809.42229 859.97513 827.00967 794.49288 492.69591 256.57072 259.46316 243.82526 247.55050 257.96192 270.03488 249.67046 195.87774 156.27891 146.29658 79.34651 42.75992 28.25377 7.29555 -1.97809 -2.86713 -14.23823 -20.60210 -24.27324 -19.18814 -27.12941 -47.64812 -41.37255 -67.80769 -73.36159 -94.21569 -101.49878 -95.96009 -102.27926 -101.59055 -111.94389 -92.60627 -103.99868 -96.12604 -101.57577 -81.46078 -83.42361 -82.96429 -88.69850 -87.50302 -93.55973 -89.53146 -90.18302 -86.54858 -78.85941 -73.64357 -78.35413 -80.65643 -95.63729 -109.94176 -121.55544 -150.87216 -173.91821 -201.32083 -262.29254 -286.24767 -310.83970 -312.63323 -382.01234 -433.01352 -450.31930 -508.47671 -569.04237 -613.04541 -759.02397 -778.85613 -870.04043 -902.61847 -988.56653 -1007.82234 -1051.76759 -1071.29825 -1080.99391 -1063.39671 -1057.84000 -1058.63198 -1061.33974 -1069.68182 -1097.85136 -1143.78421 -1204.26760 -1234.89759 -1213.73675 -1205.97907 -1152.35409 -1153.22712 -1147.78455 -1166.45738 -1168.13469 -1143.27423 -1208.44393 -1191.67499 -1249.96301 -1311.04949 -1365.91220 -1482.47847 -1525.58308 -1580.98763 -1643.87569 -1715.79330 -1749.75567 -1764.46368 -1680.94677
2083.82403 2035.48238 2049.72897 2057.09750 2129.99179 2229.82252 2213.26878 2138.57535 2054.78151 1893.96196 1623.13545 1557.13044 1236.07230 1021.78903 942.22618 719.74847 609.01375 527.67365 490.26118 442.43196 389.47283 370.89383 381.37930 400.20883 388.71434 446.92024 535.17778 719.50078 703.83842 823.48996 760.33547 525.31219 430.62125 288.69568 304.18116 298.57609 305.58560 287.03354 272.73667 274.14713 247.51203 191.66691 145.45784 89.87133 61.55040 31.24618 30.49448 -4.14910 12.32158 -2.90268 -24.05514 -29.79639 -27.25382 -25.66947 -36.51492 -44.37285 -64.57370 -66.15879 -87.91291 -87.07584 -101.30271 -94.10042 -95.96334 -97.95169 -103.73125 -103.89432 -107.69036 -98.12409 -101.03151 -80.59738 -87.65337 -81.57335 -81.13129 -92.51501 -98.16141 -96.22474 -102.64029 -98.57669 -95.06285 -85.12544 -93.31449 -97.63913 -100.60188 -124.85984 -167.90722 -188.49936 -197.85596 -235.13366 -270.30076 -272.55933 -288.92633 -341.17099 -350.08722 -430.02628 -491.82874 -504.27390 -527.99394 -604.97764 -724.10031 -780.95713 -811.58648 -929.58493 -961.79799 -991.31704 -1037.11605 -1050.95005 -1063.81690 -1060.95294 -1058.08887 -1066.19891 -1080.97461 -1090.88324 -1132.70797 -1192.71626 -1211.69296 -1210.70736 -1177.16366 -1137.58007 -1105.46395 -1071.43501 -1085.88108 -1106.23368 -1062.99916 -1087.77370 -1155.14890 -1162.77908 -1172.11513 -1295.31244 -1348.90447 -1400.86804 -1492.02241 -1532.06087 -1614.15359 -1702.27616 -1688.80029 -1761.50603
1961.73560 2012.90055 2025.18074 2088.60129 2164.34089 2255.20342 2282.83165 2266.97604 2164.15504 1950.08079 1841.66025 1635.42385 1333.48216 1161.92365 1020.64351 782.69449 624.46646 566.56908 484.19211 428.69923 389.53599 375.82695 346.46327 325.91855 329.19755 369.69048 465.15672 571.33149 650.33825 577.92831 566.55658 519.67774 391.06731 434.32426 382.91491 344.60708 364.13855 333.61920 292.28303 295.06044 269.78673 219.86159 180.45406 110.40471 93.24580 48.57280 26.85738 11.10080 -4.33649 -15.29551 -14.33404 -3.60049 -21.75421 -14.19413 -34.86647 -39.43149 -46.87474 -75.29651 -79.14909 -91.32581 -101.62376 -95.72218 -102.48049 -112.05534 -109.54480 -114.77403 -110.72920 -106.51919 -99.29146 -97.51513 -97.60467 -90.14241 -87.05382 -93.15530 -97.88749 -101.02435 -105.69300 -99.39026 -88.81602 -96.65056 -94.16294 -107.97982 -131.22202 -148.27768 -158.49332 -193.91827 -206.18146 -216.34488 -232.68674 -254.64749 -286.66575 -311.48036 -300.31270 -343.79818 -380.37829 -472.96571 -513.56614 -561.68393 -661.70322 -686.49176 -747.83764 -784.02307 -888.70554 -979.14353 -996.14705 -1022.72775 -1058.56097 -1062.83454 -1066.63329 -1073.73834 -1091.93637 -1106.21285 -1144.44753 -1163.22402 -1206.66058 -1180.57420 -1156.99937 -1112.23880 -1047.68126 -1036.27588 -1017.76397 -1006.09725 -1033.12573 -1043.63097 -1050.91748 -1014.95132 -1017.35731 -1101.30952 -1181.89334 -1230.79785 -1344.96424 -1464.82688 -1468.95324 -1589.60456 -1597.22178 -1675.27311
1975.84105 1972.46195 2051.68609 2097.61208 2096.91213 2219.43615 2256.18385 2292.78956 2232.06548 2165.96681 1957.21180 1684.69204 1418.81673 1165.06826 1092.17483 959.59614 611.20772 550.71565 485.17507 431.51306 413.95533 373.13177 362.97430 335.26958 334.89183 340.98021 356.54063 485.80171 474.43302 518.91243 487.04011 440.42793 505.03313 515.22025 531.93619 469.64741 442.35892 447.69212 400.65820 362.24298 321.83161 256.56437 211.39947 106.18071 99.86786 75.74526 29.22458 19.98349 1.68718 9.29063 -15.89163 -22.61012 -21.66063 -23.24903 -26.75963 -33.48850 -45.39422 -58.41017 -73.48667 -72.62995 -92.07188 -102.32171 -89.96408 -107.43734 -107.66642 -113.49703 -109.21547 -122.12476 -105.77447 -95.50281 -95.89065 -94.05619 -95.73127 -97.26596 -94.78053 -99.88538 -99.09777 -110.28065 -111.50046 -111.56766 -111.02714 -124.57750 -124.86598 -144.17681 -149.41609 -159.93081 -195.12451 -209.92914 -212.04165 -239.38863 -238.63650 -271.33698 -289.79342 -309.52102 -356.00849 -430.68206 -454.97801 -487.89843 -552.72284 -623.23658 -715.62631 -734.84458 -785.79334 -893.48449 -982.63192 -1007.74415 -1067.02872 -1059.95830 -1058.55627 -1053.86718 -1070.54991 -1090.90946 -1131.57952 -1129.18906 -1144.79009 -1140.06748 -1096.04756 -1063.98481 -1042.22595 -1023.55628 -1027.49032 -983.25855 -970.50825 -963.03092 -962.00134 -985.31258 -991.20951 -999.19944 -1029.18703 -1143.02611 -1271.61012 -1341.64351 -1406.52165 -1442.08589 -1511.68895 -1588.92047
1982.30277 1975.81148 2047.58980 2078.74958 2093.77029 2165.09086 2249.06619 2315.80760 2373.07579 2146.90999 1947.13761 1659.03236 1491.44947 1306.33943 1113.88684 1034.32919 817.49872 723.63301 537.31364 511.41750 411.64336 439.93630 406.52002 347.39050 359.65598 362.58532 362.28184 392.03765 408.22779 436.39608 435.41551 499.49841 578.44654 638.55327 578.44977 600.74119 606.65701 520.08268 465.95089 386.60198 369.71695 343.18917 237.85888 187.12645 124.56969 64.78310 33.52761 22.47075 27.09307 14.62726 1.84417 -13.20226 -19.08597 -23.41096 -25.46352 -39.16326 -35.67341 -49.32822 -59.56595 -75.32502 -88.73201 -95.65417 -101.70609 -104.94850 -110.91495 -114.05501 -114.29405 -106.23325 -97.09686 -111.47708 -106.67909 -102.55780 -106.33251 -103.91653 -114.19238 -103.93402 -105.45211 -110.15255 -120.91372 -110.26312 -123.09894 -141.66169 -142.38802 -142.29576 -135.84002 -171.20401 -179.46036 -181.49700 -192.46706 -212.53825 -223.32829 -233.94381 -254.59734 -293.03187 -307.55201 -329.30909 -369.72189 -417.58560 -421.94185 -497.67180 -595.67921 -642.23156 -746.36668 -790.95623 -867.37044 -961.38430 -1033.06761 -1056.87725 -1050.96018 -1028.69454 -1033.20283 -1085.28929 -1079.09036 -1079.08797 -1106.65626 -1058.48951 -1068.25687 -1042.37058 -1020.97509 -986.06469 -972.55130 -976.70194 -932.88400 -929.75634 -894.27079 -894.46441 -909.45512 -918.55152 -994.57581 -1018.24812 -1127.57429 -1322.87717 -1337.74261 -1430.08040 -1427.61590 -1353.80738
2021.77336 1950.77235 1941.62207 2014.35609 2017.31032 2075.55243 2176.08456 2214.10713 2292.28870 2215.58458 1867.53427 1607.78222 1477.29076 1378.90431 1248.05867 1154.37976 1022.31739 815.80651 768.35760 620.88042 580.03657 456.87321 406.96745 400.91270 355.37102 362.80458 353.69759 348.07608 368.31546 405.98149 414.14902 510.29617 676.19104 778.95737 788.56100 746.77204 651.06979 586.46771 508.89756 471.65522 398.84409 336.26989 307.82310 206.94069 138.33267 133.41574 64.33392 60.60851 20.33251 10.02830 10.25509 1.78336 -17.54872 -28.03530 -25.42246 -21.45035 -25.96769 -53.54522 -61.94708 -77.92127 -65.23884 -91.54434 -95.07667 -101.89221 -108.01373 -107.98703 -120.48437 -119.20897 -112.57253 -100.41834 -105.82770 -102.25321 -111.73688 -117.83967 -118.42563 -117.35398 -114.52752 -118.49705 -118.91753 -133.75805 -139.62134 -133.89434 -147.65594 -144.85468 -150.64831 -154.15387 -153.97237 -171.95081 -189.26445 -188.87269 -189.53566 -204.67597 -248.51648 -258.30243 -274.47604 -317.89073 -331.42607 -373.86941 -391.48467 -437.03511 -482.72059 -601.63515 -664.03856 -765.44831 -830.31660 -940.18991 -974.64430 -984.24597 -1025.08985 -1015.98459 -1006.22815 -1037.50143 -1053.43044 -1055.19052 -1054.10699 -1041.30713 -1045.10447 -1010.78419 -1012.23174 -969.74973 -940.72089 -899.46140 -865.10838 -870.27152 -840.03901 -829.35823 -827.21942 -842.55885 -912.71375 -940.62023 -1010.71172 -1134.53481 -1236.97741 -1312.58863 -1363.88312 -1424.80697
2013.68787 1894.86298 1834.29272 1875.22495 1908.39386 1917.87355 1887.19168 2088.67561 2170.40842 2121.31069 1779.40692 1618.30711 1507.72677 1426.74113 1350.42692 1292.56256 1236.87060 1063.30476 907.66619 790.62620 617.87490 559.89920 543.46661 383.49775 371.26243 378.97113 349.80243 338.11357 316.89414 359.80570 401.05886 591.16773 682.31584 785.80456 806.68127 807.81755 725.27928 607.05500 580.91555 495.47186 421.51816 382.04450 316.58673 221.17667 167.20694 141.02936 92.89275 94.39922 74.57600 57.52079 11.52531 2.30333 -2.82522 -6.31845 -14.60836 -23.87001 -33.49119 -42.90959 -48.85500 -63.78602 -78.95390 -82.91689 -100.60811 -102.05031 -118.82793 -121.48392 -112.87970 -118.51085 -117.64873 -123.43699 -112.72654 -113.98218 -121.23716 -115.26230 -125.92165 -125.63633 -120.32106 -104.35306 -134.24691 -140.05480 -141.19672 -149.21489 -150.37083 -130.37495 -143.14204 -146.06675 -146.16750 -160.35767 -158.40560 -173.87829 -169.38855 -187.46723 -207.12743 -236.04200 -262.17172 -276.59191 -288.53469 -327.75187 -342.55095 -370.60695 -405.86715 -516.31648 -617.33851 -708.75317 -789.39167 -859.61109 -918.49698 -932.95719 -952.31171 -969.36643 -974.03235 -975.14794 -1017.63167 -1045.18748 -1025.24616 -1036.86743 -1015.38968 -1015.45050 -1007.70633 -946.91968 -902.04923 -899.24910 -853.82915 -814.21174 -800.75197 -796.22137 -803.82784 -805.31976 -848.61780 -863.75268 -893.35413 -1028.24652 -1148.32776 -1277.85531 -1298.23869 -1231.24507
1910.27851 1769.44491 1747.64702 1755.53482 1667.49496 1662.96750 1848.36160 1893.39348 1999.62328 1924.67465 1781.46257 1625.38815 1543.44587 1445.74727 1368.67061 1387.72660 1355.02930 1256.76096 1071.28424 850.61769 695.03826 675.58830 604.39785 535.39281 425.92343 388.11341 388.01966 348.03646 322.36848 345.03951 376.97188 542.87496 653.91521 791.49279 801.87897 803.69632 752.98583 667.23133 603.56628 552.27055 445.10490 387.39498 332.45357 245.42035 160.25324 148.64664 121.09920 97.41524 111.91766 68.03059 27.32626 10.56057 0.72699 -15.35263 -9.41134 -12.57232 -23.05459 -37.18915 -50.90746 -52.28976 -64.74352 -92.33186 -83.44216 -103.41475 -110.08615 -110.38754 -121.82025 -120.33680 -116.46253 -131.43350 -135.36088 -131.93173 -133.95700 -137.41089 -134.39465 -140.77061 -123.03090 -134.02081 -138.42920 -148.61663 -157.24003 -147.36200 -152.64451 -147.23584 -147.61629 -155.26295 -142.17861 -147.03448 -162.12216 -161.39631 -170.40131 -173.72606 -200.27525 -234.65061 -232.47587 -251.92151 -272.84647 -269.54553 -303.15320 -349.52433 -376.15591 -402.46338 -508.13452 -559.53989 -688.80691 -813.60155 -816.00165 -876.12157 -887.33338 -921.15481 -926.88715 -968.96870 -992.34088 -1031.28856 -1021.49868 -1026.33675 -1025.51456 -1001.58813 -966.11646 -920.08297 -887.89975 -873.13908 -811.42814 -777.12373 -751.96449 -731.93118 -742.60207 -749.75057 -800.25464 -829.11631 -879.65840 -979.73414 -1038.76267 -1251.90298 -1250.41168 -1292.55501
1780.78447 1628.36149 1625.66923 1607.09590 1591.71495 1615.10727 1567.31554 1690.53008 1835.90040 1811.53741 1595.25378 1553.59475 1562.10115 1470.69342 1460.49471 1457.51019 1480.88363 1365.11281 1141.98504 1028.80620 853.89554 764.47862 624.94620 537.98528 472.98655 453.17156 404.06400 373.80112 347.50158 358.21537 350.40999 503.03650 611.39684 642.08320 697.63987 727.97367 759.52078 684.84508 621.05964 532.72576 451.28965 396.89384 373.68132 269.66902 174.79933 173.34651 188.39122 180.53231 168.17330 170.73260 72.32820 24.28043 18.20691 -6.55632 -12.33690 -12.67326 -21.37441 -20.92056 -33.59187 -48.36782 -72.21622 -70.75282 -94.95694 -100.85884 -94.80870 -113.33409 -122.46536 -125.47375 -132.50942 -140.06180 -140.19303 -149.35705 -135.50610 -142.17067 -140.78845 -141.83237 -140.58341 -143.57396 -142.62464 -145.77558 -146.90270 -157.98690 -151.76604 -156.37303 -150.00132 -151.87917 -152.48622 -150.81162 -158.47073 -159.01520 -161.17399 -166.76959 -186.93177 -196.51978 -213.01550 -233.67635 -255.38002 -264.62593 -272.06517 -282.33234 -336.53793 -407.97573 -458.54792 -506.49203 -516.53577 -632.21542 -736.84254 -770.47852 -857.71295 -872.18821 -907.52808 -958.71021 -965.07387 -1000.93947 -1007.56535 -1015.24800 -997.97989 -991.25428 -949.04334 -899.88785 -861.85346 -847.71506 -800.80717 -754.83806 -729.85215 -724.31845 -726.69624 -716.19046 -744.44936 -780.14391 -863.90997 -954.59732 -1053.66570 -1148.89829 -1208.60948 -1162.84981
1331.77529 1488.22122 1472.65830 1527.13605 1469.06654 1445.47169 1400.99581 1469.34481 1503.98998 1464.54917 1436.21662 1478.15246 1517.03959 1482.27314 1489.82985 1496.47744 1498.74406 1422.43257 1184.13572 1016.75553 945.62633 701.70385 670.13782 530.14816 516.93235 495.53142 457.62597 431.96134 380.93178 375.07946 377.38461 453.99628 516.46101 566.38244 628.22702 661.36311 693.44045 638.73856 592.53915 471.53942 432.71390 355.64275 320.66474 267.11685 246.09889 248.70899 261.63376 288.62262 276.88870 220.20209 162.06756 48.79044 32.01941 21.11706 -5.66617 -6.54892 -12.95921 -29.56938 -23.58043 -35.34160 -53.05195 -68.31832 -87.84500 -91.30616 -89.67492 -113.14971 -125.66763 -125.04365 -137.34766 -134.94729 -140.00593 -150.37547 -150.79995 -153.51139 -162.10100 -153.48386 -146.84452 -150.72987 -148.95508 -159.29406 -150.69155 -161.94497 -155.11466 -156.51981 -161.75968 -155.14245 -151.42028 -152.18789 -150.83590 -155.59066 -153.10379 -166.75817 -169.35134 -192.44017 -208.51358 -222.12888 -241.85278 -240.78950 -264.72494 -266.71197 -315.43688 -360.94645 -404.68133 -397.45652 -484.19226 -536.62483 -591.73472 -647.26213 -682.39330 -804.60638 -879.30064 -908.84926 -950.49819 -981.33189 -1024.84755 -1011.96650 -989.21566 -989.53218 -930.12628 -884.06222 -836.76448 -827.36320 -745.05401 -716.78184 -709.10676 -695.78485 -685.58632 -708.45426 -748.39891 -777.00541 -805.42410 -937.74189 -979.82528 -1119.82004 -1157.27496 -1213.83035
1483.83065 1318.16589 1452.51814 1461.15785 1388.77873 1289.07654 1314.53515 1302.48699 1382.16094 1346.52027 1268.22844 1344.85613 1391.14949 1496.68039 1616.96616 1600.18624 1501.12157 1401.13840 1138.59496 950.30888 912.99736 779.26061 685.29505 631.20056 597.98215 578.70596 534.81818 467.25053 451.61288 389.72912 397.83828 412.34571 439.71057 468.55802 499.43409 590.55601 627.09354 615.10041 546.86463 438.41727 383.99383 321.50245 309.81168 276.67700 307.50089 300.45364 319.31435 377.27979 395.84135 294.63527 218.00053 118.98454 68.22042 50.88340 2.28510 -0.41506 -4.71683 -10.55672 -20.13473 -30.17218 -47.01208 -58.37886 -83.03393 -99.05569 -104.28999 -118.12554 -124.95922 -125.25067 -139.55729 -150.71810 -145.42422 -152.00158 -161.14829 -162.67697 -157.09884 -155.10133 -159.81324 -156.92600 -164.00927 -158.86624 -152.08677 -157.62777 -150.94888 -164.17386 -158.43213 -155.26172 -155.02004 -150.92073 -155.32009 -152.30378 -147.82269 -161.57671 -171.94835 -180.47815 -193.30770 -224.92673 -222.57769 -247.88319 -247.97904 -259.51961 -266.93113 -332.14582 -362.07010 -385.73270 -415.86993 -479.13776 -538.46962 -568.73247 -661.05106 -703.54179 -820.58420 -897.07393 -955.70673 -970.04966 -1016.63980 -1015.08514 -974.65112 -958.64037 -900.14635 -849.35397 -799.62733 -781.29651 -717.76658 -710.96472 -677.49321 -670.41652 -661.77421 -675.66608 -721.21938 -747.29413 -789.61698 -867.31572 -900.69137 -1122.37696 -1121.28297 -1077.57402
974.08257 1148.27619 1165.43100 1293.70602 1206.80327 1177.24742 1168.17250 1165.43719 1202.38768 1195.87752 1175.56762 1194.71377 1441.35381 1523.82956 1645.15885 1582.38013 1559.82999 1478.48423 1207.64037 908.91950 889.38691 860.67517 803.09422 691.89729 642.10936 618.90774 622.26162 557.44226 495.81323 475.97766 464.15314 457.39176 431.47025 464.27375 477.05500 508.76872 564.49194 573.68851 546.64553 459.49298 383.71042 339.51847 342.12853 334.84567 347.82955 321.29210 376.38578 464.72847 421.45200 369.50734 251.53150 171.94919 137.81153 86.47659 53.36650 9.62122 -1.66547 -14.17698 -19.09330 -33.71334 -36.50255 -54.58264 -68.46656 -84.17834 -105.24666 -106.26527 -117.62752 -128.08276 -138.61541 -145.77751 -156.26642 -160.07442 -153.97878 -177.09594 -164.40927 -167.92926 -164.14990 -165.04247 -163.48780 -167.90864 -159.21751 -153.21077 -161.62113 -153.63440 -155.18589 -163.58403 -156.06977 -158.09451 -147.57388 -151.22660 -150.69456 -156.69241 -164.23601 -179.10846 -180.95044 -198.21584 -211.83147 -215.55427 -227.66189 -238.82774 -234.44097 -267.30570 -283.75732 -331.51140 -388.58820 -416.91007 -444.71250 -477.03082 -587.16816 -707.67876 -802.24542 -931.61724 -941.41138 -971.14065 -998.76958 -994.37986 -973.07744 -925.05475 -896.45578 -801.06826 -772.83578 -738.35188 -686.09451 -630.02081 -636.08676 -638.33960 -643.70643 -638.42304 -676.92745 -706.14071 -754.93297 -801.61063 -871.40767 -968.64529 -1059.69976 -1140.25597
1117.39674 1024.82635 1104.54336 1152.24704 1177.39884 1113.89308 1050.98556 1043.41745 1016.55894 1071.79964 1155.00638 1212.34057 1322.88865 1458.12368 1703.99989 1607.50408 1497.76238 1309.97874 1101.33836 955.11255 964.13418 928.24842 915.37482 856.86086 815.32986 700.74648 635.57136 600.43809 532.52293 526.55772 519.19988 538.12388 481.45115 474.97598 495.35892 537.56081 584.65006 600.53019 582.89068 496.55335 429.10426 421.73194 415.13485 402.67214 394.68465 443.21191 493.15451 547.70052 481.73448 393.06418 319.41274 216.40532 146.40536 124.87584 73.49798 31.96418 12.56207 -3.75123 -23.67251 -26.25729 -44.18516 -50.81079 -70.83417 -73.57658 -92.72275 -104.43122 -111.89751 -131.61010 -140.74958 -148.37988 -148.56944 -160.43917 -162.56125 -162.22068 -165.70590 -165.81941 -166.09587 -174.70427 -152.90166 -162.30046 -151.55790 -155.51782 -159.05780 -157.30786 -153.65694 -159.56467 -154.23166 -153.29471 -152.05155 -153.67206 -149.79454 -156.44178 -156.81026 -162.70104 -174.34707 -178.76156 -193.72243 -194.97853 -198.08622 -238.96515 -238.42197 -260.23773 -259.76262 -281.90069 -324.67275 -379.58413 -434.56598 -457.98332 -569.64305 -668.33051 -779.36997 -875.58865 -923.86452 -975.13305 -992.50759 -987.64577 -915.41525 -838.67420 -834.89825 -795.31556 -731.44575 -686.68766 -636.05599 -611.32835 -586.03146 -606.46028 -588.39973 -635.04647 -651.43859 -698.55746 -709.08875 -744.11682 -832.77182 -970.25166 -1003.24808 -942.92075
830.85958 936.95376 959.74414 1073.40041 1061.66507 1056.90941 996.91941 970.68229 963.53877 997.33188 1090.87608 1162.20957 1203.45008 1423.18376 1563.92917 1552.03128 1423.62889 1256.72188 1163.24220 1045.75376 1018.74506 1028.63653 958.77053 976.28410 862.56392 780.19592 705.43481 694.33473 611.20765 560.22299 605.13263 573.35408 572.41951 567.64488 582.12024 599.50232 637.59322 667.61892 618.26859 560.13538 503.52085 477.81537 455.94007 510.48479 527.44149 516.70668 591.47242 568.76020 551.20807 454.70026 330.66860 212.60593 174.87891 126.23448 91.36468 78.40976 9.16201 3.12525 -20.36537 -25.14774 -34.16803 -50.39600 -53.59788 -64.31885 -81.45009 -97.28956 -106.77529 -122.73689 -129.73740 -142.68829 -145.98914 -144.48311 -159.90789 -156.61933 -159.10284 -163.50830 -163.61943 -159.01562 -154.22930 -166.42237 -143.68023 -149.92650 -151.10746 -148.87399 -161.26068 -158.31255 -157.66904 -144.43747 -151.55025 -145.71826 -138.67813 -138.93075 -145.41860 -156.33250 -161.82754 -168.10238 -169.69078 -189.29847 -172.56428 -182.16511 -219.02234 -219.19477 -225.67977 -269.55603 -305.17809 -356.33411 -394.53005 -476.09782 -591.32539 -646.72943 -771.45879 -843.54494 -897.84460 -936.36452 -947.76233 -935.48997 -889.37616 -826.15436 -799.93034 -731.82451 -686.01008 -628.43098 -599.88365 -594.32863 -574.39798 -551.66044 -564.48337 -589.72079 -583.97787 -626.24595 -650.70197 -716.54856 -716.49708 -932.92836 -928.68856 -1014.25888
765.93554 848.29352 909.65721 984.25605 1024.87124 1023.65104 990.46325 914.66000 901.76308 973.64535 979.51765 1113.79013 1210.03351 1388.85284 1479.85632 1516.69950 1380.00804 1257.08042 1143.05163 1055.69960 1033.08430 1059.50751 1043.56310 1006.23849 967.82937 828.25135 807.88441 707.72492 679.38469 632.07360 630.77974 667.63394 659.28251 673.02012 662.43793 651.41477 673.65058 683.98945 659.53462 614.30334 582.58982 526.59886 494.33167 553.56576 628.89378 634.59517 701.68574 682.17920 666.20463 579.06223 363.31952 258.53896 236.26377 172.12480 157.72740 72.34755 18.53147 22.33484 10.52662 -19.16305 -24.39280 -31.61901 -55.44913 -63.49660 -86.73885 -88.58424 -108.62133 -123.72394 -134.68926 -139.19124 -143.46754 -141.31589 -147.94460 -166.18053 -164.56752 -160.36010 -159.56109 -163.11073 -149.79279 -152.74575 -151.28792 -152.39968 -136.22333 -160.50229 -145.40858 -159.23211 -151.41305 -144.61939 -148.78581 -137.74029 -147.45819 -140.80919 -136.09008 -139.87454 -149.48359 -157.70299 -164.51044 -162.86407 -158.56287 -155.10450 -178.25931 -191.32301 -207.80659 -257.36163 -278.18073 -317.22636 -374.53792 -491.22650 -583.22059 -656.68471 -782.78084 -829.72466 -898.20114 -919.70501 -928.20242 -892.57812 -845.01633 -827.03111 -735.21361 -717.58834 -623.13829 -586.72873 -537.85401 -513.89947 -509.90986 -499.99032 -511.30608 -540.27383 -516.59026 -554.39263 -565.74575 -633.41692 -701.52230 -790.23275 -849.47966 -781.30844
845.38676 761.77330 768.94057 898.06737 944.58764 933.29416 889.62164 885.14311 848.76701 903.24601 927.50588 1027.22255 1084.01270 1259.07150 1437.33782 1405.19868 1364.44883 1300.63774 1178.41053 1074.51179 1061.31490 1079.23816 1074.62239 1062.16619 1039.85688 948.00781 837.24572 723.15000 702.29473 680.80366 681.86229 700.28573 682.98935 699.25006 708.89996 678.20378 679.06422 709.51075 696.19267 660.61261 632.38963 570.93540 562.12301 650.35396 694.66308 742.83516 805.76746 793.97603 705.58873 591.23109 377.84949 308.24999 270.80670 189.31087 159.96680 130.29564 54.95513 29.16678 7.44166 -12.43346 -11.15534 -14.58122 -35.73612 -48.49912 -66.27556 -99.67277 -98.15306 -125.95482 -118.75213 -127.04960 -139.84824 -137.82031 -145.38162 -153.58340 -157.66821 -162.83606 -164.66185 -156.42883 -163.24797 -163.58385 -148.82887 -160.24583 -148.05003 -152.14812 -152.91066 -161.15792 -150.69675 -152.91954 -143.67253 -139.19162 -141.38644 -144.05188 -134.79937 -140.46461 -141.80266 -148.17834 -149.40091 -152.59878 -155.62439 -154.60004 -155.55363 -158.24806 -194.38257 -221.93068 -279.55673 -322.21525 -400.68252 -456.70421 -551.10857 -658.41544 -757.05254 -800.82029 -892.36037 -896.12436 -903.56658 -855.08724 -843.86491 -827.99632 -712.98585 -619.69953 -605.06615 -509.89164 -488.08442 -473.05068 -454.96172 -459.77689 -479.94063 -465.04475 -496.35099 -487.97871 -549.38373 -600.60597 -642.23256 -747.03737 -772.46542 -845.18794
617.51784 689.18811 697.94480 803.02909 847.45085 897.99840 839.36410 796.71925 787.45983 851.58296 895.74452 918.12185 1004.71618 1111.40424 1257.20185 1361.09333 1334.94602 1263.25912 1178.54635 1117.16078 1103.08872 1076.52397 1052.93030 1049.43261 1032.89491 937.20161 853.32257 820.89383 747.93088 718.81780 696.44780 705.41796 684.96918 696.65568 688.30706 650.66125 674.89329 700.81204 721.38394 694.95255 660.07738 635.72896 637.66678 650.25597 654.49943 738.97829 817.45629 769.40521 699.73946 595.21372 422.70687 302.88482 264.04909 192.09471 179.53468 100.81853 73.99227 22.01649 15.25892 -5.51810 -9.00572 -22.39652 -30.01444 -29.89520 -42.35858 -74.00864 -87.21949 -105.12906 -118.46733 -133.95551 -122.49363 -146.26007 -147.90978 -155.17173 -147.65469 -158.97989 -157.79273 -152.23623 -152.08270 -156.80466 -141.75626 -149.04788 -152.14539 -148.37627 -152.57271 -146.69713 -139.59389 -139.28990 -136.71607 -145.98320 -139.83873 -139.53362 -137.01879 -136.61831 -135.79102 -133.51071 -143.14468 -132.43017 -142.52665 -145.63258 -151.24620 -151.42236 -186.05923 -188.99400 -272.84038 -311.66465 -392.00338 -446.89334 -538.91933 -653.67680 -775.84821 -814.51490 -873.16027 -871.95179 -868.91466 -846.41412 -810.62900 -744.28340 -654.90092 -598.72277 -532.75989 -502.69032 -469.55009 -445.19415 -446.09299 -430.14888 -435.85720 -445.25463 -453.02242 -475.67219 -491.08231 -512.84013 -572.61481 -627.38020 -702.54334 -628.32396
660.85588 617.96833 612.79030 723.51620 779.73799 792.60291 765.08268 756.07308 764.45332 792.01032 850.08623 873.19511 903.33376 1016.75403 1161.96825 1217.89542 1239.38700 1240.46406 1166.39099 1121.59049 1087.82371 1020.47300 958.89348 975.98962 951.28500 962.32981 908.73566 918.36661 887.44168 736.01316 727.35420 681.24002 660.58176 657.54706 657.78773 659.37487 647.35864 685.51967 723.22508 699.66963 684.48806 659.20118 658.25523 593.24639 649.78804 687.87394 745.66371 658.89274 611.94645 511.91321 433.21222 318.93972 237.36850 202.56736 174.41501 104.79579 75.59355 48.38117 35.33974 17.36274 -11.34166 -3.86621 -15.97845 -23.02921 -51.20006 -66.08560 -77.68685 -99.45576 -104.09393 -120.11491 -132.41722 -138.18288 -138.72592 -135.36309 -152.25800 -145.59642 -153.81903 -151.83893 -155.06442 -152.13228 -156.05600 -154.89499 -158.46612 -152.96623 -148.04020 -148.72386 -139.35840 -143.40114 -145.00496 -143.69301 -142.18876 -139.61295 -135.11362 -136.84845 -128.72889 -131.41593 -137.31945 -116.48311 -135.84056 -129.72809 -123.50381 -151.34768 -156.96030 -173.61906 -240.63535 -299.24702 -334.03761 -423.35477 -538.80485 -608.25795 -748.36849 -819.34598 -857.18972 -858.12028 -853.16503 -813.33233 -734.31965 -699.18749 -650.66148 -538.87856 -505.81609 -439.89886 -425.78724 -427.38894 -422.76703 -414.11447 -414.35234 -419.62111 -447.34668 -458.69495 -463.21066 -504.43205 -548.23615 -619.24641 -642.99221 -683.34243
524.48485 566.20970 620.57569 636.17717 683.31212 707.08441 696.00622 679.17614 693.71206 736.61508 777.33377 856.99237 881.31444 894.00138 968.43705 1050.13935 1094.17701 1126.46363 1103.18759 1102.15193 1031.59594 950.59545 923.64990 899.37384 898.48345 918.13102 976.74947 992.95225 951.92832 880.12252 755.82828 652.81346 627.87781 625.69713 610.15428 581.58377 584.12318 647.57054 696.16156 688.36321 668.46755 648.17939 568.50570 529.27861 549.66176 586.47469 630.01883 598.67523 484.25452 455.26143 358.89680 271.01979 240.34561 198.42371 163.81819 106.08338 69.83130 68.37419 33.85830 23.08947 9.44903 -7.51181 -4.70773 -31.83620 -24.70617 -40.39413 -71.14117 -88.64736 -102.48119 -106.99938 -110.49889 -131.42237 -148.53330 -140.03931 -146.22336 -155.18627 -156.37864 -156.66042 -156.93570 -150.15100 -144.53589 -153.01069 -152.98256 -151.53884 -149.73627 -140.04037 -134.56282 -137.71326 -137.56957 -143.20660 -142.09542 -141.59725 -131.68937 -136.28860 -127.46970 -124.50490 -129.69509 -127.73064 -121.25807 -131.21645 -126.56567 -133.94024 -138.96626 -155.46799 -207.23877 -267.18797 -306.62581 -396.92232 -498.54371 -626.04361 -756.43537 -774.37092 -854.69997 -853.52791 -833.73249 -805.85821 -728.18147 -694.29749 -592.05436 -545.02154 -481.65548 -417.57110 -408.96123 -380.20373 -385.68748 -393.31650 -397.97866 -417.53834 -429.58174 -439.90768 -450.80634 -482.90296 -508.21146 -568.36812 -590.00764 -626.35542
594.12656 581.66384 587.05750 595.44486 602.48525 623.79341 614.30006 633.33894 657.79725 694.59581 726.44585 801.68305 840.41463 859.45095 907.21212 908.48808 996.84827 986.06994 1067.90928 1053.36403 997.21268 932.47845 918.56051 842.78054 842.99168 883.78328 982.48610 1018.79815 986.30293 897.40982 830.98657 700.42464 612.73561 610.68884 587.78595 570.68854 571.72964 584.36244 625.94115 651.89569 644.31976 636.88487 546.52334 468.75682 442.82236 461.81145 461.94900 441.86939 369.40138 328.66945 282.60107 243.85890 213.69360 174.84567 154.92453 105.48797 95.42434 72.07853 53.31334 40.92326 42.47470 8.80428 -1.63266 -19.40592 -19.81693 -35.38598 -75.91249 -86.55837 -96.29555 -107.36063 -115.42953 -126.69105 -131.57592 -136.50326 -143.66264 -145.96245 -147.24742 -140.36663 -146.40709 -156.36792 -149.81060 -150.80150 -145.17966 -146.43364 -139.98011 -143.20049 -140.17009 -153.08239 -150.23917 -133.35991 -142.10003 -132.64785 -132.38340 -116.91639 -125.08415 -122.35487 -112.77059 -118.19125 -124.73647 -115.84358 -123.70269 -129.43780 -140.38242 -152.05365 -166.72596 -208.79134 -300.24339 -352.67039 -497.90096 -580.83243 -726.33934 -797.11294 -812.35580 -825.90418 -784.16822 -775.71564 -694.85595 -640.82963 -556.33726 -505.76679 -435.08298 -394.09772 -370.39020 -367.26472 -375.46355 -377.29626 -392.83924 -401.05511 -424.79500 -431.81837 -451.89361 -468.23867 -492.99864 -536.13356 -559.43487 -577.30492
702.77293 646.66965 625.75013 594.64820 559.78406 575.75736 575.25445 591.12407 643.88757 672.78078 695.35564 716.60575 740.14121 790.67972 803.53159 826.89579 838.09226 954.16847 978.74775 981.26886 935.94184 885.11146 840.55746 795.85671 804.50978 837.52716 951.23249 972.64355 964.70996 913.61810 917.22681 908.39335 791.56451 679.69473 640.18745 576.59612 559.15269 580.04387 604.40158 641.29234 632.41348 573.99274 543.61067 478.70744 431.16668 394.06787 395.16997 394.66547 304.67793 185.97488 201.62108 195.65141 161.92469 162.32811 123.18011 129.60828 111.54294 95.72061 83.49881 61.91496 52.94546 12.75162 21.47335 1.73002 -2.50581 -21.16972 -46.81656 -62.95980 -80.81307 -97.46150 -103.26231 -117.01224 -122.89352 -128.33577 -139.40368 -131.48167 -128.08248 -158.57864 -157.90545 -157.34339 -149.45316 -151.32032 -150.00508 -134.93539 -140.41855 -149.38987 -146.55793 -147.27997 -150.51478 -142.15116 -137.96717 -125.93831 -138.60372 -118.86087 -122.33183 -122.61020 -121.24223 -123.26165 -115.68734 -120.40664 -119.36525 -126.07995 -133.11608 -142.41288 -151.12217 -159.88944 -227.99324 -327.35349 -501.20520 -602.12585 -634.97348 -744.80588 -782.49053 -787.56185 -782.89009 -696.24897 -671.40420 -569.39727 -526.76165 -451.16022 -382.05847 -368.88027 -332.72128 -341.37584 -335.87382 -358.71631 -382.86732 -407.75802 -414.84721 -429.10664 -444.83758 -474.65755 -493.58898 -567.20005 -549.53244 -525.15240
647.91174 737.78134 747.43646 619.74887 596.67281 573.22699 566.71163 573.19669 595.95437 590.09199 628.37072 645.92170 669.52747 677.17468 727.96402 735.53028 751.87884 822.32643 851.73056 830.08922 811.84086 807.05567 761.77633 743.37791 739.10482 824.15966 850.06233 896.06881 933.92253 922.22556 918.70087 909.19174 840.64914 793.01961 725.48957 648.32087 595.35643 571.70449 585.03462 594.51498 591.99835 571.15386 487.99953 439.72231 414.52192 363.96421 344.03881 289.69934 239.06144 172.90323 169.03661 168.11491 152.68174 146.55680 171.58242 159.71410 156.43574 116.79679 96.22413 72.09594 82.12839 78.30279 47.16041 42.39196 5.80630 -21.07221 -31.27837 -47.92393 -65.98717 -85.63984 -108.20401 -103.36247 -121.52347 -124.05978 -134.74441 -148.77548 -142.86319 -142.99057 -156.35235 -149.39535 -149.89635 -151.07536 -147.26752 -143.00991 -137.06021 -145.30477 -145.50119 -141.08947 -144.09408 -138.13430 -136.50706 -134.51893 -129.06249 -118.88523 -119.27272 -130.23565 -105.26509 -118.42393 -120.53177 -118.13768 -127.30583 -122.00856 -129.30358 -127.31307 -134.01455 -156.65272 -185.78834 -279.00835 -372.36251 -561.46017 -629.23507 -717.32361 -735.82967 -722.78374 -710.84797 -668.69346 -602.38009 -577.22084 -508.41771 -419.34563 -375.02260 -316.44463 -320.14948 -314.13087 -317.58176 -328.09222 -340.87444 -387.83951 -391.07672 -438.21640 -459.16058 -494.79230 -533.89548 -579.53169 -582.27927 -516.96995
924.80279 832.82853 756.30127 728.52303 741.29158 681.67758 628.99558 558.81098 552.91833 565.16602 590.56492 608.52926 604.07089 629.89995 662.78090 668.34437 697.27107 712.29635 746.33189 755.21221 773.67943 740.39799 702.17680 676.36206 664.00108 740.00469 841.31302 870.22071 869.15433 904.49615 917.14867 908.04175 897.81093 815.34665 798.32493 708.26868 723.19113 615.51347 640.52531 634.87537 629.81929 590.64363 547.38758 499.84689 417.58403 342.13267 298.13351 253.19269 197.37022 166.29375 194.83909 228.70544 232.93720 223.28732 191.79988 189.12225 187.11064 132.20459 103.84523 80.96334 97.26983 84.93170 63.88057 40.59096 8.13474 -20.80165 -24.84263 -40.75640 -54.59888 -84.62310 -95.03596 -97.65521 -120.15608 -117.80994 -123.85235 -131.22759 -147.74842 -148.01328 -153.37110 -148.64616 -158.23065 -153.81567 -147.42374 -142.71954 -150.67963 -148.68102 -139.10221 -145.18963 -131.86322 -145.43549 -141.75276 -139.81010 -140.75847 -116.71616 -115.21621 -120.73761 -128.32180 -113.08706 -117.46589 -122.83597 -124.99348 -125.27089 -120.49474 -140.04423 -133.96661 -142.52866 -190.05074 -288.28973 -316.77573 -486.27891 -626.07435 -622.88459 -648.95132 -626.25696 -626.16139 -595.69259 -513.80175 -498.72405 -408.14235 -376.93571 -333.80914 -320.54441 -281.94835 -304.36147 -283.91739 -309.95081 -338.26647 -336.50370 -406.84961 -425.82606 -457.84464 -566.02109 -567.20686 -583.81787 -634.25989 -706.36084
899.43818 885.81186 864.13529 866.47656 892.92855 817.50936 675.27717 633.94245 542.95607 534.16640 556.68947 569.49774 591.51007 613.07586 648.29473 656.78525 688.15900 699.96131 703.08264 721.71533 738.54283 719.69288 674.86830 647.94834 619.96231 676.66922 769.09403 765.21136 797.97634 862.96614 919.27462 911.34785 901.16460 886.28618 873.47996 852.33287 845.89075 775.50393 768.31802 770.84528 779.83359 709.81290 588.22620 510.90037 474.11825 335.55980 322.73800 285.48745 222.18532 222.59253 306.11667 300.57116 309.23843 252.25820 240.33573 242.93500 186.85741 146.94258 108.61882 98.34206 85.69984 112.31340 112.94199 77.58795 4.71403 3.28193 -20.89926 -22.89213 -39.93198 -63.45060 -84.15655 -95.13971 -105.35370 -125.09259 -122.80740 -138.13263 -142.05695 -146.01925 -150.57316 -158.29726 -160.74345 -156.81706 -151.93029 -148.75741 -149.21701 -135.31966 -151.66942 -147.16257 -140.30722 -136.28827 -128.88167 -126.79434 -140.13415 -116.97682 -124.35577 -124.67758 -119.91828 -120.02292 -127.29451 -128.82348 -117.47161 -119.70796 -115.38895 -128.19836 -119.99720 -125.55302 -189.94432 -272.26243 -334.13310 -494.63115 -584.30679 -598.99684 -610.01333 -588.30741 -560.56380 -548.81719 -465.70872 -403.08003 -380.98371 -338.29628 -321.51198 -271.47934 -272.59351 -255.86214 -275.69321 -266.85749 -302.34051 -324.86686 -389.14839 -420.17880 -509.20403 -578.49071 -639.97430 -721.40773 -712.54374 -792.21811
895.18714 856.89552 851.97946 944.33075 950.46957 865.49183 837.45908 777.49374 644.03234 629.40843 547.48930 538.66586 560.69292 581.75139 606.15834 612.66104 613.80337 642.06574 656.41729 673.98099 678.09367 699.85520 673.98418 613.66259 568.19856 597.31058 665.98412 725.68810 773.20341 850.55167 867.49620 887.06407 887.51230 882.49263 866.93223 834.11157 837.31370 868.98994 838.74368 851.04757 870.02508 787.58329 657.10472 521.39880 490.22035 378.55461 321.39885 303.49277 255.02430 260.74555 305.85904 369.36320 351.44908 280.68234 270.33592 234.35889 190.75362 137.53480 95.63327 76.16707 100.65403 118.73411 152.10486 116.64995 10.82646 11.05024 8.48020 2.05398 -24.05154 -41.94000 -68.29627 -73.22885 -89.55350 -103.46902 -115.35159 -127.32692 -137.10279 -134.80110 -147.52587 -153.03282 -153.15295 -155.43682 -149.17420 -145.92693 -152.21111 -143.42056 -144.89571 -133.76067 -141.71067 -138.78990 -126.23031 -131.69883 -127.43580 -122.22969 -122.02129 -126.41060 -117.50212 -117.78759 -119.52207 -128.48592 -117.23146 -123.90931 -124.58785 -129.24314 -123.70333 -122.46237 -171.68495 -269.04136 -343.94837 -390.18491 -508.20252 -530.80176 -557.79473 -491.61880 -457.44227 -411.68080 -386.09568 -349.29544 -330.00773 -303.75271 -275.45660 -244.63425 -247.62092 -231.69359 -245.64771 -257.39218 -270.33370 -291.79243 -346.83807 -410.69129 -529.39346 -592.65259 -677.42915 -725.27114 -786.32468 -869.29139
794.95086 823.43631 938.71516 1070.21754 1069.17895 1039.81187 1016.08768 909.22411 843.28750 631.98566 570.04042 564.67752 535.61948 548.93090 540.97620 552.32216 553.37400 614.78868 626.87968 650.20998 672.25672 678.61966 666.89437 609.25822 574.85011 579.26426 607.61288 683.91012 764.56684 781.87505 798.21881 850.02656 860.43221 868.84831 835.02703 818.41157 770.22959 854.58301 875.83934 884.12853 885.96239 795.24974 568.49659 526.26671 469.91344 418.34115 352.99728 304.94271 280.15294 285.97306 317.25493 383.45981 342.76078 309.55119 249.54961 206.43127 156.71854 109.99725 85.77949 69.28963 72.40687 126.83198 142.72305 131.85310 124.41602 69.73920 26.59840 -8.16812 -11.39338 -35.86971 -44.32701 -67.65157 -79.98564 -106.43868 -109.12386 -125.82480 -138.26837 -140.02188 -151.49621 -150.95863 -159.10590 -153.51886 -157.06465 -151.41154 -150.64473 -147.22490 -140.32472 -145.74484 -134.96505 -141.14340 -132.40768 -132.89369 -123.18042 -116.53572 -120.61333 -119.68146 -121.13329 -122.25868 -117.31530 -123.62032 -123.18275 -119.40179 -120.66566 -132.42931 -128.01934 -122.49503 -127.74426 -242.69877 -320.56289 -417.17777 -449.41845 -471.13211 -460.59048 -448.89943 -364.71130 -347.98593 -287.15314 -281.73902 -272.82552 -259.35726 -236.66484 -227.08426 -199.04033 -198.11410 -196.80600 -203.35703 -237.44173 -279.01635 -316.59269 -348.54619 -490.04508 -616.05674 -662.47686 -809.87486 -822.76398 -857.29261
754.92604 843.49569 941.74257 1143.63645 1203.99238 1190.59477 1157.64332 1074.91980 925.94210 862.82580 715.76465 654.62316 572.08460 528.60029 482.05870 516.63921 499.15827 540.46141 597.35994 669.86184 672.04597 691.57509 639.30991 604.89499 561.18598 553.57063 572.76204 631.37954 711.84842 766.40068 781.83223 776.46665 780.03894 814.98051 782.75839 752.03078 739.91471 775.37440 832.38088 883.23943 864.98904 742.54926 598.99403 522.22420 505.21738 450.18860 383.14297 367.85396 296.24093 299.62774 307.74615 350.25128 338.28957 325.90550 246.64036 220.27956 143.55917 98.28907 90.54549 79.59318 60.83366 111.45483 132.53786 132.34285 102.97562 69.17805 66.85136 13.23224 -20.88929 -26.34527 -56.39024 -51.67181 -66.38029 -95.13554 -102.95086 -113.60922 -128.20234 -136.09000 -136.86974 -139.93374 -149.86379 -156.99396 -158.15035 -143.20149 -152.50720 -141.75269 -136.99665 -147.02028 -149.29506 -137.37276 -129.88737 -132.04501 -115.23252 -126.07268 -123.56832 -127.37383 -125.57071 -117.34141 -117.46991 -120.40999 -126.83916 -125.38432 -127.01836 -133.45157 -134.28444 -127.14771 -153.01278 -230.05889 -275.23963 -296.37091 -431.68612 -432.18522 -398.76185 -353.62290 -285.10962 -277.31257 -246.22162 -249.22320 -202.25701 -203.54293 -195.98760 -191.03391 -173.83582 -171.91144 -157.24795 -170.02719 -212.72014 -258.70023 -287.49334 -324.27735 -459.12937 -603.61928 -702.39821 -768.37356 -812.28465 -879.88680
830.10411 944.22100 1058.42159 1152.54830 1236.83255 1272.39210 1351.35000 1279.80684 1155.15376 963.92020 833.52847 738.38422 578.12474 556.95935 503.69251 454.48811 463.82857 466.35884 543.61326 636.89217 669.69375 686.61793 648.51884 595.23574 556.38311 523.63880 534.24404 589.73863 655.24414 666.95414 713.74374 738.24226 731.67028 699.97798 679.21231 652.98820 638.10545 734.30751 797.46153 828.04492 770.21616 751.74195 629.72646 548.29178 525.34291 489.39543 438.43450 367.17668 321.86800 305.95219 308.83154 308.63309 315.03177 284.90042 258.43300 144.62489 123.87302 114.33386 80.74338 58.26817 65.29569 76.96916 105.59094 103.32780 79.18480 100.76254 69.58451 20.24119 23.16128 -15.25215 -21.13198 -30.23854 -55.38577 -85.82008 -89.16505 -102.52459 -116.18648 -120.96761 -134.68657 -137.64521 -151.76336 -150.24920 -155.73905 -144.36026 -144.82669 -148.94915 -145.11751 -133.08338 -133.61492 -126.55633 -134.01714 -132.32183 -127.47973 -128.59622 -118.75028 -123.14370 -112.22556 -119.14195 -127.57277 -115.20925 -120.70730 -124.42789 -135.09114 -126.98691 -120.42517 -138.36394 -154.86862 -184.84568 -246.34074 -293.33126 -357.88088 -394.39110 -355.71101 -288.73798 -267.96345 -275.07567 -237.61281 -215.23794 -186.22970 -161.44720 -147.84140 -151.75678 -157.38828 -133.15671 -138.82989 -149.61488 -142.86491 -205.43821 -267.64242 -320.96055 -439.24794 -547.59806 -599.93338 -712.72423 -737.31981 -679.75175
1182.99521 1064.28475 1124.14396 1183.90020 1297.67560 1330.84864 1410.49692 1358.57567 1194.13734 1110.07896 1042.46423 861.81095 707.21644 587.70852 508.61151 457.28938 465.45274 451.35868 514.98914 555.09932 570.87605 617.19623 661.96574 606.99890 545.91495 497.98862 514.77448 519.03795 594.20898 614.02082 635.66677 645.06126 641.54256 619.30543 593.99661 572.90337 596.29573 657.96065 714.60031 789.02216 754.29201 694.85715 628.70239 540.30200 535.60133 498.25902 439.21758 361.99859 311.52106 301.32362 288.77851 311.16860 297.36692 263.82657 188.77586 149.92942 116.09497 85.86616 79.16930 52.59586 46.13739 52.61895 84.77393 77.21341 82.13383 93.19328 93.47742 56.98648 11.24968 -11.99394 -19.99218 -24.61304 -42.21577 -60.98607 -75.46942 -102.42685 -110.16500 -119.94263 -125.41088 -132.32291 -137.22660 -152.51219 -142.67837 -146.63456 -145.94733 -154.42154 -139.86140 -142.10710 -131.71493 -131.94134 -130.04109 -130.50484 -119.26376 -123.25789 -113.46364 -108.12075 -117.50442 -108.81027 -119.68740 -118.78763 -123.76999 -113.42508 -129.43660 -120.54344 -130.77224 -141.74818 -143.22872 -176.37570 -190.23325 -284.21425 -284.82370 -269.60342 -232.27861 -264.15772 -210.78019 -195.23441 -193.81382 -173.10847 -146.31504 -144.14540 -132.70755 -127.07896 -94.32337 -96.00125 -104.33271 -105.31863 -108.03078 -175.28877 -198.05416 -318.60169 -346.18139 -505.31202 -519.84151 -607.78725 -629.57126 -757.51004
1135.28175 1164.81013 1142.89512 1200.53308 1310.65601 1340.69092 1396.90679 1394.29041 1303.77540 1173.93095 1082.14765 874.63432 740.66017 600.22453 554.38482 504.80228 487.05121 451.75320 471.77968 525.26539 529.99966 543.55641 577.24450 562.39812 528.27479 475.69210 493.51091 490.54151 486.44110 527.04808 529.15534 536.60517 560.28236 576.63879 546.10079 538.24009 567.44503 617.42656 677.02010 692.84391 685.81528 652.34535 608.18207 507.64837 505.17366 483.55696 431.67479 352.63741 310.20738 302.33572 297.02295 286.27475 256.79345 225.31134 175.53222 147.13819 131.88730 97.71295 85.73665 64.37174 50.66514 44.46668 54.98448 74.00124 80.70663 97.72809 96.94474 61.72253 36.41990 11.68784 -12.16660 -23.60812 -28.83073 -37.50786 -62.22574 -68.38428 -90.47568 -117.06362 -116.23021 -123.07591 -123.26617 -128.46981 -148.46111 -149.63814 -142.73908 -149.11129 -143.37776 -141.93956 -117.12851 -131.45224 -127.44980 -124.42434 -125.13581 -125.65025 -115.71072 -109.27887 -118.75051 -116.78292 -116.30333 -115.70482 -109.10765 -121.21974 -115.83237 -117.76066 -117.50262 -145.48968 -143.02467 -170.92663 -195.73991 -203.10456 -253.40354 -236.67429 -240.65046 -219.34533 -204.32564 -179.70637 -163.21023 -146.04657 -131.97987 -112.95266 -113.61510 -95.01770 -90.38524 -71.37112 -79.67992 -92.26987 -92.15613 -127.18247 -186.29918 -228.58301 -262.48226 -417.18448 -449.41730 -538.78098 -515.90053 -404.32561
1210.88863 1193.74213 1155.41908 1200.64915 1277.30173 1340.98248 1373.35906 1290.09696 1275.71906 1185.06717 1078.26445 925.58105 815.46428 714.31284 623.24969 575.02594 544.09225 466.93590 435.78254 462.86575 462.76516 498.93603 526.03950 485.93284 465.72752 447.58292 463.42280 470.59051 429.27017 444.79701 457.69341 449.43809 507.12130 506.84754 525.94473 504.03714 525.05471 542.65067 601.30164 609.25350 612.46874 562.64205 511.15671 474.10965 459.69127 399.58906 388.42761 366.16137 312.84875 306.01769 290.74147 279.82963 242.31757 224.48605 177.81755 148.98332 119.16809 104.71628 80.92492 54.61791 50.91404 43.57120 48.50868 55.23614 82.97938 109.17691 78.13476 82.47111 33.60638 17.72612 -9.48684 -20.46233 -30.03136 -35.77939 -37.74693 -61.83548 -75.49550 -78.06116 -105.25939 -118.92115 -119.59194 -121.54571 -142.10785 -153.52111 -138.88926 -141.49261 -141.63236 -143.04604 -127.98031 -116.67470 -130.26288 -124.49753 -123.59855 -122.52056 -120.93963 -118.70870 -119.99932 -113.49111 -117.66536 -116.76592 -109.83785 -117.59541 -110.34227 -125.78605 -119.69525 -129.81662 -140.78012 -145.11834 -177.65041 -202.92732 -213.98863 -220.70196 -196.90171 -195.08978 -169.31739 -153.79928 -146.25188 -128.09289 -107.06577 -99.07079 -96.42382 -84.60538 -71.19706 -52.29731 -62.82758 -59.80030 -75.19982 -91.92246 -135.51578 -179.82303 -219.63966 -309.21799 -349.77240 -398.72778 -423.68838 -495.34751
1227.75592 1119.87726 1129.74438 1100.82080 1259.03919 1300.42478 1273.97644 1206.02069 1164.82033 1155.20487 1068.24288 886.58655 810.14778 696.81719 719.12233 625.49303 573.11243 447.77067 442.89649 410.06528 425.14853 426.45962 437.52933 450.86822 430.06282 443.36196 454.92805 432.00589 420.80746 413.86600 420.06893 418.75195 438.55484 456.62370 476.95736 481.32808 516.78466 533.48073 552.72103 554.18431 581.73292 566.05872 450.23438 408.42745 366.91515 380.79914 352.92471 329.90958 311.14258 288.23054 274.39349 254.41442 229.47704 221.45772 199.94857 152.93397 148.65948 109.02452 82.35469 59.32210 50.65639 44.54476 43.88408 81.98371 100.64366 132.28464 120.62444 92.12763 73.06662 24.86869 10.46431 -14.13127 -15.82888 -29.14164 -37.17740 -50.67932 -70.86189 -79.53514 -99.69528 -108.05607 -104.74184 -113.77625 -136.01696 -140.29321 -131.85140 -146.36422 -141.45885 -131.12267 -120.71048 -129.17122 -117.35869 -115.46500 -115.91588 -112.79271 -115.14703 -124.26123 -115.23723 -121.24666 -116.43690 -121.82322 -111.16576 -118.90249 -122.73504 -111.64017 -122.93331 -127.83425 -137.61624 -141.60229 -155.92212 -166.26043 -189.77307 -177.55877 -184.54822 -160.89613 -140.90264 -139.53533 -122.99730 -115.99736 -106.42051 -89.78371 -79.54527 -73.33862 -57.45496 -50.03417 -46.34442 -56.81612 -60.84089 -69.36198 -116.62580 -160.14590 -178.57219 -216.92880 -254.03266 -303.35555 -332.08994 -253.03698
905.24652 1011.23267 973.62176 948.02219 1001.89271 1174.35752 1219.21844 1166.91168 1117.83286 1053.83670 919.32271 858.80833 797.06006 822.50133 783.78072 758.57048 597.02246 493.13809 446.77953 408.68222 405.53131 422.18091 415.59400 413.59339 394.35144 392.97213 415.26861 444.85203 419.52271 411.66637 383.81702 399.84863 401.75306 442.68814 429.99339 466.56437 493.10680 527.62184 528.49396 500.26371 496.31820 447.40372 418.26966 369.55688 362.16664 333.25988 316.89856 307.44998 296.07001 280.25436 268.73038 220.24443 230.57302 231.81555 212.32449 189.16727 141.26329 97.00383 85.11838 61.87023 43.98396 37.22157 41.06947 93.40771 104.11585 135.31481 140.77541 111.73266 73.68301 22.17579 14.27914 -8.72378 -4.55567 -7.97007 -29.88516 -36.26905 -50.84164 -63.91535 -81.18870 -108.24392 -118.83693 -116.48722 -124.80818 -130.80611 -136.80841 -136.56707 -135.64086 -138.44322 -143.01904 -125.33366 -126.09244 -125.73199 -115.88646 -122.63285 -121.41647 -111.88696 -114.66809 -115.33478 -120.85646 -117.77403 -115.73506 -114.13960 -116.35115 -108.60467 -123.61263 -127.57706 -122.72688 -136.36023 -138.57425 -152.24446 -150.90121 -159.92748 -156.50919 -149.12507 -136.67875 -130.48960 -132.09157 -116.69844 -110.15288 -84.90247 -70.75845 -57.71190 -42.98389 -41.66172 -31.36405 -44.03105 -44.55329 -75.06171 -107.58091 -119.80391 -156.85311 -219.35056 -215.24238 -266.08238 -281.16872 -316.95243
976.64731 916.34079 922.18263 911.66688 980.70285 1136.64746 1189.83618 1162.67371 1127.61979 1009.06172 893.71654 840.00786 826.27066 876.04765 894.08721 757.52560 663.98338 594.79126 571.12424 527.09466 439.47051 427.71951 428.00279 402.54414 390.19102 388.87637 389.12954 391.27689 439.53056 419.62451 390.47124 374.32905 383.46115 402.53925 404.94722 451.07519 483.22468 520.55437 485.19042 491.38162 433.71393 389.59115 362.51452 350.70478 332.04728 327.80941 310.38561 309.23646 310.77902 301.43854 276.36877 277.20400 244.50060 256.43672 245.41410 207.55556 144.45705 91.91171 91.42585 83.81776 60.92309 48.84848 41.70524 85.61754 110.98879 138.08376 144.26988 124.18686 91.32677 39.11069 21.18162 3.66135 -10.78312 -23.38950 -11.19015 -32.97801 -45.32974 -53.69293 -74.36753 -79.61654 -102.50442 -118.67265 -122.49222 -139.95178 -129.43778 -139.92128 -131.95838 -126.96666 -128.96050 -122.95208 -118.91704 -121.29030 -115.22985 -121.65656 -109.25168 -117.99860 -124.28754 -115.00588 -119.09234 -121.70772 -113.63176 -115.34687 -113.16991 -120.70481 -118.43784 -128.33238 -131.02422 -137.41760 -136.86688 -140.45730 -152.18990 -151.52296 -146.45274 -136.11365 -137.54344 -124.61990 -123.65575 -118.02216 -104.62849 -74.58159 -70.64122 -51.75083 -42.64392 -51.76919 -30.66996 -37.26057 -35.76427 -56.31491 -70.62459 -111.09092 -136.82544 -150.52876 -194.77725 -212.17270 -245.34574 -216.45102
880.43102 852.65124 857.60198 884.86835 957.32432 1143.05643 1209.54960 1179.54891 1149.87922 995.26892 857.90717 839.61873 917.54424 929.19003 925.02316 815.05979 717.94349 695.68452 686.43306 681.09337 631.48303 547.95546 479.38343 465.17606 381.06597 390.26270 367.52502 379.66786 415.23383 408.12133 388.48850 373.00805 368.74450 400.99544 398.06594 443.63446 486.23557 518.99812 494.30415 483.57340 437.71484 393.04095 360.71904 332.79114 321.64078 327.52319 323.21646 320.44484 326.63877 378.91024 334.75104 293.54572 303.87531 284.71560 261.51462 217.57621 115.64154 115.35679 96.01424 96.12139 70.26800 58.49906 36.16889 55.84762 103.96276 120.53880 161.64698 123.90531 101.82929 73.79472 25.41569 6.31512 -0.92169 -14.22601 -14.79408 -19.84722 -32.40126 -43.95741 -48.94103 -80.34901 -103.15427 -101.17191 -117.64432 -129.19714 -125.42893 -132.55613 -121.76671 -122.02602 -130.88874 -128.51024 -113.80049 -118.63998 -119.73295 -117.18791 -118.97103 -113.95308 -112.26400 -106.43648 -130.76095 -111.11240 -122.32508 -121.30154 -112.23830 -113.82316 -117.69334 -118.69139 -132.74420 -140.83918 -128.44932 -137.79269 -136.57326 -134.39644 -127.95250 -120.64632 -126.52094 -121.84640 -112.93168 -121.88929 -97.28490 -82.26908 -67.11970 -43.97336 -46.83314 -36.81159 -45.15434 -37.10718 -43.60110 -53.88139 -83.00154 -106.89347 -124.78785 -147.53167 -159.48427 -216.59540 -216.38370 -188.45579
830.46075 824.21148 819.71842 800.45524 963.73560 1110.65694 1260.06388 1224.56608 1230.08886 1096.09142 971.91474 902.05452 937.67011 933.53002 914.14102 888.64850 828.79632 745.66959 838.50276 882.71379 794.48320 694.66046 635.14984 507.95290 416.22596 381.80370 346.39412 360.03411 355.99641 371.80957 373.56561 365.86506 351.64068 373.19616 411.68572 422.07965 487.13683 514.86165 516.72170 489.53894 444.88475 396.21249 361.21133 339.69996 346.31569 335.88619 344.45459 398.19577 410.54397 396.80827 392.53045 341.16773 315.22275 302.85590 285.07968 187.16033 147.81102 118.85816 104.24976 87.82058 73.67685 58.26905 46.51689 54.60038 65.82840 119.74851 143.63854 140.93292 121.33200 80.25960 44.50554 21.64595 3.29501 6.71080 -10.27217 -17.43431 -26.55888 -38.26832 -55.43005 -66.74469 -81.88574 -107.62247 -113.65328 -125.89614 -129.60523 -125.71505 -131.17005 -121.95303 -124.20844 -120.23360 -134.69155 -122.55331 -117.12696 -120.57410 -117.65155 -111.91636 -117.05407 -122.86836 -113.57767 -110.45198 -117.39756 -109.60677 -119.98276 -114.31639 -126.97057 -124.55848 -125.55303 -124.50942 -123.70968 -130.61515 -118.83090 -128.22507 -122.54967 -118.19574 -117.28160 -133.19155 -116.19356 -107.42932 -105.10360 -95.48952 -81.54710 -55.85553 -43.79189 -47.50156 -39.33306 -28.99858 -49.18797 -52.50387 -75.46738 -110.05735 -114.61863 -136.44615 -151.27975 -170.07075 -192.33290 -169.39474
819.57881 830.91771 799.26607 755.75204 889.43454 1099.70229 1216.92223 1227.30918 1258.46277 1175.92732 994.27649 929.01873 929.02704 952.59270 941.97365 904.31280 852.53105 862.19307 915.27530 1011.86046 918.05692 817.92903 692.68128 615.21483 548.55618 456.04673 378.87900 300.86583 300.42792 312.96776 326.90797 334.12710 332.68296 331.29892 357.11528 419.07529 483.61183 510.17404 502.02314 513.78829 492.12318 465.49592 418.32534 425.26237 403.24930 400.37009 398.10375 439.76350 468.19890 473.32771 425.52594 374.92596 357.24073 295.47946 276.01838 182.01483 119.92730 107.11845 102.80154 78.92148 71.75192 65.34369 51.31364 53.84885 59.71359 100.75666 124.73971 132.17869 137.84840 91.96676 74.26968 42.90694 15.14177 -5.23178 -10.04384 -17.80955 -36.15891 -41.08010 -56.87127 -63.09809 -81.51525 -112.29643 -113.81377 -114.49494 -114.33876 -133.17530 -124.76503 -128.10416 -124.60278 -128.92730 -125.75219 -121.35673 -118.49627 -122.48962 -109.54849 -115.26581 -118.72712 -114.08586 -109.24931 -114.09961 -106.06938 -111.29179 -106.26832 -120.99977 -119.31426 -122.71006 -126.29901 -121.35069 -119.59666 -119.51359 -121.32852 -117.38021 -122.49831 -112.11254 -129.50200 -117.00745 -117.64451 -121.20183 -101.24661 -97.71191 -79.51900 -70.18235 -52.25677 -54.82696 -53.98318 -45.45399 -49.25585 -58.63675 -87.23390 -87.79675 -103.82509 -140.42459 -141.49118 -161.76897 -175.40181 -191.36778
858.23366 823.43762 741.37909 678.01104 682.11344 1010.32119 1149.55174 1184.45933 1210.30252 1155.54899 1036.68129 963.00755 975.30653 1037.39400 1007.89402 988.43655 959.91326 976.18791 1101.74565 1118.97772 1110.16103 1048.86609 848.48418 627.43181 582.52555 535.12262 436.71024 355.40626 294.02554 296.28832 316.81500 315.56890 323.27986 327.29071 349.48721 383.01218 456.29846 496.04834 496.48958 520.21791 548.88608 511.23866 514.89197 462.25404 470.65630 452.58694 448.55435 458.31362 465.77272 463.52945 426.30995 408.75137 334.31643 280.62529 204.68104 157.49195 127.67324 83.63016 88.56813 63.79836 58.80766 46.56557 55.91273 56.11603 68.79491 83.63087 130.47196 134.45569 152.83883 132.44393 105.75809 80.69071 46.50101 11.62071 8.15688 -13.32575 -23.18989 -31.60816 -43.96294 -56.41087 -79.47820 -90.75974 -101.11483 -124.49892 -122.02663 -122.38923 -123.68451 -128.65927 -121.04560 -118.71629 -118.95116 -118.94782 -109.60097 -110.26859 -114.29794 -121.05686 -114.61225 -123.12959 -117.52255 -120.65617 -113.93322 -117.62826 -112.60405 -106.53837 -125.11166 -124.49128 -111.15585 -121.50360 -118.98383 -122.23759 -121.35615 -126.95455 -113.31282 -109.02804 -117.08571 -114.08754 -118.01203 -106.60030 -110.88444 -102.05948 -95.93075 -81.77217 -70.89617 -53.60495 -54.44009 -44.56818 -55.36809 -52.84906 -70.25758 -90.06383 -94.58142 -110.74076 -122.17493 -148.32986 -175.61633 -162.86165
751.20265 784.07304 716.47646 665.42962 699.82855 839.91180 1056.72725 1169.66838 1187.64522 1086.35320 987.54321 998.45105 1052.30683 1095.98829 1095.62990 1067.62180 1030.56924 1107.55835 1221.27407 1296.45002 1302.41945 1231.73257 1081.95939 920.12668 726.85299 535.46032 498.91023 406.19934 300.85762 291.94696 288.73712 290.21924 296.46835 328.51185 334.94573 388.71868 433.26795 443.64344 442.30927 474.44821 522.59487 528.12457 516.91303 493.03124 464.67033 453.86634 440.95946 425.60640 435.90411 430.63221 374.22072 378.06063 345.02121 243.98028 184.02203 181.46347 125.94160 93.99666 71.55112 56.83917 44.95048 42.63900 47.39398 41.92907 56.54875 75.67609 119.78982 141.24838 151.88418 138.05166 109.21898 111.11349 71.35466 41.82752 11.79171 -1.35560 -4.90128 -15.84721 -40.07037 -60.34530 -78.31993 -82.95043 -101.21246 -110.95577 -122.17050 -121.60269 -121.77684 -127.65505 -126.50507 -118.66590 -120.28187 -123.35027 -115.46826 -110.16849 -119.35941 -108.58340 -115.08057 -115.38934 -114.49666 -125.03212 -116.09800 -111.01352 -124.29186 -111.24663 -123.06218 -109.28287 -117.56325 -114.89846 -113.20958 -119.31202 -120.62271 -122.80430 -110.41863 -111.13237 -117.27559 -112.17840 -122.32583 -109.43886 -90.02114 -109.24914 -88.85722 -87.78396 -90.01109 -76.52090 -70.88462 -50.02108 -47.67015 -47.42479 -62.74276 -87.71463 -95.17518 -96.53593 -98.68214 -144.10448 -163.25092 -169.99054
801.95615 699.85603 694.06336 610.74622 632.11290 804.88605 973.74453 1033.26908 1107.99097 1028.72248 1003.65407 1036.04294 1065.71139 1102.68472 1113.99132 1096.64091 1090.94780 1206.34662 1301.23149 1345.90294 1354.22721 1363.84033 1128.45826 1068.00951 853.26200 714.87163 537.01992 476.52191 357.71117 275.15670 272.21141 263.03789 276.60310 302.87911 332.31700 367.87052 408.38645 413.71948 432.23663 468.43970 492.23928 499.98621 462.65235 470.02406 432.34081 428.80293 416.85306 419.48526 389.45250 372.23843 363.53869 336.67835 301.79490 175.67658 179.38704 155.32385 117.99362 76.05193 66.39343 53.89871 40.21231 31.13286 28.60511 34.31456 43.21068 45.16370 81.56320 125.08781 128.24272 136.37162 109.79383 95.40357 73.73121 54.24793 29.74367 15.31804 -0.85524 -13.08242 -42.12048 -51.13247 -65.68833 -79.92617 -96.75131 -106.49119 -126.67818 -128.61647 -120.87914 -127.79859 -127.79347 -127.49690 -115.76665 -117.06050 -115.89431 -112.17731 -114.78996 -112.54682 -119.99031 -115.81762 -113.38926 -114.24354 -115.35512 -117.59083 -114.20253 -111.02024 -123.22216 -123.88223 -115.22027 -121.07313 -119.45331 -119.93546 -125.06885 -119.85719 -120.48347 -127.20246 -119.85487 -114.81307 -109.83830 -107.84116 -116.13196 -110.43420 -97.31211 -86.97961 -91.81414 -82.74476 -78.92707 -63.93109 -52.45889 -51.76318 -64.30545 -91.51444 -90.53740 -86.83279 -88.91754 -150.24797 -145.34199 -135.58650
670.09523 597.79604 562.13266 567.50122 627.07650 694.05617 815.54021 883.32590 996.53328 1037.08400 994.83041 994.42949 1053.71471 1065.18822 1114.66359 1135.58378 1179.82979 1217.80241 1244.73771 1251.91507 1333.67016 1354.36731 1282.75012 1154.55894 1014.15631 912.50388 699.75842 585.99671 482.55548 322.55157 263.67338 242.58497 254.42520 288.52648 324.20349 329.95822 363.95378 378.52665 396.54975 391.41083 354.19443 397.86710 400.75814 410.82793 418.16204 388.66767 380.79594 377.50579 332.41968 323.05789 325.68202 297.90681 229.60396 166.56157 156.67274 147.89050 118.79929 88.20481 72.29972 55.18238 31.22244 27.47940 22.96871 20.96176 32.98524 32.15909 41.33123 73.39520 122.76076 126.21761 132.10110 92.13880 73.02902 58.92969 47.51570 29.79117 9.25975 -16.19749 -41.39270 -38.77615 -51.41263 -91.69766 -84.34127 -102.53295 -114.87081 -121.30578 -115.61855 -118.02920 -128.60987 -126.20857 -118.80897 -121.42753 -121.77366 -115.03775 -116.19540 -117.75175 -110.37730 -109.65413 -117.55258 -121.28729 -115.45713 -123.55372 -126.40588 -116.13428 -114.21706 -120.73041 -113.15841 -111.12113 -117.42996 -116.91970 -116.96156 -120.36393 -122.42939 -123.71810 -116.50896 -104.88774 -110.84425 -111.55788 -112.62079 -119.97441 -109.39789 -108.66254 -101.54459 -96.40882 -86.61181 -78.93217 -68.65198 -52.11231 -66.92805 -85.79466 -90.68840 -80.40905 -89.85498 -119.73872 -147.42131 -152.51223
588.08642 514.70534 516.84364 537.66477 598.84136 692.22477 722.87985 761.90015 803.85102 795.39541 864.48382 899.70250 965.01486 991.21988 1071.22803 1134.04038 1118.72642 1130.89774 1152.69234 1225.42016 1250.09554 1361.09310 1258.46399 1181.89491 993.74838 956.58808 777.21635 591.44411 550.93789 380.26588 255.20309 245.74771 254.79205 259.95756 274.52616 324.82584 331.98606 357.52230 338.55071 323.60434 322.63652 334.78104 312.70642 379.03439 339.67733 340.32485 343.81306 305.38815 292.20636 280.60239 271.49553 253.44480 206.73071 171.69710 134.23117 122.10279 99.27502 83.38444 73.63508 43.82051 46.26499 18.87539 18.28092 5.92676 3.55129 33.50997 30.80712 50.93204 75.29768 96.50697 107.48961 84.23024 71.08545 61.12083 46.67768 23.16477 5.59231 -12.91834 -33.65699 -43.72724 -55.70032 -77.32190 -88.25656 -101.16399 -126.77296 -128.16405 -134.06434 -126.03446 -119.00762 -114.53404 -122.44919 -118.37130 -122.77787 -109.35217 -116.73421 -122.03535 -112.81084 -118.49469 -120.50641 -122.81231 -111.76392 -116.84043 -113.39502 -115.43776 -113.16941 -118.80304 -120.40918 -123.30513 -117.95501 -118.33348 -112.73018 -117.44590 -122.53558 -127.09620 -125.09559 -119.57539 -107.57137 -125.82695 -116.65456 -117.00861 -116.19608 -118.41165 -118.47416 -106.10420 -106.49017 -105.50870 -84.76464 -57.27146 -65.66079 -75.72314 -74.57791 -83.00685 -73.01520 -110.08391 -135.61274 -138.03998
506.82198 455.48573 465.97432 526.35129 526.77301 639.49552 733.62501 749.90873 707.39404 721.58426 746.44199 865.83218 896.67121 917.06011 968.31221 1015.47536 998.84220 965.85154 992.59023 1159.05241 1231.54969 1272.63953 1198.90055 1158.12426 1035.24367 976.28357 862.36899 636.18236 561.42419 477.18172 308.51410 261.22651 253.19917 249.31573 257.77686 269.89765 277.50657 290.66285 285.54990 269.61603 256.69816 269.18818 270.51988 271.15140 308.72806 271.65126 246.99009 237.68020 216.98085 202.43610 221.96317 180.69707 158.39925 155.86476 122.15577 107.57853 99.91733 87.87221 70.82167 41.87389 23.21882 7.99571 11.92653 15.18083 6.83341 3.48385 36.84910 38.09577 56.33783 76.87254 83.05017 64.57708 49.42160 60.37597 49.38507 17.39753 3.97099 -17.26907 -34.83377 -43.45372 -51.52212 -66.43013 -88.11755 -98.34659 -118.45199 -116.32581 -129.74224 -126.56724 -119.99710 -129.20544 -116.92846 -118.47891 -119.43349 -122.80066 -122.38577 -107.30744 -118.10484 -122.02890 -120.08963 -118.94755 -116.39772 -108.10929 -112.16115 -117.45286 -119.12380 -119.49936 -116.54103 -124.86089 -120.50671 -122.39454 -116.58008 -117.63296 -127.18307 -115.17976 -118.08257 -114.80036 -116.05869 -122.17043 -125.46616 -116.03112 -105.72968 -116.86150 -109.21482 -113.46342 -116.45703 -97.02654 -80.38781 -69.13587 -48.98373 -52.95386 -51.16981 -77.18351 -79.40100 -149.08901 -133.53407 -134.84922
450.59300 410.85492 455.14347 491.71135 497.17756 620.61223 656.03599 705.40935 689.93223 663.56439 660.75595 736.61473 885.01965 891.57209 944.57182 922.83917 888.10489 809.56233 833.83167 888.25193 1100.91159 1131.95473 1114.35041 1039.76843 1001.19876 972.45751 861.77463 695.92115 584.74145 507.46119 369.86815 268.95338 261.67549 227.43012 235.89549 237.32907 268.11323 267.69812 258.77351 248.11564 233.45974 249.22794 252.33599 246.04947 258.01278 247.51475 221.87159 211.45987 186.44458 180.57830 158.28002 148.23651 121.39638 111.75433 118.99385 105.25243 86.18755 80.14018 58.23092 44.87621 20.60051 6.69270 8.33814 3.14419 1.81037 9.11679 18.70722 28.36587 42.97760 56.44658 61.60234 51.83401 54.39906 53.83711 34.33619 7.40301 -0.72752 -14.50563 -28.20022 -31.15323 -56.90785 -70.66582 -93.61107 -95.79045 -113.93339 -125.53421 -128.00131 -132.56050 -125.13224 -114.67883 -120.68603 -114.32037 -121.29425 -111.78923 -116.03403 -110.57018 -112.56471 -116.81460 -112.13939 -108.86666 -118.27907 -108.88275 -121.18781 -121.70675 -124.68575 -123.54034 -119.74731 -120.14745 -121.47432 -120.83526 -124.20689 -120.78909 -120.13062 -122.76684 -120.75754 -121.08379 -120.16609 -120.55170 -124.35833 -116.22279 -109.82217 -117.66599 -124.27333 -116.53469 -105.62615 -88.46825 -75.35108 -59.02295 -51.12807 -45.83902 -57.07553 -69.51130 -81.37719 -123.74232 -131.47555 -141.72280
381.58333 394.05164 448.59695 460.80612 478.83061 553.26122 634.07757 613.13544 616.65929 608.06424 607.84153 661.01042 769.87758 812.56202 821.73900 798.78672 709.13183 764.47454 759.78682 855.76663 930.07059 1037.10798 1056.56129 1079.32450 1000.75545 949.16702 837.34747 659.64083 589.60609 509.00982 406.83977 284.81153 245.47685 214.05783 218.33697 239.25644 234.95118 241.65777 237.89598 237.61946 230.11068 230.11485 230.06071 236.24025 236.22530 224.24759 208.91632 183.40335 146.28143 146.42066 137.09736 136.40040 127.78662 106.27625 96.13634 98.71682 81.55803 77.73341 62.73453 39.89679 29.60282 1.80494 0.52824 1.58033 2.08638 2.87565 -8.78128 10.18089 17.52110 47.59620 54.76028 55.61939 26.67295 23.47074 17.47230 4.77345 -20.44689 -17.83806 -27.52066 -38.07658 -58.24078 -65.42408 -84.32926 -97.64445 -103.64405 -113.51603 -123.27173 -131.98204 -135.93430 -122.94038 -125.02240 -107.00674 -110.42185 -114.72191 -114.44407 -114.77061 -110.89574 -112.08978 -113.68421 -108.71221 -116.77864 -116.03591 -135.81085 -119.04867 -118.64122 -119.59410 -112.75804 -124.05780 -125.65824 -130.41340 -125.47406 -119.96547 -110.24824 -124.59975 -131.25812 -121.69945 -123.17873 -122.21392 -119.72433 -127.45615 -112.55003 -115.78349 -115.89646 -121.56902 -105.73364 -91.50099 -79.44549 -76.61418 -47.45849 -56.24556 -52.00702 -74.63399 -90.67068 -106.43323 -138.60617 -134.72426
388.14009 405.19587 411.82282 440.16812 445.69411 541.43605 581.06831 570.06458 561.81734 593.30807 581.88254 648.27490 731.29681 761.85508 706.85315 694.24999 660.76478 679.91277 680.61389 770.66555 954.42043 1036.05950 1078.54858 1082.43458 1036.63780 906.86702 809.76887 669.00049 619.76308 540.98654 429.55915 329.20427 272.09044 217.91547 208.30655 210.37542 206.14922 210.59992 214.28348 214.33827 216.21823 222.45992 210.91675 207.81738 209.17677 217.81005 217.36633 187.75980 150.61052 131.60461 130.23864 120.73020 122.24926 105.08418 96.91471 73.25516 84.93521 71.98969 62.39036 52.22713 31.74751 16.79150 6.80428 1.97624 1.86703 -4.96867 5.16877 14.67990 0.47572 22.33046 15.11391 -0.80522 3.95956 -5.81335 5.29822 -11.96901 -17.66183 -20.61340 -38.04265 -43.86024 -39.72145 -74.04179 -91.30428 -101.55788 -115.67903 -113.03077 -113.44626 -120.73542 -124.98596 -119.80934 -117.02432 -125.32588 -118.75729 -110.28767 -119.92780 -119.90541 -127.68319 -116.32191 -119.24409 -109.74325 -122.40521 -114.53513 -114.32354 -123.93013 -125.68701 -123.60489 -126.54147 -126.47229 -129.29669 -125.00160 -131.77834 -117.80619 -121.76954 -123.75446 -126.34965 -123.07354 -124.65209 -118.72588 -120.27808 -121.54251 -123.83541 -119.87099 -114.83990 -118.13575 -107.92069 -105.66037 -82.81524 -75.35429 -61.19169 -53.85385 -49.68613 -73.83312 -83.86884 -139.06758 -138.94178 -144.50271
444.93609 431.92716 419.02035 390.46841 429.73708 459.28811 543.38280 534.31613 545.84766 527.99510 601.44842 684.44120 739.83918 734.86255 681.44142 620.31820 638.72139 646.22593 647.53116 773.47529 903.76605 960.79907 1118.94278 1106.06630 1095.94037 1009.90118 775.94279 737.31524 622.84781 568.61106 465.72359 378.04879 288.22750 238.72968 214.28431 206.56894 204.49711 193.32885 186.29252 202.38491 198.08382 194.53919 191.08089 198.66995 193.47294 205.64746 201.53569 164.36177 161.14878 142.27727 130.21010 120.33399 105.42469 97.44103 90.66290 82.44548 77.65283 67.65791 56.84357 51.41787 43.40771 31.96863 9.44734 9.76966 -6.69513 3.04464 7.41160 0.21821 -3.81742 2.79057 -1.79194 -15.18630 -21.54233 -3.27889 -12.64825 -21.87745 -24.40551 -38.31588 -28.49726 -32.29611 -56.89579 -69.07406 -93.47609 -95.24844 -110.91582 -119.57671 -121.40669 -126.81011 -125.92907 -121.35516 -128.58077 -114.76797 -119.01956 -114.24176 -112.24438 -117.07516 -116.83015 -111.46464 -115.15063 -120.01754 -112.46965 -115.22465 -119.30025 -124.49971 -114.40412 -123.56146 -128.75466 -129.44042 -129.49635 -117.67407 -129.19057 -129.70554 -130.89941 -131.48619 -139.07016 -127.40822 -121.41610 -124.20817 -129.08866 -124.17220 -119.71676 -124.70899 -119.83885 -118.49166 -110.85758 -108.83058 -98.02714 -85.01502 -65.42606 -57.73986 -59.65280 -68.47748 -91.76374 -121.13340 -141.52830 -144.39555
442.00670 437.47934 425.27592 382.69963 369.52187 435.39733 458.34459 490.47988 495.69435 541.52609 573.03063 714.58850 771.82093 749.36029 660.38948 592.13446 588.32805 595.82458 638.44237 643.76259 781.42581 870.72776 964.13347 1068.33590 1116.81464 1086.00784 925.02089 748.82059 650.76159 503.79903 491.34514 430.45781 339.46253 268.97209 241.90449 236.25422 200.90056 198.31029 184.69674 191.09326 183.21848 171.85434 183.21880 172.51050 181.44842 179.22499 167.49321 170.89157 152.80472 144.25397 127.72416 122.50293 101.55842 91.21646 86.81690 70.60011 60.04999 61.04003 52.67194 57.06176 48.53208 33.95935 32.22182 22.55192 13.24703 8.04221 -8.40263 -6.97025 -3.32318 -8.81641 -2.43250 -7.53813 -5.83881 -13.13445 -21.51476 -17.11222 -22.27799 -26.75490 -37.51185 -45.04574 -61.74524 -65.20583 -80.04536 -101.71957 -104.69773 -121.17689 -125.10058 -131.69577 -124.16434 -128.29891 -117.48747 -119.34292 -125.40525 -117.75633 -109.19157 -109.70056 -118.46850 -117.16912 -116.80310 -115.42781 -115.11431 -113.83927 -118.43707 -118.03052 -128.26533 -121.88153 -126.32189 -131.88666 -128.34978 -131.45237 -124.42580 -132.14629 -130.47603 -128.73444 -127.81960 -127.86343 -128.74773 -124.22578 -129.78519 -116.37123 -127.07420 -120.37207 -124.97599 -118.59083 -120.98457 -109.93267 -100.22638 -85.07106 -72.45170 -73.43129 -67.84462 -94.42931 -95.78501 -126.80370 -132.06201 -132.47571
450.99843 458.61918 444.32140 358.61974 370.20929 417.11536 423.11388 446.09221 435.38301 450.02852 593.35126 703.52717 752.33389 755.77631 650.09849 608.12210 589.49018 581.49858 596.10273 609.22739 610.47386 705.55967 938.75489 1033.26699 1062.69304 1008.72748 971.20398 784.01245 632.22335 535.36924 462.28238 418.62397 344.87150 306.85284 289.54522 245.16295 262.57688 210.79908 198.77107 183.68958 179.03857 175.95335 170.06178 169.89055 145.02027 144.72249 162.57394 159.96403 149.47304 156.09888 137.25228 111.45163 119.89619 101.22698 89.24585 79.73186 62.51321 60.36241 50.98263 45.10936 43.36067 41.45221 28.60409 21.28933 14.55332 5.01497 -0.30051 -1.00536 -12.67577 0.92655 -4.07607 -14.55550 -16.54281 -16.87947 -17.72950 -30.55782 -31.24747 -32.37047 -36.56423 -43.58358 -53.58627 -78.31020 -83.25656 -100.04573 -108.15921 -122.10126 -122.30264 -110.30591 -121.60363 -123.32471 -116.31386 -116.97101 -122.86566 -119.38670 -113.88342 -109.47369 -109.74953 -113.30841 -121.12411 -113.30706 -114.36946 -116.09444 -120.96414 -130.48796 -120.67356 -117.81221 -121.54200 -133.37639 -124.33966 -133.59328 -134.60748 -125.09161 -123.27700 -133.14272 -138.90489 -137.16899 -136.24756 -122.91187 -130.58609 -134.24801 -120.98823 -131.81676 -114.06132 -119.54036 -125.35582 -121.05245 -110.86430 -99.92372 -95.23113 -79.39294 -84.33807 -92.07667 -109.32917 -114.73816 -130.42776 -131.09216
