-5043.41 -5043.41 -5043.41 -5043.41 -5043.41 -5043.38 -5032.32 -4950.54 -4939.48 -4939.45 -4939.45 -4939.45 -4939.48 -4953.81 -5059.70 -5074.03 -5074.07 -5074.07 -5074.07 -5073.89 -5004.95 -4495.48 -4426.53 -4426.36 -4426.36 -4426.36 -4425.79 -4198.27 -2517.11 -2288.90 -2037.70 -174.62 190.46 249.64 330.57 554.58 587.29 617.47 622.30 655.68 664.62 679.96 840.39 843.45 837.04 813.28 804.25 776.88 722.61 533.89 495.90 480.39 429.43 418.94 415.00 410.86 377.33 366.45 347.53 324.98 361.63 351.74 310.43 106.07 63.89 74.10 86.03 94.60 106.14 139.49 180.61 212.01 255.19 240.81 167.74 158.96 327.57 372.24 307.04 269.56 233.61 212.00 194.40 177.17 90.25 82.02 86.71 92.45 97.00 123.03 172.15 210.35 174.24 164.63 160.71 183.67 214.49 279.08 456.40 486.38 508.12 739.75 488.88 390.92 -282.80 -4095.23 -4608.84 -4610.17 -4610.17 -4610.17 -4610.28 -4651.77 -4958.36 -4999.86 -4999.96 -4999.96 -4999.96 -4999.95 -4995.26 -4960.63 -4955.94 -4955.93 -4955.93 -4955.93 -4955.96 -4966.35 -5043.13 -5053.52 -5053.54 -5053.54 -5053.54 -5053.53 -5047.83 -5005.71 -5000.01 -5000.00 -5000.00 -5000.00 -5000.00 -5000.00 -5000.00
-5035.96 -5035.96 -5035.96 -5035.96 -5035.96 -5035.93 -5024.73 -4941.93 -4930.73 -4930.70 -4930.70 -4930.70 -4930.74 -4945.59 -5055.35 -5070.20 -5070.24 -5070.24 -5070.24 -5070.05 -4994.88 -4439.43 -4364.26 -4364.07 -4364.07 -4364.07 -4363.52 -4139.62 -2485.12 -2233.82 -1801.25 -16.01 278.92 324.56 393.99 594.90 614.38 614.58 641.74 667.25 681.97 707.73 869.41 863.76 837.27 817.99 823.19 810.23 741.16 554.67 525.17 515.92 496.96 487.12 466.24 460.28 438.32 424.56 415.09 407.03 411.48 417.78 367.60 114.46 65.82 82.25 91.02 98.23 108.02 149.16 207.89 243.54 224.31 195.09 160.34 174.45 320.14 323.88 325.55 310.23 270.82 245.62 228.12 186.73 90.29 73.69 79.74 85.57 102.37 114.39 157.02 202.81 156.19 134.69 139.83 164.24 226.49 285.35 449.62 454.14 585.21 833.97 728.51 438.73 -201.58 -3865.21 -4540.66 -4566.92 -4566.99 -4566.99 -4567.10 -4613.84 -4959.20 -5005.94 -5006.05 -5006.05 -5006.05 -5006.04 -4999.55 -4951.59 -4945.10 -4945.08 -4945.08 -4945.08 -4945.11 -4958.20 -5054.94 -5068.03 -5068.06 -5068.06 -5068.06 -5068.04 -5060.80 -5007.26 -5000.02 -5000.00 -5000.00 -5000.00 -5000.00 -5000.00 -5000.00
-5035.94 -5035.94 -5035.94 -5035.94 -5035.94 -5035.92 -5024.71 -4941.91 -4930.71 -4930.68 -4930.68 -4930.68 -4930.72 -4945.57 -5055.34 -5070.19 -5070.23 -5070.23 -5070.23 -5070.04 -4994.85 -4439.29 -4364.10 -4363.92 -4363.92 -4363.92 -4363.36 -4139.36 -2460.02 -1859.01 -319.85 222.82 344.15 359.88 408.33 607.74 638.34 657.29 655.70 659.68 678.89 701.63 854.96 867.40 820.75 826.81 814.67 807.05 744.42 560.85 534.02 526.86 518.15 513.71 507.99 502.18 482.40 451.14 435.35 432.19 429.99 426.40 386.05 111.74 86.67 93.54 108.45 122.20 141.18 153.21 200.81 219.57 180.86 160.52 160.02 152.73 289.08 323.24 247.07 251.11 235.36 233.74 261.40 217.17 138.31 83.18 83.29 86.57 132.33 139.53 146.11 179.60 156.85 125.97 127.54 147.18 204.74 310.51 414.81 415.74 494.46 727.81 779.63 454.39 31.55 -2471.40 -4352.26 -4566.29 -4566.88 -4566.88 -4567.00 -4613.75 -4959.20 -5005.95 -5006.07 -5006.07 -5006.07 -5006.05 -4999.56 -4951.56 -4945.07 -4945.05 -4945.05 -4945.05 -4945.09 -4958.18 -5054.97 -5068.06 -5068.10 -5068.10 -5068.10 -5068.08 -5060.83 -5007.27 -5000.02 -5000.00 -5000.00 -5000.00 -5000.00 -5000.00 -5000.00
-5035.94 -5035.94 -5035.94 -5035.94 -5035.94 -5035.92 -5024.71 -4941.91 -4930.71 -4930.68 -4930.68 -4930.68 -4930.72 -4945.57 -5055.34 -5070.19 -5070.23 -5070.23 -5070.23 -5070.04 -4994.85 -4439.29 -4364.10 -4363.92 -4363.92 -4363.92 -4363.30 -4114.94 -2100.85 -451.00 159.11 306.41 372.00 388.24 422.21 601.80 649.58 670.27 661.70 670.69 681.62 715.73 875.45 853.71 840.65 842.57 831.62 824.61 764.11 568.66 544.23 539.36 531.81 530.48 529.58 526.98 509.83 502.19 494.45 486.55 478.79 468.36 428.36 164.46 123.21 127.95 150.78 163.55 154.76 162.60 172.68 177.77 173.52 157.22 147.44 133.80 216.77 300.37 206.48 195.39 194.69 212.89 281.08 223.45 136.32 92.59 81.54 81.32 100.63 154.20 144.93 153.69 142.14 117.14 114.77 124.38 153.32 223.88 422.54 451.70 531.23 690.97 790.25 785.58 357.83 -2050.15 -4103.74 -4539.17 -4566.81 -4566.88 -4567.00 -4613.75 -4959.20 -5005.95 -5006.07 -5006.07 -5006.07 -5006.05 -4999.56 -4951.56 -4945.07 -4945.05 -4945.05 -4945.05 -4945.09 -4958.18 -5054.97 -5068.06 -5068.10 -5068.10 -5068.10 -5068.08 -5060.83 -5007.27 -5000.02 -5000.00 -5000.00 -5000.00 -5000.00 -5000.00 -5000.00
-5035.94 -5035.94 -5035.94 -5035.94 -5035.94 -5035.91 -5024.71 -4941.94 -4930.74 -4930.71 -4930.71 -4930.71 -4930.75 -4945.60 -5055.32 -5070.17 -5070.21 -5070.21 -5070.21 -5070.02 -4994.80 -4438.98 -4363.76 -4363.57 -4363.57 -4363.57 -4362.44 -3932.69 -707.65 127.54 228.41 295.99 361.62 389.81 414.83 627.76 651.23 674.69 690.36 680.72 698.27 702.50 863.56 872.38 861.05 853.66 850.51 822.49 779.99 584.68 553.94 549.57 546.58 545.69 547.18 542.03 527.09 520.65 515.58 508.05 501.49 491.42 445.42 171.62 137.32 165.49 162.53 174.26 184.92 174.15 170.49 180.39 170.15 171.48 163.29 130.52 192.94 321.16 194.57 165.13 177.38 195.11 237.31 216.46 150.76 113.36 86.34 82.27 86.56 110.03 119.45 114.32 120.54 107.28 106.13 108.10 117.97 160.84 371.39 540.40 587.63 667.96 845.37 587.99 185.10 -1824.93 -2617.05 -4338.69 -4566.20 -4566.76 -4566.88 -4613.65 -4959.22 -5005.99 -5006.10 -5006.10 -5006.10 -5006.09 -4999.59 -4951.57 -4945.07 -4945.05 -4945.05 -4945.05 -4945.09 -4958.19 -5054.97 -5068.07 -5068.10 -5068.10 -5068.10 -5068.08 -5060.84 -5007.27 -5000.02 -5000.00 -5000.00 -5000.00 -5000.00 -5000.00 -5000.00
-5032.66 -5032.66 -5032.66 -5032.66 -5032.66 -5032.64 -5023.15 -4953.05 -4943.56 -4943.54 -4943.54 -4943.54 -4943.57 -4956.24 -5049.87 -5062.54 -5062.57 -5062.57 -5062.57 -5062.35 -4972.99 -4312.74 -4223.38 -4223.16 -4223.10 -4222.59 -4193.59 -3545.07 -239.09 236.79 277.69 330.17 401.66 410.26 431.51 660.73 663.36 671.89 724.48 708.50 693.60 704.24 839.27 847.12 851.44 835.96 854.71 835.43 794.09 608.27 559.65 560.53 560.30 559.52 560.69 555.32 533.09 522.22 516.32 507.72 502.14 494.09 451.67 198.60 168.34 189.48 194.59 179.90 187.03 188.74 165.51 171.31 153.84 148.60 131.34 131.26 248.62 376.16 225.31 150.35 160.71 180.05 188.17 195.47 114.36 104.22 91.90 82.95 82.18 93.90 88.07 85.81 89.31 90.18 92.67 95.76 102.04 133.80 314.13 403.17 468.63 552.81 713.98 632.75 130.00 -1768.51 -2318.20 -4257.50 -4519.71 -4520.43 -4520.56 -4573.63 -4965.81 -5018.88 -5019.01 -5019.01 -5019.01 -5019.00 -5011.17 -4953.32 -4945.49 -4945.47 -4945.47 -4945.47 -4945.50 -4958.84 -5057.34 -5070.67 -5070.70 -5070.70 -5070.70 -5070.68 -5063.16 -5007.54 -5000.02 -5000.00 -5000.00 -5000.00 -5000.00 -5000.00 -5000.00
-5008.49 -5008.49 -5008.49 -5008.49 -5008.49 -5008.50 -5011.68 -5035.16 -5038.34 -5038.35 -5038.35 -5038.35 -5038.34 -5034.91 -5009.55 -5006.12 -5006.11 -5006.11 -5006.11 -5005.63 -4811.84 -3379.93 -3186.14 -3185.55 -3161.48 -2983.54 -2732.26 -1059.22 185.31 350.33 440.92 456.31 500.90 490.10 552.97 740.09 791.55 812.36 812.76 810.93 806.96 797.46 792.77 797.83 798.50 788.65 821.38 808.32 791.52 628.35 577.49 558.27 560.56 566.50 568.08 555.90 477.34 460.05 452.21 446.93 434.95 431.36 412.49 331.46 295.25 308.23 300.73 299.52 288.24 271.01 148.59 122.75 97.93 95.60 69.17 93.88 115.96 185.21 270.97 74.80 57.01 78.73 95.13 86.23 44.12 51.60 69.54 58.07 44.37 46.47 45.50 19.59 16.79 19.26 22.44 28.16 30.37 42.61 96.37 129.78 186.18 256.69 381.69 436.02 -35.61 -1471.11 -1911.65 -3709.04 -4150.07 -4177.97 -4178.28 -4277.96 -5014.50 -5114.18 -5114.43 -5114.43 -5114.43 -5114.38 -5096.73 -4966.25 -4948.60 -4948.55 -4948.55 -4948.55 -4948.59 -4963.63 -5074.81 -5089.85 -5089.89 -5089.89 -5089.89 -5089.87 -5080.30 -5009.59 -5000.02 -5000.00 -5000.00 -5000.00 -5000.00 -5000.00 -5000.00
-5005.22 -5005.22 -5005.22 -5005.22 -5005.22 -5005.23 -5010.12 -5046.28 -5051.17 -5051.18 -5051.18 -5051.18 -5051.17 -5045.56 -5004.09 -4998.48 -4998.47 -4998.47 -4998.47 -4997.95 -4790.03 -3253.69 -3045.71 -3021.31 -2671.64 -1321.97 -934.99 -514.07 259.12 449.45 485.75 489.89 508.07 511.01 554.31 757.12 816.47 840.17 839.86 846.75 824.02 823.65 813.97 793.81 808.01 798.70 818.40 810.98 790.17 653.95 589.75 562.04 556.68 560.59 563.33 556.91 475.70 458.37 454.33 451.08 438.59 439.45 435.83 332.65 313.83 316.00 313.51 305.69 299.67 280.58 150.10 122.02 88.76 73.83 51.35 70.76 75.20 86.76 94.63 40.51 44.24 69.31 99.59 93.61 39.27 30.53 51.99 59.16 45.61 49.82 48.61 21.05 14.55 13.76 17.86 23.24 26.36 31.48 63.34 87.37 109.78 144.42 271.78 366.25 54.88 -1387.59 -1609.00 -2166.94 -3902.24 -4131.13 -4131.96 -4237.95 -5021.09 -5127.08 -5127.34 -5127.34 -5127.34 -5127.29 -5108.31 -4968.00 -4949.02 -4948.97 -4948.97 -4948.97 -4949.01 -4964.28 -5077.17 -5092.45 -5092.49 -5092.49 -5092.49 -5092.46 -5082.62 -5009.87 -5000.02 -5000.00 -5000.00 -5000.00 -5000.00 -5000.00 -5000.00
-5005.21 -5005.21 -5005.21 -5005.21 -5005.21 -5005.22 -5010.12 -5046.30 -5051.20 -5051.21 -5051.21 -5051.21 -5051.20 -5045.58 -5004.08 -4998.46 -4998.45 -4998.45 -4998.45 -4997.93 -4789.98 -3253.38 -3044.87 -2846.51 -1349.09 -837.18 -618.60 -474.40 284.41 453.71 481.00 499.52 505.66 535.81 591.96 783.35 829.31 846.38 844.63 844.94 835.35 836.46 802.29 816.78 820.21 823.12 832.42 820.89 789.57 653.09 608.84 593.78 563.88 570.50 569.08 561.18 487.84 480.15 487.40 481.39 474.31 467.32 453.94 359.47 329.03 318.40 310.31 304.49 299.98 278.90 127.24 100.99 80.07 50.55 32.39 39.33 50.85 51.92 43.38 36.03 44.57 70.72 92.60 94.79 32.64 28.14 42.79 62.67 53.16 54.71 64.24 28.75 20.75 18.74 23.17 29.24 36.30 39.53 68.06 80.00 95.49 142.84 202.93 244.55 128.97 -1376.92 -1621.38 -1959.42 -3873.30 -4130.94 -4131.85 -4237.85 -5021.11 -5127.11 -5127.37 -5127.37 -5127.37 -5127.33 -5108.33 -4968.01 -4949.02 -4948.97 -4948.97 -4948.97 -4949.01 -4964.29 -5077.18 -5092.46 -5092.49 -5092.49 -5092.49 -5092.47 -5082.62 -5009.87 -5000.02 -5000.00 -5000.00 -5000.00 -5000.00 -5000.00 -5000.00
-5005.21 -5005.21 -5005.21 -5005.21 -5005.21 -5005.22 -5010.12 -5046.30 -5051.20 -5051.21 -5051.21 -5051.21 -5051.20 -5045.58 -5004.08 -4998.46 -4998.45 -4998.45 -4998.45 -4997.93 -4789.98 -3253.32 -3021.09 -2638.90 -1068.63 -677.62 -600.11 -467.79 327.68 456.48 479.30 484.44 508.67 539.88 591.35 800.01 831.06 848.48 874.51 877.58 844.35 853.92 832.47 829.13 821.93 849.42 847.12 820.73 790.87 670.60 642.28 619.92 618.12 626.84 616.95 594.87 511.72 499.17 504.95 522.54 511.17 491.76 480.08 375.44 342.62 336.18 318.55 311.27 319.07 290.44 115.14 93.12 79.43 51.01 30.28 32.05 41.97 44.67 37.52 35.11 39.85 59.74 79.39 76.03 34.71 35.13 43.41 61.30 60.96 61.02 73.13 39.06 30.00 28.65 33.33 41.48 44.62 52.41 99.35 102.17 112.54 148.16 175.02 223.56 8.81 -1403.13 -1625.63 -1958.04 -3873.05 -4130.94 -4131.85 -4237.85 -5021.11 -5127.11 -5127.37 -5127.37 -5127.37 -5127.33 -5108.33 -4968.01 -4949.02 -4948.97 -4948.97 -4948.97 -4949.01 -4964.29 -5077.18 -5092.46 -5092.49 -5092.49 -5092.49 -5092.47 -5082.62 -5009.87 -5000.02 -5000.00 -5000.00 -5000.00 -5000.00 -5000.00 -5000.00
-5005.23 -5005.23 -5005.23 -5005.23 -5005.23 -5005.24 -5010.13 -5046.29 -5051.18 -5051.20 -5051.20 -5051.20 -5051.18 -5045.57 -5004.07 -4998.46 -4998.44 -4998.44 -4998.44 -4997.93 -4789.98 -3252.93 -2844.03 -1323.96 -819.60 -637.09 -584.40 -438.81 316.97 450.27 485.33 495.99 505.08 556.47 593.68 811.94 852.67 876.86 878.85 868.22 877.77 852.35 822.48 824.50 857.37 851.17 824.01 801.39 767.16 657.98 657.66 645.44 648.88 649.51 632.04 629.93 543.23 535.19 521.28 556.21 530.62 541.40 523.63 394.73 360.56 356.15 340.74 324.69 339.50 287.35 117.19 86.89 65.46 40.18 29.60 34.08 43.06 40.44 35.38 35.50 40.46 57.56 79.45 64.35 54.42 54.77 45.26 52.91 60.10 70.75 74.88 48.86 42.38 45.25 50.31 59.46 63.36 69.85 114.46 118.75 123.02 155.17 158.86 194.97 2.84 -1334.99 -1629.74 -1968.95 -3874.22 -4130.85 -4131.75 -4237.76 -5021.09 -5127.10 -5127.36 -5127.36 -5127.36 -5127.32 -5108.33 -4968.04 -4949.05 -4949.00 -4949.00 -4949.00 -4949.04 -4964.31 -5077.16 -5092.44 -5092.47 -5092.47 -5092.47 -5092.45 -5082.61 -5009.87 -5000.02 -5000.00 -5000.00 -5000.00 -5000.00 -5000.00 -5000.00
-5012.31 -5012.31 -5012.31 -5012.31 -5012.31 -5012.32 -5015.77 -5041.29 -5044.74 -5044.75 -5044.75 -5044.75 -5044.74 -5039.47 -5000.55 -4995.28 -4995.26 -4995.26 -4995.26 -4994.76 -4792.47 -3273.31 -2677.82 -1056.87 -702.51 -648.74 -601.41 -475.43 305.61 460.39 503.93 513.73 522.54 557.19 629.70 847.94 847.32 860.71 876.42 880.07 879.61 866.90 810.38 825.10 830.00 831.09 799.93 793.81 754.06 671.87 657.50 642.26 644.25 651.52 654.49 617.17 590.60 585.80 574.83 593.06 574.17 598.63 572.63 457.88 414.29 396.70 377.11 357.27 360.50 302.61 133.06 97.78 78.35 58.58 53.53 56.27 63.63 55.76 47.91 48.70 56.04 70.40 88.84 67.79 31.20 38.01 59.37 55.73 67.86 87.01 82.45 71.38 73.00 78.59 86.74 97.91 104.25 90.90 121.67 124.68 134.08 157.39 177.62 268.41 19.59 -1214.72 -1575.91 -1922.33 -3834.31 -4091.93 -4092.84 -4202.65 -5014.02 -5123.83 -5124.10 -5124.10 -5124.10 -5124.06 -5106.79 -4979.18 -4961.91 -4961.87 -4961.87 -4961.87 -4961.90 -4974.98 -5071.64 -5084.72 -5084.75 -5084.75 -5084.75 -5084.73 -5075.71 -5009.04 -5000.02 -5000.00 -5000.00 -5000.00 -5000.00 -5000.00 -5000.00
-5064.63 -5064.63 -5064.63 -5064.63 -5064.63 -5064.62 -5057.43 -5004.31 -4997.12 -4997.10 -4997.10 -4997.10 -4997.10 -4994.40 -4974.49 -4971.79 -4971.78 -4971.78 -4971.78 -4971.39 -4810.84 -3425.04 -1713.45 -1128.67 -1032.10 -986.47 -961.63 -806.76 365.37 567.36 612.00 634.92 660.04 664.38 705.26 836.95 846.77 874.01 904.49 908.67 873.58 851.15 626.82 599.42 590.84 582.40 577.73 580.06 563.08 557.64 546.86 535.56 552.25 558.32 544.08 544.73 785.50 777.82 783.26 801.61 811.41 811.18 777.30 616.54 582.43 553.00 535.53 509.11 499.96 454.59 293.21 279.20 232.13 206.14 202.59 202.02 193.32 143.57 142.77 135.94 137.90 158.33 173.73 152.71 25.26 10.00 27.16 45.41 32.73 49.45 69.85 158.94 182.17 204.90 216.08 228.29 226.22 199.51 184.82 193.17 191.12 208.23 252.20 273.55 96.76 -1020.15 -1292.83 -1599.80 -3541.55 -3804.29 -3805.35 -3943.21 -4961.82 -5099.67 -5100.02 -5100.02 -5100.02 -5100.00 -5095.42 -5061.55 -5056.97 -5056.96 -5056.96 -5056.96 -5056.95 -5053.83 -5030.81 -5027.69 -5027.68 -5027.68 -5027.68 -5027.67 -5024.73 -5002.95 -5000.01 -5000.00 -5000.00 -5000.00 -5000.00 -5000.00 -5000.00
-5071.71 -5071.71 -5071.71 -5071.71 -5071.71 -5071.69 -5063.06 -4999.31 -4990.68 -4990.66 -4990.66 -4990.66 -4990.65 -4988.30 -4970.96 -4968.61 -4968.61 -4968.61 -4968.61 -4968.22 -4813.28 -3447.73 -1601.35 -1136.44 -1074.04 -1037.88 -1020.44 -845.54 377.66 581.69 623.11 647.97 672.51 687.72 710.44 812.79 846.08 868.95 908.31 899.88 892.33 852.88 605.91 560.02 548.82 543.78 532.88 528.00 513.78 541.12 545.57 552.52 525.20 547.06 546.95 548.30 809.85 821.13 848.75 870.09 877.46 869.55 842.96 666.01 637.57 617.04 583.73 550.92 520.04 464.59 309.21 274.51 244.02 229.91 228.73 225.57 213.45 148.55 144.86 145.64 145.47 160.00 178.06 159.78 25.13 23.22 26.42 56.76 39.67 58.28 84.46 185.91 205.57 239.69 272.33 271.01 262.29 238.53 230.17 216.26 203.42 219.11 244.16 231.82 22.06 -1084.88 -1265.15 -1530.11 -3308.02 -3739.12 -3766.38 -3908.09 -4954.75 -5096.40 -5096.75 -5096.75 -5096.75 -5096.75 -5093.88 -5072.70 -5069.83 -5069.82 -5069.82 -5069.82 -5069.81 -5064.50 -5025.28 -5019.97 -5019.96 -5019.96 -5019.96 -5019.95 -5017.83 -5002.13 -5000.01 -5000.00 -5000.00 -5000.00 -5000.00 -5000.00 -5000.00
-5071.73 -5071.73 -5071.73 -5071.73 -5071.73 -5071.71 -5063.08 -4999.29 -4990.66 -4990.64 -4990.64 -4990.64 -4990.64 -4988.29 -4970.95 -4968.60 -4968.60 -4968.60 -4968.60 -4968.16 -4790.54 -3273.39 -1530.92 -1132.80 -1062.09 -1028.45 -1013.87 -834.30 387.07 583.55 604.33 647.77 685.86 719.11 741.69 833.20 874.31 895.11 914.70 909.00 901.08 853.89 603.84 549.90 532.86 532.62 533.39 531.55 518.70 527.27 547.14 546.92 546.86 554.07 538.95 569.98 825.10 853.78 878.45 909.77 928.08 903.51 874.70 697.92 665.59 641.94 602.42 555.65 522.25 474.97 323.08 289.82 249.67 238.89 236.21 228.52 216.16 149.92 143.11 147.76 153.84 183.82 188.47 156.54 15.75 45.23 19.40 29.80 48.54 68.91 103.57 200.56 221.59 262.02 299.52 323.03 321.34 283.29 248.06 191.67 194.20 205.09 174.51 137.38 -7.06 -1087.91 -1264.21 -1354.03 -2064.30 -3570.86 -3765.87 -3908.01 -4954.74 -5096.40 -5096.75 -5096.75 -5096.75 -5096.74 -5093.88 -5072.73 -5069.86 -5069.86 -5069.86 -5069.86 -5069.84 -5064.53 -5025.27 -5019.95 -5019.94 -5019.94 -5019.94 -5019.93 -5017.81 -5002.13 -5000.01 -5000.00 -5000.00 -5000.00 -5000.00 -5000.00 -5000.00
-5071.73 -5071.73 -5071.73 -5071.73 -5071.73 -5071.71 -5063.08 -4999.29 -4990.66 -4990.64 -4990.64 -4990.64 -4990.64 -4988.29 -4970.95 -4968.60 -4968.60 -4968.60 -4968.60 -4967.80 -4645.08 -2228.31 -1612.67 -1187.55 -1063.04 -1027.34 -1011.52 -825.92 407.05 618.00 615.93 651.56 690.27 704.95 728.94 826.95 858.33 877.25 899.60 900.51 900.37 864.80 610.02 560.27 545.79 534.94 534.60 532.80 532.05 538.45 541.59 540.99 550.56 580.89 566.50 604.05 845.52 906.22 948.75 967.32 1041.53 944.82 908.73 742.90 698.11 656.31 622.47 591.06 548.16 491.54 324.92 284.67 257.96 247.63 240.01 231.61 218.75 153.73 148.85 156.06 161.91 191.12 192.09 162.28 13.27 9.75 14.74 37.05 62.20 71.86 118.20 217.00 228.60 261.09 301.00 321.73 321.40 302.91 286.07 201.41 194.89 235.76 194.38 198.14 -36.82 -1106.95 -1265.73 -1485.24 -3301.78 -3739.01 -3766.28 -3908.01 -4954.74 -5096.40 -5096.75 -5096.75 -5096.75 -5096.74 -5093.88 -5072.73 -5069.86 -5069.86 -5069.86 -5069.86 -5069.84 -5064.53 -5025.27 -5019.95 -5019.94 -5019.94 -5019.94 -5019.93 -5017.81 -5002.13 -5000.01 -5000.00 -5000.00 -5000.00 -5000.00 -5000.00 -5000.00
-5071.74 -5071.74 -5071.74 -5071.74 -5071.74 -5071.72 -5063.09 -4999.30 -4990.66 -4990.64 -4990.64 -4990.64 -4990.64 -4988.29 -4970.95 -4968.60 -4968.60 -4968.60 -4968.60 -4968.16 -4791.08 -3480.98 -3082.39 -1481.86 -1090.32 -1018.69 -1012.58 -820.06 416.32 615.47 633.77 659.15 694.99 736.38 762.57 854.64 887.05 903.40 903.05 920.32 928.42 868.56 604.67 573.89 549.24 533.68 532.07 537.89 534.95 540.86 533.92 532.00 550.16 568.42 578.98 611.04 854.48 916.01 939.24 960.23 996.21 920.32 868.27 685.50 650.34 636.35 625.39 593.67 556.35 502.33 323.99 278.82 268.18 259.14 248.16 239.58 224.14 160.79 161.05 156.12 156.76 165.08 177.91 176.80 18.48 2.02 14.33 60.07 75.92 92.09 108.32 231.82 244.97 282.60 322.52 385.34 394.18 250.70 237.19 205.41 146.45 227.14 271.80 240.50 -40.52 -1125.28 -1283.09 -1565.65 -3502.97 -3764.93 -3766.37 -3908.07 -4954.73 -5096.38 -5096.73 -5096.73 -5096.73 -5096.72 -5093.86 -5072.69 -5069.82 -5069.81 -5069.81 -5069.81 -5069.80 -5064.49 -5025.23 -5019.92 -5019.91 -5019.91 -5019.91 -5019.90 -5017.78 -5002.12 -5000.01 -5000.00 -5000.00 -5000.00 -5000.00 -5000.00 -5000.00
-5075.14 -5075.14 -5075.14 -5075.14 -5075.14 -5075.12 -5066.18 -5000.14 -4991.20 -4991.18 -4991.18 -4991.18 -4991.17 -4988.69 -4970.35 -4967.87 -4967.86 -4967.86 -4967.86 -4967.50 -4821.13 -3739.11 -3387.99 -1824.14 -1229.90 -1114.47 -1084.30 -887.43 392.32 597.53 622.81 653.40 675.38 725.63 752.68 804.35 824.84 864.95 890.81 903.06 878.22 829.49 574.23 549.31 533.68 500.41 516.23 509.05 507.61 527.79 525.04 526.40 537.23 541.34 537.82 583.66 864.26 918.29 947.19 937.93 903.93 873.39 838.25 664.69 635.12 622.96 601.00 581.59 554.35 519.11 339.79 297.70 288.72 278.46 264.44 254.47 238.09 174.80 175.27 173.22 170.90 174.03 192.39 186.25 56.45 36.84 32.57 49.15 78.21 124.87 125.34 227.15 278.08 323.35 329.47 324.19 380.97 223.01 210.90 143.14 122.11 184.79 261.87 129.72 -69.96 -1164.26 -1360.25 -1814.86 -3539.48 -3623.92 -3773.53 -3934.35 -4951.31 -5088.93 -5089.27 -5089.27 -5089.27 -5089.26 -5085.38 -5056.74 -5052.86 -5052.86 -5052.86 -5052.86 -5052.84 -5048.01 -5012.30 -5007.47 -5007.46 -5007.46 -5007.46 -5007.45 -5006.66 -5000.80 -5000.00 -5000.00 -5000.00 -5000.00 -5000.00 -5000.00 -5000.00
-5100.28 -5100.28 -5100.28 -5100.28 -5100.28 -5100.25 -5089.06 -5006.34 -4995.15 -4995.12 -4995.12 -4995.12 -4995.11 -4991.63 -4965.93 -4962.46 -4962.45 -4962.45 -4962.45 -4962.23 -4874.96 -4230.06 -4117.90 -3718.45 -2054.87 -1687.28 -1614.54 -1390.20 197.01 443.82 480.19 513.62 518.33 531.13 523.13 584.33 607.87 625.01 646.62 658.89 658.39 612.46 429.32 396.59 384.92 352.98 363.88 363.64 368.61 436.87 450.97 446.04 452.50 465.59 451.87 499.81 851.94 895.66 909.80 902.76 886.38 878.23 868.15 758.95 739.52 729.29 689.73 673.32 649.90 600.63 405.46 359.92 347.66 335.28 319.01 307.20 292.33 245.34 243.76 249.20 253.29 250.82 271.41 265.08 198.41 181.29 167.97 179.39 185.47 206.17 229.21 341.99 417.64 462.38 435.28 369.12 360.15 314.92 269.37 218.61 182.88 211.06 261.15 166.42 -49.29 -1371.57 -1667.71 -1988.78 -3394.26 -2536.32 -3823.77 -4128.54 -4926.03 -5033.89 -5034.16 -5034.16 -5034.16 -5034.13 -5022.78 -4938.92 -4927.57 -4927.55 -4927.55 -4927.55 -4927.54 -4926.25 -4916.73 -4915.45 -4915.44 -4915.44 -4915.44 -4915.46 -4924.47 -4990.98 -4999.98 -5000.00 -5000.00 -5000.00 -5000.00 -5000.00 -5000.00
-5103.68 -5103.68 -5103.68 -5103.68 -5103.68 -5103.65 -5092.15 -5007.18 -4995.68 -4995.65 -4995.65 -4995.65 -4995.64 -4992.03 -4965.34 -4961.72 -4961.71 -4961.71 -4961.71 -4961.52 -4882.24 -4296.44 -4216.60 -4016.28 -2477.60 -1795.27 -1675.57 -1465.50 145.02 407.10 455.52 428.02 434.17 458.19 514.69 582.39 639.87 632.97 608.56 621.79 610.91 564.73 390.01 353.55 334.63 313.60 333.53 337.82 346.37 414.45 423.88 421.20 408.15 444.40 455.55 494.18 846.63 868.11 873.61 877.06 901.20 927.47 925.69 847.27 776.39 747.40 738.05 714.87 686.87 622.28 427.00 386.20 370.91 355.19 336.73 323.69 308.25 259.52 258.37 262.90 270.03 268.05 269.45 284.81 205.09 203.85 192.76 193.16 217.45 214.67 239.62 361.37 429.16 447.61 422.00 373.50 349.24 308.74 250.14 220.34 193.65 205.12 169.96 145.46 -50.28 -1413.98 -1679.62 -1736.06 -1952.33 -2056.17 -3810.53 -4154.78 -4922.61 -5026.44 -5026.70 -5026.70 -5026.70 -5026.67 -5014.31 -4922.98 -4910.62 -4910.59 -4910.59 -4910.59 -4910.59 -4909.78 -4903.80 -4902.99 -4902.99 -4902.99 -4902.99 -4903.02 -4913.34 -4989.65 -4999.97 -5000.00 -5000.00 -5000.00 -5000.00 -5000.00 -5000.00
-5103.69 -5103.69 -5103.69 -5103.69 -5103.69 -5103.66 -5092.16 -5007.18 -4995.68 -4995.65 -4995.65 -4995.65 -4995.64 -4992.03 -4965.33 -4961.72 -4961.71 -4961.71 -4961.71 -4961.52 -4882.26 -4296.60 -4217.29 -4192.96 -3781.06 -1994.03 -1716.91 -1488.15 118.88 383.41 393.54 434.44 474.31 532.50 616.97 645.14 668.38 647.43 596.39 567.88 578.91 559.47 380.80 330.49 309.62 307.27 318.05 330.26 341.16 404.36 410.92 402.86 394.75 430.01 425.58 492.65 819.16 863.37 890.31 901.06 922.98 962.39 968.17 881.81 845.59 796.04 799.81 776.88 757.96 673.00 482.22 414.57 388.91 366.36 351.43 336.04 322.59 272.27 282.27 272.82 274.34 276.03 270.77 279.99 202.72 209.36 202.42 198.29 204.68 213.00 248.38 349.12 387.24 397.77 400.93 409.54 360.21 312.50 226.91 223.44 225.46 176.87 187.89 137.15 -54.12 -1424.08 -1621.15 -1628.93 -1692.81 -1990.65 -3806.16 -4154.83 -4922.60 -5026.43 -5026.68 -5026.68 -5026.68 -5026.65 -5014.29 -4922.94 -4910.58 -4910.55 -4910.55 -4910.55 -4910.54 -4909.74 -4903.77 -4902.96 -4902.96 -4902.96 -4902.96 -4902.98 -4913.31 -4989.64 -4999.97 -5000.00 -5000.00 -5000.00 -5000.00 -5000.00 -5000.00
-5103.69 -5103.69 -5103.69 -5103.69 -5103.69 -5103.66 -5092.16 -5007.18 -4995.68 -4995.65 -4995.65 -4995.65 -4995.64 -4992.03 -4965.33 -4961.72 -4961.71 -4961.71 -4961.71 -4961.52 -4882.26 -4296.60 -4217.34 -4216.49 -3975.73 -2175.54 -1750.35 -1498.65 106.33 363.52 398.20 522.52 556.73 677.32 644.96 671.43 644.94 572.39 544.77 542.54 566.93 532.91 361.17 328.18 332.74 312.39 300.50 319.43 329.33 386.28 397.92 409.93 402.25 396.35 421.03 487.87 820.87 858.07 901.88 906.11 935.66 946.13 968.85 857.50 843.65 827.94 813.55 826.53 833.77 789.91 541.88 448.52 412.02 383.92 365.19 350.76 346.04 289.38 282.30 282.20 281.93 285.39 282.44 268.85 202.01 209.90 218.02 209.87 209.95 208.29 237.34 336.85 381.19 386.78 386.17 417.88 370.19 373.15 233.48 201.55 178.81 165.12 155.10 126.67 -63.51 -1403.18 -1598.52 -1638.05 -1707.20 -2028.20 -3811.09 -4154.84 -4922.60 -5026.43 -5026.68 -5026.68 -5026.68 -5026.65 -5014.29 -4922.94 -4910.58 -4910.55 -4910.55 -4910.55 -4910.54 -4909.74 -4903.77 -4902.96 -4902.96 -4902.96 -4902.96 -4902.98 -4913.31 -4989.64 -4999.97 -5000.00 -5000.00 -5000.00 -5000.00 -5000.00 -5000.00
-5103.66 -5103.66 -5103.66 -5103.66 -5103.66 -5103.63 -5092.13 -5007.15 -4995.65 -4995.63 -4995.63 -4995.63 -4995.62 -4992.01 -4965.36 -4961.75 -4961.74 -4961.74 -4961.74 -4961.55 -4882.30 -4296.71 -4217.09 -4216.71 -3992.54 -2297.21 -1781.19 -1512.10 90.59 336.34 387.92 483.36 534.64 583.80 560.68 541.34 554.53 559.82 570.37 551.22 539.19 500.27 350.70 327.34 291.09 273.58 282.61 305.14 307.79 383.72 400.51 411.03 416.03 411.15 429.47 477.27 795.49 834.69 845.88 867.06 893.67 913.20 908.27 793.53 779.84 782.37 795.33 815.08 809.96 759.39 562.98 470.75 427.86 397.70 389.83 370.48 369.83 310.11 292.69 293.04 295.61 296.90 308.82 283.65 195.23 215.52 230.91 218.62 219.98 213.67 242.02 345.90 374.33 377.20 364.28 376.84 385.49 356.09 235.29 236.08 156.63 151.01 136.74 115.68 -71.16 -1391.32 -1566.86 -1627.67 -1711.52 -1983.05 -3804.93 -4154.99 -4922.61 -5026.41 -5026.67 -5026.67 -5026.67 -5026.64 -5014.28 -4922.95 -4910.59 -4910.56 -4910.56 -4910.56 -4910.56 -4909.75 -4903.77 -4902.96 -4902.96 -4902.96 -4902.96 -4902.98 -4913.31 -4989.64 -4999.97 -5000.00 -5000.00 -5000.00 -5000.00 -5000.00 -5000.00
-5090.84 -5090.84 -5090.84 -5090.84 -5090.84 -5090.81 -5079.49 -4995.88 -4984.56 -4984.54 -4984.54 -4984.54 -4984.53 -4983.47 -4975.59 -4974.53 -4974.53 -4974.53 -4974.53 -4974.34 -4901.19 -4337.89 -4116.19 -4263.69 -4087.57 -2560.36 -1960.74 -1619.11 17.57 260.09 304.70 359.12 403.59 425.15 401.57 419.09 431.90 443.05 472.53 473.61 476.95 445.85 343.11 324.54 289.52 284.61 297.13 317.21 327.75 404.82 429.93 444.55 450.29 465.65 459.54 489.59 780.53 816.07 824.14 854.84 905.21 920.19 915.00 787.02 770.96 789.78 790.71 765.06 761.15 712.22 519.03 493.01 430.53 391.28 367.42 356.80 339.47 295.22 299.92 313.48 305.18 301.54 317.59 290.29 211.12 191.12 201.10 218.63 232.82 218.55 240.28 326.98 366.75 353.38 336.08 331.38 340.87 347.42 252.46 254.88 155.05 135.45 125.32 117.27 -58.39 -1440.96 -1635.95 -1706.76 -1769.35 -2298.97 -3911.47 -4219.50 -4925.73 -5021.24 -5021.48 -5021.48 -5021.48 -5021.45 -5010.43 -4929.02 -4918.01 -4917.98 -4917.98 -4917.98 -4917.98 -4916.39 -4904.66 -4903.07 -4903.07 -4903.07 -4903.07 -4903.10 -4913.41 -4989.66 -4999.97 -5000.00 -5000.00 -5000.00 -5000.00 -5000.00 -5000.00
-4996.10 -4996.10 -4996.10 -4996.10 -4996.10 -4996.08 -4986.12 -4912.57 -4902.62 -4902.59 -4902.59 -4902.59 -4902.64 -4920.35 -5051.21 -5068.92 -5068.96 -5068.96 -5068.96 -5068.90 -5040.74 -4642.03 -3347.19 -4441.96 -4760.86 -4420.44 -2959.42 -2169.47 -356.50 -123.02 -89.78 -62.57 -59.78 -53.03 -27.90 54.34 105.42 99.03 117.11 134.61 149.23 187.84 413.11 451.30 459.53 455.57 447.37 463.79 494.31 657.53 680.86 678.06 700.63 708.67 701.46 706.42 769.57 782.11 791.98 828.32 874.19 883.68 872.22 693.56 665.24 675.26 639.00 625.98 627.73 576.02 395.84 348.01 322.19 285.04 265.15 256.27 236.59 186.27 209.23 225.58 223.63 230.11 227.52 220.45 213.03 195.63 204.18 220.86 241.19 236.15 250.93 277.04 311.17 285.62 244.65 242.85 269.85 300.25 307.02 264.15 163.26 140.60 130.76 142.77 -99.52 -1922.38 -2172.33 -2231.11 -2570.02 -4230.37 -4636.04 -4696.01 -4948.83 -4983.03 -4983.12 -4983.12 -4983.12 -4983.11 -4982.01 -4973.88 -4972.78 -4972.77 -4972.77 -4972.77 -4972.76 -4965.42 -4911.24 -4903.90 -4903.89 -4903.89 -4903.89 -4903.91 -4914.14 -4989.74 -4999.97 -5000.00 -5000.00 -5000.00 -5000.00 -5000.00 -5000.00
-4983.28 -4983.28 -4983.28 -4983.28 -4983.28 -4983.26 -4973.49 -4901.30 -4891.53 -4891.50 -4891.50 -4891.50 -4891.55 -4911.80 -5061.44 -5081.69 -5081.74 -5081.74 -5081.74 -5081.69 -5059.69 -4705.07 -3239.18 -3241.88 -4683.80 -4852.97 -4436.08 -2452.67 -419.58 -177.10 -165.18 -155.18 -155.25 -152.13 -125.91 -26.24 10.62 20.99 31.44 57.02 53.09 109.68 413.22 466.23 474.54 477.51 473.82 479.80 494.27 666.52 700.01 712.58 720.69 742.19 717.99 746.49 765.70 774.15 808.18 802.38 823.31 834.61 818.38 629.27 605.59 600.46 585.18 602.98 575.35 539.32 360.14 328.18 302.62 274.47 261.67 250.91 223.55 181.41 208.69 260.91 235.00 252.21 198.32 189.55 203.38 195.25 207.59 228.39 243.68 251.53 274.46 298.68 286.13 255.18 247.70 249.87 298.19 330.13 365.41 207.47 152.21 144.41 145.26 146.94 -124.58 -2031.68 -2289.47 -2434.90 -2914.86 -4520.69 -4734.00 -4760.50 -4951.95 -4977.86 -4977.92 -4977.92 -4977.92 -4977.93 -4978.17 -4979.95 -4980.19 -4980.19 -4980.19 -4980.19 -4980.17 -4972.06 -4912.13 -4904.02 -4904.00 -4904.00 -4904.00 -4904.02 -4914.24 -4989.76 -4999.97 -5000.00 -5000.00 -5000.00 -5000.00 -5000.00 -5000.00
-4983.25 -4983.25 -4983.25 -4983.25 -4983.25 -4983.22 -4973.45 -4901.27 -4891.50 -4891.48 -4891.48 -4891.48 -4891.53 -4911.78 -5061.47 -5081.73 -5081.78 -5081.78 -5081.78 -5081.72 -5060.16 -4877.38 -4489.57 -3249.94 -4662.29 -4878.64 -4673.60 -2869.31 -492.53 -191.70 -182.65 -175.09 -171.78 -168.69 -147.75 -58.95 -35.71 -28.72 -6.83 20.07 44.89 104.09 410.73 446.27 453.01 465.71 473.76 484.22 507.52 681.45 702.57 708.50 699.55 720.27 718.23 734.60 771.93 767.79 789.05 784.06 788.83 799.02 789.96 591.87 569.51 566.60 558.36 561.24 544.71 526.22 353.10 301.35 280.04 270.80 254.94 242.03 225.36 190.67 224.10 293.30 255.41 223.33 178.57 158.51 178.47 182.12 199.16 223.07 240.37 281.09 318.54 328.11 283.34 249.38 235.31 261.15 256.75 263.35 205.52 164.82 139.82 148.86 144.91 123.90 -200.72 -2097.75 -2389.20 -2670.33 -4304.84 -4708.76 -4734.70 -4760.66 -4951.96 -4977.85 -4977.91 -4977.91 -4977.91 -4977.91 -4978.16 -4979.96 -4980.21 -4980.21 -4980.21 -4980.21 -4980.19 -4972.08 -4912.13 -4904.02 -4904.00 -4904.00 -4904.00 -4904.02 -4914.24 -4989.76 -4999.97 -5000.00 -5000.00 -5000.00 -5000.00 -5000.00 -5000.00
-4983.25 -4983.25 -4983.25 -4983.25 -4983.25 -4983.22 -4973.45 -4901.27 -4891.50 -4891.48 -4891.48 -4891.48 -4891.53 -4911.78 -5061.47 -5081.73 -5081.78 -5081.78 -5081.78 -5081.72 -5060.22 -4900.78 -4688.46 -3468.98 -4688.83 -4879.22 -4854.57 -4211.46 -738.07 -223.00 -194.09 -194.03 -188.39 -183.42 -164.34 -75.32 -55.14 -55.40 -34.54 -12.45 12.47 69.37 373.88 418.56 427.06 446.64 465.07 467.96 494.78 666.91 669.26 691.38 703.98 691.98 704.77 724.80 780.09 782.62 780.11 783.73 779.97 797.84 767.61 563.90 536.58 535.77 538.45 520.99 525.11 544.84 351.56 289.52 270.54 271.27 252.29 238.66 234.87 205.24 232.28 262.12 224.82 176.89 148.07 139.26 169.75 181.32 204.89 235.27 288.98 339.77 409.29 366.57 299.91 284.82 283.23 294.44 217.33 184.12 183.72 197.86 147.41 135.46 116.19 43.66 -231.53 -2108.74 -2395.90 -2748.33 -4498.77 -4734.06 -4734.77 -4760.66 -4951.96 -4977.85 -4977.91 -4977.91 -4977.91 -4977.91 -4978.16 -4979.96 -4980.21 -4980.21 -4980.21 -4980.21 -4980.19 -4972.08 -4912.13 -4904.02 -4904.00 -4904.00 -4904.00 -4904.02 -4914.24 -4989.76 -4999.97 -5000.00 -5000.00 -5000.00 -5000.00 -5000.00 -5000.00
-4983.24 -4983.24 -4983.24 -4983.24 -4983.24 -4983.22 -4973.46 -4901.32 -4891.55 -4891.53 -4891.53 -4891.53 -4891.58 -4911.83 -5061.44 -5081.69 -5081.74 -5081.74 -5081.74 -5081.68 -5060.19 -4901.30 -4857.11 -4711.72 -4857.06 -4879.75 -4878.65 -4434.46 -1112.72 -340.25 -245.08 -226.50 -210.86 -197.70 -179.16 -90.03 -67.72 -70.88 -65.78 -58.60 -48.24 2.70 330.39 377.77 391.99 413.90 431.27 451.73 458.48 621.08 664.82 664.04 679.26 682.44 688.77 736.67 782.79 804.24 795.84 781.74 779.82 786.11 745.59 537.04 510.28 500.64 500.44 498.20 514.70 503.86 310.40 269.52 263.71 277.10 252.34 245.24 240.86 214.73 237.06 262.47 192.39 152.43 135.13 129.74 163.53 186.92 225.88 277.94 366.75 481.81 458.55 411.92 316.86 277.52 270.03 188.50 145.42 127.55 140.26 140.48 135.91 119.35 39.34 -12.38 -266.67 -2140.23 -2380.79 -2695.37 -4492.31 -4734.14 -4734.80 -4760.69 -4951.95 -4977.83 -4977.90 -4977.90 -4977.90 -4977.90 -4978.15 -4979.96 -4980.21 -4980.21 -4980.21 -4980.21 -4980.19 -4972.08 -4912.17 -4904.06 -4904.04 -4904.04 -4904.04 -4904.06 -4914.28 -4989.76 -4999.97 -5000.00 -5000.00 -5000.00 -5000.00 -5000.00 -5000.00
-4981.34 -4981.34 -4981.34 -4981.34 -4981.34 -4981.33 -4974.06 -4920.42 -4913.16 -4913.14 -4913.14 -4913.14 -4913.18 -4929.42 -5049.40 -5065.64 -5065.68 -5065.68 -5065.68 -5065.64 -5048.26 -4919.89 -4902.46 -4902.05 -4902.41 -4902.47 -4901.88 -4664.08 -2721.00 -1076.87 -803.46 -583.07 -506.82 -476.22 -430.15 -253.27 -223.35 -218.85 -205.84 -205.43 -197.16 -132.40 272.09 343.69 352.90 370.97 367.99 375.33 399.75 567.19 603.66 617.16 632.70 653.16 646.89 667.16 716.24 732.85 740.75 748.05 710.00 704.59 667.00 492.57 469.96 458.90 459.91 468.83 489.69 451.34 270.56 243.69 244.93 244.20 242.15 244.85 239.11 216.43 228.03 224.66 149.42 128.25 113.88 115.87 145.45 176.74 227.96 327.44 467.49 513.48 392.67 213.49 147.24 147.15 123.31 32.08 -50.58 -68.34 -82.61 -96.22 -106.06 -190.52 -478.30 -582.54 -712.20 -2474.96 -2691.72 -3017.31 -4544.78 -4749.23 -4749.79 -4773.50 -4948.67 -4972.37 -4972.43 -4972.43 -4972.43 -4972.43 -4973.39 -4980.46 -4981.42 -4981.42 -4981.42 -4981.42 -4981.41 -4974.91 -4926.86 -4920.36 -4920.35 -4920.35 -4920.35 -4920.37 -4928.85 -4991.50 -4999.98 -5000.00 -5000.00 -5000.00 -5000.00 -5000.00 -5000.00
-4967.31 -4967.31 -4967.31 -4967.31 -4967.31 -4967.33 -4978.56 -5061.54 -5072.77 -5072.80 -5072.80 -5072.80 -5072.76 -5059.38 -4960.45 -4947.06 -4947.03 -4947.03 -4947.03 -4947.06 -4960.14 -5056.82 -5069.90 -5069.93 -5069.93 -5069.93 -5069.83 -5029.34 -4705.29 -4476.50 -4262.75 -2911.12 -2625.58 -2348.00 -2159.42 -1332.72 -1213.47 -1206.36 -1185.43 -1182.98 -1173.74 -1030.56 -58.86 98.73 113.20 115.40 105.99 115.67 125.47 237.19 259.99 282.10 318.31 363.69 338.51 327.48 327.55 357.82 358.46 353.42 316.56 292.13 286.93 322.29 335.67 326.68 337.24 354.12 346.20 304.93 165.72 144.89 146.89 150.83 157.86 162.90 158.51 133.76 141.94 147.81 73.29 61.91 53.64 52.64 26.11 49.77 96.58 175.93 249.26 297.13 129.69 -999.92 -1170.04 -1101.97 -1350.05 -1404.89 -1419.52 -1466.32 -1718.25 -2012.81 -2148.02 -2363.71 -3718.74 -3910.43 -3972.75 -4540.75 -4615.37 -4655.37 -4836.29 -4860.48 -4860.56 -4868.17 -4924.40 -4932.01 -4932.02 -4932.02 -4932.02 -4932.04 -4938.25 -4984.16 -4990.37 -4990.39 -4990.39 -4990.39 -4990.40 -4995.77 -5035.46 -5040.83 -5040.84 -5040.84 -5040.84 -5040.83 -5036.48 -5004.36 -5000.01 -5000.00 -5000.00 -5000.00 -5000.00 -5000.00 -5000.00
-4965.41 -4965.41 -4965.41 -4965.41 -4965.41 -4965.44 -4979.17 -5080.64 -5094.37 -5094.41 -5094.41 -5094.41 -5094.36 -5076.96 -4948.41 -4931.01 -4930.97 -4930.97 -4930.97 -4931.01 -4948.22 -5075.35 -5092.56 -5092.60 -5092.60 -5092.60 -5092.56 -5075.53 -4949.70 -4932.15 -4907.52 -4724.79 -4501.77 -3061.43 -2475.06 -1495.40 -1355.98 -1348.23 -1336.88 -1328.91 -1314.04 -1161.73 -127.61 56.70 79.52 60.05 48.49 51.52 57.11 167.52 192.01 234.52 253.49 293.22 309.65 295.93 288.67 293.09 287.95 311.56 274.85 236.84 223.65 292.01 298.87 296.23 302.61 325.61 308.91 273.13 147.62 126.10 131.72 146.71 153.51 153.20 146.65 108.77 79.96 66.96 44.71 41.58 36.96 33.73 -0.86 22.17 82.19 113.01 164.87 202.05 66.07 -1155.53 -1295.90 -1511.90 -1585.40 -1611.53 -1684.00 -1994.50 -2558.85 -3741.66 -3894.75 -3910.62 -4090.09 -4124.53 -4185.32 -4611.36 -4849.30 -4874.90 -4875.48 -4875.54 -4875.55 -4880.99 -4921.11 -4926.54 -4926.56 -4926.56 -4926.56 -4926.57 -4933.50 -4984.66 -4991.59 -4991.60 -4991.60 -4991.60 -4991.62 -4998.60 -5050.15 -5057.13 -5057.15 -5057.15 -5057.15 -5057.13 -5051.05 -5006.10 -5000.02 -5000.00 -5000.00 -5000.00 -5000.00 -5000.00 -5000.00
-4965.40 -4965.40 -4965.40 -4965.40 -4965.40 -4965.44 -4979.17 -5080.69 -5094.43 -5094.46 -5094.46 -5094.46 -5094.42 -5077.01 -4948.38 -4930.97 -4930.93 -4930.93 -4930.93 -4930.97 -4948.19 -5075.40 -5092.61 -5092.65 -5092.65 -5092.65 -5092.61 -5075.65 -4950.30 -4933.34 -4933.24 -4932.72 -4906.66 -4528.00 -2942.56 -1584.65 -1403.49 -1379.46 -1362.68 -1329.22 -1321.59 -1174.09 -150.30 12.77 40.77 23.90 17.78 24.71 56.42 172.00 189.24 209.54 238.71 298.41 315.01 305.82 281.77 277.08 278.27 300.08 260.00 224.89 217.70 278.88 291.42 287.41 287.28 312.42 287.90 262.52 142.90 128.37 135.02 150.68 169.49 150.95 158.49 73.81 48.45 40.42 32.16 40.32 28.85 23.57 -11.49 8.25 48.14 72.17 145.14 179.02 129.63 -1096.29 -1296.43 -1550.50 -1598.43 -1688.92 -2292.68 -3498.11 -3711.19 -2678.60 -2436.66 -2320.86 -2298.31 -2363.57 -2464.77 -3028.32 -4455.62 -4846.82 -4875.51 -4875.58 -4875.59 -4881.02 -4921.10 -4926.53 -4926.54 -4926.54 -4926.54 -4926.56 -4933.49 -4984.66 -4991.59 -4991.61 -4991.61 -4991.61 -4991.62 -4998.61 -5050.19 -5057.17 -5057.19 -5057.19 -5057.19 -5057.17 -5051.09 -5006.10 -5000.02 -5000.00 -5000.00 -5000.00 -5000.00 -5000.00 -5000.00
-4965.40 -4965.40 -4965.40 -4965.40 -4965.40 -4965.44 -4979.17 -5080.69 -5094.43 -5094.46 -5094.46 -5094.46 -5094.42 -5077.01 -4948.38 -4930.97 -4930.93 -4930.93 -4930.93 -4930.97 -4948.19 -5075.40 -5092.61 -5092.65 -5092.65 -5092.65 -5092.61 -5075.65 -4950.30 -4933.34 -4933.30 -4933.30 -4933.17 -4906.37 -4379.91 -1847.68 -1441.14 -1432.73 -1407.68 -1348.24 -1325.91 -1178.87 -147.69 41.97 35.31 7.68 31.06 33.01 73.19 223.40 220.51 260.75 275.80 343.46 336.14 316.94 259.27 275.11 284.49 293.51 235.42 209.00 209.87 288.82 295.78 284.79 279.78 288.67 283.61 263.56 144.61 132.44 139.36 154.12 143.00 116.48 91.17 54.85 33.79 24.98 20.52 20.09 23.58 20.95 -14.02 0.72 22.17 50.71 94.27 174.21 67.60 -1095.30 -1234.14 -1512.30 -1635.15 -2163.97 -3498.17 -2459.15 -2416.26 -2251.07 -2219.76 -2031.66 -1963.99 -1944.28 -2033.26 -2505.74 -2901.86 -4641.41 -4875.00 -4875.58 -4875.59 -4881.02 -4921.10 -4926.53 -4926.54 -4926.54 -4926.54 -4926.56 -4933.49 -4984.66 -4991.59 -4991.61 -4991.61 -4991.61 -4991.62 -4998.61 -5050.19 -5057.17 -5057.19 -5057.19 -5057.19 -5057.17 -5051.09 -5006.10 -5000.02 -5000.00 -5000.00 -5000.00 -5000.00 -5000.00 -5000.00
-4965.38 -4965.38 -4965.38 -4965.38 -4965.38 -4965.42 -4979.16 -5080.68 -5094.42 -5094.45 -5094.45 -5094.45 -5094.41 -5077.00 -4948.38 -4930.97 -4930.93 -4930.93 -4930.93 -4930.97 -4948.18 -5075.35 -5092.56 -5092.60 -5092.60 -5092.60 -5092.56 -5075.60 -4950.34 -4933.39 -4933.34 -4933.34 -4933.34 -4932.50 -4615.29 -2231.72 -1586.12 -1503.65 -1461.12 -1383.87 -1333.20 -1171.78 -144.99 52.85 25.11 -5.14 2.16 21.22 75.18 305.32 290.39 276.98 346.32 479.29 353.25 280.59 221.03 242.14 278.85 285.50 239.62 200.94 199.86 280.10 292.73 290.87 281.55 285.80 290.24 277.92 165.40 141.66 142.92 172.62 157.05 134.88 101.47 47.68 28.64 18.33 15.41 14.59 17.78 18.03 -18.94 -8.98 11.02 39.39 75.67 118.92 43.60 -1129.29 -1249.72 -1423.58 -1817.31 -3627.12 -3820.80 -2299.44 -3503.21 -2460.78 -2176.76 -2056.34 -1953.68 -2123.39 -2247.73 -2716.46 -2890.81 -4636.43 -4874.97 -4875.56 -4875.58 -4881.00 -4921.09 -4926.52 -4926.53 -4926.53 -4926.53 -4926.55 -4933.48 -4984.64 -4991.57 -4991.59 -4991.59 -4991.59 -4991.60 -4998.59 -5050.19 -5057.17 -5057.19 -5057.19 -5057.19 -5057.17 -5051.08 -5006.10 -5000.02 -5000.00 -5000.00 -5000.00 -5000.00 -5000.00 -5000.00
-4957.56 -4957.56 -4957.56 -4957.56 -4957.56 -4957.59 -4971.94 -5077.92 -5092.26 -5092.29 -5092.29 -5092.29 -5092.25 -5074.91 -4946.77 -4929.43 -4929.38 -4929.38 -4929.38 -4929.42 -4944.45 -5055.53 -5070.56 -5070.60 -5070.60 -5070.60 -5070.57 -5057.96 -4964.83 -4952.23 -4952.19 -4952.19 -4952.19 -4951.86 -4816.30 -3646.19 -2225.75 -1892.68 -1635.93 -1519.49 -1428.95 -1267.93 -195.78 -37.47 -33.03 -43.55 -31.83 -4.30 64.76 250.88 342.65 347.79 343.34 371.04 337.89 234.22 187.92 178.76 226.33 246.82 215.15 169.94 180.88 274.57 300.70 294.66 286.27 287.13 287.18 276.43 166.00 125.73 119.23 126.02 121.27 107.73 65.68 27.98 19.43 14.76 12.53 11.48 13.10 7.92 -75.59 -75.32 -57.15 -37.70 -16.42 23.36 -47.72 -1264.47 -1500.28 -1681.96 -2160.33 -3942.10 -3923.01 -2116.65 -2511.59 -2404.23 -2439.99 -2186.93 -2157.52 -2284.84 -2415.83 -2989.90 -3225.74 -4673.02 -4869.55 -4870.04 -4870.05 -4875.66 -4917.13 -4922.75 -4922.76 -4922.76 -4922.76 -4922.78 -4929.24 -4977.00 -4983.47 -4983.48 -4983.48 -4983.48 -4983.50 -4991.24 -5048.41 -5056.15 -5056.17 -5056.17 -5056.17 -5056.16 -5050.18 -5005.99 -5000.01 -5000.00 -5000.00 -5000.00 -5000.00 -5000.00 -5000.00
-4899.75 -4899.75 -4899.75 -4899.75 -4899.75 -4899.79 -4918.59 -5057.50 -5076.29 -5076.34 -5076.34 -5076.34 -5076.30 -5059.44 -4934.88 -4918.02 -4917.98 -4917.98 -4917.98 -4917.98 -4916.92 -4909.08 -4908.02 -4908.02 -4908.02 -4908.02 -4908.07 -4927.60 -5071.91 -5091.44 -5091.48 -5091.48 -5091.48 -5091.38 -5049.29 -4715.83 -4502.07 -4250.96 -2674.43 -2330.12 -2225.77 -2016.66 -506.38 -295.39 -283.79 -279.81 -260.31 -260.54 -187.89 100.25 184.06 167.03 144.69 147.68 92.93 49.18 68.23 105.32 82.10 152.31 135.60 75.01 111.23 248.63 291.18 282.72 277.31 285.59 284.47 268.75 145.08 95.97 88.07 85.56 77.66 73.47 36.28 2.71 -1.23 0.80 -2.56 -5.42 -4.66 -53.67 -448.77 -490.53 -475.81 -458.75 -441.03 -413.96 -538.07 -1962.01 -2339.33 -2648.17 -4404.00 -4845.69 -4636.60 -2924.95 -3038.02 -3214.40 -4089.16 -2733.50 -2718.02 -3033.13 -3197.06 -4444.46 -4634.31 -4805.91 -4829.13 -4829.19 -4829.20 -4836.20 -4887.86 -4894.86 -4894.87 -4894.87 -4894.87 -4894.88 -4897.94 -4920.53 -4923.58 -4923.59 -4923.59 -4923.59 -4923.62 -4936.94 -5035.31 -5048.63 -5048.66 -5048.66 -5048.66 -5048.65 -5043.47 -5005.19 -5000.01 -5000.00 -5000.00 -5000.00 -5000.00 -5000.00 -5000.00
-4891.92 -4891.92 -4891.92 -4891.92 -4891.92 -4891.97 -4911.37 -5054.73 -5074.13 -5074.18 -5074.18 -5074.18 -5074.14 -5057.35 -4933.27 -4916.48 -4916.44 -4916.44 -4916.44 -4916.43 -4913.19 -4889.26 -4886.03 -4886.02 -4886.02 -4886.02 -4886.08 -4909.96 -5086.40 -5110.28 -5110.34 -5110.34 -5110.34 -5110.25 -5077.78 -4837.78 -4804.36 -4594.18 -3002.09 -2477.01 -2352.70 -2125.29 -547.98 -336.98 -322.27 -321.09 -317.28 -285.17 -203.83 63.83 151.26 126.19 96.45 63.39 36.59 34.37 72.67 63.43 41.34 108.47 101.17 82.49 92.88 244.72 274.11 268.92 262.84 272.85 270.55 237.82 116.85 93.83 68.89 48.01 42.67 36.02 25.74 -2.95 -6.98 -6.52 -8.49 -11.90 -11.02 -64.61 -498.69 -547.13 -533.97 -512.37 -472.28 -455.02 -573.62 -2076.34 -2499.49 -3118.44 -4753.66 -4968.13 -4775.92 -3516.33 -4565.30 -4586.58 -3484.37 -3271.59 -4517.21 -4728.19 -4737.30 -4812.76 -4823.15 -4823.60 -4823.66 -4823.66 -4823.68 -4830.85 -4883.90 -4891.08 -4891.10 -4891.10 -4891.10 -4891.11 -4893.70 -4912.88 -4915.48 -4915.49 -4915.49 -4915.49 -4915.52 -4929.59 -5033.54 -5047.61 -5047.65 -5047.65 -5047.65 -5047.63 -5042.56 -5005.08 -5000.01 -5000.00 -5000.00 -5000.00 -5000.00 -5000.00 -5000.00
-4891.90 -4891.90 -4891.90 -4891.90 -4891.90 -4891.95 -4911.35 -5054.73 -5074.13 -5074.18 -5074.18 -5074.18 -5074.14 -5057.34 -4933.27 -4916.48 -4916.44 -4916.44 -4916.44 -4916.43 -4913.18 -4889.22 -4885.97 -4885.96 -4885.96 -4885.96 -4886.02 -4909.91 -5086.43 -5110.32 -5110.38 -5110.38 -5110.38 -5110.30 -5077.85 -4838.08 -4805.56 -4779.87 -4379.68 -2753.51 -2428.71 -2132.55 -558.96 -347.48 -327.53 -328.08 -319.03 -270.48 -241.41 33.51 97.24 94.61 83.36 71.08 -3.26 -37.42 14.47 33.32 40.25 28.51 63.69 99.99 89.43 241.76 255.95 253.74 251.01 260.90 252.99 220.32 96.17 85.49 51.43 33.99 33.91 28.66 22.11 -6.25 -10.91 -11.57 -12.91 -14.28 -13.00 -66.29 -500.72 -551.04 -537.31 -506.37 -456.65 -489.78 -690.24 -2170.47 -2705.87 -4516.88 -4943.08 -4969.27 -4946.67 -4798.99 -4928.15 -4925.99 -4757.90 -4753.26 -4925.23 -4948.67 -4935.40 -4836.99 -4823.68 -4823.64 -4823.64 -4823.64 -4823.66 -4830.84 -4883.89 -4891.07 -4891.09 -4891.09 -4891.09 -4891.10 -4893.69 -4912.86 -4915.46 -4915.47 -4915.47 -4915.47 -4915.50 -4929.57 -5033.54 -5047.61 -5047.64 -5047.64 -5047.64 -5047.63 -5042.56 -5005.08 -5000.01 -5000.00 -5000.00 -5000.00 -5000.00 -5000.00 -5000.00
-4891.90 -4891.90 -4891.90 -4891.90 -4891.90 -4891.95 -4911.35 -5054.73 -5074.13 -5074.18 -5074.18 -5074.18 -5074.14 -5057.34 -4933.27 -4916.48 -4916.44 -4916.44 -4916.44 -4916.43 -4913.18 -4889.22 -4885.97 -4885.96 -4885.96 -4885.96 -4886.02 -4909.91 -5086.43 -5110.32 -5110.38 -5110.38 -5110.38 -5110.30 -5077.85 -4838.08 -4805.63 -4804.98 -4600.83 -3080.86 -2727.98 -2217.50 -573.03 -331.23 -346.10 -341.61 -334.73 -315.19 -281.99 -66.16 36.79 78.50 66.27 49.32 -54.00 -82.52 8.59 8.44 37.44 20.75 26.88 95.05 95.54 229.26 245.70 242.99 239.02 240.45 218.10 183.19 67.31 49.92 33.65 29.95 29.32 25.83 18.89 -9.47 -14.42 -15.42 -16.43 -16.48 -14.22 -68.18 -503.38 -549.54 -528.83 -506.61 -515.22 -529.87 -729.38 -2197.42 -2730.21 -4678.91 -4793.22 -4945.69 -4969.32 -4966.88 -4951.40 -4949.25 -4948.83 -4948.82 -4949.25 -4949.27 -4935.90 -4837.05 -4823.68 -4823.64 -4823.64 -4823.64 -4823.66 -4830.84 -4883.89 -4891.07 -4891.09 -4891.09 -4891.09 -4891.10 -4893.69 -4912.86 -4915.46 -4915.47 -4915.47 -4915.47 -4915.50 -4929.57 -5033.54 -5047.61 -5047.64 -5047.64 -5047.64 -5047.63 -5042.56 -5005.08 -5000.01 -5000.00 -5000.00 -5000.00 -5000.00 -5000.00 -5000.00
-4891.92 -4891.92 -4891.92 -4891.92 -4891.92 -4891.97 -4911.37 -5054.70 -5074.10 -5074.14 -5074.14 -5074.14 -5074.10 -5057.31 -4933.27 -4916.48 -4916.44 -4916.44 -4916.44 -4916.43 -4913.19 -4889.27 -4886.03 -4886.02 -4886.02 -4886.02 -4886.08 -4909.96 -5086.44 -5110.32 -5110.38 -5110.38 -5110.38 -5110.30 -5077.86 -4838.14 -4805.70 -4805.56 -4781.39 -4600.44 -4338.16 -2465.83 -642.57 -376.96 -350.99 -352.52 -353.63 -340.13 -290.57 -89.12 -74.28 -5.53 10.36 17.60 -44.91 -90.42 -14.16 -4.17 4.64 31.10 63.30 101.84 78.43 206.24 232.04 250.75 221.44 199.11 199.64 166.12 53.25 31.45 29.42 29.22 28.05 23.81 16.22 -12.31 -17.42 -18.52 -19.52 -19.21 -15.34 -68.47 -502.04 -544.38 -519.65 -488.82 -525.91 -554.32 -751.09 -2287.84 -2951.68 -4556.31 -3671.79 -4793.66 -4968.72 -4966.99 -4950.96 -4948.79 -4948.78 -4948.78 -4948.78 -4948.75 -4935.42 -4836.88 -4823.55 -4823.51 -4823.51 -4823.51 -4823.53 -4830.73 -4883.91 -4891.10 -4891.12 -4891.12 -4891.12 -4891.13 -4893.72 -4912.91 -4915.51 -4915.52 -4915.52 -4915.52 -4915.55 -4929.62 -5033.54 -5047.60 -5047.64 -5047.64 -5047.64 -5047.63 -5042.56 -5005.08 -5000.01 -5000.00 -5000.00 -5000.00 -5000.00 -5000.00 -5000.00
-4899.37 -4899.37 -4899.37 -4899.37 -4899.37 -4899.41 -4916.59 -5043.48 -5060.66 -5060.70 -5060.70 -5060.70 -5060.66 -5045.31 -4931.88 -4916.53 -4916.49 -4916.49 -4916.49 -4916.49 -4915.66 -4909.50 -4908.67 -4908.67 -4908.67 -4908.67 -4908.72 -4930.02 -5087.43 -5108.74 -5108.79 -5108.79 -5108.79 -5108.72 -5079.63 -4864.69 -4835.60 -4835.53 -4835.47 -4834.37 -4571.14 -2458.76 -925.77 -706.50 -652.87 -612.57 -590.75 -585.55 -544.73 -355.51 -330.31 -293.44 -282.46 -269.05 -325.40 -318.08 -94.55 -56.23 -26.02 30.37 64.41 73.03 28.12 178.50 200.66 235.80 231.13 182.85 180.51 171.34 60.62 40.11 36.99 40.21 35.77 28.76 21.36 -4.46 -9.19 -9.68 -10.11 -9.66 -5.55 -54.26 -459.55 -494.44 -470.73 -445.43 -487.10 -549.05 -958.63 -2649.78 -4409.43 -4802.72 -4679.75 -4831.57 -4855.23 -4842.84 -4750.85 -4738.40 -4738.37 -4738.37 -4738.37 -4738.37 -4741.91 -4768.02 -4771.56 -4771.57 -4771.57 -4771.57 -4771.60 -4785.64 -4889.36 -4903.40 -4903.43 -4903.43 -4903.43 -4903.44 -4906.96 -4932.98 -4936.50 -4936.51 -4936.51 -4936.51 -4936.54 -4948.22 -5034.54 -5046.22 -5046.25 -5046.25 -5046.25 -5046.23 -5041.31 -5004.94 -5000.01 -5000.00 -5000.00 -5000.00 -5000.00 -5000.00 -5000.00
-4954.35 -4953.92 -4954.35 -4954.41 -4954.41 -4954.42 -4955.16 -4960.63 -4961.37 -4961.37 -4961.37 -4961.37 -4961.36 -4956.63 -4921.65 -4916.92 -4916.90 -4916.90 -4916.90 -4916.95 -4933.88 -5059.02 -5075.96 -5076.00 -5076.00 -5076.00 -5076.00 -5078.25 -5094.81 -5097.05 -5097.06 -5097.06 -5097.06 -5097.05 -5092.73 -5060.84 -5056.52 -5056.51 -5056.51 -5055.87 -4796.49 -2874.83 -2572.26 -2522.73 -2459.28 -2410.44 -2369.87 -2350.39 -2307.82 -2044.55 -1999.42 -1989.95 -1982.80 -1995.81 -2016.50 -1845.40 -585.15 -408.19 -392.49 -365.22 -359.65 -353.60 -302.67 -72.83 7.37 17.98 26.16 -13.44 -59.02 -21.97 109.38 112.80 93.54 115.25 89.20 78.27 73.84 70.32 69.36 68.97 68.95 69.74 73.82 51.22 -157.52 -157.69 -139.78 -116.26 -165.21 -433.33 -2331.28 -3636.19 -3985.03 -4013.92 -4013.68 -4014.06 -4013.90 -3925.49 -3272.21 -3183.79 -3183.57 -3183.57 -3183.57 -3183.89 -3312.07 -4259.21 -4387.39 -4387.71 -4387.71 -4387.71 -4387.87 -4452.45 -4929.66 -4994.25 -4994.41 -4994.41 -4994.41 -4994.43 -5004.78 -5081.28 -5091.63 -5091.66 -5091.66 -5091.66 -5091.64 -5085.71 -5041.89 -5035.96 -5035.95 -5035.95 -5035.95 -5035.94 -5032.11 -5003.84 -5000.01 -5000.00 -5000.00 -5000.00 -5000.00 -5000.00 -5000.00
-4934.67 -4761.45 -4934.74 -4961.80 -4961.86 -4961.86 -4960.38 -4949.42 -4947.93 -4947.93 -4947.93 -4947.93 -4947.92 -4944.62 -4920.27 -4916.97 -4916.96 -4916.96 -4916.96 -4917.01 -4936.35 -5079.26 -5098.60 -5098.65 -5098.65 -5098.65 -5098.64 -5098.31 -5095.81 -5095.47 -5095.47 -5095.47 -5095.47 -5095.47 -5094.50 -5087.38 -5086.42 -5086.42 -5086.42 -5085.93 -4887.64 -3408.84 -3077.16 -2827.92 -2751.72 -2663.84 -2619.80 -2605.77 -2553.16 -2276.63 -2232.29 -2243.50 -2247.84 -2253.82 -2252.04 -2053.62 -653.20 -460.69 -449.55 -434.84 -420.04 -380.02 -352.46 -123.56 -77.56 -2.33 28.07 -15.71 -71.92 -49.05 176.80 123.41 98.99 98.15 92.61 84.98 80.64 80.09 79.69 79.62 79.87 80.92 84.75 65.09 -116.62 -118.11 -106.24 -68.15 -141.99 -627.43 -2545.23 -3765.71 -3899.88 -3900.28 -3900.28 -3900.28 -3900.03 -3801.34 -3072.09 -2973.40 -2973.16 -2973.16 -2973.16 -2973.52 -3118.57 -4190.35 -4335.40 -4335.76 -4335.76 -4335.76 -4335.93 -4407.36 -4935.12 -5006.54 -5006.72 -5006.72 -5006.72 -5006.75 -5018.02 -5101.35 -5112.62 -5112.65 -5112.65 -5112.65 -5112.63 -5104.32 -5042.89 -5034.57 -5034.55 -5034.55 -5034.55 -5034.54 -5030.87 -5003.69 -5000.01 -5000.00 -5000.00 -5000.00 -5000.00 -5000.00 -5000.00
-4760.97 -3480.99 -4761.47 -4961.39 -4961.88 -4961.88 -4960.39 -4949.39 -4947.90 -4947.90 -4947.90 -4947.90 -4947.89 -4944.59 -4920.26 -4916.97 -4916.96 -4916.96 -4916.96 -4917.01 -4936.36 -5079.31 -5098.65 -5098.70 -5098.70 -5098.70 -5098.70 -5098.36 -5095.81 -5095.47 -5095.46 -5095.46 -5095.46 -5095.46 -5094.51 -5087.45 -5086.50 -5086.49 -5086.49 -5086.44 -5063.34 -4886.83 -4610.14 -3022.56 -2753.82 -2656.90 -2632.87 -2598.05 -2555.58 -2286.71 -2245.97 -2250.85 -2250.53 -2249.79 -2254.10 -2069.01 -666.26 -469.43 -455.24 -440.54 -426.16 -398.97 -381.90 -155.19 -123.83 -73.80 -11.96 1.35 -35.86 -76.76 119.67 117.83 104.06 97.27 91.65 84.94 80.31 80.01 79.65 79.66 80.14 81.38 84.82 65.74 -108.94 -118.51 -107.64 -87.03 -343.41 -2000.13 -2731.22 -3766.49 -3899.66 -3899.99 -3899.99 -3899.99 -3899.75 -3801.03 -3071.60 -2972.88 -2972.64 -2972.64 -2972.64 -2972.99 -3118.09 -4190.18 -4335.27 -4335.63 -4335.63 -4335.63 -4335.80 -4407.25 -4935.13 -5006.57 -5006.75 -5006.75 -5006.75 -5006.78 -5018.06 -5101.40 -5112.68 -5112.70 -5112.70 -5112.70 -5112.68 -5104.36 -5042.89 -5034.57 -5034.55 -5034.55 -5034.55 -5034.54 -5030.86 -5003.69 -5000.01 -5000.00 -5000.00 -5000.00 -5000.00 -5000.00 -5000.00
-4934.69 -4761.47 -4934.76 -4961.82 -4961.88 -4961.88 -4960.39 -4949.39 -4947.90 -4947.90 -4947.90 -4947.90 -4947.89 -4944.59 -4920.26 -4916.97 -4916.96 -4916.96 -4916.96 -4917.01 -4936.36 -5079.31 -5098.65 -5098.70 -5098.70 -5098.70 -5098.70 -5098.36 -5095.81 -5095.47 -5095.46 -5095.46 -5095.46 -5095.46 -5094.51 -5087.45 -5086.50 -5086.49 -5086.49 -5086.49 -5086.43 -5081.68 -4815.18 -3025.82 -2629.65 -2587.66 -2601.51 -2597.97 -2553.84 -2286.03 -2249.11 -2250.82 -2251.68 -2255.64 -2267.17 -2075.51 -674.10 -472.84 -460.47 -448.33 -425.27 -422.98 -393.65 -172.55 -147.72 -124.93 -31.98 -47.50 -100.67 -103.42 82.88 131.91 113.48 114.38 94.48 85.34 79.96 79.77 79.52 79.61 80.22 81.90 85.20 64.75 -117.68 -137.64 -123.49 -109.50 -211.76 -903.84 -2582.60 -3766.12 -3899.66 -3899.99 -3899.99 -3899.99 -3899.75 -3801.03 -3071.60 -2972.88 -2972.64 -2972.64 -2972.64 -2972.99 -3118.09 -4190.12 -4334.76 -4334.98 -4334.97 -4335.04 -4335.73 -4407.25 -4935.13 -5006.57 -5006.75 -5006.75 -5006.75 -5006.78 -5018.06 -5101.40 -5112.68 -5112.70 -5112.70 -5112.70 -5112.68 -5104.36 -5042.89 -5034.57 -5034.55 -5034.55 -5034.55 -5034.54 -5030.86 -5003.69 -5000.01 -5000.00 -5000.00 -5000.00 -5000.00 -5000.00 -5000.00
-4961.83 -4961.40 -4961.83 -4961.90 -4961.90 -4961.89 -4960.40 -4949.41 -4947.92 -4947.92 -4947.92 -4947.92 -4947.91 -4944.62 -4920.28 -4916.99 -4916.98 -4916.98 -4916.98 -4917.03 -4936.37 -5079.27 -5098.61 -5098.65 -5098.65 -5098.65 -5098.65 -5098.31 -5095.79 -5095.45 -5095.45 -5095.45 -5095.45 -5095.45 -5094.49 -5087.43 -5086.47 -5086.47 -5086.47 -5086.47 -5086.46 -5082.19 -4837.51 -3189.51 -2672.56 -2622.32 -2610.46 -2617.91 -2563.17 -2288.86 -2253.53 -2251.18 -2250.54 -2264.23 -2270.57 -2070.86 -671.07 -471.92 -460.86 -453.30 -442.53 -437.41 -410.06 -186.17 -153.05 -137.06 -117.76 -116.12 -126.90 -118.87 69.97 104.98 98.52 103.75 93.19 85.16 79.09 78.97 79.05 79.22 80.20 82.20 85.29 63.71 -123.76 -133.82 -122.24 -136.23 -156.72 -458.32 -2522.13 -3765.62 -3899.29 -3899.62 -3899.62 -3899.62 -3899.37 -3800.72 -3071.79 -2973.14 -2972.90 -2972.90 -2972.90 -2973.19 -3117.69 -4165.92 -4131.67 -4074.92 -4069.44 -4097.58 -4307.46 -4407.27 -4935.12 -5006.55 -5006.72 -5006.72 -5006.72 -5006.75 -5018.03 -5101.39 -5112.68 -5112.70 -5112.70 -5112.70 -5112.68 -5104.36 -5042.90 -5034.58 -5034.56 -5034.56 -5034.56 -5034.55 -5030.87 -5003.69 -5000.01 -5000.00 -5000.00 -5000.00 -5000.00 -5000.00 -5000.00
-4967.12 -4967.12 -4967.12 -4967.12 -4967.12 -4967.11 -4966.15 -4959.03 -4958.07 -4958.06 -4958.06 -4958.06 -4958.05 -4954.63 -4929.29 -4925.87 -4925.86 -4925.86 -4925.86 -4925.90 -4942.25 -5063.08 -5079.43 -5079.47 -5079.47 -5079.47 -5079.47 -5080.68 -5089.61 -5090.82 -5090.82 -5090.82 -5090.82 -5090.82 -5089.25 -5077.68 -5076.11 -5076.11 -5076.11 -5076.11 -5076.10 -5072.31 -5018.37 -4639.82 -3244.78 -2915.05 -2854.94 -2931.99 -2884.37 -2593.47 -2552.64 -2562.51 -2555.69 -2567.44 -2524.33 -2128.89 -795.69 -614.87 -604.98 -591.63 -579.00 -564.13 -548.91 -236.14 -189.65 -182.55 -187.91 -189.55 -193.37 -167.09 41.26 68.35 70.50 71.80 67.61 60.82 56.26 67.58 69.31 70.11 71.35 73.59 76.76 60.99 -80.19 -88.30 -63.53 -93.38 -99.69 -366.11 -2452.51 -3623.52 -3746.69 -3746.99 -3746.99 -3746.99 -3746.82 -3675.75 -3150.62 -3079.55 -3079.32 -3078.87 -3078.66 -3050.77 -2980.41 -3828.17 -2817.95 -2218.95 -2153.51 -2399.05 -4143.42 -4445.02 -4931.31 -4997.04 -4997.20 -4997.20 -4997.20 -4997.23 -5009.52 -5100.30 -5112.59 -5112.62 -5112.62 -5112.62 -5112.60 -5104.72 -5046.51 -5038.63 -5038.61 -5038.61 -5038.61 -5038.60 -5034.49 -5004.12 -5000.01 -5000.00 -5000.00 -5000.00 -5000.00 -5000.00 -5000.00
-5005.70 -5005.70 -5005.70 -5005.70 -5005.70 -5005.70 -5008.61 -5030.09 -5033.00 -5033.00 -5033.00 -5033.00 -5032.99 -5028.57 -4995.87 -4991.45 -4991.44 -4991.44 -4991.44 -4991.42 -4985.70 -4943.43 -4937.71 -4937.70 -4937.70 -4937.70 -4937.73 -4950.39 -5043.93 -5056.59 -5056.62 -5056.62 -5056.62 -5056.61 -5050.54 -5005.67 -4999.60 -4999.58 -4999.58 -4999.58 -4999.57 -4995.88 -4968.49 -4939.83 -4756.24 -4711.64 -4703.62 -4714.12 -4712.60 -4707.48 -4706.56 -4707.97 -4707.05 -4707.85 -4471.29 -2654.12 -1791.34 -1699.83 -1696.56 -1691.97 -1687.65 -1683.27 -1556.18 -586.58 -454.41 -462.64 -468.43 -470.85 -472.55 -433.71 -149.67 -110.38 -107.86 -101.11 -103.76 -111.23 -104.30 -10.94 2.80 4.31 5.87 8.41 11.88 44.48 263.09 297.62 311.67 297.35 294.49 51.35 -1809.82 -2551.03 -2619.03 -2618.75 -2619.20 -2619.26 -2619.59 -2752.25 -3732.47 -3865.05 -3841.89 -3663.61 -3603.93 -3390.74 -1946.13 -2586.87 -3818.99 -2455.60 -2465.37 -2804.12 -4478.99 -4727.76 -4903.14 -4926.80 -4926.85 -4926.85 -4926.85 -4926.90 -4946.61 -5092.24 -5111.95 -5112.00 -5112.00 -5112.00 -5111.99 -5107.36 -5073.21 -5068.59 -5068.57 -5068.57 -5068.57 -5068.56 -5061.26 -5007.32 -5000.02 -5000.00 -5000.00 -5000.00 -5000.00 -5000.00 -5000.00
-5010.92 -5010.92 -5010.92 -5010.92 -5010.92 -5010.93 -5014.36 -5039.71 -5043.14 -5043.15 -5043.15 -5043.15 -5043.14 -5038.58 -5004.88 -5000.32 -5000.31 -5000.31 -5000.31 -5000.29 -4991.58 -4927.24 -4918.53 -4918.51 -4918.51 -4918.51 -4918.55 -4932.76 -5037.75 -5051.96 -5052.00 -5052.00 -5052.00 -5051.98 -5045.30 -4995.92 -4989.24 -4989.22 -4989.22 -4989.22 -4989.22 -4985.53 -4958.29 -4954.54 -4954.08 -4953.97 -4953.95 -4953.99 -4958.67 -4993.25 -4997.93 -4997.94 -4997.94 -4997.30 -4736.39 -2736.00 -1928.07 -1847.35 -1856.60 -1861.59 -1859.49 -1855.57 -1711.40 -657.51 -510.35 -509.87 -514.33 -518.90 -517.77 -478.50 -184.62 -143.19 -142.32 -137.51 -136.50 -142.63 -132.18 -23.62 -6.09 -4.05 -2.54 0.65 4.04 42.70 309.37 348.55 351.90 348.94 348.07 275.12 -475.70 -2236.56 -2437.95 -2259.31 -2438.58 -2466.57 -2466.90 -2598.33 -3572.06 -3694.81 -3520.34 -2194.54 -1733.64 -1774.73 -1839.81 -2305.03 -2713.00 -2772.14 -4277.03 -4521.96 -4721.78 -4766.51 -4899.32 -4917.29 -4917.33 -4917.33 -4917.33 -4917.38 -4938.10 -5091.15 -5111.86 -5111.91 -5111.91 -5111.91 -5111.90 -5107.72 -5076.82 -5072.64 -5072.63 -5072.63 -5072.63 -5072.61 -5064.88 -5007.75 -5000.02 -5000.00 -5000.00 -5000.00 -5000.00 -5000.00 -5000.00
-5010.93 -5010.93 -5010.93 -5010.93 -5010.93 -5010.94 -5014.37 -5039.73 -5043.16 -5043.17 -5043.17 -5043.17 -5043.16 -5038.60 -5004.91 -5000.34 -5000.33 -5000.33 -5000.33 -5000.31 -4991.60 -4927.20 -4918.49 -4918.47 -4918.47 -4918.47 -4918.50 -4932.71 -5037.74 -5051.95 -5051.99 -5051.99 -5051.99 -5051.97 -5045.28 -4995.90 -4989.22 -4989.20 -4989.20 -4989.20 -4989.19 -4985.50 -4958.27 -4954.58 -4954.57 -4954.57 -4954.57 -4954.58 -4959.28 -4993.95 -4998.65 -4998.66 -4998.66 -4998.01 -4735.85 -2727.37 -1929.50 -1868.94 -1888.48 -1887.70 -1876.36 -1868.96 -1723.28 -676.07 -538.07 -528.25 -528.38 -524.16 -513.83 -475.85 -185.37 -146.20 -148.24 -148.40 -147.82 -146.22 -132.83 -21.74 -3.64 -1.76 0.37 3.13 5.98 43.91 310.03 348.14 348.84 348.62 348.37 316.44 -157.51 -2011.07 -2233.16 -934.23 -2258.93 -2465.61 -2437.09 -2176.27 -1759.78 -1627.36 -1619.27 -1378.07 -1153.24 -1956.06 -3145.02 -2569.48 -4239.64 -4511.60 -4693.89 -4559.44 -4723.14 -4766.61 -4899.31 -4917.27 -4917.31 -4917.31 -4917.31 -4917.36 -4938.08 -5091.15 -5111.86 -5111.91 -5111.91 -5111.91 -5111.90 -5107.72 -5076.83 -5072.65 -5072.64 -5072.64 -5072.64 -5072.62 -5064.89 -5007.75 -5000.02 -5000.00 -5000.00 -5000.00 -5000.00 -5000.00 -5000.00
-5010.93 -5010.93 -5010.93 -5010.93 -5010.93 -5010.94 -5014.37 -5039.73 -5043.16 -5043.17 -5043.17 -5043.17 -5043.16 -5038.60 -5004.91 -5000.34 -5000.33 -5000.33 -5000.33 -5000.31 -4991.60 -4927.20 -4918.49 -4918.47 -4918.47 -4918.47 -4918.50 -4932.71 -5037.74 -5051.95 -5051.99 -5051.99 -5051.99 -5051.97 -5045.28 -4995.90 -4989.22 -4989.20 -4989.20 -4989.20 -4989.19 -4985.50 -4958.27 -4954.58 -4954.57 -4954.57 -4954.57 -4954.58 -4959.28 -4993.95 -4998.65 -4998.66 -4998.66 -4998.02 -4739.21 -2753.91 -1946.82 -1882.63 -1942.83 -1946.04 -1926.57 -1891.93 -1731.00 -693.99 -585.06 -545.80 -540.04 -537.17 -527.89 -487.83 -192.47 -149.11 -148.55 -145.76 -145.11 -142.82 -127.57 -15.51 1.22 2.82 4.44 6.41 8.72 46.22 311.77 348.29 348.59 348.36 347.08 342.35 222.92 -598.14 -2224.12 -2258.34 -2438.07 -2436.62 -2015.45 -528.55 -1084.35 -1142.40 -1360.71 -1324.03 -1460.57 -1675.00 -1796.38 -2496.07 -4458.62 -4523.98 -4315.75 -3123.73 -4532.23 -4766.14 -4899.31 -4917.27 -4917.31 -4917.31 -4917.31 -4917.36 -4938.08 -5091.15 -5111.86 -5111.91 -5111.91 -5111.91 -5111.90 -5107.72 -5076.83 -5072.65 -5072.64 -5072.64 -5072.64 -5072.62 -5064.89 -5007.75 -5000.02 -5000.00 -5000.00 -5000.00 -5000.00 -5000.00 -5000.00
-5010.95 -5010.95 -5010.95 -5010.95 -5010.95 -5010.96 -5014.39 -5039.73 -5043.16 -5043.16 -5043.16 -5043.16 -5043.15 -5038.60 -5004.92 -5000.36 -5000.35 -5000.35 -5000.35 -5000.33 -4991.62 -4927.25 -4918.54 -4918.51 -4918.51 -4918.51 -4918.55 -4932.76 -5037.73 -5051.93 -5051.97 -5051.97 -5051.97 -5051.95 -5045.27 -4995.88 -4989.19 -4989.18 -4989.18 -4989.18 -4989.17 -4985.48 -4958.26 -4954.58 -4954.57 -4954.57 -4954.57 -4954.58 -4959.26 -4993.89 -4998.58 -4998.59 -4998.59 -4998.08 -4790.43 -3177.08 -2375.56 -2298.49 -2267.20 -2076.66 -2028.80 -1958.57 -1762.43 -715.81 -602.66 -568.41 -558.95 -551.37 -544.88 -502.25 -197.30 -152.14 -145.08 -139.98 -141.91 -141.29 -119.72 -9.68 6.05 7.15 8.32 9.87 11.82 49.62 314.62 349.81 350.39 350.26 344.89 339.55 285.39 -235.09 -2003.48 -2437.32 -2437.17 -2015.79 -365.83 157.86 -336.83 -1087.13 -1377.45 -1128.27 -1642.94 -1638.20 -1586.57 -2428.14 -4051.81 -2896.35 -2890.16 -2819.34 -4512.76 -4765.95 -4899.32 -4917.30 -4917.34 -4917.34 -4917.34 -4917.39 -4938.10 -5091.12 -5111.83 -5111.88 -5111.88 -5111.88 -5111.87 -5107.70 -5076.84 -5072.66 -5072.65 -5072.65 -5072.65 -5072.63 -5064.90 -5007.75 -5000.02 -5000.00 -5000.00 -5000.00 -5000.00 -5000.00 -5000.00
-5019.33 -5019.33 -5019.33 -5019.33 -5019.33 -5019.34 -5021.57 -5038.07 -5040.31 -5040.31 -5040.31 -5040.31 -5040.30 -5036.72 -5010.24 -5006.65 -5006.64 -5006.64 -5006.64 -5006.63 -4999.34 -4945.54 -4938.25 -4938.24 -4938.24 -4938.24 -4938.26 -4949.66 -5033.86 -5045.26 -5045.28 -5045.28 -5045.28 -5045.27 -5038.35 -4987.26 -4980.35 -4980.33 -4980.33 -4980.33 -4980.32 -4977.39 -4955.72 -4952.79 -4952.78 -4952.78 -4952.78 -4952.79 -4954.82 -4969.78 -4971.81 -4971.81 -4971.81 -4971.75 -4947.22 -4695.75 -4143.11 -4048.77 -3706.18 -2405.50 -2216.45 -2228.44 -1811.00 -732.83 -673.67 -622.85 -596.88 -587.98 -571.43 -522.05 -149.38 -86.67 -81.13 -79.11 -84.27 -75.94 -57.36 30.93 43.46 43.74 44.59 45.86 48.43 78.90 270.57 296.60 301.05 304.10 290.37 278.96 209.19 -204.45 -674.56 -2210.34 -2208.96 -598.24 120.87 548.93 -715.93 -1421.22 -1566.06 -1552.24 -1709.53 -1625.26 -1684.84 -2229.77 -2656.57 -2928.55 -4260.77 -4448.48 -4656.56 -4711.04 -4903.38 -4929.40 -4929.47 -4929.47 -4929.47 -4929.51 -4947.73 -5082.37 -5100.59 -5100.64 -5100.64 -5100.64 -5100.63 -5098.12 -5079.57 -5077.06 -5077.06 -5077.06 -5077.06 -5077.04 -5068.83 -5008.22 -5000.02 -5000.00 -5000.00 -5000.00 -5000.00 -5000.00 -5000.00
-5081.26 -5081.26 -5081.26 -5081.26 -5081.26 -5081.24 -5074.64 -5025.84 -5019.24 -5019.22 -5019.22 -5019.22 -5019.23 -5022.84 -5049.54 -5053.15 -5053.16 -5053.16 -5053.16 -5053.17 -5056.45 -5080.67 -5083.95 -5083.96 -5083.96 -5083.96 -5083.94 -5074.56 -5005.29 -4995.91 -4995.89 -4995.89 -4995.89 -4995.87 -4987.26 -4923.61 -4914.99 -4914.97 -4914.97 -4914.97 -4914.98 -4917.60 -4936.99 -4939.62 -4939.62 -4939.62 -4939.62 -4939.58 -4921.94 -4791.61 -4773.97 -4773.93 -4773.93 -4773.93 -4773.71 -4710.85 -4249.10 -3990.56 -2515.05 -2119.09 -2240.52 -3355.61 -2244.98 -883.60 -760.35 -712.73 -694.16 -715.84 -716.66 -596.27 223.46 357.48 361.25 353.13 356.88 368.40 365.96 301.78 293.09 292.64 292.86 294.84 301.21 252.57 -113.10 -160.15 -165.39 -162.89 -174.71 -178.77 -354.49 -1604.30 -1801.36 -2005.73 -2027.57 -1659.59 -895.61 -389.75 -1800.19 -2160.43 -2372.85 -2393.09 -2546.35 -2673.35 -2547.05 -2556.26 -3782.99 -4007.31 -4190.97 -4215.22 -4216.00 -4301.57 -4933.35 -5018.85 -5019.06 -5019.06 -5019.06 -5019.06 -5018.90 -5017.69 -5017.53 -5017.53 -5017.53 -5017.53 -5017.55 -5027.36 -5099.78 -5109.58 -5109.60 -5109.60 -5109.60 -5109.58 -5097.91 -5011.70 -5000.03 -5000.00 -5000.00 -5000.00 -5000.00 -5000.00 -5000.00
-5089.64 -5089.64 -5089.64 -5089.64 -5089.64 -5089.62 -5081.82 -5024.19 -5016.39 -5016.37 -5016.37 -5016.37 -5016.38 -5020.96 -5054.86 -5059.45 -5059.46 -5059.46 -5059.46 -5059.47 -5064.18 -5098.96 -5103.67 -5103.68 -5103.68 -5103.68 -5103.65 -5091.46 -5001.42 -4989.24 -4989.21 -4989.21 -4989.21 -4989.18 -4980.34 -4914.99 -4906.15 -4906.12 -4906.12 -4906.12 -4906.13 -4909.51 -4934.46 -4937.83 -4937.84 -4937.84 -4937.84 -4937.79 -4917.49 -4767.50 -4747.20 -4747.15 -4747.15 -4747.15 -4746.99 -4685.65 -4231.77 -3937.41 -2236.00 -2153.66 -2128.04 -2150.59 -3225.93 -1464.51 -969.04 -789.09 -741.57 -730.42 -731.25 -601.70 270.59 405.15 408.09 416.98 420.86 430.84 428.08 341.70 332.44 331.80 333.15 336.90 337.51 278.43 -168.71 -228.25 -222.58 -229.75 -232.98 -233.88 -420.65 -1758.13 -1944.36 -1918.18 -1849.08 -1715.29 -776.64 -1135.98 -2323.01 -2935.49 -4230.15 -4398.98 -4418.83 -4437.74 -4371.41 -4012.02 -4129.00 -4151.80 -4152.31 -4152.37 -4152.60 -4246.15 -4937.40 -5030.95 -5031.19 -5031.19 -5031.19 -5031.18 -5028.53 -5008.94 -5006.29 -5006.28 -5006.28 -5006.28 -5006.31 -5017.78 -5102.51 -5113.98 -5114.01 -5114.01 -5114.01 -5113.98 -5101.84 -5012.17 -5000.03 -5000.00 -5000.00 -5000.00 -5000.00 -5000.00 -5000.00
-5089.66 -5089.66 -5089.66 -5089.66 -5089.66 -5089.64 -5081.84 -5024.18 -5016.38 -5016.36 -5016.36 -5016.36 -5016.37 -5020.96 -5054.87 -5059.46 -5059.47 -5059.47 -5059.47 -5059.48 -5064.19 -5099.01 -5103.72 -5103.73 -5103.73 -5103.73 -5103.70 -5091.51 -5001.41 -4989.22 -4989.19 -4989.19 -4989.19 -4989.17 -4980.32 -4914.97 -4906.12 -4906.10 -4906.10 -4906.10 -4906.11 -4909.49 -4934.45 -4937.83 -4937.84 -4937.84 -4937.84 -4937.79 -4917.48 -4767.44 -4747.13 -4747.08 -4747.08 -4747.08 -4746.93 -4685.58 -4232.23 -4142.36 -3934.36 -3926.67 -3715.43 -2148.92 -1971.04 -2445.56 -1334.42 -803.40 -748.09 -717.87 -696.77 -580.95 283.23 405.06 405.76 413.91 422.86 430.55 424.13 340.74 332.47 333.97 337.50 340.71 343.25 283.82 -166.36 -218.02 -208.59 -216.49 -223.74 -225.25 -401.81 -1726.83 -1903.20 -1794.89 -1364.55 -1360.97 -1122.18 -2222.10 -4155.75 -4462.99 -4638.42 -4661.36 -4661.47 -4661.38 -4607.08 -4206.14 -4152.29 -4152.21 -4152.21 -4152.21 -4152.44 -4246.01 -4937.41 -5030.98 -5031.22 -5031.22 -5031.22 -5031.21 -5028.55 -5008.92 -5006.26 -5006.25 -5006.25 -5006.25 -5006.28 -5017.75 -5102.52 -5113.99 -5114.02 -5114.02 -5114.02 -5113.99 -5101.85 -5012.17 -5000.03 -5000.00 -5000.00 -5000.00 -5000.00 -5000.00 -5000.00
-5089.66 -5089.66 -5089.66 -5089.66 -5089.66 -5089.64 -5081.84 -5024.18 -5016.38 -5016.36 -5016.36 -5016.36 -5016.37 -5020.96 -5054.87 -5059.46 -5059.47 -5059.47 -5059.47 -5059.48 -5064.19 -5099.01 -5103.72 -5103.73 -5103.73 -5103.73 -5103.70 -5091.51 -5001.41 -4989.22 -4989.19 -4989.19 -4989.19 -4989.17 -4980.32 -4914.97 -4906.12 -4906.10 -4906.10 -4906.10 -4906.11 -4909.49 -4934.45 -4937.83 -4937.84 -4937.84 -4937.84 -4937.79 -4917.48 -4767.44 -4747.13 -4747.08 -4747.08 -4747.08 -4746.93 -4685.58 -4232.30 -4170.88 -4170.22 -4170.13 -4141.27 -3691.76 -1824.94 -1326.43 -2533.21 -1199.61 -729.39 -689.72 -678.24 -565.80 296.85 413.27 414.49 417.02 423.46 429.60 422.12 338.03 328.64 332.15 335.86 344.36 345.79 283.15 -168.47 -218.47 -187.37 -159.30 -188.97 -125.63 -283.61 -1558.08 -1726.28 -1618.16 -1212.06 -1389.46 -1666.21 -3627.47 -4347.37 -4630.92 -4661.36 -4661.41 -4661.40 -4661.23 -4606.95 -4206.02 -4152.27 -4152.21 -4152.21 -4152.21 -4152.44 -4246.01 -4937.41 -5030.98 -5031.22 -5031.22 -5031.22 -5031.21 -5028.55 -5008.92 -5006.26 -5006.25 -5006.25 -5006.25 -5006.28 -5017.75 -5102.52 -5113.99 -5114.02 -5114.02 -5114.02 -5113.99 -5101.85 -5012.17 -5000.03 -5000.00 -5000.00 -5000.00 -5000.00 -5000.00 -5000.00
-5089.61 -5089.61 -5089.61 -5089.61 -5089.61 -5089.59 -5081.79 -5024.18 -5016.38 -5016.36 -5016.36 -5016.36 -5016.37 -5020.96 -5054.85 -5059.43 -5059.44 -5059.44 -5059.44 -5059.46 -5064.17 -5098.96 -5103.67 -5103.68 -5103.68 -5103.68 -5103.65 -5091.46 -5001.41 -4989.23 -4989.20 -4989.20 -4989.20 -4989.17 -4980.33 -4914.98 -4906.14 -4906.12 -4906.12 -4906.12 -4906.12 -4909.50 -4934.46 -4937.84 -4937.85 -4937.85 -4937.85 -4937.80 -4917.49 -4767.45 -4747.15 -4747.10 -4747.10 -4747.10 -4746.95 -4685.56 -4232.01 -4170.63 -4170.48 -4170.48 -4169.81 -3928.85 -2077.46 -1455.97 -2739.31 -2703.52 -1127.50 -707.66 -659.72 -556.88 304.88 418.41 418.05 418.48 422.89 428.37 420.88 337.35 330.84 339.07 347.63 347.34 354.09 289.00 -155.34 -201.55 -128.68 157.73 -1.48 165.97 72.82 -1209.93 -1074.07 -1082.26 -1124.58 -1665.61 -1726.14 -1746.06 -2680.64 -4408.36 -4426.61 -4394.35 -4389.25 -4376.56 -4320.82 -3965.66 -4123.36 -4151.81 -4152.38 -4152.45 -4152.68 -4246.23 -4937.45 -5031.00 -5031.23 -5031.23 -5031.23 -5031.22 -5028.57 -5008.92 -5006.26 -5006.25 -5006.25 -5006.25 -5006.28 -5017.75 -5102.48 -5113.94 -5113.97 -5113.97 -5113.97 -5113.94 -5101.81 -5012.16 -5000.03 -5000.00 -5000.00 -5000.00 -5000.00 -5000.00 -5000.00
-5068.39 -5068.39 -5068.39 -5068.39 -5068.39 -5068.38 -5062.96 -5022.94 -5017.53 -5017.51 -5017.51 -5017.51 -5017.52 -5020.80 -5045.05 -5048.33 -5048.34 -5048.34 -5048.34 -5048.35 -5052.08 -5079.62 -5083.35 -5083.36 -5083.36 -5083.36 -5083.34 -5073.58 -5001.53 -4991.78 -4991.75 -4991.75 -4991.75 -4991.73 -4983.24 -4920.53 -4912.05 -4912.03 -4912.03 -4912.03 -4912.03 -4915.35 -4939.82 -4943.13 -4943.14 -4943.14 -4943.14 -4943.09 -4923.03 -4774.83 -4754.77 -4754.72 -4754.72 -4754.72 -4754.53 -4678.40 -4115.86 -4039.73 -4039.54 -4039.54 -4039.47 -4010.46 -3682.22 -2634.17 -1483.51 -2704.25 -2691.97 -1121.44 -687.57 -569.80 152.70 244.05 243.66 245.42 249.80 254.93 237.96 85.04 72.51 75.64 82.35 86.30 86.96 25.67 -362.65 -380.41 -208.13 217.24 300.11 453.80 79.08 -1085.55 -1075.64 -1158.93 -1359.36 -1310.04 -1449.47 -1945.35 -3904.16 -4177.36 -2662.30 -2414.96 -2394.70 -2306.50 -2246.25 -2235.64 -3723.35 -4019.08 -4221.66 -4247.83 -4248.10 -4332.13 -4953.02 -5037.05 -5037.25 -5037.25 -5037.25 -5037.25 -5033.98 -5009.83 -5006.56 -5006.55 -5006.55 -5006.55 -5006.57 -5015.91 -5084.92 -5094.26 -5094.28 -5094.28 -5094.28 -5094.26 -5084.22 -5010.06 -5000.02 -5000.00 -5000.00 -5000.00 -5000.00 -5000.00 -5000.00
-4911.60 -4911.60 -4911.60 -4911.60 -4911.60 -4911.63 -4923.81 -5013.80 -5025.98 -5026.01 -5026.01 -5026.01 -5025.99 -5019.64 -4972.66 -4966.30 -4966.28 -4966.28 -4966.28 -4966.27 -4962.75 -4936.75 -4933.23 -4933.22 -4933.22 -4933.22 -4933.24 -4941.48 -5002.37 -5010.61 -5010.63 -5010.63 -5010.63 -5010.61 -5004.77 -4961.55 -4955.70 -4955.68 -4955.68 -4955.68 -4955.69 -4958.52 -4979.38 -4982.21 -4982.21 -4982.21 -4982.21 -4982.17 -4963.95 -4829.30 -4811.07 -4811.03 -4811.03 -4811.03 -4810.57 -4625.45 -3257.58 -3072.46 -3072.00 -3072.00 -3072.00 -3071.40 -2857.13 -1245.23 -801.18 -1087.79 -2733.61 -2679.03 -917.72 -716.97 -999.41 -1045.03 -1043.41 -1039.03 -1033.77 -1028.37 -1114.69 -1785.13 -1871.49 -1869.43 -1862.16 -1855.68 -1842.06 -1844.87 -1933.58 -1821.39 -1244.23 -1098.99 -860.61 -698.00 -1074.43 -1008.87 -1012.45 -1739.26 -1587.87 -2158.93 -3946.56 -4073.74 -3015.66 -2825.82 -2460.40 -2390.19 -2490.56 -2320.82 -2275.28 -2385.79 -2315.26 -2977.33 -4723.67 -4952.49 -4953.17 -4966.86 -5068.04 -5081.73 -5081.76 -5081.76 -5081.76 -5081.74 -5073.97 -5016.53 -5008.76 -5008.74 -5008.74 -5008.74 -5008.72 -5002.34 -4955.19 -4948.81 -4948.79 -4948.79 -4948.79 -4948.81 -4954.26 -4994.54 -4999.99 -5000.00 -5000.00 -5000.00 -5000.00 -5000.00 -5000.00
-4890.38 -4890.38 -4890.38 -4890.38 -4890.38 -4890.41 -4904.97 -5012.56 -5027.12 -5027.16 -5027.16 -5027.16 -5027.14 -5019.48 -4962.86 -4955.20 -4955.18 -4955.18 -4955.18 -4955.17 -4950.67 -4917.41 -4912.91 -4912.90 -4912.90 -4912.90 -4912.93 -4923.60 -5002.48 -5013.16 -5013.18 -5013.18 -5013.18 -5013.17 -5007.68 -4967.10 -4961.61 -4961.59 -4961.59 -4961.59 -4961.60 -4964.36 -4984.74 -4987.50 -4987.50 -4987.50 -4987.50 -4987.46 -4969.48 -4836.67 -4818.69 -4818.65 -4818.65 -4818.65 -4818.15 -4618.28 -3141.43 -2941.56 -2941.06 -2941.06 -2941.06 -2940.43 -2711.32 -1028.31 -841.38 -886.70 -1668.26 -2771.66 -1166.64 -772.69 -1162.50 -1227.72 -1220.22 -1212.17 -1203.40 -1197.80 -1290.52 -2034.85 -2134.38 -2133.42 -2119.50 -2062.53 -1951.05 -1813.48 -1788.54 -1578.24 -1465.57 -1352.92 -1337.47 -1326.47 -1561.10 -1418.37 -1802.48 -2178.81 -3959.14 -4284.72 -4529.29 -4563.68 -4580.61 -4580.30 -4558.30 -4552.69 -4376.19 -2933.04 -2691.87 -2971.81 -2374.63 -2382.16 -4469.02 -5011.89 -5048.45 -5052.77 -5083.60 -5087.78 -5087.79 -5087.79 -5087.79 -5087.77 -5079.38 -5017.44 -5009.05 -5009.03 -5009.03 -5009.03 -5009.01 -5000.50 -4937.63 -4929.12 -4929.10 -4929.10 -4929.10 -4929.12 -4936.67 -4992.43 -4999.98 -5000.00 -5000.00 -5000.00 -5000.00 -5000.00 -5000.00
-4890.33 -4890.33 -4890.33 -4890.33 -4890.33 -4890.36 -4904.93 -5012.56 -5027.13 -5027.16 -5027.16 -5027.16 -5027.14 -5019.48 -4962.83 -4955.17 -4955.15 -4955.15 -4955.15 -4955.14 -4950.64 -4917.37 -4912.86 -4912.85 -4912.85 -4912.85 -4912.88 -4923.56 -5002.48 -5013.16 -5013.19 -5013.19 -5013.19 -5013.18 -5007.69 -4967.11 -4961.62 -4961.61 -4961.61 -4961.61 -4961.61 -4964.37 -4984.75 -4987.51 -4987.52 -4987.52 -4987.52 -4987.47 -4969.50 -4836.69 -4818.71 -4818.67 -4818.67 -4818.67 -4818.17 -4618.27 -3141.14 -2941.23 -2940.74 -2940.74 -2940.61 -2912.53 -2523.95 -1120.19 -1045.19 -1456.45 -2809.66 -3126.99 -2708.00 -1003.44 -1158.08 -1227.80 -1217.19 -1204.00 -1183.59 -1171.77 -1267.51 -1985.90 -2034.03 -2027.04 -1920.45 -1789.34 -1509.29 -1326.38 -1633.05 -1544.72 -1878.54 -1851.33 -1767.36 -1982.70 -2063.89 -1976.09 -1956.17 -2070.13 -4260.82 -4560.90 -4562.32 -4592.70 -4816.60 -4846.89 -4846.91 -4846.83 -4820.58 -4624.62 -4610.46 -4605.19 -3154.85 -2502.02 -2602.34 -4584.04 -5024.61 -5052.92 -5083.64 -5087.79 -5087.80 -5087.80 -5087.80 -5087.78 -5079.40 -5017.44 -5009.05 -5009.03 -5009.03 -5009.03 -5009.01 -5000.50 -4937.59 -4929.08 -4929.05 -4929.05 -4929.05 -4929.07 -4936.63 -4992.43 -4999.98 -5000.00 -5000.00 -5000.00 -5000.00 -5000.00 -5000.00
-4890.33 -4890.33 -4890.33 -4890.33 -4890.33 -4890.36 -4904.93 -5012.56 -5027.13 -5027.16 -5027.16 -5027.16 -5027.14 -5019.48 -4962.83 -4955.17 -4955.15 -4955.15 -4955.15 -4955.14 -4950.64 -4917.37 -4912.86 -4912.85 -4912.85 -4912.85 -4912.88 -4923.56 -5002.48 -5013.16 -5013.19 -5013.19 -5013.19 -5013.18 -5007.69 -4967.11 -4961.62 -4961.61 -4961.61 -4961.61 -4961.61 -4964.37 -4984.75 -4987.51 -4987.52 -4987.52 -4987.52 -4987.47 -4969.50 -4836.69 -4818.71 -4818.67 -4818.67 -4818.67 -4818.10 -4617.73 -3141.07 -2941.23 -2940.67 -2940.07 -2915.26 -2558.89 -1249.50 -1241.65 -1482.89 -2535.85 -2888.12 -2942.69 -2674.07 -1013.92 -1132.32 -1085.00 -1096.21 -1035.80 -947.16 -874.79 -985.36 -1522.60 -1300.77 -1323.80 -906.54 -1367.98 -1472.18 -1921.79 -2060.06 -2135.11 -2181.28 -2125.88 -2178.57 -2217.31 -2207.32 -2089.40 -2251.29 -2751.88 -4350.33 -4561.80 -4562.40 -4592.77 -4817.12 -4847.08 -4847.56 -4847.63 -4847.56 -4847.13 -4868.40 -5001.17 -4596.39 -2802.60 -2742.53 -3295.90 -4844.70 -5052.48 -5083.64 -5087.79 -5087.80 -5087.80 -5087.80 -5087.78 -5079.40 -5017.44 -5009.05 -5009.03 -5009.03 -5009.03 -5009.01 -5000.50 -4937.59 -4929.08 -4929.05 -4929.05 -4929.05 -4929.07 -4936.63 -4992.43 -4999.98 -5000.00 -5000.00 -5000.00 -5000.00 -5000.00 -5000.00
-4890.37 -4890.37 -4890.37 -4890.37 -4890.37 -4890.41 -4904.97 -5012.53 -5027.09 -5027.12 -5027.12 -5027.12 -5027.10 -5019.44 -4962.83 -4955.16 -4955.15 -4955.15 -4955.15 -4955.13 -4950.64 -4917.40 -4912.91 -4912.89 -4912.89 -4912.89 -4912.92 -4923.60 -5002.51 -5013.19 -5013.22 -5013.22 -5013.22 -5013.20 -5007.71 -4967.10 -4961.61 -4961.59 -4961.59 -4961.59 -4961.60 -4964.36 -4984.72 -4987.48 -4987.49 -4987.49 -4987.49 -4987.44 -4969.46 -4836.62 -4818.64 -4818.60 -4818.60 -4818.53 -4788.99 -4403.05 -3111.78 -2940.76 -2911.20 -2695.48 -2495.57 -1373.12 -2536.32 -2922.69 -2707.59 -872.11 -939.31 -1166.80 -849.90 -719.46 -1008.12 -388.76 -427.08 -1.80 357.50 279.65 -13.77 -715.87 -1143.73 -1185.10 -1533.95 -1822.67 -1934.58 -2077.95 -2193.76 -2209.43 -2199.90 -2192.05 -2208.20 -2238.60 -2227.76 -2326.61 -4053.39 -4353.62 -4538.17 -4561.98 -4562.48 -4592.78 -4790.82 -4655.58 -4821.67 -4847.58 -4847.65 -4847.70 -4869.04 -5026.65 -5015.61 -4746.65 -4311.31 -3151.21 -4800.20 -5052.33 -5083.61 -5087.76 -5087.77 -5087.77 -5087.77 -5087.75 -5079.36 -5017.41 -5009.02 -5009.00 -5009.00 -5009.00 -5008.98 -5000.47 -4937.59 -4929.08 -4929.06 -4929.06 -4929.06 -4929.08 -4936.63 -4992.43 -4999.98 -5000.00 -5000.00 -5000.00 -5000.00 -5000.00 -5000.00
-4910.23 -4910.23 -4910.23 -4910.23 -4910.23 -4910.26 -4921.01 -5000.42 -5011.16 -5011.19 -5011.19 -5011.19 -5011.18 -5005.04 -4959.67 -4953.53 -4953.52 -4953.52 -4953.52 -4953.51 -4951.03 -4932.73 -4930.26 -4930.25 -4930.25 -4930.25 -4930.28 -4940.19 -5013.46 -5023.37 -5023.40 -5023.40 -5023.40 -5023.38 -5016.16 -4962.84 -4955.62 -4955.60 -4955.60 -4955.60 -4955.61 -4957.68 -4973.00 -4975.07 -4975.08 -4975.08 -4975.08 -4975.03 -4955.41 -4810.48 -4790.87 -4790.82 -4790.82 -4790.20 -4543.16 -2756.25 -2794.65 -2805.78 -2628.82 -1046.75 -920.77 -1348.34 -2917.24 -3113.53 -2852.56 -1047.83 -844.17 -844.55 -649.63 -680.78 -1179.07 -1041.75 -672.34 -366.64 -508.67 -581.31 -565.37 -1124.24 -1378.84 -1873.50 -2056.65 -2053.73 -2049.47 -2037.64 -2190.14 -2181.01 -2184.50 -2327.90 -2377.36 -2623.98 -2757.36 -2650.89 -4376.88 -4617.16 -4594.83 -4445.10 -4594.40 -4619.68 -4469.06 -3414.58 -4663.79 -4855.31 -4855.78 -4855.68 -4845.46 -4802.03 -4976.06 -4556.32 -2958.77 -4534.67 -5001.87 -5037.29 -5069.27 -5073.58 -5073.59 -5073.59 -5073.59 -5073.57 -5065.40 -5005.01 -4996.83 -4996.81 -4996.81 -4996.81 -4996.80 -4989.87 -4938.67 -4931.74 -4931.72 -4931.72 -4931.72 -4931.74 -4939.01 -4992.71 -4999.98 -5000.00 -5000.00 -5000.00 -5000.00 -5000.00 -5000.00
-5056.97 -5056.97 -5056.97 -5056.97 -5056.97 -5056.92 -5039.52 -4910.92 -4893.52 -4893.47 -4893.47 -4893.47 -4893.49 -4898.60 -4936.36 -4941.47 -4941.48 -4941.48 -4941.48 -4941.51 -4953.97 -5046.01 -5058.46 -5058.49 -5058.49 -5058.49 -5058.50 -5062.78 -5094.36 -5098.63 -5098.64 -5098.64 -5098.64 -5098.59 -5078.65 -4931.32 -4911.38 -4911.33 -4911.33 -4911.33 -4911.32 -4908.35 -4886.38 -4883.41 -4883.40 -4883.40 -4883.40 -4883.32 -4851.62 -4617.32 -4585.62 -4585.54 -4585.54 -4584.87 -4314.88 -2329.27 -2098.13 -1934.68 -2367.01 -2240.65 -2575.67 -3900.10 -4055.02 -2783.56 -2463.50 -2214.06 -2153.17 -2066.97 -1941.56 -2118.12 -2479.65 -2432.70 -2287.38 -2009.83 -2211.13 -2265.81 -2266.12 -2286.55 -2279.82 -2333.88 -2280.93 -2285.18 -2271.21 -2277.71 -2492.99 -2735.89 -3011.03 -4523.61 -4731.52 -4765.48 -4787.10 -4792.98 -5001.78 -5030.01 -4831.77 -3538.43 -4628.08 -4632.05 -3623.88 -4554.06 -4889.45 -4915.84 -4915.83 -4884.78 -4451.06 -3117.19 -4473.52 -3131.99 -2620.24 -4632.39 -4915.99 -4922.31 -4963.30 -4968.85 -4968.86 -4968.86 -4968.86 -4968.84 -4962.23 -4913.38 -4906.76 -4906.75 -4906.75 -4906.75 -4906.76 -4911.51 -4946.59 -4951.34 -4951.35 -4951.35 -4951.35 -4951.37 -4956.54 -4994.81 -4999.99 -5000.00 -5000.00 -5000.00 -5000.00 -5000.00 -5000.00
-5076.82 -5076.82 -5076.82 -5076.82 -5076.82 -5076.77 -5055.56 -4898.81 -4877.59 -4877.54 -4877.54 -4877.54 -4877.56 -4884.19 -4933.20 -4939.84 -4939.85 -4939.85 -4939.85 -4939.89 -4954.37 -5061.34 -5075.81 -5075.85 -5075.85 -5075.85 -5075.86 -5079.37 -5105.31 -5108.82 -5108.83 -5108.83 -5108.83 -5108.77 -5087.11 -4927.05 -4905.39 -4905.34 -4905.34 -4905.34 -4905.33 -4901.67 -4874.66 -4871.00 -4870.99 -4870.99 -4870.99 -4870.91 -4837.57 -4591.18 -4557.84 -4557.76 -4557.76 -4557.68 -4524.58 -4119.54 -2855.32 -2694.21 -4000.63 -4162.50 -4035.52 -2876.02 -2494.35 -2423.85 -2392.25 -2379.56 -2378.09 -2360.27 -2283.11 -2475.34 -2722.81 -2675.34 -2559.11 -2393.05 -2307.76 -2332.78 -2379.91 -2311.97 -2158.57 -2196.00 -2354.00 -2517.95 -2653.77 -2596.85 -3266.51 -4612.72 -4819.27 -5025.15 -5053.29 -5053.45 -5056.43 -5058.46 -4887.63 -4866.88 -4620.74 -3053.98 -3101.44 -3182.65 -4321.17 -4704.10 -4901.11 -4923.98 -4923.35 -4674.41 -2850.32 -2920.87 -4637.68 -4469.37 -3189.22 -4673.00 -4900.47 -4906.74 -4948.96 -4954.67 -4954.69 -4954.69 -4954.69 -4954.67 -4948.27 -4900.98 -4894.57 -4894.56 -4894.56 -4894.56 -4894.57 -4900.90 -4947.67 -4953.99 -4954.01 -4954.01 -4954.01 -4954.02 -4958.92 -4995.09 -4999.99 -5000.00 -5000.00 -5000.00 -5000.00 -5000.00 -5000.00
-5076.87 -5076.87 -5076.87 -5076.87 -5076.87 -5076.82 -5055.60 -4898.78 -4877.55 -4877.50 -4877.50 -4877.50 -4877.52 -4884.15 -4933.20 -4939.83 -4939.85 -4939.85 -4939.85 -4939.88 -4954.37 -5061.37 -5075.86 -5075.89 -5075.89 -5075.89 -5075.90 -5079.41 -5105.33 -5108.84 -5108.85 -5108.85 -5108.85 -5108.80 -5087.13 -4927.04 -4905.38 -4905.32 -4905.32 -4905.32 -4905.32 -4901.66 -4874.63 -4870.97 -4870.96 -4870.96 -4870.96 -4870.88 -4837.53 -4591.12 -4557.77 -4557.69 -4557.69 -4557.69 -4557.53 -4547.27 -4284.26 -2814.15 -2625.26 -2472.28 -2460.09 -2293.36 -2246.41 -2375.12 -2382.50 -2376.79 -2372.14 -2380.93 -2425.21 -2468.14 -2649.26 -2690.29 -2595.68 -2522.82 -2512.43 -2510.56 -2495.17 -2339.35 -2405.68 -2669.87 -3026.78 -4488.88 -4700.70 -4700.33 -4842.00 -5030.14 -5028.99 -4872.42 -5029.50 -5025.84 -4827.28 -4699.55 -3590.78 -3464.57 -3210.04 -2916.68 -2875.24 -2886.07 -3007.22 -3474.95 -4755.53 -4923.57 -4896.71 -4500.34 -3199.15 -4471.10 -4872.33 -4873.59 -4702.77 -4874.16 -4900.92 -4906.70 -4948.92 -4954.64 -4954.65 -4954.65 -4954.65 -4954.64 -4948.24 -4900.94 -4894.54 -4894.53 -4894.53 -4894.53 -4894.54 -4900.88 -4947.67 -4954.00 -4954.02 -4954.02 -4954.02 -4954.03 -4958.92 -4995.09 -4999.99 -5000.00 -5000.00 -5000.00 -5000.00 -5000.00 -5000.00
-5076.87 -5076.87 -5076.87 -5076.87 -5076.87 -5076.82 -5055.60 -4898.78 -4877.55 -4877.50 -4877.50 -4877.50 -4877.52 -4884.15 -4933.20 -4939.83 -4939.85 -4939.85 -4939.85 -4939.88 -4954.37 -5061.37 -5075.86 -5075.89 -5075.89 -5075.89 -5075.90 -5079.41 -5105.33 -5108.84 -5108.85 -5108.85 -5108.85 -5108.80 -5087.13 -4927.04 -4905.38 -4905.32 -4905.32 -4905.32 -4905.32 -4901.66 -4874.63 -4870.97 -4870.96 -4870.96 -4870.96 -4870.88 -4837.53 -4591.12 -4557.77 -4557.69 -4557.69 -4557.63 -4534.04 -4373.94 -4251.06 -2688.56 -2290.49 -2196.13 -2213.62 -2221.16 -2230.32 -2348.43 -2339.43 -2313.84 -2255.12 -2227.94 -2412.32 -2509.34 -2853.78 -2822.32 -2404.91 -2409.49 -2549.39 -2559.41 -2580.15 -2708.09 -2983.02 -4504.70 -4751.09 -4950.12 -4976.77 -4984.98 -5045.53 -5053.69 -4872.49 -3711.34 -4848.47 -4647.03 -3110.36 -3335.36 -4685.51 -4867.05 -4836.55 -4822.14 -4818.20 -4802.93 -4683.21 -4727.99 -4901.25 -4923.51 -4725.63 -3268.73 -3299.82 -4709.75 -4900.44 -4900.91 -4900.49 -4900.91 -4900.99 -4906.70 -4948.92 -4954.64 -4954.65 -4954.65 -4954.65 -4954.64 -4948.24 -4900.94 -4894.54 -4894.53 -4894.53 -4894.53 -4894.54 -4900.88 -4947.67 -4954.00 -4954.02 -4954.02 -4954.02 -4954.03 -4958.92 -4995.09 -4999.99 -5000.00 -5000.00 -5000.00 -5000.00 -5000.00 -5000.00
-5076.85 -5076.85 -5076.85 -5076.85 -5076.85 -5076.80 -5055.58 -4898.80 -4877.59 -4877.53 -4877.53 -4877.53 -4877.55 -4884.19 -4933.21 -4939.85 -4939.86 -4939.86 -4939.86 -4939.90 -4954.38 -5061.36 -5075.84 -5075.87 -5075.87 -5075.87 -5075.88 -5079.39 -5105.31 -5108.81 -5108.82 -5108.82 -5108.82 -5108.77 -5087.11 -4927.06 -4905.40 -4905.35 -4905.35 -4905.35 -4905.34 -4901.68 -4874.66 -4871.01 -4871.00 -4871.00 -4871.00 -4870.92 -4837.58 -4591.23 -4557.89 -4557.80 -4557.80 -4557.30 -4355.32 -2900.40 -2924.21 -2535.50 -2449.12 -2312.26 -2209.24 -2195.00 -2199.81 -2239.24 -2178.89 -2018.24 -1847.48 -1665.92 -2355.06 -2536.94 -2963.99 -4134.37 -2889.60 -2808.91 -2900.07 -2920.87 -3147.53 -4524.57 -4743.75 -4949.15 -4976.88 -4977.44 -4977.53 -4985.69 -5046.02 -5054.12 -5029.61 -4872.04 -4855.84 -3540.01 -2963.81 -3428.83 -4893.79 -5086.08 -5086.48 -5086.44 -5086.39 -5069.04 -4940.83 -4923.63 -4924.02 -4924.01 -4897.23 -4703.16 -4725.11 -4880.43 -4900.95 -4901.00 -4901.00 -4901.00 -4901.02 -4906.73 -4948.94 -4954.65 -4954.66 -4954.66 -4954.66 -4954.65 -4948.25 -4900.97 -4894.57 -4894.56 -4894.56 -4894.56 -4894.57 -4900.90 -4947.68 -4954.01 -4954.03 -4954.03 -4954.03 -4954.04 -4958.93 -4995.09 -4999.99 -5000.00 -5000.00 -5000.00 -5000.00 -5000.00 -5000.00
-5068.67 -5068.67 -5068.67 -5068.67 -5068.67 -5068.62 -5049.66 -4909.58 -4890.62 -4890.57 -4890.57 -4890.57 -4890.59 -4896.52 -4940.32 -4946.25 -4946.27 -4946.27 -4946.27 -4946.30 -4959.24 -5054.82 -5067.76 -5067.79 -5067.79 -5067.79 -5067.80 -5070.94 -5094.09 -5097.23 -5097.24 -5097.24 -5097.24 -5097.19 -5077.83 -4934.83 -4915.48 -4915.43 -4915.43 -4915.43 -4915.42 -4912.15 -4888.01 -4884.74 -4884.73 -4884.73 -4884.73 -4884.66 -4854.87 -4634.75 -4604.96 -4604.89 -4604.89 -4604.19 -4321.92 -2503.50 -4045.79 -2843.25 -2114.41 -2002.53 -1884.97 -2046.71 -2375.35 -2058.55 -1895.98 -1957.38 -2243.73 -2541.20 -2914.92 -2932.68 -2732.36 -2931.49 -3096.56 -4580.59 -4790.75 -4793.90 -4818.55 -4960.13 -4979.28 -4979.83 -4979.90 -4979.90 -4979.92 -4987.22 -5041.12 -5048.42 -5048.37 -5047.92 -5024.86 -4847.22 -4798.67 -4878.23 -5054.95 -5077.77 -5077.82 -5077.82 -5077.79 -5062.28 -4947.71 -4932.20 -4932.16 -4932.16 -4932.10 -4931.61 -4929.48 -4913.69 -4911.55 -4911.54 -4911.54 -4911.54 -4911.56 -4916.66 -4954.37 -4959.48 -4959.49 -4959.49 -4959.49 -4959.48 -4953.76 -4911.52 -4905.80 -4905.78 -4905.78 -4905.78 -4905.80 -4911.46 -4953.25 -4958.91 -4958.92 -4958.92 -4958.92 -4958.93 -4963.31 -4995.62 -4999.99 -5000.00 -5000.00 -5000.00 -5000.00 -5000.00 -5000.00
-5008.20 -5008.20 -5008.20 -5008.20 -5008.20 -5008.20 -5005.93 -4989.20 -4986.93 -4986.93 -4986.93 -4986.93 -4986.93 -4987.64 -4992.87 -4993.58 -4993.58 -4993.58 -4993.58 -4993.58 -4995.13 -5006.55 -5008.09 -5008.10 -5008.10 -5008.10 -5008.10 -5008.47 -5011.24 -5011.62 -5011.62 -5011.62 -5011.62 -5011.61 -5009.30 -4992.21 -4989.90 -4989.90 -4989.90 -4989.90 -4989.90 -4989.51 -4986.62 -4986.23 -4986.23 -4986.23 -4986.23 -4986.22 -4982.66 -4956.37 -4952.81 -4952.80 -4952.80 -4951.63 -4481.63 -1472.56 -4411.18 -3871.49 -772.72 -261.94 -279.54 -1272.84 -3959.18 -1760.87 -737.55 -1428.37 -4296.59 -4716.11 -4755.16 -4354.71 -1759.65 -4325.45 -4770.15 -4977.27 -5004.90 -5004.97 -5004.20 -4998.39 -4997.60 -4997.60 -4997.60 -4997.60 -4997.60 -4998.47 -5004.91 -5005.78 -5005.79 -5005.79 -5005.73 -5005.29 -5005.54 -5008.44 -5009.24 -5009.30 -5009.30 -5009.30 -5009.29 -5007.44 -4993.75 -4991.90 -4991.90 -4991.90 -4991.90 -4991.90 -4991.63 -4989.70 -4989.43 -4989.43 -4989.43 -4989.43 -4989.43 -4990.04 -4994.55 -4995.16 -4995.16 -4995.16 -4995.16 -4995.16 -4994.48 -4989.43 -4988.75 -4988.74 -4988.74 -4988.74 -4988.75 -4989.42 -4994.42 -4995.09 -4995.09 -4995.09 -4995.09 -4995.09 -4995.62 -4999.48 -5000.00 -5000.00 -5000.00 -5000.00 -5000.00 -5000.00 -5000.00
-5000.02 -5000.02 -5000.02 -5000.02 -5000.02 -5000.02 -5000.01 -4999.97 -4999.97 -4999.97 -4999.97 -4999.97 -4999.97 -4999.97 -4999.98 -4999.98 -4999.98 -4999.98 -4999.98 -4999.98 -4999.99 -5000.02 -5000.02 -5000.02 -5000.02 -5000.02 -5000.02 -5000.02 -5000.03 -5000.03 -5000.03 -5000.03 -5000.03 -5000.03 -5000.02 -4999.98 -4999.98 -4999.98 -4999.98 -4999.98 -4999.98 -4999.97 -4999.97 -4999.97 -4999.97 -4999.97 -4999.97 -4999.97 -4999.96 -4999.89 -4999.88 -4999.88 -4999.88 -4998.73 -4533.51 -1504.45 -3704.96 -1016.44 -376.67 -559.79 -589.09 -3663.94 -4841.85 -4602.04 -4463.99 -4557.68 -4947.34 -4999.03 -4998.21 -4944.01 -4591.10 -4944.08 -4999.30 -4999.95 -5000.01 -5000.01 -5000.01 -5000.00 -4999.99 -4999.99 -4999.99 -4999.99 -4999.99 -5000.00 -5000.01 -5000.01 -5000.01 -5000.01 -5000.01 -5000.01 -5000.02 -5000.02 -5000.02 -5000.02 -5000.02 -5000.02 -5000.02 -5000.02 -4999.98 -4999.98 -4999.98 -4999.98 -4999.98 -4999.98 -4999.98 -4999.97 -4999.97 -4999.97 -4999.97 -4999.97 -4999.97 -4999.98 -4999.99 -4999.99 -4999.99 -4999.99 -4999.99 -4999.99 -4999.99 -4999.97 -4999.97 -4999.97 -4999.97 -4999.97 -4999.97 -4999.97 -4999.99 -4999.99 -4999.99 -4999.99 -4999.99 -4999.99 -4999.99 -5000.00 -5000.00 -5000.00 -5000.00 -5000.00 -5000.00 -5000.00 -5000.00
-5000.00 -5000.00 -5000.00 -5000.00 -5000.00 -5000.00 -5000.00 -5000.00 -5000.00 -5000.00 -5000.00 -5000.00 -5000.00 -5000.00 -5000.00 -5000.00 -5000.00 -5000.00 -5000.00 -5000.00 -5000.00 -5000.00 -5000.00 -5000.00 -5000.00 -5000.00 -5000.00 -5000.00 -5000.00 -5000.00 -5000.00 -5000.00 -5000.00 -5000.00 -5000.00 -5000.00 -5000.00 -5000.00 -5000.00 -5000.00 -5000.00 -5000.00 -5000.00 -5000.00 -5000.00 -5000.00 -5000.00 -5000.00 -5000.00 -5000.00 -5000.00 -5000.00 -5000.00 -4998.68 -4468.19 -712.91 -1325.94 -807.25 -1305.91 -3730.74 -1349.88 -1494.70 -4582.65 -4997.98 -4998.67 -4998.91 -4999.73 -4942.78 -4577.21 -4942.65 -4998.85 -4999.86 -5000.00 -5000.00 -5000.00 -5000.00 -5000.00 -5000.00 -5000.00 -5000.00 -5000.00 -5000.00 -5000.00 -5000.00 -5000.00 -5000.00 -5000.00 -5000.00 -5000.00 -5000.00 -5000.00 -5000.00 -5000.00 -5000.00 -5000.00 -5000.00 -5000.00 -5000.00 -5000.00 -5000.00 -5000.00 -5000.00 -5000.00 -5000.00 -5000.00 -5000.00 -5000.00 -5000.00 -5000.00 -5000.00 -5000.00 -5000.00 -5000.00 -5000.00 -5000.00 -5000.00 -5000.00 -5000.00 -5000.00 -5000.00 -5000.00 -5000.00 -5000.00 -5000.00 -5000.00 -5000.00 -5000.00 -5000.00 -5000.00 -5000.00 -5000.00 -5000.00 -5000.00 -5000.00 -5000.00 -5000.00 -5000.00 -5000.00 -5000.00 -5000.00 -5000.00
-5000.00 -5000.00 -5000.00 -5000.00 -5000.00 -5000.00 -5000.00 -5000.00 -5000.00 -5000.00 -5000.00 -5000.00 -5000.00 -5000.00 -5000.00 -5000.00 -5000.00 -5000.00 -5000.00 -5000.00 -5000.00 -5000.00 -5000.00 -5000.00 -5000.00 -5000.00 -5000.00 -5000.00 -5000.00 -5000.00 -5000.00 -5000.00 -5000.00 -5000.00 -5000.00 -5000.00 -5000.00 -5000.00 -5000.00 -5000.00 -5000.00 -5000.00 -5000.00 -5000.00 -5000.00 -5000.00 -5000.00 -5000.00 -5000.00 -5000.00 -5000.00 -5000.00 -5000.00 -4998.65 -4456.28 -933.23 -3706.05 -2037.12 -4234.87 -4896.01 -4568.15 -4533.18 -4943.57 -4999.86 -5000.00 -5000.00 -4998.95 -4577.21 -1876.01 -4577.21 -4998.95 -5000.00 -5000.00 -5000.00 -5000.00 -5000.00 -5000.00 -5000.00 -5000.00 -5000.00 -5000.00 -5000.00 -5000.00 -5000.00 -5000.00 -5000.00 -5000.00 -5000.00 -5000.00 -5000.00 -5000.00 -5000.00 -5000.00 -5000.00 -5000.00 -5000.00 -5000.00 -5000.00 -5000.00 -5000.00 -5000.00 -5000.00 -5000.00 -5000.00 -5000.00 -5000.00 -5000.00 -5000.00 -5000.00 -5000.00 -5000.00 -5000.00 -5000.00 -5000.00 -5000.00 -5000.00 -5000.00 -5000.00 -5000.00 -5000.00 -5000.00 -5000.00 -5000.00 -5000.00 -5000.00 -5000.00 -5000.00 -5000.00 -5000.00 -5000.00 -5000.00 -5000.00 -5000.00 -5000.00 -5000.00 -5000.00 -5000.00 -5000.00 -5000.00 -5000.00 -5000.00
-5000.00 -5000.00 -5000.00 -5000.00 -5000.00 -5000.00 -5000.00 -5000.00 -5000.00 -5000.00 -5000.00 -5000.00 -5000.00 -5000.00 -5000.00 -5000.00 -5000.00 -5000.00 -5000.00 -5000.00 -5000.00 -5000.00 -5000.00 -5000.00 -5000.00 -5000.00 -5000.00 -5000.00 -5000.00 -5000.00 -5000.00 -5000.00 -5000.00 -5000.00 -5000.00 -5000.00 -5000.00 -5000.00 -5000.00 -5000.00 -5000.00 -5000.00 -5000.00 -5000.00 -5000.00 -5000.00 -5000.00 -5000.00 -5000.00 -5000.00 -5000.00 -5000.00 -5000.00 -4998.53 -4405.25 -605.09 -4358.39 -4658.72 -4953.11 -4999.63 -4998.93 -4998.84 -4999.86 -5000.00 -5000.00 -5000.00 -4999.86 -4942.78 -4577.21 -4942.78 -4999.86 -5000.00 -5000.00 -5000.00 -5000.00 -5000.00 -5000.00 -5000.00 -5000.00 -5000.00 -5000.00 -5000.00 -5000.00 -5000.00 -5000.00 -5000.00 -5000.00 -5000.00 -5000.00 -5000.00 -5000.00 -5000.00 -5000.00 -5000.00 -5000.00 -5000.00 -5000.00 -5000.00 -5000.00 -5000.00 -5000.00 -5000.00 -5000.00 -5000.00 -5000.00 -5000.00 -5000.00 -5000.00 -5000.00 -5000.00 -5000.00 -5000.00 -5000.00 -5000.00 -5000.00 -5000.00 -5000.00 -5000.00 -5000.00 -5000.00 -5000.00 -5000.00 -5000.00 -5000.00 -5000.00 -5000.00 -5000.00 -5000.00 -5000.00 -5000.00 -5000.00 -5000.00 -5000.00 -5000.00 -5000.00 -5000.00 -5000.00 -5000.00 -5000.00 -5000.00 -5000.00
-5000.00 -5000.00 -5000.00 -5000.00 -5000.00 -5000.00 -5000.00 -5000.00 -5000.00 -5000.00 -5000.00 -5000.00 -5000.00 -5000.00 -5000.00 -5000.00 -5000.00 -5000.00 -5000.00 -5000.00 -5000.00 -5000.00 -5000.00 -5000.00 -5000.00 -5000.00 -5000.00 -5000.00 -5000.00 -5000.00 -5000.00 -5000.00 -5000.00 -5000.00 -5000.00 -5000.00 -5000.00 -5000.00 -5000.00 -5000.00 -5000.00 -5000.00 -5000.00 -5000.00 -5000.00 -5000.00 -5000.00 -5000.00 -5000.00 -5000.00 -5000.00 -5000.00 -5000.00 -4998.82 -4524.50 -1486.50 -4524.39 -4997.98 -4999.89 -5000.00 -5000.00 -5000.00 -5000.00 -5000.00 -5000.00 -5000.00 -5000.00 -4999.86 -4998.95 -4999.86 -5000.00 -5000.00 -5000.00 -5000.00 -5000.00 -5000.00 -5000.00 -5000.00 -5000.00 -5000.00 -5000.00 -5000.00 -5000.00 -5000.00 -5000.00 -5000.00 -5000.00 -5000.00 -5000.00 -5000.00 -5000.00 -5000.00 -5000.00 -5000.00 -5000.00 -5000.00 -5000.00 -5000.00 -5000.00 -5000.00 -5000.00 -5000.00 -5000.00 -5000.00 -5000.00 -5000.00 -5000.00 -5000.00 -5000.00 -5000.00 -5000.00 -5000.00 -5000.00 -5000.00 -5000.00 -5000.00 -5000.00 -5000.00 -5000.00 -5000.00 -5000.00 -5000.00 -5000.00 -5000.00 -5000.00 -5000.00 -5000.00 -5000.00 -5000.00 -5000.00 -5000.00 -5000.00 -5000.00 -5000.00 -5000.00 -5000.00 -5000.00 -5000.00 -5000.00 -5000.00 -5000.00
-5000.00 -5000.00 -5000.00 -5000.00 -5000.00 -5000.00 -5000.00 -5000.00 -5000.00 -5000.00 -5000.00 -5000.00 -5000.00 -5000.00 -5000.00 -5000.00 -5000.00 -5000.00 -5000.00 -5000.00 -5000.00 -5000.00 -5000.00 -5000.00 -5000.00 -5000.00 -5000.00 -5000.00 -5000.00 -5000.00 -5000.00 -5000.00 -5000.00 -5000.00 -5000.00 -5000.00 -5000.00 -5000.00 -5000.00 -5000.00 -5000.00 -5000.00 -5000.00 -5000.00 -5000.00 -5000.00 -5000.00 -5000.00 -5000.00 -5000.00 -5000.00 -5000.00 -5000.00 -4998.55 -4415.00 -677.37 -4415.00 -4998.55 -5000.00 -5000.00 -5000.00 -5000.00 -5000.00 -5000.00 -5000.00 -5000.00 -5000.00 -5000.00 -5000.00 -5000.00 -5000.00 -5000.00 -5000.00 -5000.00 -5000.00 -5000.00 -5000.00 -5000.00 -5000.00 -5000.00 -5000.00 -5000.00 -5000.00 -5000.00 -5000.00 -5000.00 -5000.00 -5000.00 -5000.00 -5000.00 -5000.00 -5000.00 -5000.00 -5000.00 -5000.00 -5000.00 -5000.00 -5000.00 -5000.00 -5000.00 -5000.00 -5000.00 -5000.00 -5000.00 -5000.00 -5000.00 -5000.00 -5000.00 -5000.00 -5000.00 -5000.00 -5000.00 -5000.00 -5000.00 -5000.00 -5000.00 -5000.00 -5000.00 -5000.00 -5000.00 -5000.00 -5000.00 -5000.00 -5000.00 -5000.00 -5000.00 -5000.00 -5000.00 -5000.00 -5000.00 -5000.00 -5000.00 -5000.00 -5000.00 -5000.00 -5000.00 -5000.00 -5000.00 -5000.00 -5000.00 -5000.00
