-5111.94 -5111.94 -5111.94 -5111.94 -5111.94 -5111.91 -5099.81 -5010.41 -4998.31 -4998.28 -4998.28 -4998.28 -4998.31 -5009.56 -5092.68 -5103.93 -5103.96 -5103.96 -5103.96 -5103.92 -5089.26 -4980.91 -4966.25 -4966.21 -4966.21 -4966.21 -4965.57 -4705.70 -2785.55 -2525.15 -2308.78 -671.11 -120.84 -12.89 146.76 444.65 480.88 477.70 463.58 473.91 503.85 535.33 702.49 715.62 699.47 693.78 690.95 686.25 623.57 346.55 274.80 266.38 181.54 -196.26 -439.13 -1777.87 -2120.74 -2149.31 -1974.61 -905.74 -1981.54 -1984.69 -720.74 -438.24 -299.54 29.02 99.33 126.41 146.68 171.04 324.53 369.80 369.99 345.82 335.52 375.93 429.49 398.84 258.02 235.08 232.95 223.41 225.16 224.78 187.51 180.85 177.90 181.01 187.28 199.62 209.59 204.95 217.85 223.46 258.22 393.49 485.24 524.13 543.85 483.89 375.42 280.76 233.71 -229.09 -2104.70 -4659.91 -4978.32 -4979.11 -4979.11 -4979.11 -4979.11 -4977.49 -4965.53 -4963.91 -4963.90 -4963.90 -4963.90 -4963.93 -4973.13 -5041.13 -5050.33 -5050.36 -5050.36 -5050.36 -5050.32 -5036.31 -4932.80 -4918.79 -4918.76 -4918.76 -4918.76 -4918.78 -4927.43 -4991.33 -4999.98 -5000.00 -5000.00 -5000.00 -5000.00 -5000.00 -5000.00
-5103.70 -5103.70 -5103.70 -5103.70 -5103.70 -5103.67 -5091.67 -5003.06 -4991.06 -4991.03 -4991.03 -4991.03 -4991.06 -5002.78 -5089.32 -5101.04 -5101.07 -5101.07 -5101.07 -5101.01 -5079.89 -4923.83 -4902.71 -4902.66 -4902.66 -4902.66 -4902.02 -4646.07 -2754.84 -2498.34 -2274.83 -589.62 -71.85 23.49 137.65 414.43 464.34 502.60 485.35 501.80 524.00 560.23 729.75 756.38 733.01 731.28 735.07 714.71 646.32 407.91 322.97 299.68 283.85 250.25 213.85 22.24 -170.48 -239.34 -167.18 -58.14 -218.47 -247.47 -19.96 60.10 80.00 81.57 111.09 132.89 147.21 166.45 317.53 357.96 409.56 402.59 325.97 334.95 454.25 431.82 292.06 253.43 240.44 230.42 224.82 219.84 168.70 176.07 175.14 173.69 180.29 216.35 229.97 220.83 218.50 233.26 241.15 315.62 304.02 360.15 434.34 382.20 366.97 408.85 367.04 226.35 -615.01 -4424.76 -4934.61 -4935.88 -4935.88 -4935.88 -4935.88 -4939.35 -4964.96 -4968.42 -4968.43 -4968.43 -4968.43 -4968.45 -4975.83 -5030.38 -5037.76 -5037.78 -5037.78 -5037.78 -5037.75 -5026.84 -4946.24 -4935.33 -4935.31 -4935.31 -4935.31 -4935.32 -4942.21 -4993.10 -4999.98 -5000.00 -5000.00 -5000.00 -5000.00 -5000.00 -5000.00
-5042.77 -5042.77 -5042.77 -5042.77 -5042.77 -5042.74 -5031.53 -4948.70 -4937.49 -4937.46 -4937.46 -4937.46 -4937.50 -4952.64 -5064.51 -5079.65 -5079.69 -5079.69 -5079.69 -5079.51 -5010.68 -4502.04 -4433.21 -4433.04 -4433.04 -4433.04 -4432.47 -4205.44 -2527.90 -2300.18 -2048.98 -185.90 179.17 238.36 320.05 549.65 583.12 613.29 618.13 651.50 660.44 674.87 828.63 830.78 824.37 800.61 791.58 764.22 710.44 525.41 487.92 472.42 421.46 410.97 407.03 404.45 382.46 373.14 354.22 331.67 368.32 358.43 316.52 107.78 65.00 75.22 87.14 95.71 107.26 140.76 182.94 214.48 257.66 243.28 170.21 161.43 329.42 369.52 303.71 266.23 230.27 208.67 191.07 175.84 103.65 97.42 102.11 107.85 112.40 138.43 186.06 213.24 175.64 166.02 162.11 185.07 215.89 279.91 453.10 482.52 504.25 735.88 485.01 387.06 -286.92 -4101.20 -4615.06 -4616.39 -4616.39 -4616.39 -4616.49 -4657.53 -4960.77 -5001.80 -5001.91 -5001.91 -5001.91 -5001.89 -4995.82 -4950.93 -4944.86 -4944.84 -4944.84 -4944.84 -4944.87 -4956.88 -5045.56 -5057.56 -5057.59 -5057.59 -5057.59 -5057.58 -5051.45 -5006.15 -5000.02 -5000.00 -5000.00 -5000.00 -5000.00 -5000.00 -5000.00
-5034.52 -5034.52 -5034.52 -5034.52 -5034.52 -5034.49 -5023.39 -4941.34 -4930.24 -4930.21 -4930.21 -4930.21 -4930.25 -4945.85 -5061.15 -5076.75 -5076.79 -5076.79 -5076.79 -5076.61 -5001.31 -4444.96 -4369.67 -4369.48 -4369.48 -4369.48 -4368.93 -4145.81 -2497.06 -2246.54 -1813.97 -28.73 266.20 311.84 382.16 589.58 609.95 610.15 637.31 662.82 677.54 702.28 856.41 849.74 823.24 803.96 809.16 796.21 727.81 546.38 517.57 508.32 489.35 479.52 458.64 454.19 443.39 431.14 421.68 413.61 418.07 424.37 373.62 116.29 67.08 83.51 92.28 99.49 109.28 150.42 209.21 244.88 225.64 196.42 161.67 175.78 320.93 320.68 321.80 306.49 267.08 241.87 224.38 185.02 103.60 89.03 95.08 100.92 117.71 129.73 170.98 206.53 158.52 137.02 142.16 166.57 228.82 287.08 446.88 450.80 581.86 830.63 725.17 435.39 -205.23 -3871.07 -4546.82 -4573.09 -4573.15 -4573.15 -4573.27 -4619.39 -4960.20 -5006.32 -5006.44 -5006.44 -5006.44 -5006.42 -4998.52 -4940.18 -4932.29 -4932.27 -4932.27 -4932.27 -4932.30 -4947.41 -5059.00 -5074.11 -5074.14 -5074.14 -5074.14 -5074.13 -5066.23 -5007.91 -5000.02 -5000.00 -5000.00 -5000.00 -5000.00 -5000.00 -5000.00
-5034.50 -5034.50 -5034.50 -5034.50 -5034.50 -5034.47 -5023.37 -4941.32 -4930.22 -4930.19 -4930.19 -4930.19 -4930.23 -4945.84 -5061.14 -5076.75 -5076.78 -5076.78 -5076.78 -5076.60 -5001.29 -4444.82 -4369.51 -4369.32 -4369.32 -4369.32 -4368.77 -4145.54 -2471.96 -1871.73 -332.58 210.09 331.43 347.16 396.50 602.43 633.91 652.86 651.27 655.26 674.46 696.18 841.95 853.37 806.71 812.78 800.64 793.02 731.07 552.56 526.41 519.26 510.55 506.11 500.39 496.09 487.47 457.72 441.94 438.77 436.57 432.98 392.06 113.57 87.93 94.80 109.71 123.46 142.44 154.47 202.13 220.90 182.19 161.85 161.35 154.06 289.87 320.03 243.32 247.36 231.61 230.00 257.65 215.46 151.62 98.52 98.64 101.92 147.67 154.87 160.07 183.32 159.19 128.31 129.87 149.51 207.07 312.23 412.07 412.39 491.12 724.47 776.28 451.05 27.90 -2477.26 -4358.43 -4572.45 -4573.05 -4573.05 -4573.16 -4619.30 -4960.20 -5006.33 -5006.45 -5006.45 -5006.45 -5006.43 -4998.53 -4940.16 -4932.26 -4932.24 -4932.24 -4932.24 -4932.27 -4947.38 -5059.04 -5074.15 -5074.19 -5074.19 -5074.19 -5074.17 -5066.27 -5007.92 -5000.02 -5000.00 -5000.00 -5000.00 -5000.00 -5000.00 -5000.00
-5034.50 -5034.50 -5034.50 -5034.50 -5034.50 -5034.47 -5023.37 -4941.32 -4930.22 -4930.19 -4930.19 -4930.19 -4930.23 -4945.84 -5061.14 -5076.75 -5076.78 -5076.78 -5076.78 -5076.60 -5001.29 -4444.82 -4369.51 -4369.32 -4369.32 -4369.32 -4368.71 -4121.13 -2112.79 -463.72 146.38 293.68 359.28 375.52 410.37 596.49 645.14 665.85 657.27 666.26 677.19 710.28 862.44 839.68 826.62 828.54 817.59 810.58 750.77 560.37 536.62 531.75 524.21 522.87 521.98 520.89 514.91 508.77 501.04 493.14 485.37 474.94 434.38 166.29 124.47 129.21 152.04 164.81 156.02 163.87 174.00 179.10 174.85 158.55 148.77 135.13 217.56 297.16 202.73 191.64 190.95 209.15 277.33 221.74 149.63 107.93 96.89 96.66 115.98 169.54 158.88 157.41 144.48 119.47 117.10 126.71 155.65 225.60 419.80 448.35 527.89 687.62 786.91 782.24 354.19 -2056.02 -4109.91 -4545.34 -4572.98 -4573.05 -4573.16 -4619.30 -4960.20 -5006.33 -5006.45 -5006.45 -5006.45 -5006.43 -4998.53 -4940.16 -4932.26 -4932.24 -4932.24 -4932.24 -4932.27 -4947.38 -5059.04 -5074.15 -5074.19 -5074.19 -5074.19 -5074.17 -5066.27 -5007.92 -5000.02 -5000.00 -5000.00 -5000.00 -5000.00 -5000.00 -5000.00
-5034.50 -5034.50 -5034.50 -5034.50 -5034.50 -5034.47 -5023.37 -4941.35 -4930.25 -4930.22 -4930.22 -4930.22 -4930.26 -4945.86 -5061.13 -5076.73 -5076.77 -5076.77 -5076.77 -5076.58 -5001.23 -4444.51 -4369.16 -4368.97 -4368.97 -4368.97 -4367.84 -3938.87 -719.59 114.82 215.69 283.27 348.90 377.09 402.99 622.45 646.80 670.26 685.94 676.29 693.84 697.05 850.56 858.35 847.03 839.63 836.48 808.46 766.65 576.39 546.33 541.97 538.98 538.09 539.59 535.94 532.16 527.23 522.17 514.64 508.08 498.00 451.44 173.44 138.57 166.74 163.79 175.51 186.18 175.41 171.82 181.72 171.48 172.81 164.62 131.85 193.73 317.96 190.82 161.39 173.64 191.36 233.57 214.75 164.06 128.70 101.68 97.61 101.90 125.37 133.40 118.04 122.88 109.61 108.46 110.43 120.30 162.56 368.65 537.06 584.28 664.62 842.03 584.64 181.45 -1830.79 -2623.21 -4344.85 -4572.37 -4572.93 -4573.05 -4619.20 -4960.21 -5006.36 -5006.48 -5006.48 -5006.48 -5006.46 -4998.56 -4940.16 -4932.26 -4932.24 -4932.24 -4932.24 -4932.27 -4947.39 -5059.04 -5074.15 -5074.19 -5074.19 -5074.19 -5074.17 -5066.27 -5007.92 -5000.02 -5000.00 -5000.00 -5000.00 -5000.00 -5000.00 -5000.00
-5033.08 -5033.08 -5033.08 -5033.08 -5033.08 -5033.06 -5023.42 -4952.22 -4942.58 -4942.56 -4942.56 -4942.56 -4942.59 -4956.06 -5055.62 -5069.09 -5069.12 -5069.12 -5069.12 -5068.90 -4979.31 -4317.27 -4227.67 -4227.45 -4227.39 -4226.88 -4197.88 -3550.10 -249.61 225.54 266.43 318.91 390.40 399.00 421.11 656.62 660.10 668.63 721.22 705.24 690.34 700.05 828.21 835.13 839.45 823.97 842.72 823.44 782.66 601.04 552.99 553.87 553.64 552.86 554.03 549.99 537.54 528.00 522.10 513.50 507.93 499.87 456.82 199.09 168.20 189.34 194.45 179.76 186.88 188.78 166.90 172.89 155.41 150.18 132.91 132.83 249.67 373.32 221.94 146.98 157.34 176.67 184.81 193.93 126.30 117.98 105.66 96.72 95.95 107.66 100.61 89.29 91.56 92.43 94.91 98.00 104.29 135.51 311.88 400.39 465.84 550.03 711.20 629.97 126.86 -1774.25 -2324.29 -4263.59 -4525.80 -4526.52 -4526.65 -4579.09 -4966.64 -5019.09 -5019.22 -5019.22 -5019.22 -5019.20 -5010.00 -4942.02 -4932.82 -4932.80 -4932.80 -4932.80 -4932.84 -4948.11 -5060.94 -5076.21 -5076.24 -5076.24 -5076.24 -5076.22 -5068.11 -5008.14 -5000.02 -5000.00 -5000.00 -5000.00 -5000.00 -5000.00 -5000.00
-5022.61 -5022.61 -5022.61 -5022.61 -5022.61 -5022.62 -5023.80 -5032.51 -5033.69 -5033.69 -5033.69 -5033.69 -5033.68 -5031.45 -5014.91 -5012.67 -5012.66 -5012.66 -5012.66 -5012.18 -4817.27 -3377.11 -3182.20 -3181.60 -3157.53 -2979.60 -2728.31 -1055.75 185.31 349.86 440.45 455.84 500.42 489.63 553.12 744.83 796.92 817.73 818.13 816.30 812.33 802.58 796.06 800.88 801.54 791.69 824.42 811.36 794.27 628.92 577.77 558.55 560.84 566.78 568.35 556.14 477.23 459.90 452.06 446.78 434.80 431.21 411.24 322.08 284.78 297.74 290.25 289.04 277.76 262.00 150.49 126.12 101.30 98.97 72.54 97.25 118.91 185.03 270.37 74.20 56.40 78.12 94.53 85.92 45.94 53.72 71.66 60.18 46.48 48.59 47.57 21.27 18.42 20.89 24.07 29.79 32.01 44.21 97.76 131.14 187.55 258.05 383.05 437.38 -34.98 -1475.88 -1917.16 -3714.55 -4155.58 -4183.48 -4183.79 -4282.77 -5014.15 -5113.13 -5113.38 -5113.38 -5113.38 -5113.33 -5094.55 -4955.80 -4937.02 -4936.98 -4936.98 -4936.98 -4937.02 -4953.46 -5074.94 -5091.38 -5091.42 -5091.42 -5091.42 -5091.40 -5081.67 -5009.76 -5000.02 -5000.00 -5000.00 -5000.00 -5000.00 -5000.00 -5000.00
-5021.20 -5021.20 -5021.20 -5021.20 -5021.20 -5021.20 -5023.85 -5043.37 -5046.02 -5046.02 -5046.02 -5046.02 -5046.01 -5041.65 -5009.40 -5005.03 -5005.02 -5005.02 -5005.02 -5004.50 -4795.34 -3249.87 -3040.66 -3016.25 -2666.58 -1316.91 -929.94 -509.45 260.55 450.44 486.74 490.88 509.06 512.00 555.89 763.06 823.01 846.71 846.40 853.28 830.56 830.03 819.20 798.89 813.09 803.78 823.48 816.06 794.84 655.57 590.96 563.25 557.90 561.81 564.55 557.90 474.98 457.42 453.38 450.13 437.63 438.50 433.71 321.93 301.95 304.12 301.63 293.81 287.80 270.36 152.06 125.64 92.37 77.45 54.97 74.38 78.41 86.94 94.40 40.28 44.02 69.08 99.36 93.47 39.72 31.07 52.52 59.70 46.14 50.36 49.26 22.49 16.10 15.30 19.41 24.79 27.91 33.06 65.23 89.29 111.70 146.34 273.71 368.17 56.02 -1392.24 -1614.43 -2172.38 -3907.67 -4136.57 -4137.39 -4242.67 -5020.58 -5125.86 -5126.12 -5126.12 -5126.12 -5126.07 -5105.99 -4957.66 -4937.59 -4937.54 -4937.54 -4937.54 -4937.58 -4954.18 -5076.83 -5093.43 -5093.48 -5093.48 -5093.48 -5093.45 -5083.50 -5009.98 -5000.02 -5000.00 -5000.00 -5000.00 -5000.00 -5000.00 -5000.00
-5021.19 -5021.19 -5021.19 -5021.19 -5021.19 -5021.20 -5023.85 -5043.40 -5046.05 -5046.05 -5046.05 -5046.05 -5046.04 -5041.67 -5009.38 -5005.01 -5005.00 -5005.00 -5005.00 -5004.48 -4795.29 -3249.56 -3039.82 -2841.45 -1344.03 -832.12 -613.54 -469.77 285.84 454.70 481.99 500.51 506.65 536.81 593.54 789.30 835.84 852.92 851.17 851.48 841.90 842.84 807.53 821.86 825.29 828.20 837.50 825.97 794.24 654.72 610.05 594.99 565.10 571.71 570.29 562.17 487.12 479.19 486.45 480.43 473.35 466.37 451.81 348.75 317.15 306.51 298.43 292.60 288.10 268.67 129.20 104.60 83.69 54.17 36.01 42.94 54.06 52.10 43.16 35.80 44.34 70.49 92.37 94.65 33.10 28.68 43.32 63.21 53.69 55.24 64.89 30.19 22.30 20.29 24.72 30.79 37.85 41.12 69.94 81.93 97.41 144.77 204.86 246.48 130.11 -1381.57 -1626.81 -1964.86 -3878.73 -4136.38 -4137.28 -4242.57 -5020.60 -5125.89 -5126.15 -5126.15 -5126.15 -5126.10 -5106.02 -4957.67 -4937.59 -4937.54 -4937.54 -4937.54 -4937.58 -4954.18 -5076.84 -5093.44 -5093.48 -5093.48 -5093.48 -5093.46 -5083.50 -5009.98 -5000.02 -5000.00 -5000.00 -5000.00 -5000.00 -5000.00 -5000.00
-5021.19 -5021.19 -5021.19 -5021.19 -5021.19 -5021.20 -5023.85 -5043.40 -5046.05 -5046.05 -5046.05 -5046.05 -5046.04 -5041.67 -5009.38 -5005.01 -5005.00 -5005.00 -5005.00 -5004.48 -4795.29 -3249.50 -3016.03 -2633.84 -1063.57 -672.56 -595.05 -463.17 329.11 457.48 480.30 485.44 509.67 540.88 592.93 805.96 837.60 855.02 881.06 884.12 850.89 860.31 837.71 834.21 827.01 854.50 852.20 825.81 795.54 672.23 643.50 621.14 619.34 628.05 618.17 595.85 511.00 498.22 503.99 521.58 510.21 490.80 477.96 364.72 330.74 324.29 306.67 299.39 307.19 280.21 117.10 96.73 83.05 54.63 33.89 35.67 45.18 44.85 37.29 34.88 39.63 59.51 79.16 75.89 35.16 35.66 43.95 61.83 61.50 61.55 73.77 40.50 31.54 30.20 34.88 43.03 46.17 54.00 101.23 104.10 114.47 150.08 176.95 225.48 9.95 -1407.78 -1631.07 -1963.47 -3878.49 -4136.38 -4137.28 -4242.57 -5020.60 -5125.89 -5126.15 -5126.15 -5126.15 -5126.10 -5106.02 -4957.67 -4937.59 -4937.54 -4937.54 -4937.54 -4937.58 -4954.18 -5076.84 -5093.44 -5093.48 -5093.48 -5093.48 -5093.46 -5083.50 -5009.98 -5000.02 -5000.00 -5000.00 -5000.00 -5000.00 -5000.00 -5000.00
-5021.21 -5021.21 -5021.21 -5021.21 -5021.21 -5021.21 -5023.86 -5043.39 -5046.03 -5046.04 -5046.04 -5046.04 -5046.03 -5041.66 -5009.37 -5005.00 -5004.99 -5004.99 -5004.99 -5004.47 -4795.29 -3249.11 -2838.98 -1318.90 -814.54 -632.04 -579.34 -434.18 318.40 451.26 486.32 496.98 506.07 557.46 595.26 817.89 859.21 883.40 885.38 874.76 884.31 858.74 827.71 829.57 862.44 856.24 829.09 806.46 771.82 659.61 658.88 646.66 650.11 650.74 633.26 630.92 542.50 534.24 520.33 555.26 529.66 540.44 521.51 384.02 348.68 344.27 328.86 312.81 327.62 277.13 119.16 90.51 69.07 43.80 33.22 37.69 46.27 40.63 35.15 35.28 40.23 57.33 79.23 64.21 54.87 55.31 45.80 53.45 60.64 71.29 75.53 50.29 43.93 46.79 51.85 61.01 64.90 71.44 116.35 120.68 124.95 157.10 160.79 196.90 3.98 -1339.63 -1635.18 -1974.38 -3879.66 -4136.29 -4137.18 -4242.49 -5020.58 -5125.88 -5126.14 -5126.14 -5126.14 -5126.10 -5106.02 -4957.70 -4937.62 -4937.57 -4937.57 -4937.57 -4937.61 -4954.21 -5076.82 -5093.42 -5093.46 -5093.46 -5093.46 -5093.43 -5083.48 -5009.97 -5000.02 -5000.00 -5000.00 -5000.00 -5000.00 -5000.00 -5000.00
-5026.57 -5026.57 -5026.57 -5026.57 -5026.57 -5026.57 -5028.03 -5038.79 -5040.25 -5040.25 -5040.25 -5040.25 -5040.24 -5036.06 -5005.17 -5000.99 -5000.98 -5000.98 -5000.98 -5000.48 -4797.13 -3270.23 -2673.69 -1052.73 -698.38 -644.60 -597.27 -471.72 306.27 460.64 504.17 513.97 522.78 557.43 630.49 852.77 852.70 866.10 881.80 885.45 885.00 872.07 813.98 828.49 833.39 834.47 803.31 797.20 757.33 674.23 659.74 644.50 646.48 653.76 656.73 619.12 590.44 585.36 574.39 592.62 573.72 598.18 571.07 448.06 403.35 385.76 366.17 346.33 349.56 293.15 134.54 100.74 81.32 61.54 56.50 59.24 66.45 57.52 49.53 50.32 57.66 72.02 90.46 69.41 32.84 39.66 61.01 57.37 69.51 88.65 83.97 71.99 73.49 79.08 87.23 98.40 104.74 91.52 123.25 126.40 135.79 159.11 179.33 270.13 20.54 -1219.37 -1581.33 -1927.75 -3839.73 -4097.35 -4098.26 -4207.47 -5014.41 -5123.61 -5123.88 -5123.88 -5123.88 -5123.84 -5105.34 -4968.64 -4950.14 -4950.09 -4950.09 -4950.09 -4950.13 -4964.42 -5070.06 -5084.35 -5084.39 -5084.39 -5084.39 -5084.37 -5075.38 -5009.01 -5000.02 -5000.00 -5000.00 -5000.00 -5000.00 -5000.00 -5000.00
-5066.22 -5066.22 -5066.22 -5066.22 -5066.22 -5066.20 -5058.88 -5004.83 -4997.52 -4997.50 -4997.50 -4997.50 -4997.49 -4994.71 -4974.13 -4971.34 -4971.34 -4971.34 -4971.34 -4970.94 -4810.73 -3427.40 -1716.14 -1131.37 -1034.80 -989.17 -964.33 -809.73 360.35 562.07 606.70 629.63 654.75 659.08 700.19 833.58 843.63 870.87 901.35 905.52 870.44 847.37 618.34 590.31 581.73 573.29 568.62 570.95 555.98 565.38 556.61 545.31 562.00 568.07 553.84 553.80 789.52 781.16 786.59 804.94 814.74 814.50 779.85 613.32 578.43 549.00 531.53 505.11 495.96 450.83 291.14 277.37 230.29 204.30 200.75 200.19 193.31 156.97 157.99 151.17 153.12 173.56 188.95 167.36 35.66 19.82 36.98 55.23 42.55 59.26 77.85 153.46 174.88 197.60 208.78 220.99 218.92 193.01 184.18 193.32 191.27 208.38 252.35 273.70 96.33 -1024.88 -1298.14 -1605.11 -3546.86 -3809.60 -3810.66 -3948.71 -4968.79 -5106.84 -5107.18 -5107.18 -5107.18 -5107.16 -5100.29 -5049.47 -5042.59 -5042.58 -5042.58 -5042.58 -5042.57 -5039.89 -5020.07 -5017.38 -5017.38 -5017.38 -5017.38 -5017.37 -5015.52 -5001.85 -5000.00 -5000.00 -5000.00 -5000.00 -5000.00 -5000.00 -5000.00
-5071.58 -5071.58 -5071.58 -5071.58 -5071.58 -5071.56 -5063.06 -5000.24 -4991.74 -4991.71 -4991.71 -4991.71 -4991.71 -4989.11 -4969.93 -4967.33 -4967.33 -4967.33 -4967.33 -4966.94 -4812.52 -3450.83 -1604.97 -1140.06 -1077.66 -1041.49 -1024.05 -849.42 371.88 575.65 617.06 641.93 666.47 681.68 704.58 808.31 841.78 864.65 904.02 895.59 888.03 847.89 595.80 549.22 538.02 532.97 522.08 517.20 505.28 549.58 556.33 563.29 535.97 557.83 557.71 558.33 814.43 824.98 852.60 873.94 881.31 873.39 846.06 663.69 634.51 613.98 580.67 547.86 516.98 461.59 306.66 272.02 241.53 227.42 226.24 223.09 213.05 163.53 161.92 162.71 162.53 177.07 195.13 176.19 36.71 34.15 37.35 67.69 50.60 69.20 93.33 179.61 197.21 231.34 263.97 262.65 253.94 231.05 229.23 216.20 203.36 219.06 244.10 231.76 21.44 -1089.61 -1270.44 -1535.40 -3313.32 -3744.42 -3771.68 -3913.70 -4962.61 -5104.57 -5104.92 -5104.92 -5104.92 -5104.91 -5099.60 -5060.41 -5055.11 -5055.09 -5055.09 -5055.09 -5055.08 -5050.10 -5013.30 -5008.32 -5008.31 -5008.31 -5008.31 -5008.30 -5007.42 -5000.89 -5000.00 -5000.00 -5000.00 -5000.00 -5000.00 -5000.00 -5000.00
-5071.59 -5071.59 -5071.59 -5071.59 -5071.59 -5071.57 -5063.07 -5000.23 -4991.72 -4991.70 -4991.70 -4991.70 -4991.69 -4989.10 -4969.92 -4967.32 -4967.32 -4967.32 -4967.32 -4966.88 -4789.78 -3276.49 -1534.54 -1136.42 -1065.71 -1032.07 -1017.49 -838.18 381.28 577.50 598.28 641.72 679.82 713.06 735.83 828.71 870.01 890.81 910.41 904.70 896.78 848.90 593.73 539.10 522.06 521.82 522.58 520.75 510.20 535.74 557.91 557.70 557.64 564.84 549.72 580.01 829.68 857.62 882.30 913.61 931.93 907.36 877.81 695.60 662.54 638.88 599.37 552.59 519.19 471.98 320.53 287.33 247.18 236.40 233.72 226.04 215.76 164.91 160.18 164.83 170.92 200.89 205.54 172.95 27.34 56.17 30.33 40.73 59.47 79.83 112.44 194.26 213.23 253.66 291.16 314.67 312.99 275.81 247.11 191.61 194.14 205.03 174.45 137.32 -7.68 -1092.64 -1269.50 -1359.33 -2069.60 -3576.16 -3771.16 -3913.61 -4962.60 -5104.56 -5104.91 -5104.91 -5104.91 -5104.90 -5099.60 -5060.44 -5055.14 -5055.12 -5055.12 -5055.12 -5055.11 -5050.13 -5013.28 -5008.30 -5008.28 -5008.28 -5008.28 -5008.28 -5007.40 -5000.88 -5000.00 -5000.00 -5000.00 -5000.00 -5000.00 -5000.00 -5000.00
-5071.59 -5071.59 -5071.59 -5071.59 -5071.59 -5071.57 -5063.07 -5000.23 -4991.72 -4991.70 -4991.70 -4991.70 -4991.69 -4989.10 -4969.92 -4967.32 -4967.32 -4967.32 -4967.32 -4966.52 -4644.32 -2231.41 -1616.29 -1191.17 -1066.66 -1030.96 -1015.14 -829.80 401.26 611.95 609.88 645.52 684.23 698.91 723.08 822.47 854.03 872.95 895.30 896.21 896.07 859.80 599.91 549.47 534.99 524.13 523.79 521.99 523.55 546.92 552.36 551.76 561.34 591.66 577.27 614.08 850.10 910.07 952.60 971.16 1045.37 948.66 911.84 740.58 695.06 653.25 619.41 588.01 545.10 488.54 322.37 282.18 255.47 245.14 237.52 229.13 218.35 168.72 165.92 173.13 178.98 208.19 209.17 178.69 24.85 20.69 25.67 47.99 73.13 82.79 127.07 210.70 220.24 252.73 292.64 313.37 313.04 295.43 285.13 201.35 194.83 235.70 194.32 198.08 -37.44 -1111.69 -1271.02 -1490.54 -3307.07 -3744.30 -3771.58 -3913.61 -4962.60 -5104.56 -5104.91 -5104.91 -5104.91 -5104.90 -5099.60 -5060.44 -5055.14 -5055.12 -5055.12 -5055.12 -5055.11 -5050.13 -5013.28 -5008.30 -5008.28 -5008.28 -5008.28 -5008.28 -5007.40 -5000.88 -5000.00 -5000.00 -5000.00 -5000.00 -5000.00 -5000.00 -5000.00
-5071.60 -5071.60 -5071.60 -5071.60 -5071.60 -5071.58 -5063.08 -5000.23 -4991.72 -4991.70 -4991.70 -4991.70 -4991.69 -4989.10 -4969.92 -4967.32 -4967.31 -4967.31 -4967.31 -4966.88 -4790.31 -3484.07 -3086.01 -1485.47 -1093.93 -1022.31 -1016.20 -823.93 410.53 609.43 627.72 653.10 688.95 730.33 756.71 850.15 882.75 899.10 898.75 916.03 924.12 863.56 594.56 563.09 538.44 522.88 521.27 527.09 526.45 549.33 544.68 542.76 560.93 579.19 589.75 621.07 859.06 919.85 943.08 964.08 1000.05 924.16 871.37 683.18 647.29 633.29 622.33 590.62 553.29 499.33 321.44 276.33 265.69 256.65 245.67 237.10 223.73 175.77 178.11 173.18 173.82 182.14 194.97 193.21 30.06 12.95 25.26 70.99 86.85 103.01 117.19 225.52 236.62 274.24 314.16 376.98 385.82 243.23 236.25 205.35 146.39 227.08 271.74 240.44 -41.14 -1130.01 -1288.38 -1570.94 -3508.27 -3770.23 -3771.66 -3913.67 -4962.59 -5104.54 -5104.89 -5104.89 -5104.89 -5104.88 -5099.58 -5060.41 -5055.10 -5055.09 -5055.09 -5055.09 -5055.08 -5050.09 -5013.26 -5008.27 -5008.26 -5008.26 -5008.26 -5008.25 -5007.38 -5000.88 -5000.00 -5000.00 -5000.00 -5000.00 -5000.00 -5000.00 -5000.00
-5074.92 -5074.92 -5074.92 -5074.92 -5074.92 -5074.90 -5066.00 -5000.26 -4991.36 -4991.34 -4991.34 -4991.34 -4991.33 -4988.68 -4969.13 -4966.49 -4966.48 -4966.48 -4966.48 -4966.12 -4820.15 -3741.06 -3390.34 -1826.50 -1232.26 -1116.82 -1086.65 -890.13 387.00 591.87 617.14 647.74 669.71 719.96 747.10 799.37 819.94 860.05 885.91 898.16 873.31 823.98 564.24 538.72 523.09 489.82 505.63 498.46 499.17 535.24 534.65 536.02 546.84 550.95 547.43 592.56 867.90 921.22 950.12 940.86 906.86 876.31 840.50 661.96 631.72 619.55 597.59 578.18 550.94 515.73 336.65 294.59 285.61 275.35 261.33 251.37 236.93 188.02 190.44 188.39 186.07 189.20 207.56 200.60 64.82 44.39 40.12 56.70 85.77 132.42 131.27 221.11 270.42 315.69 321.81 316.53 373.31 216.17 210.07 143.12 122.09 184.77 261.85 129.70 -70.48 -1168.41 -1364.89 -1819.49 -3544.12 -3628.55 -3778.17 -3939.31 -4958.65 -5096.59 -5096.93 -5096.93 -5096.93 -5096.92 -5091.03 -5047.50 -5041.60 -5041.59 -5041.59 -5041.59 -5041.58 -5036.87 -5002.10 -4997.39 -4997.38 -4997.38 -4997.38 -4997.38 -4997.66 -4999.72 -5000.00 -5000.00 -5000.00 -5000.00 -5000.00 -5000.00 -5000.00
-5099.46 -5099.46 -5099.46 -5099.46 -5099.46 -5099.43 -5087.64 -5000.49 -4988.69 -4988.66 -4988.66 -4988.66 -4988.65 -4985.64 -4963.35 -4960.33 -4960.33 -4960.33 -4960.33 -4960.11 -4872.32 -4223.60 -4110.92 -3711.48 -2047.90 -1680.30 -1607.57 -1384.28 195.19 440.96 477.32 510.75 515.46 528.26 519.57 575.68 598.54 615.67 637.29 649.55 649.06 603.15 420.26 387.57 375.90 343.95 354.86 354.62 360.66 436.87 452.05 447.12 453.58 466.67 452.94 500.36 848.63 891.83 905.97 898.93 882.54 874.39 864.08 753.17 733.51 723.28 683.72 667.32 643.90 594.44 397.96 352.24 339.97 327.60 311.33 299.52 285.59 245.54 244.90 250.34 254.43 251.97 272.54 264.25 183.02 163.94 150.61 162.03 168.11 188.81 213.43 337.91 415.13 459.88 432.77 366.62 357.65 312.71 269.34 218.88 183.15 211.33 261.42 166.69 -49.03 -1371.35 -1667.50 -1988.57 -3394.05 -2536.12 -3823.57 -4128.78 -4929.53 -5037.83 -5038.10 -5038.10 -5038.10 -5038.08 -5027.83 -4952.10 -4941.86 -4941.83 -4941.83 -4941.83 -4941.82 -4939.18 -4919.68 -4917.04 -4917.03 -4917.03 -4917.03 -4917.05 -4925.88 -4991.15 -4999.98 -5000.00 -5000.00 -5000.00 -5000.00 -5000.00 -5000.00
-5102.78 -5102.78 -5102.78 -5102.78 -5102.78 -5102.75 -5090.57 -5000.52 -4988.33 -4988.30 -4988.30 -4988.30 -4988.29 -4985.23 -4962.57 -4959.50 -4959.49 -4959.49 -4959.49 -4959.29 -4879.37 -4288.84 -4208.37 -4008.04 -2469.37 -1787.04 -1667.34 -1458.41 143.68 404.61 453.02 425.53 431.67 455.70 511.40 573.25 629.93 623.03 598.63 611.86 600.97 554.91 381.08 344.74 325.81 304.78 324.72 329.01 338.49 413.44 423.80 421.12 408.07 444.31 455.46 493.60 842.38 863.36 868.86 872.31 896.45 922.72 920.77 841.08 770.03 741.04 731.70 708.51 680.51 615.71 418.91 377.89 362.61 346.89 328.43 315.38 300.75 257.96 257.62 262.14 269.27 267.29 268.69 281.92 186.49 183.13 172.04 172.43 196.73 193.95 220.91 357.54 427.34 445.81 420.19 371.69 347.44 307.16 250.23 220.65 193.96 205.43 170.27 145.77 -49.91 -1413.18 -1678.76 -1735.20 -1951.47 -2055.31 -3809.67 -4154.37 -4925.59 -5029.88 -5030.14 -5030.14 -5030.14 -5030.11 -5019.28 -4939.19 -4928.36 -4928.33 -4928.33 -4928.33 -4928.32 -4925.96 -4908.52 -4906.16 -4906.16 -4906.16 -4906.16 -4906.18 -4916.17 -4989.99 -4999.98 -5000.00 -5000.00 -5000.00 -5000.00 -5000.00 -5000.00
-5102.79 -5102.79 -5102.79 -5102.79 -5102.79 -5102.76 -5090.57 -5000.52 -4988.33 -4988.30 -4988.30 -4988.30 -4988.29 -4985.22 -4962.56 -4959.50 -4959.49 -4959.49 -4959.49 -4959.29 -4879.39 -4289.01 -4209.05 -4184.72 -3772.82 -1985.79 -1708.67 -1481.06 117.54 380.93 391.05 431.94 471.82 530.01 613.68 636.00 658.45 637.49 586.45 557.94 568.97 549.65 371.87 321.67 300.80 298.45 309.23 321.45 333.28 403.34 410.83 402.78 394.67 429.92 425.50 492.07 814.91 858.62 885.56 896.31 918.22 957.63 963.24 875.63 839.24 789.68 793.45 770.53 751.61 666.43 474.12 406.27 380.61 358.06 343.13 327.73 315.09 270.71 281.50 272.06 273.58 275.27 270.00 277.10 184.11 188.62 181.68 177.55 183.94 192.27 229.66 345.29 385.43 395.96 399.12 407.73 358.41 310.92 227.00 223.75 225.77 177.18 188.20 137.46 -53.75 -1423.28 -1620.29 -1628.07 -1691.95 -1989.79 -3805.29 -4154.43 -4925.58 -5029.86 -5030.12 -5030.12 -5030.12 -5030.09 -5019.25 -4939.16 -4928.32 -4928.30 -4928.30 -4928.30 -4928.29 -4925.93 -4908.49 -4906.13 -4906.13 -4906.13 -4906.13 -4906.15 -4916.15 -4989.98 -4999.98 -5000.00 -5000.00 -5000.00 -5000.00 -5000.00 -5000.00
-5102.79 -5102.79 -5102.79 -5102.79 -5102.79 -5102.76 -5090.57 -5000.52 -4988.33 -4988.30 -4988.30 -4988.30 -4988.29 -4985.22 -4962.56 -4959.50 -4959.49 -4959.49 -4959.49 -4959.29 -4879.39 -4289.01 -4209.11 -4208.25 -3967.49 -2167.30 -1742.11 -1491.55 104.98 361.03 395.71 520.03 554.24 674.83 641.67 662.29 635.00 562.45 534.83 532.60 556.99 523.09 352.23 319.37 323.92 303.58 291.69 310.62 321.44 385.26 397.84 409.85 402.16 396.27 420.95 487.29 816.62 853.32 897.13 901.35 930.90 941.37 963.92 851.32 837.29 821.58 807.19 820.18 827.41 783.35 533.78 440.21 403.72 375.61 356.89 342.46 338.55 287.82 281.54 281.44 281.17 284.63 281.67 265.96 183.40 189.17 197.28 189.13 189.21 187.56 218.62 333.03 379.38 384.97 384.37 416.08 368.39 371.57 233.56 201.86 179.12 165.43 155.41 126.98 -63.14 -1402.38 -1597.66 -1637.19 -1706.34 -2027.34 -3810.23 -4154.44 -4925.58 -5029.86 -5030.12 -5030.12 -5030.12 -5030.09 -5019.25 -4939.16 -4928.32 -4928.30 -4928.30 -4928.30 -4928.29 -4925.93 -4908.49 -4906.13 -4906.13 -4906.13 -4906.13 -4906.15 -4916.15 -4989.98 -4999.98 -5000.00 -5000.00 -5000.00 -5000.00 -5000.00 -5000.00
-5102.76 -5102.76 -5102.76 -5102.76 -5102.76 -5102.73 -5090.54 -5000.49 -4988.31 -4988.28 -4988.28 -4988.28 -4988.27 -4985.21 -4962.59 -4959.53 -4959.52 -4959.52 -4959.52 -4959.33 -4879.44 -4289.11 -4208.86 -4208.47 -3984.30 -2288.97 -1772.96 -1505.01 89.25 333.85 385.43 480.87 532.16 581.31 557.40 532.19 544.59 549.88 560.43 541.28 529.25 490.45 341.77 318.53 282.28 264.77 273.80 296.33 299.91 382.71 400.43 410.95 415.94 411.07 429.39 476.69 791.23 829.93 841.13 862.31 888.92 908.45 903.34 787.35 773.48 776.01 788.98 808.73 803.60 752.83 554.89 462.44 419.56 389.40 381.53 362.18 362.34 308.55 291.93 292.28 294.85 296.15 308.06 280.76 176.63 194.79 210.18 197.89 199.24 192.94 223.31 342.08 372.52 375.39 362.47 375.03 383.68 354.52 235.37 236.39 156.94 151.32 137.05 115.99 -70.79 -1390.51 -1565.99 -1626.81 -1710.66 -1982.19 -3804.07 -4154.58 -4925.59 -5029.85 -5030.11 -5030.11 -5030.11 -5030.08 -5019.24 -4939.17 -4928.34 -4928.31 -4928.31 -4928.31 -4928.30 -4925.94 -4908.50 -4906.13 -4906.13 -4906.13 -4906.13 -4906.15 -4916.15 -4989.98 -4999.98 -5000.00 -5000.00 -5000.00 -5000.00 -5000.00 -5000.00
-5088.13 -5088.13 -5088.13 -5088.13 -5088.13 -5088.10 -5076.49 -4990.68 -4979.06 -4979.04 -4979.04 -4979.04 -4979.03 -4978.43 -4973.95 -4973.34 -4973.34 -4973.34 -4973.34 -4973.16 -4899.48 -4332.31 -4110.09 -4257.58 -4081.46 -2554.25 -1954.63 -1613.80 17.01 258.73 303.34 357.76 402.23 423.79 399.27 409.82 421.68 432.83 462.31 463.39 466.74 436.03 336.24 318.06 283.04 278.13 290.65 310.73 321.99 404.37 430.19 444.82 450.56 465.92 459.81 489.28 775.92 810.87 818.95 849.64 900.01 914.99 909.82 782.03 765.99 784.81 785.74 760.09 756.18 706.93 511.38 485.04 422.56 383.31 359.44 348.83 332.31 294.08 299.59 313.15 304.86 301.21 317.26 288.04 194.69 172.78 182.76 200.29 214.47 200.21 223.74 323.79 365.38 352.00 334.70 330.01 339.50 346.26 252.83 255.46 155.63 136.04 125.90 117.85 -57.74 -1439.78 -1634.70 -1705.51 -1768.09 -2297.71 -3910.22 -4218.72 -4928.47 -5024.46 -5024.69 -5024.69 -5024.69 -5024.67 -5014.97 -4943.25 -4933.54 -4933.52 -4933.52 -4933.52 -4933.51 -4930.58 -4908.94 -4906.01 -4906.00 -4906.00 -4906.00 -4906.03 -4916.03 -4989.97 -4999.98 -5000.00 -5000.00 -5000.00 -5000.00 -5000.00 -5000.00
-4980.07 -4980.07 -4980.07 -4980.07 -4980.07 -4980.05 -4972.67 -4918.16 -4910.78 -4910.76 -4910.76 -4910.76 -4910.81 -4928.34 -5057.86 -5075.39 -5075.43 -5075.43 -5075.43 -5075.37 -5047.55 -4651.33 -3356.83 -4451.60 -4770.50 -4430.08 -2969.06 -2177.34 -351.28 -116.03 -82.79 -55.58 -52.78 -46.03 -22.96 44.13 93.16 86.76 104.84 122.34 136.96 178.02 421.38 462.01 470.26 466.29 458.10 474.51 504.19 661.25 683.75 680.94 703.51 711.55 704.33 708.08 762.30 773.63 783.50 819.84 865.71 875.20 865.20 697.33 670.47 680.49 644.23 631.22 632.96 580.10 391.46 342.48 316.66 279.51 259.62 250.74 231.96 188.24 212.10 228.45 226.49 232.97 230.38 222.93 212.67 194.89 203.44 220.11 240.44 235.40 250.45 278.59 312.99 287.44 246.47 244.67 271.67 302.15 309.53 266.74 165.85 143.20 133.36 145.36 -96.77 -1918.43 -2168.22 -2226.99 -2565.90 -4226.25 -4631.93 -4692.50 -4949.80 -4984.62 -4984.70 -4984.70 -4984.70 -4984.70 -4983.35 -4973.37 -4972.02 -4972.02 -4972.02 -4972.02 -4972.00 -4964.87 -4912.22 -4905.10 -4905.08 -4905.08 -4905.08 -4905.10 -4915.21 -4989.87 -4999.97 -5000.00 -5000.00 -5000.00 -5000.00 -5000.00 -5000.00
-4965.45 -4965.45 -4965.45 -4965.45 -4965.45 -4965.43 -4958.62 -4908.34 -4901.54 -4901.52 -4901.52 -4901.52 -4901.57 -4921.56 -5069.22 -5089.20 -5089.25 -5089.25 -5089.25 -5089.20 -5067.65 -4716.39 -3250.95 -3253.65 -4695.58 -4864.74 -4447.84 -2462.32 -413.58 -168.97 -157.05 -147.05 -147.12 -144.01 -119.99 -36.58 -1.92 8.44 18.90 44.48 40.55 99.87 423.54 479.28 487.59 490.56 486.87 492.85 506.28 670.80 703.25 715.81 723.92 745.42 721.22 748.43 758.07 765.23 799.25 793.45 814.38 825.68 811.11 634.23 612.20 607.08 591.80 609.60 581.96 544.68 356.20 322.98 297.42 269.27 256.47 245.72 219.26 183.80 211.98 264.21 238.30 255.50 201.62 192.67 205.19 196.88 209.22 230.02 245.32 253.17 276.16 300.87 288.39 257.43 249.95 252.12 300.45 332.45 368.21 210.34 155.07 147.27 148.13 149.80 -121.54 -2027.36 -2284.97 -2430.40 -2910.35 -4516.19 -4729.50 -4756.62 -4952.69 -4979.23 -4979.29 -4979.29 -4979.29 -4979.29 -4979.07 -4977.45 -4977.23 -4977.23 -4977.23 -4977.23 -4977.21 -4969.51 -4912.67 -4904.97 -4904.95 -4904.95 -4904.95 -4904.98 -4915.10 -4989.86 -4999.97 -5000.00 -5000.00 -5000.00 -5000.00 -5000.00 -5000.00
-4965.41 -4965.41 -4965.41 -4965.41 -4965.41 -4965.39 -4958.59 -4908.32 -4901.52 -4901.50 -4901.50 -4901.50 -4901.55 -4921.54 -5069.25 -5089.24 -5089.29 -5089.29 -5089.29 -5089.23 -5068.12 -4888.70 -4501.34 -3261.72 -4674.07 -4890.42 -4685.37 -2878.97 -486.52 -183.57 -174.52 -166.96 -163.65 -160.56 -141.83 -69.29 -48.25 -41.26 -19.38 7.52 32.35 94.27 421.05 459.31 466.06 478.76 486.82 497.28 519.53 685.74 705.80 711.74 702.78 723.50 721.47 736.54 764.30 758.87 780.12 775.13 779.90 790.09 782.69 596.82 576.12 573.21 564.98 567.86 551.33 531.58 349.16 296.15 274.84 265.60 249.74 236.83 221.07 193.06 227.40 296.60 258.71 226.63 181.87 161.63 180.29 183.76 200.80 224.71 242.01 282.73 320.25 330.30 285.59 251.64 237.56 263.41 259.00 265.67 208.32 167.68 142.68 151.73 147.77 126.77 -197.68 -2093.42 -2384.70 -2665.83 -4300.33 -4704.26 -4730.20 -4756.78 -4952.70 -4979.21 -4979.28 -4979.28 -4979.28 -4979.28 -4979.06 -4977.46 -4977.24 -4977.24 -4977.24 -4977.24 -4977.22 -4969.53 -4912.67 -4904.97 -4904.95 -4904.95 -4904.95 -4904.98 -4915.10 -4989.86 -4999.97 -5000.00 -5000.00 -5000.00 -5000.00 -5000.00 -5000.00
-4965.41 -4965.41 -4965.41 -4965.41 -4965.41 -4965.39 -4958.59 -4908.32 -4901.52 -4901.50 -4901.50 -4901.50 -4901.55 -4921.54 -5069.25 -5089.24 -5089.29 -5089.29 -5089.29 -5089.23 -5068.18 -4912.10 -4700.23 -3480.75 -4700.61 -4891.00 -4866.34 -4221.11 -732.07 -214.87 -185.96 -185.90 -180.26 -175.30 -158.42 -85.67 -67.68 -67.95 -47.08 -24.99 -0.07 59.56 384.21 431.61 440.11 459.70 478.13 481.02 506.79 671.20 672.50 694.62 707.22 695.22 708.00 726.73 772.46 773.69 771.18 774.80 771.04 788.92 760.34 568.85 543.20 542.39 545.07 527.61 531.72 550.19 347.62 284.32 265.34 266.07 247.09 233.47 230.57 207.63 235.58 265.42 228.12 180.19 151.37 142.38 171.57 182.96 206.52 236.91 290.62 341.41 410.99 368.76 302.17 287.08 285.48 296.69 219.58 186.44 186.52 200.72 150.27 138.33 119.06 46.52 -228.50 -2104.41 -2391.40 -2743.83 -4494.27 -4729.55 -4730.26 -4756.78 -4952.70 -4979.21 -4979.28 -4979.28 -4979.28 -4979.28 -4979.06 -4977.46 -4977.24 -4977.24 -4977.24 -4977.24 -4977.22 -4969.53 -4912.67 -4904.97 -4904.95 -4904.95 -4904.95 -4904.98 -4915.10 -4989.86 -4999.97 -5000.00 -5000.00 -5000.00 -5000.00 -5000.00 -5000.00
-4965.41 -4965.41 -4965.41 -4965.41 -4965.41 -4965.39 -4958.60 -4908.36 -4901.57 -4901.55 -4901.55 -4901.55 -4901.60 -4921.58 -5069.22 -5089.20 -5089.25 -5089.25 -5089.25 -5089.19 -5068.15 -4912.62 -4868.88 -4723.50 -4868.83 -4891.52 -4890.42 -4444.11 -1106.72 -332.13 -236.95 -218.37 -202.73 -189.57 -173.24 -100.36 -80.25 -83.42 -78.33 -71.14 -60.78 -7.11 340.72 390.82 405.04 426.95 444.32 464.78 470.48 625.36 668.06 667.28 682.50 685.67 692.01 738.61 775.15 795.31 786.91 772.81 770.89 777.19 738.32 541.99 516.90 507.25 507.06 504.82 521.32 509.21 306.46 264.33 258.51 271.90 247.14 240.04 236.56 217.12 240.36 265.77 195.69 155.73 138.43 132.86 165.34 188.55 227.52 279.57 368.39 483.45 460.26 414.11 319.11 279.78 272.28 190.76 147.68 129.87 143.06 143.35 138.78 122.21 42.20 -9.52 -263.63 -2135.90 -2376.29 -2690.87 -4487.80 -4729.64 -4730.30 -4756.81 -4952.69 -4979.20 -4979.27 -4979.27 -4979.27 -4979.26 -4979.05 -4977.46 -4977.25 -4977.25 -4977.25 -4977.25 -4977.23 -4969.54 -4912.71 -4905.02 -4905.00 -4905.00 -4905.00 -4905.02 -4915.14 -4989.86 -4999.97 -5000.00 -5000.00 -5000.00 -5000.00 -5000.00 -5000.00
-4965.71 -4965.71 -4965.71 -4965.71 -4965.71 -4965.70 -4960.98 -4926.15 -4921.44 -4921.43 -4921.43 -4921.43 -4921.47 -4937.64 -5057.16 -5073.34 -5073.38 -5073.38 -5073.38 -5073.33 -5056.21 -4929.68 -4912.50 -4912.10 -4912.46 -4912.52 -4911.93 -4672.27 -2715.56 -1069.58 -796.17 -575.78 -499.53 -468.93 -424.78 -262.05 -234.05 -229.56 -216.55 -216.14 -207.86 -140.71 281.40 355.39 364.60 382.68 379.69 387.04 410.55 571.35 606.93 620.43 635.96 656.43 650.15 669.14 708.69 724.01 731.91 739.21 701.15 695.75 659.76 497.18 476.17 465.11 466.12 475.04 495.91 456.32 266.47 238.37 239.61 238.88 236.83 239.53 234.66 218.42 230.90 227.53 152.29 131.12 116.74 118.52 146.50 177.57 228.79 328.26 468.32 514.31 393.77 216.51 150.52 150.44 126.59 35.37 -47.29 -65.06 -79.41 -93.03 -102.87 -187.33 -475.11 -579.35 -708.91 -2470.97 -2687.63 -3013.22 -4540.68 -4745.14 -4745.70 -4770.05 -4949.96 -4974.31 -4974.37 -4974.37 -4974.37 -4974.37 -4974.98 -4979.50 -4980.11 -4980.11 -4980.11 -4980.11 -4980.09 -4974.03 -4929.21 -4923.14 -4923.13 -4923.13 -4923.13 -4923.15 -4931.33 -4991.80 -4999.98 -5000.00 -5000.00 -5000.00 -5000.00 -5000.00 -5000.00
-4967.91 -4967.91 -4967.91 -4967.91 -4967.91 -4967.94 -4978.63 -5057.60 -5068.29 -5068.32 -5068.32 -5068.32 -5068.29 -5056.34 -4968.08 -4956.14 -4956.11 -4956.11 -4956.11 -4956.14 -4967.97 -5055.37 -5067.20 -5067.23 -5067.23 -5067.23 -5067.13 -5026.81 -4704.02 -4475.40 -4261.65 -2910.03 -2624.48 -2346.90 -2158.14 -1330.04 -1210.60 -1203.49 -1182.57 -1180.12 -1170.88 -1027.81 -56.99 100.48 114.95 117.15 107.74 117.42 127.41 240.49 263.47 285.58 321.79 367.17 341.98 329.71 320.59 349.62 350.26 345.21 308.36 283.92 279.95 324.33 338.93 329.93 340.50 357.37 349.45 307.18 160.55 138.71 140.71 144.65 151.68 156.72 152.95 132.83 141.64 147.51 72.99 61.60 53.33 51.82 21.48 44.63 91.44 170.79 244.12 291.99 126.25 -990.74 -1159.16 -1091.09 -1339.17 -1394.01 -1408.63 -1455.99 -1712.07 -2007.19 -2142.39 -2358.09 -3713.11 -3904.81 -3967.62 -4539.19 -4614.30 -4654.29 -4835.22 -4859.41 -4859.49 -4867.87 -4929.82 -4938.20 -4938.22 -4938.22 -4938.22 -4938.24 -4944.95 -4994.52 -5001.23 -5001.24 -5001.24 -5001.24 -5001.26 -5007.20 -5051.12 -5057.07 -5057.08 -5057.08 -5057.08 -5057.07 -5050.99 -5006.09 -5000.02 -5000.00 -5000.00 -5000.00 -5000.00 -5000.00 -5000.00
-4968.21 -4968.21 -4968.21 -4968.21 -4968.21 -4968.24 -4981.01 -5075.39 -5088.16 -5088.20 -5088.20 -5088.20 -5088.16 -5072.41 -4956.03 -4940.28 -4940.24 -4940.24 -4940.24 -4940.28 -4956.03 -5072.38 -5088.13 -5088.17 -5088.17 -5088.17 -5088.13 -5071.55 -4948.99 -4931.89 -4907.26 -4724.53 -4501.51 -3061.17 -2474.32 -1491.17 -1351.28 -1343.53 -1332.18 -1324.21 -1309.34 -1157.48 -126.74 57.10 79.93 60.45 48.89 51.92 57.85 170.70 195.52 238.03 257.00 296.73 313.15 298.20 281.79 284.97 279.83 303.44 266.73 228.73 216.70 293.69 301.72 299.09 305.46 328.46 311.76 275.01 142.30 119.80 125.42 140.41 147.21 146.91 140.95 107.45 79.23 66.23 43.98 40.84 36.23 32.44 -6.26 16.22 76.23 107.05 158.91 196.10 62.02 -1145.52 -1283.99 -1499.98 -1573.48 -1599.61 -1672.09 -1983.22 -2552.26 -3735.71 -3888.80 -3904.67 -4084.13 -4118.58 -4179.93 -4610.13 -4848.63 -4874.23 -4874.81 -4874.87 -4874.89 -4881.11 -4927.09 -4933.32 -4933.33 -4933.33 -4933.33 -4933.35 -4940.88 -4996.55 -5004.09 -5004.10 -5004.10 -5004.10 -5004.12 -5011.69 -5067.62 -5075.19 -5075.21 -5075.21 -5075.21 -5075.19 -5067.19 -5008.03 -5000.02 -5000.00 -5000.00 -5000.00 -5000.00 -5000.00 -5000.00
-4968.21 -4968.21 -4968.21 -4968.21 -4968.21 -4968.24 -4981.02 -5075.44 -5088.21 -5088.25 -5088.25 -5088.25 -5088.21 -5072.45 -4956.00 -4940.24 -4940.20 -4940.20 -4940.20 -4940.24 -4956.00 -5072.43 -5088.18 -5088.22 -5088.22 -5088.22 -5088.18 -5071.66 -4949.60 -4933.08 -4932.98 -4932.46 -4906.40 -4527.74 -2941.83 -1580.41 -1398.78 -1374.76 -1357.97 -1324.51 -1316.88 -1169.85 -149.44 13.17 41.17 24.30 18.18 25.11 57.15 175.17 192.75 213.05 242.22 301.92 318.52 308.09 274.89 268.97 270.15 291.96 251.88 216.78 210.75 280.57 294.27 290.26 290.13 315.27 290.75 264.40 137.58 122.07 128.72 144.38 163.19 144.65 152.79 72.48 47.71 39.68 31.43 39.59 28.11 22.27 -16.89 2.29 42.18 66.22 139.18 173.07 125.58 -1086.28 -1284.52 -1538.58 -1586.51 -1677.00 -2280.77 -3486.83 -3704.60 -2672.64 -2430.70 -2314.90 -2292.36 -2357.62 -2459.38 -3027.09 -4454.95 -4846.16 -4874.84 -4874.91 -4874.93 -4881.14 -4927.09 -4933.30 -4933.32 -4933.32 -4933.32 -4933.34 -4940.87 -4996.56 -5004.09 -5004.11 -5004.11 -5004.11 -5004.13 -5011.70 -5067.66 -5075.24 -5075.26 -5075.26 -5075.26 -5075.24 -5067.23 -5008.03 -5000.02 -5000.00 -5000.00 -5000.00 -5000.00 -5000.00 -5000.00
-4968.21 -4968.21 -4968.21 -4968.21 -4968.21 -4968.24 -4981.02 -5075.44 -5088.21 -5088.25 -5088.25 -5088.25 -5088.21 -5072.45 -4956.00 -4940.24 -4940.20 -4940.20 -4940.20 -4940.24 -4956.00 -5072.43 -5088.18 -5088.22 -5088.22 -5088.22 -5088.18 -5071.66 -4949.60 -4933.08 -4933.04 -4933.04 -4932.91 -4906.11 -4379.18 -1843.45 -1436.43 -1428.03 -1402.97 -1343.53 -1321.21 -1174.62 -146.83 42.37 35.71 8.08 31.46 33.41 73.93 226.57 224.02 264.26 279.31 346.97 339.65 319.21 252.40 266.99 276.37 285.39 227.30 200.89 202.92 290.50 298.63 287.65 282.64 291.52 286.46 265.44 139.29 126.14 133.06 147.82 136.70 110.18 85.46 53.52 33.06 24.25 19.79 19.35 22.84 19.66 -19.42 -5.24 16.21 44.75 88.31 168.26 63.55 -1085.29 -1222.23 -1500.38 -1623.24 -2152.05 -3486.25 -2447.87 -2409.67 -2245.11 -2213.80 -2025.71 -1958.04 -1938.32 -2027.87 -2504.51 -2901.19 -4640.75 -4874.33 -4874.91 -4874.93 -4881.14 -4927.09 -4933.30 -4933.32 -4933.32 -4933.32 -4933.34 -4940.87 -4996.56 -5004.09 -5004.11 -5004.11 -5004.11 -5004.13 -5011.70 -5067.66 -5075.24 -5075.26 -5075.26 -5075.26 -5075.24 -5067.23 -5008.03 -5000.02 -5000.00 -5000.00 -5000.00 -5000.00 -5000.00 -5000.00
-4968.19 -4968.19 -4968.19 -4968.19 -4968.19 -4968.22 -4981.00 -5075.43 -5088.21 -5088.24 -5088.24 -5088.24 -5088.20 -5072.44 -4955.99 -4940.23 -4940.19 -4940.19 -4940.19 -4940.23 -4955.98 -5072.38 -5088.13 -5088.17 -5088.17 -5088.17 -5088.13 -5071.62 -4949.63 -4933.12 -4933.08 -4933.08 -4933.08 -4932.23 -4614.56 -2227.49 -1581.41 -1498.94 -1456.42 -1379.17 -1328.50 -1167.54 -144.13 53.26 25.51 -4.74 2.56 21.62 75.91 308.50 293.89 280.49 349.83 482.80 356.76 282.86 214.15 234.03 270.74 277.38 231.51 192.82 192.92 281.79 295.58 293.73 284.40 288.66 293.09 279.80 160.08 135.36 136.62 166.32 150.75 128.58 95.76 46.34 27.90 17.60 14.67 13.85 17.04 16.74 -24.34 -14.94 5.06 33.43 69.71 112.96 39.55 -1119.28 -1237.81 -1411.66 -1805.39 -3615.20 -3808.88 -2288.16 -3496.62 -2454.82 -2170.80 -2050.39 -1947.72 -2117.44 -2242.33 -2715.23 -2890.14 -4635.76 -4874.30 -4874.90 -4874.91 -4881.13 -4927.07 -4933.29 -4933.30 -4933.30 -4933.30 -4933.32 -4940.86 -4996.54 -5004.07 -5004.09 -5004.09 -5004.09 -5004.11 -5011.68 -5067.66 -5075.23 -5075.25 -5075.25 -5075.25 -5075.23 -5067.22 -5008.03 -5000.02 -5000.00 -5000.00 -5000.00 -5000.00 -5000.00 -5000.00
-4959.32 -4959.32 -4959.32 -4959.32 -4959.32 -4959.35 -4972.99 -5073.79 -5087.43 -5087.47 -5087.47 -5087.47 -5087.43 -5071.41 -4953.02 -4937.00 -4936.96 -4936.96 -4936.96 -4937.00 -4950.83 -5053.01 -5066.84 -5066.87 -5066.87 -5066.87 -5066.84 -5054.50 -4963.27 -4950.92 -4950.89 -4950.89 -4950.89 -4950.55 -4814.71 -3642.53 -2221.82 -1888.74 -1632.00 -1515.55 -1425.01 -1264.33 -194.64 -36.66 -32.23 -42.74 -31.03 -3.49 65.81 253.73 345.74 350.88 346.43 374.13 340.98 236.29 182.44 172.25 219.83 240.32 208.65 163.44 175.39 276.51 303.65 297.60 289.22 290.08 290.12 278.38 160.64 119.37 112.88 119.67 114.92 101.38 59.76 25.30 17.17 12.51 10.28 9.22 10.85 5.21 -81.69 -81.88 -63.71 -44.26 -22.98 16.80 -52.39 -1255.21 -1489.14 -1670.81 -2149.18 -3930.95 -3911.87 -2105.92 -2503.96 -2397.02 -2432.78 -2179.73 -2150.31 -2277.64 -2409.29 -2988.32 -3224.83 -4672.11 -4868.65 -4869.13 -4869.15 -4875.39 -4921.54 -4927.78 -4927.80 -4927.80 -4927.80 -4927.82 -4935.04 -4988.38 -4995.60 -4995.62 -4995.62 -4995.62 -4995.64 -5003.81 -5064.21 -5072.39 -5072.41 -5072.41 -5072.41 -5072.39 -5064.68 -5007.73 -5000.02 -5000.00 -5000.00 -5000.00 -5000.00 -5000.00 -5000.00
-4893.76 -4893.76 -4893.76 -4893.76 -4893.76 -4893.81 -4913.82 -5061.68 -5081.69 -5081.74 -5081.74 -5081.74 -5081.70 -5063.74 -4931.10 -4913.15 -4913.11 -4913.11 -4913.11 -4913.11 -4912.73 -4909.90 -4909.52 -4909.52 -4909.52 -4909.52 -4909.57 -4927.98 -5064.01 -5082.42 -5082.47 -5082.47 -5082.47 -5082.36 -5041.42 -4716.43 -4503.81 -4252.71 -2676.18 -2331.87 -2227.52 -2017.81 -503.17 -291.59 -279.99 -276.01 -256.50 -256.74 -184.49 100.66 184.07 167.04 144.71 147.69 92.94 49.77 73.06 110.72 87.50 157.71 141.00 80.42 116.44 252.45 294.81 286.35 280.94 289.22 288.09 271.28 139.43 89.22 81.32 78.81 70.91 66.72 28.81 -10.01 -14.66 -12.62 -15.99 -18.85 -18.09 -66.84 -460.02 -501.52 -486.80 -469.74 -452.02 -424.94 -547.30 -1958.32 -2333.88 -2642.72 -4398.55 -4840.24 -4631.15 -2918.33 -3022.76 -3197.97 -4072.72 -2717.06 -2701.58 -3016.70 -3182.09 -4440.36 -4631.67 -4803.27 -4826.49 -4826.55 -4826.57 -4833.01 -4880.64 -4887.09 -4887.11 -4887.11 -4887.11 -4887.12 -4892.00 -4928.10 -4932.99 -4933.00 -4933.00 -4933.00 -4933.03 -4945.64 -5038.79 -5051.40 -5051.43 -5051.43 -5051.43 -5051.42 -5045.94 -5005.49 -5000.01 -5000.00 -5000.00 -5000.00 -5000.00 -5000.00 -5000.00
-4884.89 -4884.89 -4884.89 -4884.89 -4884.89 -4884.94 -4905.82 -5060.04 -5080.91 -5080.96 -5080.96 -5080.96 -5080.92 -5062.71 -4928.14 -4909.93 -4909.88 -4909.88 -4909.88 -4909.88 -4907.57 -4890.54 -4888.23 -4888.23 -4888.23 -4888.23 -4888.28 -4910.85 -5077.64 -5100.22 -5100.27 -5100.27 -5100.27 -5100.19 -5069.06 -4838.95 -4806.87 -4596.70 -3004.60 -2479.53 -2355.22 -2127.09 -544.49 -332.78 -318.07 -316.88 -313.07 -280.97 -200.11 63.91 150.85 125.78 96.05 62.99 36.19 34.76 78.89 70.44 48.35 115.48 108.18 89.50 99.54 248.79 277.83 272.64 266.56 276.57 274.27 240.42 111.17 87.02 62.09 41.20 35.87 29.21 18.07 -17.03 -21.92 -21.46 -23.43 -26.84 -25.96 -79.19 -510.63 -558.72 -545.56 -523.96 -483.87 -466.61 -583.48 -2073.41 -2494.82 -3113.77 -4748.99 -4963.46 -4771.24 -3510.27 -4549.00 -4568.89 -3466.68 -3253.91 -4499.52 -4710.51 -4721.20 -4808.31 -4820.28 -4820.73 -4820.79 -4820.79 -4820.81 -4827.28 -4875.11 -4881.58 -4881.60 -4881.60 -4881.60 -4881.61 -4886.18 -4919.94 -4924.51 -4924.52 -4924.52 -4924.52 -4924.56 -4937.76 -5035.35 -5048.56 -5048.59 -5048.59 -5048.59 -5048.58 -5043.41 -5005.19 -5000.01 -5000.00 -5000.00 -5000.00 -5000.00 -5000.00 -5000.00
-4884.87 -4884.87 -4884.87 -4884.87 -4884.87 -4884.92 -4905.80 -5060.04 -5080.91 -5080.96 -5080.96 -5080.96 -5080.92 -5062.71 -4928.13 -4909.92 -4909.87 -4909.87 -4909.87 -4909.87 -4907.56 -4890.49 -4888.18 -4888.17 -4888.17 -4888.17 -4888.23 -4910.81 -5077.68 -5100.26 -5100.32 -5100.32 -5100.32 -5100.24 -5069.13 -4839.25 -4808.08 -4782.39 -4382.20 -2756.03 -2431.23 -2134.35 -555.47 -343.27 -323.32 -323.87 -314.83 -266.27 -237.70 33.60 96.83 94.20 82.95 70.68 -3.66 -37.03 20.69 40.33 47.27 35.53 70.71 107.00 96.10 245.83 259.67 257.46 254.73 264.62 256.71 222.92 90.49 78.69 44.63 27.18 27.11 21.85 14.43 -20.32 -25.85 -26.52 -27.86 -29.22 -27.95 -80.88 -512.67 -562.63 -548.90 -517.96 -468.24 -501.37 -700.09 -2167.53 -2701.21 -4512.21 -4938.41 -4964.59 -4941.99 -4792.92 -4911.85 -4908.31 -4740.21 -4735.57 -4907.54 -4930.98 -4919.30 -4832.54 -4820.80 -4820.78 -4820.78 -4820.78 -4820.79 -4827.26 -4875.10 -4881.57 -4881.59 -4881.59 -4881.59 -4881.60 -4886.17 -4919.92 -4924.49 -4924.50 -4924.50 -4924.50 -4924.53 -4937.74 -5035.34 -5048.55 -5048.58 -5048.58 -5048.58 -5048.57 -5043.40 -5005.18 -5000.01 -5000.00 -5000.00 -5000.00 -5000.00 -5000.00 -5000.00
-4884.87 -4884.87 -4884.87 -4884.87 -4884.87 -4884.92 -4905.80 -5060.04 -5080.91 -5080.96 -5080.96 -5080.96 -5080.92 -5062.71 -4928.13 -4909.92 -4909.87 -4909.87 -4909.87 -4909.87 -4907.56 -4890.49 -4888.18 -4888.17 -4888.17 -4888.17 -4888.23 -4910.81 -5077.68 -5100.26 -5100.32 -5100.32 -5100.32 -5100.24 -5069.13 -4839.25 -4808.14 -4807.50 -4603.35 -3083.38 -2730.50 -2219.30 -569.54 -327.03 -341.89 -337.41 -330.53 -310.98 -278.27 -66.08 36.39 78.09 65.87 48.91 -54.40 -82.13 14.81 15.45 44.46 27.77 33.90 102.06 102.20 233.34 249.42 246.71 242.74 244.17 221.82 185.78 61.63 43.12 26.84 23.15 22.51 19.02 11.21 -23.55 -29.36 -30.37 -31.38 -31.42 -29.16 -82.76 -515.33 -561.13 -540.42 -518.20 -526.81 -541.45 -739.24 -2194.49 -2725.54 -4674.24 -4788.55 -4941.02 -4964.65 -4960.82 -4935.10 -4931.57 -4931.14 -4931.13 -4931.56 -4931.59 -4919.79 -4832.60 -4820.80 -4820.78 -4820.78 -4820.78 -4820.79 -4827.26 -4875.10 -4881.57 -4881.59 -4881.59 -4881.59 -4881.60 -4886.17 -4919.92 -4924.49 -4924.50 -4924.50 -4924.50 -4924.53 -4937.74 -5035.34 -5048.55 -5048.58 -5048.58 -5048.58 -5048.57 -5043.40 -5005.18 -5000.01 -5000.00 -5000.00 -5000.00 -5000.00 -5000.00 -5000.00
-4884.89 -4884.89 -4884.89 -4884.89 -4884.89 -4884.95 -4905.81 -5060.01 -5080.87 -5080.93 -5080.93 -5080.93 -5080.88 -5062.67 -4928.13 -4909.92 -4909.87 -4909.87 -4909.87 -4909.87 -4907.56 -4890.54 -4888.23 -4888.23 -4888.23 -4888.23 -4888.28 -4910.86 -5077.68 -5100.26 -5100.32 -5100.32 -5100.32 -5100.24 -5069.14 -4839.32 -4808.21 -4808.08 -4783.91 -4602.96 -4340.67 -2467.62 -639.08 -372.75 -346.78 -348.32 -349.43 -335.93 -286.86 -89.04 -74.69 -5.94 9.95 17.19 -45.32 -90.04 -7.94 2.85 11.66 38.11 70.31 108.86 85.09 210.32 235.76 254.47 225.16 202.83 203.36 168.72 47.57 24.65 22.61 22.42 21.24 17.00 8.55 -26.39 -32.36 -33.46 -34.46 -34.16 -30.28 -83.05 -513.98 -555.97 -531.24 -500.41 -537.50 -565.90 -760.94 -2284.91 -2947.02 -4551.64 -3667.12 -4788.99 -4964.05 -4960.93 -4934.66 -4931.11 -4931.10 -4931.10 -4931.10 -4931.07 -4919.31 -4832.43 -4820.68 -4820.65 -4820.65 -4820.65 -4820.66 -4827.15 -4875.12 -4881.61 -4881.62 -4881.62 -4881.62 -4881.63 -4886.20 -4919.97 -4924.54 -4924.55 -4924.55 -4924.55 -4924.58 -4937.79 -5035.34 -5048.55 -5048.58 -5048.58 -5048.58 -5048.57 -5043.40 -5005.18 -5000.01 -5000.00 -5000.00 -5000.00 -5000.00 -5000.00 -5000.00
-4894.37 -4894.37 -4894.37 -4894.37 -4894.37 -4894.42 -4912.66 -5047.43 -5065.67 -5065.72 -5065.72 -5065.72 -5065.68 -5049.10 -4926.65 -4910.07 -4910.03 -4910.03 -4910.03 -4910.03 -4910.09 -4910.51 -4910.57 -4910.57 -4910.57 -4910.57 -4910.62 -4930.86 -5080.41 -5100.65 -5100.70 -5100.70 -5100.70 -5100.63 -5072.55 -4865.04 -4836.96 -4836.89 -4836.83 -4835.73 -4572.50 -2459.64 -923.19 -703.46 -649.82 -609.52 -587.70 -582.51 -542.25 -357.18 -332.53 -295.67 -284.69 -271.28 -327.63 -319.39 -89.11 -49.88 -19.66 36.73 70.77 79.39 34.16 182.20 204.04 239.18 234.51 186.23 183.88 173.74 55.82 34.33 31.21 34.43 29.99 22.97 14.76 -17.14 -22.69 -23.18 -23.61 -23.16 -19.05 -67.43 -470.27 -504.83 -481.12 -455.83 -497.49 -559.43 -967.50 -2647.42 -4405.54 -4798.83 -4675.86 -4827.67 -4851.33 -4837.65 -4736.07 -4722.32 -4722.29 -4722.29 -4722.29 -4722.30 -4727.22 -4763.59 -4768.51 -4768.52 -4768.52 -4768.52 -4768.55 -4782.18 -4882.88 -4896.50 -4896.54 -4896.54 -4896.54 -4896.55 -4901.66 -4939.42 -4944.53 -4944.55 -4944.55 -4944.55 -4944.57 -4955.44 -5035.73 -5046.60 -5046.63 -5046.63 -5046.63 -5046.62 -5041.65 -5004.98 -5000.01 -5000.00 -5000.00 -5000.00 -5000.00 -5000.00 -5000.00
-4964.34 -4963.91 -4964.34 -4964.41 -4964.41 -4964.40 -4963.23 -4954.53 -4953.36 -4953.35 -4953.35 -4953.35 -4953.34 -4948.85 -4915.70 -4911.21 -4911.20 -4911.20 -4911.20 -4911.24 -4928.75 -5058.12 -5075.63 -5075.68 -5075.68 -5075.68 -5075.68 -5078.65 -5100.55 -5103.52 -5103.53 -5103.53 -5103.53 -5103.51 -5097.74 -5055.11 -5049.34 -5049.33 -5049.33 -5048.68 -4789.31 -2869.00 -2576.41 -2528.22 -2464.78 -2415.94 -2375.37 -2355.90 -2314.40 -2059.13 -2015.08 -2005.61 -1998.46 -2011.48 -2032.16 -1859.23 -585.50 -406.71 -391.00 -363.74 -358.17 -352.12 -301.25 -71.92 8.21 18.82 27.01 -12.60 -58.17 -21.03 111.04 114.56 95.30 117.01 90.96 80.03 75.11 67.95 66.50 66.10 66.09 66.88 70.96 48.49 -159.23 -159.26 -141.35 -117.83 -166.78 -434.90 -2332.88 -3638.01 -3986.88 -4015.77 -4015.54 -4015.91 -4015.75 -3926.70 -3268.68 -3179.63 -3179.41 -3179.41 -3179.41 -3179.73 -3307.89 -4254.87 -4383.02 -4383.34 -4383.34 -4383.34 -4383.51 -4449.87 -4940.22 -5006.58 -5006.75 -5006.75 -5006.75 -5006.77 -5015.87 -5083.16 -5092.26 -5092.28 -5092.28 -5092.28 -5092.27 -5085.87 -5038.62 -5032.23 -5032.21 -5032.21 -5032.21 -5032.20 -5028.77 -5003.44 -5000.01 -5000.00 -5000.00 -5000.00 -5000.00 -5000.00 -5000.00
-4946.70 -4773.47 -4946.76 -4973.82 -4973.89 -4973.88 -4970.07 -4941.96 -4938.16 -4938.15 -4938.15 -4938.15 -4938.14 -4935.29 -4914.22 -4911.36 -4911.36 -4911.36 -4911.36 -4911.41 -4931.28 -5078.10 -5097.97 -5098.02 -5098.02 -5098.02 -5098.02 -5098.65 -5103.28 -5103.91 -5103.91 -5103.91 -5103.91 -5103.90 -5101.15 -5080.83 -5078.08 -5078.08 -5078.08 -5077.59 -4879.30 -3402.10 -3082.21 -2834.57 -2758.37 -2670.50 -2626.46 -2612.43 -2560.97 -2292.96 -2249.77 -2260.98 -2265.32 -2271.30 -2269.51 -2069.15 -654.32 -459.87 -448.72 -434.01 -419.21 -379.19 -351.67 -123.03 -77.06 -1.83 28.57 -15.21 -71.42 -48.30 179.34 126.19 101.77 100.94 95.39 87.76 82.97 79.12 78.27 78.19 78.45 79.50 83.33 63.78 -117.10 -118.48 -106.61 -68.52 -142.37 -627.81 -2545.85 -3768.10 -3902.51 -3902.91 -3902.91 -3902.91 -3902.66 -3803.41 -3070.09 -2970.85 -2970.60 -2970.60 -2970.60 -2970.96 -3115.80 -4186.02 -4330.86 -4331.21 -4331.21 -4331.21 -4331.40 -4404.90 -4947.98 -5021.48 -5021.66 -5021.66 -5021.66 -5021.69 -5031.33 -5102.61 -5112.25 -5112.28 -5112.28 -5112.28 -5112.26 -5103.52 -5039.01 -5030.28 -5030.26 -5030.26 -5030.26 -5030.25 -5027.03 -5003.23 -5000.01 -5000.00 -5000.00 -5000.00 -5000.00 -5000.00 -5000.00
-4773.00 -3493.02 -4773.49 -4973.41 -4973.91 -4973.90 -4970.09 -4941.93 -4938.12 -4938.11 -4938.11 -4938.11 -4938.10 -4935.25 -4914.21 -4911.36 -4911.36 -4911.36 -4911.36 -4911.41 -4931.28 -5078.15 -5098.03 -5098.07 -5098.07 -5098.07 -5098.08 -5098.70 -5103.29 -5103.91 -5103.91 -5103.91 -5103.91 -5103.90 -5101.16 -5080.90 -5078.16 -5078.15 -5078.15 -5078.09 -5055.00 -4880.09 -4615.20 -3029.22 -2760.49 -2663.56 -2639.53 -2604.71 -2563.40 -2303.04 -2263.45 -2268.33 -2268.02 -2267.27 -2271.58 -2084.54 -667.39 -468.61 -454.42 -439.72 -425.33 -398.14 -381.11 -154.66 -123.33 -73.30 -11.46 1.85 -35.36 -76.01 122.21 120.61 106.84 100.05 94.43 87.72 82.65 79.04 78.24 78.24 78.73 79.97 83.41 64.43 -109.43 -118.88 -108.02 -87.41 -343.78 -2000.50 -2731.84 -3768.88 -3902.29 -3902.63 -3902.63 -3902.63 -3902.38 -3803.11 -3069.60 -2970.33 -2970.08 -2970.08 -2970.08 -2970.44 -3115.32 -4185.85 -4330.73 -4331.09 -4331.09 -4331.09 -4331.27 -4404.78 -4948.00 -5021.52 -5021.70 -5021.70 -5021.70 -5021.72 -5031.37 -5102.66 -5112.30 -5112.33 -5112.33 -5112.33 -5112.31 -5103.57 -5039.01 -5030.28 -5030.25 -5030.25 -5030.25 -5030.25 -5027.03 -5003.23 -5000.01 -5000.00 -5000.00 -5000.00 -5000.00 -5000.00 -5000.00
-4946.72 -4773.49 -4946.79 -4973.84 -4973.91 -4973.90 -4970.09 -4941.93 -4938.12 -4938.11 -4938.11 -4938.11 -4938.10 -4935.25 -4914.21 -4911.36 -4911.36 -4911.36 -4911.36 -4911.41 -4931.28 -5078.15 -5098.03 -5098.07 -5098.07 -5098.07 -5098.08 -5098.70 -5103.29 -5103.91 -5103.91 -5103.91 -5103.91 -5103.90 -5101.16 -5080.90 -5078.16 -5078.15 -5078.15 -5078.15 -5078.09 -5074.94 -4820.24 -3032.48 -2636.31 -2594.32 -2608.17 -2604.63 -2561.65 -2302.36 -2266.59 -2268.30 -2269.17 -2273.12 -2284.65 -2091.04 -675.23 -472.02 -459.65 -447.50 -424.45 -422.15 -392.87 -172.01 -147.22 -124.43 -31.48 -47.00 -100.17 -102.68 85.42 134.69 116.26 117.17 97.26 88.12 82.29 78.80 78.11 78.19 78.81 80.48 83.78 63.45 -118.17 -138.02 -123.86 -109.88 -212.13 -904.21 -2583.21 -3768.51 -3902.29 -3902.63 -3902.63 -3902.63 -3902.38 -3803.11 -3069.60 -2970.33 -2970.08 -2970.08 -2970.08 -2970.44 -3115.32 -4185.79 -4330.22 -4330.44 -4330.43 -4330.50 -4331.20 -4404.78 -4948.00 -5021.52 -5021.70 -5021.70 -5021.70 -5021.72 -5031.37 -5102.66 -5112.30 -5112.33 -5112.33 -5112.33 -5112.31 -5103.57 -5039.01 -5030.28 -5030.25 -5030.25 -5030.25 -5030.25 -5027.03 -5003.23 -5000.01 -5000.00 -5000.00 -5000.00 -5000.00 -5000.00 -5000.00
-4973.85 -4973.42 -4973.85 -4973.92 -4973.92 -4973.91 -4970.10 -4941.95 -4938.15 -4938.14 -4938.14 -4938.14 -4938.13 -4935.28 -4914.24 -4911.39 -4911.38 -4911.38 -4911.38 -4911.43 -4931.30 -5078.11 -5097.98 -5098.03 -5098.03 -5098.03 -5098.03 -5098.65 -5103.27 -5103.89 -5103.89 -5103.89 -5103.89 -5103.89 -5101.14 -5080.87 -5078.13 -5078.12 -5078.12 -5078.12 -5078.12 -5075.45 -4842.57 -3196.16 -2679.22 -2628.98 -2617.12 -2624.58 -2570.99 -2305.19 -2271.00 -2268.66 -2268.02 -2281.71 -2288.04 -2086.38 -672.19 -471.09 -460.04 -452.48 -441.70 -436.58 -409.27 -185.64 -152.55 -136.57 -117.26 -115.62 -126.40 -118.13 72.51 107.76 101.30 106.53 95.97 87.95 81.42 78.00 77.63 77.80 78.78 80.78 83.87 62.40 -124.24 -134.19 -122.61 -136.60 -157.10 -458.69 -2522.74 -3768.01 -3901.92 -3902.25 -3902.25 -3902.25 -3902.00 -3802.80 -3069.80 -2970.59 -2970.35 -2970.35 -2970.35 -2970.64 -3114.93 -4161.59 -4127.13 -4070.38 -4064.90 -4093.04 -4302.93 -4404.81 -4947.99 -5021.49 -5021.67 -5021.67 -5021.67 -5021.70 -5031.35 -5102.65 -5112.30 -5112.32 -5112.32 -5112.32 -5112.30 -5103.57 -5039.02 -5030.29 -5030.27 -5030.27 -5030.27 -5030.26 -5027.04 -5003.23 -5000.01 -5000.00 -5000.00 -5000.00 -5000.00 -5000.00 -5000.00
-4978.04 -4978.04 -4978.04 -4978.04 -4978.04 -4978.03 -4974.96 -4952.28 -4949.21 -4949.20 -4949.20 -4949.20 -4949.20 -4946.22 -4924.20 -4921.23 -4921.22 -4921.22 -4921.22 -4921.26 -4938.06 -5062.24 -5079.04 -5079.09 -5079.09 -5079.09 -5079.09 -5081.07 -5095.68 -5097.65 -5097.66 -5097.66 -5097.66 -5097.65 -5094.46 -5070.90 -5067.71 -5067.70 -5067.70 -5067.70 -5067.70 -5065.45 -5022.84 -4645.81 -3250.78 -2921.05 -2860.95 -2938.00 -2891.42 -2608.24 -2568.45 -2578.32 -2571.51 -2583.26 -2540.14 -2142.81 -795.61 -612.90 -603.00 -589.65 -577.03 -562.15 -547.19 -236.30 -190.06 -182.96 -188.31 -189.96 -193.78 -167.24 43.04 70.39 72.55 73.84 69.65 62.87 57.80 65.46 66.69 67.49 68.73 70.97 74.14 58.61 -80.77 -88.63 -63.86 -93.71 -100.02 -366.44 -2453.12 -3626.19 -3749.64 -3749.94 -3749.94 -3749.94 -3749.76 -3678.11 -3148.69 -3077.04 -3076.80 -3076.36 -3076.14 -3048.26 -2977.74 -3824.34 -2813.96 -2214.96 -2149.52 -2395.06 -4139.44 -4442.91 -4943.09 -5010.70 -5010.87 -5010.87 -5010.87 -5010.89 -5021.58 -5100.55 -5111.24 -5111.26 -5111.26 -5111.26 -5111.24 -5103.12 -5043.12 -5034.99 -5034.97 -5034.97 -5034.97 -5034.97 -5031.24 -5003.73 -5000.01 -5000.00 -5000.00 -5000.00 -5000.00 -5000.00 -5000.00
-5008.45 -5008.45 -5008.45 -5008.45 -5008.45 -5008.46 -5010.86 -5028.58 -5030.98 -5030.99 -5030.99 -5030.99 -5030.98 -5027.03 -4997.86 -4993.91 -4993.90 -4993.90 -4993.90 -4993.89 -4988.06 -4944.97 -4939.13 -4939.12 -4939.12 -4939.12 -4939.15 -4951.12 -5039.58 -5051.55 -5051.58 -5051.58 -5051.58 -5051.56 -5045.09 -4997.22 -4990.74 -4990.73 -4990.73 -4990.73 -4990.72 -4988.10 -4968.58 -4940.98 -4757.39 -4712.80 -4704.78 -4715.27 -4714.00 -4710.75 -4710.08 -4711.50 -4710.57 -4711.37 -4474.81 -2656.15 -1782.38 -1689.37 -1686.10 -1681.51 -1677.20 -1672.81 -1547.59 -591.81 -461.52 -469.74 -475.53 -477.96 -479.66 -440.42 -153.47 -113.79 -111.26 -104.51 -107.16 -114.63 -108.56 -21.56 -8.68 -7.17 -5.60 -3.07 0.41 34.22 261.84 297.59 311.64 297.32 294.47 51.32 -1810.40 -2555.76 -2624.31 -2624.04 -2624.48 -2624.55 -2624.88 -2756.73 -3731.03 -3862.81 -3839.65 -3661.36 -3601.69 -3388.49 -1944.13 -2586.70 -3819.06 -2455.68 -2465.45 -2804.19 -4479.06 -4728.27 -4906.87 -4930.97 -4931.03 -4931.03 -4931.03 -4931.07 -4949.42 -5085.03 -5103.39 -5103.43 -5103.43 -5103.43 -5103.42 -5099.84 -5073.36 -5069.78 -5069.77 -5069.77 -5069.77 -5069.75 -5062.32 -5007.45 -5000.02 -5000.00 -5000.00 -5000.00 -5000.00 -5000.00 -5000.00
-5012.57 -5012.57 -5012.57 -5012.57 -5012.57 -5012.58 -5015.72 -5038.91 -5042.05 -5042.06 -5042.06 -5042.06 -5042.05 -5037.97 -5007.83 -5003.75 -5003.74 -5003.74 -5003.74 -5003.72 -4994.82 -4929.09 -4920.20 -4920.18 -4920.18 -4920.18 -4920.21 -4933.53 -5031.99 -5045.31 -5045.34 -5045.34 -5045.34 -5045.33 -5038.40 -4987.25 -4980.33 -4980.31 -4980.31 -4980.31 -4980.30 -4977.62 -4957.79 -4955.04 -4954.58 -4954.47 -4954.45 -4954.49 -4959.31 -4994.96 -4999.78 -4999.80 -4999.79 -4999.15 -4738.24 -2736.42 -1917.90 -1835.75 -1844.99 -1849.99 -1847.88 -1843.97 -1701.89 -663.43 -518.36 -517.88 -522.35 -526.91 -525.79 -486.10 -189.17 -147.33 -146.46 -141.65 -140.64 -146.76 -137.23 -35.38 -18.76 -16.73 -15.21 -12.03 -8.63 31.38 308.04 348.56 351.92 348.96 348.09 275.14 -476.29 -2241.56 -2443.55 -2264.91 -2444.19 -2472.17 -2472.50 -2603.10 -3570.69 -3692.60 -3518.14 -2192.33 -1731.43 -1772.53 -1837.90 -2305.35 -2713.62 -2772.76 -4277.65 -4522.59 -4722.40 -4767.38 -4901.97 -4920.17 -4920.22 -4920.22 -4920.22 -4920.27 -4939.66 -5082.93 -5102.32 -5102.37 -5102.37 -5102.37 -5102.36 -5099.39 -5077.45 -5074.48 -5074.48 -5074.48 -5074.48 -5074.46 -5066.53 -5007.95 -5000.02 -5000.00 -5000.00 -5000.00 -5000.00 -5000.00 -5000.00
-5012.58 -5012.58 -5012.58 -5012.58 -5012.58 -5012.59 -5015.73 -5038.94 -5042.08 -5042.08 -5042.08 -5042.08 -5042.07 -5037.99 -5007.85 -5003.77 -5003.76 -5003.76 -5003.76 -5003.74 -4994.84 -4929.05 -4920.15 -4920.13 -4920.13 -4920.13 -4920.16 -4933.49 -5031.97 -5045.30 -5045.33 -5045.33 -5045.33 -5045.31 -5038.39 -4987.23 -4980.30 -4980.28 -4980.28 -4980.28 -4980.28 -4977.59 -4957.76 -4955.07 -4955.07 -4955.07 -4955.07 -4955.08 -4959.92 -4995.66 -5000.50 -5000.51 -5000.51 -4999.86 -4737.70 -2727.79 -1919.33 -1857.34 -1876.87 -1876.09 -1864.75 -1857.35 -1713.76 -681.99 -546.08 -536.27 -536.39 -532.18 -521.85 -483.46 -189.92 -150.34 -152.38 -152.54 -151.96 -150.37 -137.88 -33.51 -16.32 -14.44 -12.31 -9.55 -6.70 32.58 308.69 348.16 348.86 348.64 348.39 316.46 -158.10 -2016.07 -2238.76 -939.83 -2264.54 -2471.21 -2442.69 -2181.04 -1758.40 -1625.15 -1617.06 -1375.86 -1151.03 -1953.85 -3143.12 -2569.80 -4240.26 -4512.23 -4694.51 -4560.07 -4723.76 -4767.47 -4901.96 -4920.15 -4920.19 -4920.19 -4920.19 -4920.24 -4939.63 -5082.93 -5102.32 -5102.37 -5102.37 -5102.37 -5102.36 -5099.39 -5077.46 -5074.50 -5074.49 -5074.49 -5074.49 -5074.47 -5066.54 -5007.95 -5000.02 -5000.00 -5000.00 -5000.00 -5000.00 -5000.00 -5000.00
-5012.58 -5012.58 -5012.58 -5012.58 -5012.58 -5012.59 -5015.73 -5038.94 -5042.08 -5042.08 -5042.08 -5042.08 -5042.07 -5037.99 -5007.85 -5003.77 -5003.76 -5003.76 -5003.76 -5003.74 -4994.84 -4929.05 -4920.15 -4920.13 -4920.13 -4920.13 -4920.16 -4933.49 -5031.97 -5045.30 -5045.33 -5045.33 -5045.33 -5045.31 -5038.39 -4987.23 -4980.30 -4980.28 -4980.28 -4980.28 -4980.28 -4977.59 -4957.76 -4955.07 -4955.07 -4955.07 -4955.07 -4955.08 -4959.92 -4995.66 -5000.50 -5000.51 -5000.51 -4999.87 -4741.05 -2754.33 -1936.65 -1871.02 -1931.22 -1934.43 -1914.96 -1880.33 -1721.49 -699.91 -593.07 -553.82 -548.06 -545.19 -535.91 -495.44 -197.02 -153.25 -152.69 -149.90 -149.25 -146.96 -132.62 -27.28 -11.46 -9.86 -8.24 -6.27 -3.96 34.89 310.44 348.31 348.61 348.38 347.10 342.36 222.34 -603.14 -2229.72 -2263.94 -2443.67 -2442.22 -2021.05 -533.32 -1082.98 -1140.19 -1358.50 -1321.83 -1458.36 -1672.79 -1794.47 -2496.39 -4459.25 -4524.61 -4316.38 -3124.35 -4532.85 -4767.00 -4901.96 -4920.15 -4920.19 -4920.19 -4920.19 -4920.24 -4939.63 -5082.93 -5102.32 -5102.37 -5102.37 -5102.37 -5102.36 -5099.39 -5077.46 -5074.50 -5074.49 -5074.49 -5074.49 -5074.47 -5066.54 -5007.95 -5000.02 -5000.00 -5000.00 -5000.00 -5000.00 -5000.00 -5000.00
-5012.60 -5012.60 -5012.60 -5012.60 -5012.60 -5012.61 -5015.75 -5038.93 -5042.07 -5042.08 -5042.08 -5042.08 -5042.07 -5037.99 -5007.87 -5003.79 -5003.78 -5003.78 -5003.78 -5003.76 -4994.86 -4929.10 -4920.20 -4920.18 -4920.18 -4920.18 -4920.21 -4933.53 -5031.96 -5045.28 -5045.32 -5045.32 -5045.32 -5045.30 -5038.37 -4987.21 -4980.28 -4980.26 -4980.26 -4980.26 -4980.26 -4977.58 -4957.75 -4955.07 -4955.06 -4955.06 -4955.06 -4955.08 -4959.91 -4995.60 -5000.43 -5000.44 -5000.44 -4999.93 -4792.27 -3177.49 -2365.39 -2286.89 -2255.59 -2065.06 -2017.19 -1946.97 -1752.92 -721.73 -610.67 -576.43 -566.96 -559.38 -552.89 -509.85 -201.85 -156.28 -149.22 -144.11 -146.04 -145.42 -124.77 -21.44 -6.62 -5.52 -4.36 -2.80 -0.85 38.31 313.28 349.83 350.41 350.28 344.91 339.57 284.81 -240.09 -2009.08 -2442.92 -2442.77 -2021.39 -371.43 153.09 -335.46 -1084.93 -1375.24 -1126.06 -1640.74 -1635.99 -1584.66 -2428.46 -4052.43 -2896.97 -2890.78 -2819.97 -4513.38 -4766.82 -4901.97 -4920.18 -4920.22 -4920.22 -4920.22 -4920.27 -4939.66 -5082.91 -5102.30 -5102.34 -5102.34 -5102.34 -5102.34 -5099.37 -5077.47 -5074.51 -5074.50 -5074.50 -5074.50 -5074.48 -5066.55 -5007.95 -5000.02 -5000.00 -5000.00 -5000.00 -5000.00 -5000.00 -5000.00
-5020.88 -5020.88 -5020.88 -5020.88 -5020.88 -5020.88 -5022.87 -5037.53 -5039.52 -5039.52 -5039.52 -5039.52 -5039.51 -5036.47 -5013.97 -5010.92 -5010.92 -5010.92 -5010.92 -5010.90 -5003.30 -4947.14 -4939.54 -4939.52 -4939.52 -4939.52 -4939.55 -4950.19 -5028.84 -5039.48 -5039.51 -5039.51 -5039.51 -5039.49 -5032.32 -4979.38 -4972.21 -4972.20 -4972.20 -4972.20 -4972.19 -4970.17 -4955.23 -4953.21 -4953.20 -4953.20 -4953.20 -4953.21 -4955.20 -4969.95 -4971.94 -4971.95 -4971.95 -4971.89 -4947.35 -4694.76 -4133.82 -4038.35 -3695.76 -2395.08 -2206.03 -2218.02 -1802.53 -738.78 -681.56 -630.75 -604.79 -595.88 -579.33 -529.34 -152.14 -88.81 -83.27 -81.25 -86.41 -78.08 -60.27 22.33 34.09 34.37 35.22 36.49 39.06 70.72 271.22 298.44 302.89 305.95 292.21 280.81 210.32 -208.60 -679.42 -2215.20 -2213.82 -603.10 116.02 544.83 -714.41 -1418.93 -1563.77 -1549.95 -1707.24 -1622.97 -1682.81 -2229.69 -2656.75 -2928.73 -4260.95 -4448.67 -4656.74 -4711.60 -4906.70 -4933.09 -4933.16 -4933.16 -4933.16 -4933.20 -4950.20 -5075.80 -5092.80 -5092.84 -5092.84 -5092.84 -5092.84 -5091.32 -5080.15 -5078.64 -5078.63 -5078.63 -5078.63 -5078.61 -5070.24 -5008.39 -5000.02 -5000.00 -5000.00 -5000.00 -5000.00 -5000.00 -5000.00
-5082.02 -5082.02 -5082.02 -5082.02 -5082.02 -5082.01 -5075.47 -5027.18 -5020.64 -5020.63 -5020.63 -5020.63 -5020.64 -5025.22 -5059.06 -5063.64 -5063.66 -5063.66 -5063.66 -5063.66 -5065.66 -5080.47 -5082.47 -5082.47 -5082.47 -5082.47 -5082.45 -5073.31 -5005.76 -4996.61 -4996.59 -4996.59 -4996.59 -4996.57 -4987.62 -4921.54 -4912.60 -4912.58 -4912.58 -4912.58 -4912.58 -4915.45 -4936.59 -4939.45 -4939.46 -4939.46 -4939.46 -4939.41 -4920.46 -4780.41 -4761.46 -4761.41 -4761.41 -4761.41 -4761.20 -4699.49 -4246.24 -3988.85 -2513.35 -2117.39 -2238.81 -3353.91 -2244.21 -889.71 -767.40 -719.77 -701.21 -722.89 -723.71 -601.22 233.96 370.07 373.85 365.72 369.48 381.00 378.82 316.53 308.10 307.65 307.88 309.85 316.22 267.62 -97.81 -144.82 -150.07 -147.56 -159.38 -163.44 -340.73 -1602.11 -1800.74 -2005.11 -2026.95 -1658.97 -894.98 -388.88 -1797.52 -2157.52 -2369.94 -2390.18 -2543.44 -2670.44 -2544.12 -2553.19 -3779.91 -4004.22 -4187.89 -4212.13 -4212.92 -4299.85 -4941.66 -5028.52 -5028.74 -5028.74 -5028.74 -5028.73 -5028.08 -5023.26 -5022.61 -5022.60 -5022.60 -5022.60 -5022.63 -5031.84 -5099.94 -5109.15 -5109.18 -5109.18 -5109.18 -5109.15 -5097.53 -5011.65 -5000.03 -5000.00 -5000.00 -5000.00 -5000.00 -5000.00 -5000.00
-5090.30 -5090.30 -5090.30 -5090.30 -5090.30 -5090.28 -5082.59 -5025.78 -5018.09 -5018.07 -5018.07 -5018.07 -5018.08 -5023.69 -5065.17 -5070.78 -5070.79 -5070.79 -5070.79 -5070.80 -5074.10 -5098.51 -5101.81 -5101.82 -5101.82 -5101.82 -5101.79 -5089.97 -5002.63 -4990.81 -4990.78 -4990.78 -4990.78 -4990.76 -4981.58 -4913.72 -4904.53 -4904.51 -4904.51 -4904.51 -4904.52 -4908.04 -4934.07 -4937.59 -4937.60 -4937.60 -4937.60 -4937.55 -4915.76 -4754.76 -4732.98 -4732.92 -4732.92 -4732.92 -4732.77 -4672.88 -4229.78 -3936.88 -2235.47 -2153.14 -2127.51 -2150.07 -3226.20 -1470.64 -975.97 -796.02 -748.50 -737.35 -738.18 -606.34 282.88 419.73 422.68 431.57 435.45 445.43 443.07 359.61 350.76 350.12 351.46 355.22 355.82 296.63 -151.44 -211.09 -205.43 -212.60 -215.82 -216.73 -405.18 -1755.08 -1942.99 -1916.81 -1847.72 -1713.92 -775.28 -1134.44 -2320.19 -2932.49 -4227.16 -4395.98 -4415.83 -4434.74 -4368.36 -4008.55 -4125.47 -4148.27 -4148.78 -4148.84 -4149.07 -4244.12 -4946.39 -5041.43 -5041.67 -5041.67 -5041.67 -5041.66 -5038.62 -5016.15 -5013.11 -5013.10 -5013.10 -5013.10 -5013.13 -5023.79 -5102.62 -5113.28 -5113.31 -5113.31 -5113.31 -5113.28 -5101.22 -5012.09 -5000.03 -5000.00 -5000.00 -5000.00 -5000.00 -5000.00 -5000.00
-5090.32 -5090.32 -5090.32 -5090.32 -5090.32 -5090.30 -5082.61 -5025.77 -5018.08 -5018.06 -5018.06 -5018.06 -5018.08 -5023.69 -5065.18 -5070.80 -5070.81 -5070.81 -5070.81 -5070.82 -5074.12 -5098.55 -5101.86 -5101.87 -5101.87 -5101.87 -5101.84 -5090.01 -5002.62 -4990.80 -4990.77 -4990.77 -4990.77 -4990.74 -4981.56 -4913.70 -4904.51 -4904.49 -4904.49 -4904.49 -4904.50 -4908.02 -4934.06 -4937.59 -4937.60 -4937.60 -4937.60 -4937.54 -4915.75 -4754.70 -4732.90 -4732.85 -4732.85 -4732.85 -4732.70 -4672.82 -4230.24 -4141.83 -3933.83 -3926.14 -3714.90 -2148.39 -1971.31 -2451.70 -1341.35 -810.34 -755.02 -724.80 -703.70 -585.58 295.53 419.65 420.35 428.50 437.45 445.14 439.12 358.67 350.79 352.30 355.83 359.04 361.57 302.02 -149.08 -200.87 -191.44 -199.34 -206.58 -208.10 -386.34 -1723.78 -1901.83 -1793.53 -1363.19 -1359.60 -1120.82 -2220.56 -4152.93 -4459.99 -4635.42 -4658.37 -4658.47 -4658.39 -4604.02 -4202.66 -4148.76 -4148.68 -4148.68 -4148.68 -4148.91 -4243.98 -4946.40 -5041.47 -5041.70 -5041.70 -5041.70 -5041.69 -5038.65 -5016.13 -5013.08 -5013.08 -5013.08 -5013.08 -5013.10 -5023.77 -5102.62 -5113.29 -5113.32 -5113.32 -5113.32 -5113.29 -5101.23 -5012.09 -5000.03 -5000.00 -5000.00 -5000.00 -5000.00 -5000.00 -5000.00
-5090.32 -5090.32 -5090.32 -5090.32 -5090.32 -5090.30 -5082.61 -5025.77 -5018.08 -5018.06 -5018.06 -5018.06 -5018.08 -5023.69 -5065.18 -5070.80 -5070.81 -5070.81 -5070.81 -5070.82 -5074.12 -5098.55 -5101.86 -5101.87 -5101.87 -5101.87 -5101.84 -5090.01 -5002.62 -4990.80 -4990.77 -4990.77 -4990.77 -4990.74 -4981.56 -4913.70 -4904.51 -4904.49 -4904.49 -4904.49 -4904.50 -4908.02 -4934.06 -4937.59 -4937.60 -4937.60 -4937.60 -4937.54 -4915.75 -4754.70 -4732.90 -4732.85 -4732.85 -4732.85 -4732.70 -4672.82 -4230.31 -4170.35 -4169.69 -4169.60 -4140.75 -3691.24 -1825.21 -1332.57 -2540.14 -1206.54 -736.32 -696.66 -685.16 -570.43 309.14 427.86 429.09 431.61 438.05 444.20 437.11 355.95 346.96 350.47 354.18 362.68 364.11 301.35 -151.19 -201.31 -170.21 -142.15 -171.81 -108.48 -268.14 -1555.03 -1724.91 -1616.79 -1210.69 -1388.10 -1664.84 -3625.93 -4344.55 -4627.93 -4658.36 -4658.41 -4658.40 -4658.23 -4603.90 -4202.55 -4148.74 -4148.68 -4148.68 -4148.68 -4148.91 -4243.98 -4946.40 -5041.47 -5041.70 -5041.70 -5041.70 -5041.69 -5038.65 -5016.13 -5013.08 -5013.08 -5013.08 -5013.08 -5013.10 -5023.77 -5102.62 -5113.29 -5113.32 -5113.32 -5113.32 -5113.29 -5101.23 -5012.09 -5000.03 -5000.00 -5000.00 -5000.00 -5000.00 -5000.00 -5000.00
-5090.27 -5090.27 -5090.27 -5090.27 -5090.27 -5090.25 -5082.56 -5025.77 -5018.08 -5018.07 -5018.07 -5018.07 -5018.08 -5023.69 -5065.16 -5070.77 -5070.78 -5070.78 -5070.78 -5070.79 -5074.09 -5098.50 -5101.81 -5101.82 -5101.82 -5101.82 -5101.79 -5089.97 -5002.62 -4990.80 -4990.77 -4990.77 -4990.77 -4990.75 -4981.57 -4913.71 -4904.53 -4904.51 -4904.51 -4904.51 -4904.51 -4908.04 -4934.08 -4937.60 -4937.61 -4937.61 -4937.61 -4937.56 -4915.76 -4754.72 -4732.93 -4732.88 -4732.88 -4732.88 -4732.73 -4672.80 -4230.03 -4170.10 -4169.95 -4169.95 -4169.29 -3928.33 -2077.73 -1462.10 -2746.23 -2710.45 -1134.43 -714.59 -666.64 -561.51 317.17 433.00 432.64 433.07 437.48 442.96 435.88 355.28 349.16 357.39 365.95 365.66 372.41 307.20 -138.06 -184.40 -111.52 174.88 15.67 183.12 88.29 -1206.88 -1072.71 -1080.89 -1123.22 -1664.25 -1724.77 -1744.52 -2677.82 -4405.36 -4423.61 -4391.36 -4386.25 -4373.57 -4317.77 -3962.19 -4119.83 -4148.28 -4148.85 -4148.92 -4149.15 -4244.19 -4946.44 -5041.48 -5041.71 -5041.71 -5041.71 -5041.71 -5038.66 -5016.13 -5013.08 -5013.07 -5013.07 -5013.07 -5013.10 -5023.76 -5102.58 -5113.25 -5113.27 -5113.27 -5113.27 -5113.24 -5101.18 -5012.09 -5000.03 -5000.00 -5000.00 -5000.00 -5000.00 -5000.00 -5000.00
-5069.64 -5069.64 -5069.64 -5069.64 -5069.64 -5069.62 -5064.30 -5024.92 -5019.60 -5019.58 -5019.58 -5019.58 -5019.59 -5023.80 -5054.85 -5059.05 -5059.06 -5059.06 -5059.06 -5059.07 -5061.42 -5078.77 -5081.12 -5081.13 -5081.13 -5081.13 -5081.11 -5071.81 -5003.11 -4993.81 -4993.79 -4993.79 -4993.79 -4993.77 -4984.95 -4919.84 -4911.03 -4911.00 -4911.00 -4911.00 -4911.01 -4914.45 -4939.88 -4943.33 -4943.34 -4943.34 -4943.34 -4943.28 -4921.99 -4764.65 -4743.35 -4743.30 -4743.30 -4743.30 -4743.12 -4668.16 -4114.28 -4039.33 -4039.14 -4039.14 -4039.07 -4010.06 -3682.34 -2638.09 -1487.95 -2708.69 -2696.41 -1125.88 -692.01 -572.23 165.07 258.42 258.04 259.80 264.18 269.31 252.61 101.69 89.43 92.56 99.27 103.22 103.88 42.49 -346.56 -364.41 -192.14 233.23 316.10 469.78 93.45 -1083.17 -1074.90 -1158.18 -1358.62 -1309.29 -1448.73 -1944.43 -3901.91 -4174.93 -2659.87 -2412.53 -2392.27 -2304.07 -2243.85 -2233.46 -3721.19 -4016.93 -4219.51 -4245.67 -4245.95 -4331.22 -4961.29 -5046.56 -5046.78 -5046.78 -5046.78 -5046.77 -5042.98 -5014.98 -5011.19 -5011.18 -5011.18 -5011.18 -5011.21 -5019.99 -5084.85 -5093.63 -5093.65 -5093.65 -5093.65 -5093.62 -5083.65 -5009.99 -5000.02 -5000.00 -5000.00 -5000.00 -5000.00 -5000.00 -5000.00
-4917.19 -4917.19 -4917.19 -4917.19 -4917.19 -4917.22 -4929.32 -5018.67 -5030.76 -5030.79 -5030.79 -5030.79 -5030.77 -5024.57 -4978.70 -4972.49 -4972.47 -4972.47 -4972.47 -4972.46 -4967.76 -4932.99 -4928.29 -4928.28 -4928.28 -4928.28 -4928.30 -4937.64 -5006.68 -5016.03 -5016.05 -5016.05 -5016.05 -5016.03 -5009.96 -4965.11 -4959.03 -4959.02 -4959.02 -4959.02 -4959.03 -4961.86 -4982.79 -4985.62 -4985.63 -4985.63 -4985.63 -4985.58 -4967.99 -4837.98 -4820.38 -4820.34 -4820.34 -4820.34 -4819.88 -4633.82 -3259.07 -3073.02 -3072.56 -3072.56 -3072.56 -3071.96 -2856.14 -1232.86 -787.27 -1073.88 -2719.70 -2665.12 -903.81 -703.18 -986.50 -1032.23 -1030.62 -1026.24 -1020.98 -1015.58 -1102.56 -1777.90 -1864.93 -1862.87 -1855.59 -1849.12 -1835.50 -1838.22 -1926.28 -1814.00 -1236.84 -1091.60 -853.22 -690.61 -1068.24 -1011.49 -1016.26 -1743.07 -1591.69 -2162.75 -3950.38 -4077.34 -3017.61 -2827.55 -2462.14 -2391.93 -2492.30 -2322.56 -2277.68 -2393.12 -2323.26 -2985.33 -4731.67 -4960.48 -4961.17 -4974.27 -5071.04 -5084.13 -5084.17 -5084.17 -5084.17 -5084.14 -5074.89 -5006.52 -4997.27 -4997.25 -4997.25 -4997.25 -4997.23 -4992.06 -4953.83 -4948.66 -4948.64 -4948.64 -4948.64 -4948.66 -4954.12 -4994.52 -4999.99 -5000.00 -5000.00 -5000.00 -5000.00 -5000.00 -5000.00
-4896.56 -4896.56 -4896.56 -4896.56 -4896.56 -4896.60 -4911.05 -5017.82 -5032.27 -5032.30 -5032.30 -5032.30 -5032.29 -5024.67 -4968.39 -4960.77 -4960.75 -4960.75 -4960.75 -4960.74 -4955.08 -4913.26 -4907.61 -4907.59 -4907.59 -4907.59 -4907.62 -4919.49 -5007.17 -5019.03 -5019.06 -5019.06 -5019.06 -5019.05 -5013.35 -4971.23 -4965.53 -4965.52 -4965.52 -4965.52 -4965.52 -4968.27 -4988.59 -4991.34 -4991.35 -4991.35 -4991.35 -4991.31 -4974.21 -4847.90 -4830.81 -4830.76 -4830.76 -4830.76 -4830.26 -4629.18 -3143.33 -2942.25 -2941.75 -2941.75 -2941.75 -2941.11 -2710.18 -1013.74 -824.99 -870.30 -1651.86 -2755.27 -1150.25 -756.70 -1149.51 -1215.14 -1207.65 -1199.59 -1190.82 -1185.23 -1278.73 -2028.89 -2129.22 -2128.26 -2114.34 -2057.37 -1945.89 -1808.20 -1782.42 -1572.01 -1459.34 -1346.69 -1331.24 -1320.24 -1556.01 -1421.67 -1806.92 -2183.24 -3963.57 -4289.16 -4533.72 -4567.89 -4583.14 -4582.60 -4560.60 -4554.99 -4378.49 -2935.34 -2694.92 -2980.43 -2384.00 -2391.54 -4478.39 -5021.26 -5057.82 -5061.29 -5085.89 -5089.22 -5089.23 -5089.23 -5089.23 -5089.20 -5079.21 -5005.38 -4995.39 -4995.36 -4995.36 -4995.36 -4995.34 -4988.28 -4936.10 -4929.04 -4929.02 -4929.02 -4929.02 -4929.04 -4936.59 -4992.43 -4999.98 -5000.00 -5000.00 -5000.00 -5000.00 -5000.00 -5000.00
-4896.51 -4896.51 -4896.51 -4896.51 -4896.51 -4896.55 -4911.00 -5017.82 -5032.27 -5032.31 -5032.31 -5032.31 -5032.29 -5024.67 -4968.36 -4960.74 -4960.73 -4960.73 -4960.73 -4960.71 -4955.05 -4913.22 -4907.55 -4907.54 -4907.54 -4907.54 -4907.57 -4919.44 -5007.17 -5019.04 -5019.07 -5019.07 -5019.07 -5019.05 -5013.36 -4971.25 -4965.55 -4965.53 -4965.53 -4965.53 -4965.54 -4968.29 -4988.61 -4991.36 -4991.36 -4991.36 -4991.36 -4991.32 -4974.23 -4847.92 -4830.83 -4830.79 -4830.79 -4830.79 -4830.29 -4629.17 -3143.05 -2941.92 -2941.42 -2941.42 -2941.30 -2913.21 -2522.81 -1105.62 -1028.79 -1440.05 -2793.26 -3110.59 -2691.60 -987.45 -1145.10 -1215.22 -1204.61 -1191.42 -1171.01 -1159.19 -1255.73 -1979.95 -2028.87 -2021.88 -1915.30 -1784.19 -1504.14 -1321.11 -1626.94 -1538.49 -1872.32 -1845.11 -1761.13 -1976.48 -2058.80 -1979.39 -1960.61 -2074.57 -4265.26 -4565.34 -4566.76 -4596.91 -4819.12 -4849.19 -4849.21 -4849.14 -4822.88 -4626.93 -4613.51 -4613.81 -3164.22 -2511.40 -2611.72 -4593.42 -5033.99 -5061.45 -5085.93 -5089.23 -5089.24 -5089.24 -5089.24 -5089.21 -5079.22 -5005.37 -4995.38 -4995.36 -4995.36 -4995.36 -4995.34 -4988.27 -4936.05 -4928.99 -4928.97 -4928.97 -4928.97 -4928.99 -4936.55 -4992.42 -4999.98 -5000.00 -5000.00 -5000.00 -5000.00 -5000.00 -5000.00
-4896.51 -4896.51 -4896.51 -4896.51 -4896.51 -4896.55 -4911.00 -5017.82 -5032.27 -5032.31 -5032.31 -5032.31 -5032.29 -5024.67 -4968.36 -4960.74 -4960.73 -4960.73 -4960.73 -4960.71 -4955.05 -4913.22 -4907.55 -4907.54 -4907.54 -4907.54 -4907.57 -4919.44 -5007.17 -5019.04 -5019.07 -5019.07 -5019.07 -5019.05 -5013.36 -4971.25 -4965.55 -4965.53 -4965.53 -4965.53 -4965.54 -4968.29 -4988.61 -4991.36 -4991.36 -4991.36 -4991.36 -4991.32 -4974.23 -4847.92 -4830.83 -4830.79 -4830.79 -4830.79 -4830.22 -4628.63 -3142.97 -2941.92 -2941.35 -2940.76 -2915.95 -2559.57 -1248.36 -1227.07 -1466.49 -2519.44 -2871.72 -2926.29 -2657.67 -997.93 -1119.34 -1072.43 -1083.63 -1023.22 -934.58 -862.22 -973.58 -1516.65 -1295.61 -1318.65 -901.38 -1362.82 -1467.02 -1916.52 -2053.94 -2128.88 -2175.05 -2119.65 -2172.35 -2211.09 -2202.24 -2092.70 -2255.72 -2756.31 -4354.77 -4566.24 -4566.84 -4596.98 -4819.65 -4849.38 -4849.86 -4849.93 -4849.86 -4849.43 -4871.45 -5009.79 -4605.76 -2811.97 -2751.91 -3305.28 -4854.07 -5061.00 -5085.93 -5089.23 -5089.24 -5089.24 -5089.24 -5089.21 -5079.22 -5005.37 -4995.38 -4995.36 -4995.36 -4995.36 -4995.34 -4988.27 -4936.05 -4928.99 -4928.97 -4928.97 -4928.97 -4928.99 -4936.55 -4992.42 -4999.98 -5000.00 -5000.00 -5000.00 -5000.00 -5000.00 -5000.00
-4896.56 -4896.56 -4896.56 -4896.56 -4896.56 -4896.59 -4911.04 -5017.78 -5032.23 -5032.27 -5032.27 -5032.27 -5032.25 -5024.63 -4968.36 -4960.74 -4960.72 -4960.72 -4960.72 -4960.71 -4955.05 -4913.25 -4907.60 -4907.58 -4907.58 -4907.58 -4907.61 -4919.48 -5007.19 -5019.06 -5019.09 -5019.09 -5019.09 -5019.08 -5013.37 -4971.23 -4965.53 -4965.52 -4965.52 -4965.52 -4965.52 -4968.27 -4988.58 -4991.33 -4991.33 -4991.33 -4991.33 -4991.29 -4974.19 -4847.85 -4830.76 -4830.71 -4830.71 -4830.64 -4801.10 -4413.94 -3113.68 -2941.44 -2911.89 -2696.16 -2496.25 -1373.80 -2535.18 -2908.12 -2691.20 -855.71 -922.91 -1150.41 -833.51 -703.48 -995.14 -376.18 -414.50 10.78 370.07 292.22 -1.98 -709.92 -1138.57 -1179.94 -1528.79 -1817.51 -1929.42 -2072.68 -2187.65 -2203.20 -2193.68 -2185.82 -2201.98 -2232.37 -2222.67 -2329.91 -4057.82 -4358.06 -4542.61 -4566.41 -4566.92 -4596.99 -4793.34 -4657.88 -4823.97 -4849.88 -4849.95 -4850.00 -4872.09 -5035.27 -5024.99 -4756.03 -4320.69 -3160.59 -4809.58 -5060.85 -5085.89 -5089.20 -5089.20 -5089.20 -5089.20 -5089.18 -5079.19 -5005.35 -4995.35 -4995.33 -4995.33 -4995.33 -4995.31 -4988.25 -4936.06 -4929.00 -4928.98 -4928.98 -4928.98 -4929.00 -4936.56 -4992.42 -4999.98 -5000.00 -5000.00 -5000.00 -5000.00 -5000.00 -5000.00
-4914.12 -4914.12 -4914.12 -4914.12 -4914.12 -4914.15 -4924.96 -5004.85 -5015.66 -5015.69 -5015.69 -5015.69 -5015.67 -5009.62 -4964.85 -4958.79 -4958.78 -4958.78 -4958.78 -4958.77 -4955.22 -4928.99 -4925.44 -4925.43 -4925.43 -4925.43 -4925.45 -4936.37 -5017.05 -5027.97 -5027.99 -5027.99 -5027.99 -5027.97 -5020.60 -4966.09 -4958.71 -4958.69 -4958.69 -4958.69 -4958.70 -4960.91 -4977.30 -4979.51 -4979.52 -4979.52 -4979.52 -4979.47 -4960.38 -4819.32 -4800.23 -4800.18 -4800.18 -4799.57 -4552.52 -2764.64 -2795.92 -2806.09 -2629.12 -1047.05 -921.07 -1348.64 -2916.00 -3100.94 -2838.44 -1033.70 -830.04 -830.42 -635.50 -666.87 -1166.78 -1029.68 -660.27 -354.57 -496.60 -569.24 -554.09 -1118.80 -1374.19 -1868.85 -2052.00 -2049.08 -2044.83 -2032.85 -2184.29 -2175.01 -2178.50 -2321.90 -2371.36 -2617.99 -2752.47 -2654.19 -4381.28 -4621.57 -4599.25 -4449.51 -4598.81 -4623.71 -4470.32 -3415.48 -4664.68 -4856.20 -4856.67 -4856.58 -4847.21 -4810.14 -4985.04 -4565.30 -2967.74 -4543.64 -5010.84 -5045.47 -5071.56 -5075.09 -5075.09 -5075.09 -5075.09 -5075.07 -5065.43 -4994.18 -4984.53 -4984.51 -4984.51 -4984.51 -4984.50 -4978.96 -4938.02 -4932.48 -4932.47 -4932.47 -4932.47 -4932.49 -4939.67 -4992.79 -4999.98 -5000.00 -5000.00 -5000.00 -5000.00 -5000.00 -5000.00
-5043.89 -5043.89 -5043.89 -5043.89 -5043.89 -5043.85 -5027.81 -4909.27 -4893.22 -4893.18 -4893.18 -4893.18 -4893.20 -4898.65 -4938.97 -4944.42 -4944.44 -4944.44 -4944.44 -4944.47 -4956.48 -5045.22 -5057.23 -5057.26 -5057.26 -5057.26 -5057.27 -5061.16 -5089.87 -5093.76 -5093.77 -5093.77 -5093.77 -5093.72 -5073.97 -4928.06 -4908.31 -4908.26 -4908.26 -4908.26 -4908.26 -4906.55 -4893.93 -4892.22 -4892.22 -4892.22 -4892.22 -4892.14 -4858.32 -4608.45 -4574.64 -4574.55 -4574.55 -4573.89 -4303.90 -2319.19 -2094.70 -1932.15 -2364.48 -2238.12 -2573.14 -3897.57 -4053.04 -2785.62 -2466.11 -2216.66 -2155.77 -2069.57 -1944.16 -2119.56 -2472.47 -2424.36 -2279.04 -2001.49 -2202.78 -2257.46 -2258.58 -2284.90 -2278.96 -2333.02 -2280.07 -2284.32 -2270.35 -2276.48 -2489.04 -2731.57 -3006.71 -4519.29 -4727.20 -4761.16 -4783.69 -4796.29 -5005.99 -5034.23 -4835.99 -3542.65 -4632.30 -4634.81 -3615.84 -4544.56 -4879.95 -4906.34 -4906.33 -4875.28 -4443.22 -3121.54 -4479.52 -3138.00 -2626.24 -4638.40 -4921.99 -4927.89 -4965.71 -4970.83 -4970.84 -4970.84 -4970.84 -4970.82 -4963.77 -4911.64 -4904.59 -4904.57 -4904.57 -4904.57 -4904.59 -4910.30 -4952.53 -4958.24 -4958.26 -4958.26 -4958.26 -4958.27 -4962.71 -4995.55 -4999.99 -5000.00 -5000.00 -5000.00 -5000.00 -5000.00 -5000.00
-5061.45 -5061.45 -5061.45 -5061.45 -5061.45 -5061.40 -5041.73 -4896.33 -4876.65 -4876.60 -4876.60 -4876.60 -4876.62 -4883.64 -4935.46 -4942.48 -4942.50 -4942.50 -4942.50 -4942.53 -4956.65 -5060.95 -5075.07 -5075.11 -5075.11 -5075.11 -5075.11 -5078.05 -5099.73 -5102.66 -5102.67 -5102.67 -5102.67 -5102.62 -5081.20 -4922.91 -4901.49 -4901.43 -4901.43 -4901.43 -4901.43 -4899.19 -4882.65 -4880.41 -4880.40 -4880.40 -4880.40 -4880.32 -4844.51 -4579.92 -4544.11 -4544.02 -4544.02 -4543.94 -4510.85 -4106.96 -2851.25 -2691.29 -3997.72 -4159.59 -4032.61 -2873.11 -2492.27 -2427.89 -2397.12 -2384.43 -2382.96 -2365.14 -2287.98 -2478.86 -2716.32 -2667.50 -2551.26 -2385.21 -2299.92 -2324.94 -2372.87 -2310.82 -2158.23 -2195.65 -2353.65 -2517.60 -2653.42 -2596.11 -3262.82 -4608.63 -4815.18 -5021.05 -5049.20 -5049.36 -5053.23 -5061.77 -4891.82 -4871.07 -4624.94 -3058.17 -3105.63 -3185.23 -4311.88 -4693.20 -4890.20 -4913.08 -4912.45 -4663.51 -2841.17 -2924.71 -4643.28 -4474.97 -3194.82 -4678.61 -4906.07 -4911.97 -4951.38 -4956.71 -4956.73 -4956.73 -4956.73 -4956.71 -4950.01 -4900.47 -4893.77 -4893.75 -4893.75 -4893.75 -4893.77 -4901.01 -4954.49 -4961.73 -4961.75 -4961.75 -4961.75 -4961.76 -4965.83 -4995.92 -4999.99 -5000.00 -5000.00 -5000.00 -5000.00 -5000.00 -5000.00
-5061.49 -5061.49 -5061.49 -5061.49 -5061.49 -5061.45 -5041.76 -4896.30 -4876.61 -4876.56 -4876.56 -4876.56 -4876.58 -4883.60 -4935.46 -4942.47 -4942.49 -4942.49 -4942.49 -4942.53 -4956.65 -5060.99 -5075.12 -5075.15 -5075.15 -5075.15 -5075.16 -5078.09 -5099.75 -5102.69 -5102.69 -5102.69 -5102.69 -5102.64 -5081.21 -4922.90 -4901.47 -4901.42 -4901.42 -4901.42 -4901.41 -4899.17 -4882.62 -4880.38 -4880.38 -4880.38 -4880.38 -4880.29 -4844.47 -4579.85 -4544.03 -4543.94 -4543.94 -4543.94 -4543.79 -4534.68 -4280.19 -2811.23 -2622.34 -2469.36 -2457.17 -2290.45 -2244.32 -2379.17 -2387.38 -2381.66 -2377.01 -2385.81 -2430.09 -2471.66 -2642.77 -2682.45 -2587.84 -2514.98 -2504.59 -2502.72 -2488.13 -2338.21 -2405.33 -2669.53 -3026.44 -4488.54 -4700.36 -4699.59 -4838.31 -5026.05 -5024.90 -4868.33 -5025.41 -5021.76 -4824.07 -4702.85 -3594.97 -3468.76 -3214.23 -2920.88 -2879.43 -2888.66 -2997.92 -3464.04 -4744.62 -4912.67 -4885.80 -4489.43 -3190.00 -4474.94 -4877.93 -4879.19 -4708.37 -4879.77 -4906.53 -4911.93 -4951.35 -4956.68 -4956.69 -4956.69 -4956.69 -4956.68 -4949.97 -4900.45 -4893.74 -4893.73 -4893.73 -4893.73 -4893.74 -4900.99 -4954.50 -4961.74 -4961.76 -4961.76 -4961.76 -4961.77 -4965.84 -4995.92 -4999.99 -5000.00 -5000.00 -5000.00 -5000.00 -5000.00 -5000.00
-5061.49 -5061.49 -5061.49 -5061.49 -5061.49 -5061.45 -5041.76 -4896.30 -4876.61 -4876.56 -4876.56 -4876.56 -4876.58 -4883.60 -4935.46 -4942.47 -4942.49 -4942.49 -4942.49 -4942.53 -4956.65 -5060.99 -5075.12 -5075.15 -5075.15 -5075.15 -5075.16 -5078.09 -5099.75 -5102.69 -5102.69 -5102.69 -5102.69 -5102.64 -5081.21 -4922.90 -4901.47 -4901.42 -4901.42 -4901.42 -4901.41 -4899.17 -4882.62 -4880.38 -4880.38 -4880.38 -4880.38 -4880.29 -4844.47 -4579.85 -4544.03 -4543.94 -4543.94 -4543.89 -4520.30 -4361.35 -4246.99 -2685.64 -2287.58 -2193.21 -2210.70 -2218.25 -2228.24 -2352.48 -2344.30 -2318.71 -2260.00 -2232.82 -2417.19 -2512.86 -2847.30 -2814.49 -2397.07 -2401.64 -2541.55 -2551.57 -2573.11 -2706.95 -2982.68 -4504.36 -4750.75 -4949.77 -4976.43 -4984.24 -5041.84 -5049.60 -4868.40 -3707.24 -4844.38 -4642.94 -3107.15 -3338.67 -4689.70 -4871.24 -4840.75 -4826.33 -4822.39 -4805.51 -4673.91 -4717.09 -4890.34 -4912.60 -4714.73 -3257.83 -3290.68 -4713.60 -4906.04 -4906.51 -4906.09 -4906.51 -4906.59 -4911.93 -4951.35 -4956.68 -4956.69 -4956.69 -4956.69 -4956.68 -4949.97 -4900.45 -4893.74 -4893.73 -4893.73 -4893.73 -4893.74 -4900.99 -4954.50 -4961.74 -4961.76 -4961.76 -4961.76 -4961.77 -4965.84 -4995.92 -4999.99 -5000.00 -5000.00 -5000.00 -5000.00 -5000.00 -5000.00
-5061.48 -5061.48 -5061.48 -5061.48 -5061.48 -5061.43 -5041.75 -4896.32 -4876.64 -4876.59 -4876.59 -4876.59 -4876.61 -4883.63 -4935.47 -4942.49 -4942.51 -4942.51 -4942.51 -4942.54 -4956.66 -5060.98 -5075.10 -5075.13 -5075.13 -5075.13 -5075.14 -5078.07 -5099.73 -5102.66 -5102.67 -5102.67 -5102.67 -5102.61 -5081.19 -4922.92 -4901.50 -4901.44 -4901.44 -4901.44 -4901.44 -4899.20 -4882.65 -4880.41 -4880.41 -4880.41 -4880.41 -4880.32 -4844.51 -4579.96 -4544.15 -4544.06 -4544.06 -4543.56 -4341.59 -2887.82 -2920.14 -2532.58 -2446.20 -2309.34 -2206.32 -2192.09 -2197.73 -2243.29 -2183.76 -2023.11 -1852.36 -1670.80 -2359.94 -2540.45 -2957.50 -4126.54 -2881.76 -2801.07 -2892.24 -2913.03 -3140.49 -4523.43 -4743.41 -4948.81 -4976.54 -4977.10 -4977.18 -4984.95 -5042.33 -5050.04 -5025.52 -4867.95 -4851.75 -3535.92 -2960.60 -3432.14 -4897.98 -5090.27 -5090.67 -5090.63 -5090.58 -5071.62 -4931.54 -4912.73 -4913.12 -4913.11 -4886.33 -4692.26 -4715.97 -4884.27 -4906.55 -4906.61 -4906.61 -4906.61 -4906.62 -4911.95 -4951.36 -4956.69 -4956.70 -4956.70 -4956.70 -4956.69 -4949.99 -4900.47 -4893.77 -4893.75 -4893.75 -4893.75 -4893.77 -4901.01 -4954.51 -4961.75 -4961.77 -4961.77 -4961.77 -4961.78 -4965.85 -4995.92 -4999.99 -5000.00 -5000.00 -5000.00 -5000.00 -5000.00 -5000.00
-5054.93 -5054.93 -5054.93 -5054.93 -5054.93 -5054.89 -5037.30 -4907.36 -4889.78 -4889.73 -4889.73 -4889.73 -4889.75 -4896.02 -4942.34 -4948.61 -4948.63 -4948.63 -4948.63 -4948.66 -4961.27 -5054.48 -5067.10 -5067.13 -5067.13 -5067.13 -5067.14 -5069.76 -5089.11 -5091.73 -5091.73 -5091.73 -5091.73 -5091.69 -5072.55 -4931.12 -4911.99 -4911.94 -4911.94 -4911.94 -4911.93 -4909.93 -4895.15 -4893.15 -4893.14 -4893.14 -4893.14 -4893.06 -4861.07 -4624.68 -4592.69 -4592.61 -4592.61 -4591.91 -4309.65 -2492.26 -4042.15 -2840.64 -2111.81 -1999.92 -1882.36 -2044.11 -2373.49 -2062.17 -1900.34 -1961.74 -2248.09 -2545.55 -2919.28 -2935.82 -2726.57 -2924.49 -3089.55 -4573.59 -4783.75 -4786.90 -4812.26 -4959.11 -4978.97 -4979.53 -4979.60 -4979.60 -4979.61 -4986.55 -5037.82 -5044.76 -5044.72 -5044.27 -5021.21 -4843.57 -4795.80 -4881.18 -5058.70 -5081.51 -5081.57 -5081.57 -5081.53 -5064.59 -4939.40 -4922.46 -4922.42 -4922.42 -4922.35 -4921.87 -4921.31 -4917.12 -4916.55 -4916.55 -4916.55 -4916.55 -4916.56 -4921.33 -4956.54 -4961.30 -4961.31 -4961.31 -4961.31 -4961.30 -4955.31 -4911.07 -4905.08 -4905.07 -4905.07 -4905.07 -4905.08 -4911.55 -4959.35 -4965.82 -4965.84 -4965.84 -4965.84 -4965.85 -4969.48 -4996.35 -4999.99 -5000.00 -5000.00 -5000.00 -5000.00 -5000.00 -5000.00
-5006.56 -5006.56 -5006.56 -5006.56 -5006.56 -5006.56 -5004.46 -4988.93 -4986.83 -4986.83 -4986.83 -4986.83 -4986.83 -4987.58 -4993.11 -4993.86 -4993.86 -4993.86 -4993.86 -4993.87 -4995.37 -5006.51 -5008.02 -5008.02 -5008.02 -5008.02 -5008.02 -5008.33 -5010.65 -5010.96 -5010.96 -5010.96 -5010.96 -5010.95 -5008.67 -4991.77 -4989.49 -4989.48 -4989.48 -4989.48 -4989.48 -4989.24 -4987.47 -4987.23 -4987.23 -4987.23 -4987.23 -4987.22 -4983.40 -4955.16 -4951.34 -4951.33 -4951.33 -4950.16 -4480.16 -1471.21 -4410.74 -3871.18 -772.41 -261.63 -279.22 -1272.53 -3958.96 -1761.30 -738.07 -1428.89 -4297.11 -4716.63 -4755.68 -4355.09 -1758.96 -4324.62 -4769.32 -4976.44 -5004.06 -5004.13 -5003.44 -4998.27 -4997.56 -4997.56 -4997.56 -4997.56 -4997.56 -4998.39 -5004.52 -5005.35 -5005.35 -5005.35 -5005.29 -5004.85 -5005.19 -5008.79 -5009.69 -5009.74 -5009.74 -5009.74 -5009.74 -5007.72 -4992.76 -4990.74 -4990.73 -4990.73 -4990.73 -4990.73 -4990.66 -4990.11 -4990.03 -4990.03 -4990.03 -4990.03 -4990.03 -4990.60 -4994.81 -4995.38 -4995.38 -4995.38 -4995.38 -4995.38 -4994.66 -4989.38 -4988.66 -4988.66 -4988.66 -4988.66 -4988.66 -4989.43 -4995.14 -4995.92 -4995.92 -4995.92 -4995.92 -4995.92 -4996.35 -4999.56 -5000.00 -5000.00 -5000.00 -5000.00 -5000.00 -5000.00 -5000.00
-5000.02 -5000.02 -5000.02 -5000.02 -5000.02 -5000.02 -5000.01 -4999.97 -4999.97 -4999.97 -4999.97 -4999.97 -4999.97 -4999.97 -4999.98 -4999.98 -4999.98 -4999.98 -4999.98 -4999.98 -4999.99 -5000.02 -5000.02 -5000.02 -5000.02 -5000.02 -5000.02 -5000.02 -5000.03 -5000.03 -5000.03 -5000.03 -5000.03 -5000.03 -5000.02 -4999.98 -4999.97 -4999.97 -4999.97 -4999.97 -4999.97 -4999.97 -4999.97 -4999.97 -4999.97 -4999.97 -4999.97 -4999.97 -4999.96 -4999.89 -4999.88 -4999.88 -4999.88 -4998.72 -4533.51 -1504.45 -3704.96 -1016.44 -376.67 -559.79 -589.09 -3663.94 -4841.85 -4602.04 -4463.99 -4557.68 -4947.34 -4999.03 -4998.21 -4944.01 -4591.10 -4944.07 -4999.30 -4999.94 -5000.01 -5000.01 -5000.01 -5000.00 -4999.99 -4999.99 -4999.99 -4999.99 -4999.99 -5000.00 -5000.01 -5000.01 -5000.01 -5000.01 -5000.01 -5000.01 -5000.01 -5000.02 -5000.02 -5000.02 -5000.02 -5000.02 -5000.02 -5000.02 -4999.98 -4999.98 -4999.98 -4999.98 -4999.98 -4999.98 -4999.98 -4999.98 -4999.98 -4999.98 -4999.98 -4999.98 -4999.98 -4999.98 -4999.99 -4999.99 -4999.99 -4999.99 -4999.99 -4999.99 -4999.99 -4999.97 -4999.97 -4999.97 -4999.97 -4999.97 -4999.97 -4999.97 -4999.99 -4999.99 -4999.99 -4999.99 -4999.99 -4999.99 -4999.99 -5000.00 -5000.00 -5000.00 -5000.00 -5000.00 -5000.00 -5000.00 -5000.00
-5000.00 -5000.00 -5000.00 -5000.00 -5000.00 -5000.00 -5000.00 -5000.00 -5000.00 -5000.00 -5000.00 -5000.00 -5000.00 -5000.00 -5000.00 -5000.00 -5000.00 -5000.00 -5000.00 -5000.00 -5000.00 -5000.00 -5000.00 -5000.00 -5000.00 -5000.00 -5000.00 -5000.00 -5000.00 -5000.00 -5000.00 -5000.00 -5000.00 -5000.00 -5000.00 -5000.00 -5000.00 -5000.00 -5000.00 -5000.00 -5000.00 -5000.00 -5000.00 -5000.00 -5000.00 -5000.00 -5000.00 -5000.00 -5000.00 -5000.00 -5000.00 -5000.00 -5000.00 -4998.68 -4468.19 -712.91 -1325.94 -807.25 -1305.91 -3730.74 -1349.88 -1494.70 -4582.65 -4997.98 -4998.67 -4998.91 -4999.73 -4942.78 -4577.21 -4942.65 -4998.85 -4999.86 -5000.00 -5000.00 -5000.00 -5000.00 -5000.00 -5000.00 -5000.00 -5000.00 -5000.00 -5000.00 -5000.00 -5000.00 -5000.00 -5000.00 -5000.00 -5000.00 -5000.00 -5000.00 -5000.00 -5000.00 -5000.00 -5000.00 -5000.00 -5000.00 -5000.00 -5000.00 -5000.00 -5000.00 -5000.00 -5000.00 -5000.00 -5000.00 -5000.00 -5000.00 -5000.00 -5000.00 -5000.00 -5000.00 -5000.00 -5000.00 -5000.00 -5000.00 -5000.00 -5000.00 -5000.00 -5000.00 -5000.00 -5000.00 -5000.00 -5000.00 -5000.00 -5000.00 -5000.00 -5000.00 -5000.00 -5000.00 -5000.00 -5000.00 -5000.00 -5000.00 -5000.00 -5000.00 -5000.00 -5000.00 -5000.00 -5000.00 -5000.00 -5000.00 -5000.00
-5000.00 -5000.00 -5000.00 -5000.00 -5000.00 -5000.00 -5000.00 -5000.00 -5000.00 -5000.00 -5000.00 -5000.00 -5000.00 -5000.00 -5000.00 -5000.00 -5000.00 -5000.00 -5000.00 -5000.00 -5000.00 -5000.00 -5000.00 -5000.00 -5000.00 -5000.00 -5000.00 -5000.00 -5000.00 -5000.00 -5000.00 -5000.00 -5000.00 -5000.00 -5000.00 -5000.00 -5000.00 -5000.00 -5000.00 -5000.00 -5000.00 -5000.00 -5000.00 -5000.00 -5000.00 -5000.00 -5000.00 -5000.00 -5000.00 -5000.00 -5000.00 -5000.00 -5000.00 -4998.65 -4456.28 -933.23 -3706.05 -2037.12 -4234.87 -4896.01 -4568.15 -4533.18 -4943.57 -4999.86 -5000.00 -5000.00 -4998.95 -4577.21 -1876.01 -4577.21 -4998.95 -5000.00 -5000.00 -5000.00 -5000.00 -5000.00 -5000.00 -5000.00 -5000.00 -5000.00 -5000.00 -5000.00 -5000.00 -5000.00 -5000.00 -5000.00 -5000.00 -5000.00 -5000.00 -5000.00 -5000.00 -5000.00 -5000.00 -5000.00 -5000.00 -5000.00 -5000.00 -5000.00 -5000.00 -5000.00 -5000.00 -5000.00 -5000.00 -5000.00 -5000.00 -5000.00 -5000.00 -5000.00 -5000.00 -5000.00 -5000.00 -5000.00 -5000.00 -5000.00 -5000.00 -5000.00 -5000.00 -5000.00 -5000.00 -5000.00 -5000.00 -5000.00 -5000.00 -5000.00 -5000.00 -5000.00 -5000.00 -5000.00 -5000.00 -5000.00 -5000.00 -5000.00 -5000.00 -5000.00 -5000.00 -5000.00 -5000.00 -5000.00 -5000.00 -5000.00 -5000.00
-5000.00 -5000.00 -5000.00 -5000.00 -5000.00 -5000.00 -5000.00 -5000.00 -5000.00 -5000.00 -5000.00 -5000.00 -5000.00 -5000.00 -5000.00 -5000.00 -5000.00 -5000.00 -5000.00 -5000.00 -5000.00 -5000.00 -5000.00 -5000.00 -5000.00 -5000.00 -5000.00 -5000.00 -5000.00 -5000.00 -5000.00 -5000.00 -5000.00 -5000.00 -5000.00 -5000.00 -5000.00 -5000.00 -5000.00 -5000.00 -5000.00 -5000.00 -5000.00 -5000.00 -5000.00 -5000.00 -5000.00 -5000.00 -5000.00 -5000.00 -5000.00 -5000.00 -5000.00 -4998.53 -4405.25 -605.09 -4358.39 -4658.72 -4953.11 -4999.63 -4998.93 -4998.84 -4999.86 -5000.00 -5000.00 -5000.00 -4999.86 -4942.78 -4577.21 -4942.78 -4999.86 -5000.00 -5000.00 -5000.00 -5000.00 -5000.00 -5000.00 -5000.00 -5000.00 -5000.00 -5000.00 -5000.00 -5000.00 -5000.00 -5000.00 -5000.00 -5000.00 -5000.00 -5000.00 -5000.00 -5000.00 -5000.00 -5000.00 -5000.00 -5000.00 -5000.00 -5000.00 -5000.00 -5000.00 -5000.00 -5000.00 -5000.00 -5000.00 -5000.00 -5000.00 -5000.00 -5000.00 -5000.00 -5000.00 -5000.00 -5000.00 -5000.00 -5000.00 -5000.00 -5000.00 -5000.00 -5000.00 -5000.00 -5000.00 -5000.00 -5000.00 -5000.00 -5000.00 -5000.00 -5000.00 -5000.00 -5000.00 -5000.00 -5000.00 -5000.00 -5000.00 -5000.00 -5000.00 -5000.00 -5000.00 -5000.00 -5000.00 -5000.00 -5000.00 -5000.00 -5000.00
