-5043.76 -5043.76 -5043.76 -5043.76 -5043.76 -5043.75 -5040.19 -5013.92 -5010.36 -5010.35 -5010.35 -5010.35 -5010.38 -5020.15 -5092.36 -5102.14 -5102.16 -5102.16 -5102.16 -5102.13 -5089.52 -4996.35 -4983.74 -4983.71 -4983.71 -4983.71 -4983.71 -4984.74 -4992.34 -4993.37 -4993.37 -4993.37 -4993.37 -4993.39 -5002.82 -5072.48 -5081.91 -5081.93 -5081.93 -5081.93 -5081.89 -5067.06 -4957.48 -4942.65 -4942.62 -4942.62 -4942.62 -4942.65 -4958.17 -5072.78 -5088.29 -5088.33 -5088.33 -5088.33 -5088.32 -5085.03 -5060.74 -5057.46 -5057.45 -5057.45 -5057.45 -5057.45 -5056.69 -5051.05 -5050.29 -5050.29 -5050.29 -5050.29 -5050.27 -5042.93 -4988.66 -4981.32 -4981.30 -4981.30 -4981.30 -4981.32 -4989.02 -5045.89 -5053.59 -5053.61 -5053.61 -5053.61 -5053.01 -4812.32 -3005.51 -2318.81 -502.83 -39.78 -64.46 -144.64 -337.09 -1686.41 -2257.90 -4057.90 -4473.11 -4497.75 -4497.97 -4564.01 -5051.95 -5117.98 -5118.15 -5118.15 -5118.15 -5118.13 -5110.82 -5056.84 -5049.53 -5049.52 -5049.52 -5049.52 -5049.51 -5046.09 -5020.82 -5017.40 -5017.39 -5017.39 -5017.39 -5017.37 -5009.47 -4951.11 -4943.22 -4943.20 -4943.20 -4943.20 -4943.24 -4961.23 -5094.16 -5112.15 -5112.19 -5112.19 -5112.19 -5112.16 -5100.22 -5011.97 -5000.03 -5000.00 -5000.00 -5000.00 -5000.00 -5000.00 -5000.00
-5046.72 -5046.72 -5046.72 -5046.72 -5046.72 -5046.71 -5042.39 -5010.48 -5006.16 -5006.15 -5006.15 -5006.15 -5006.17 -5014.17 -5073.29 -5081.29 -5081.31 -5081.31 -5081.31 -5081.29 -5070.49 -4990.69 -4979.89 -4979.86 -4979.86 -4979.86 -4979.86 -4980.81 -4987.81 -4988.76 -4988.76 -4988.76 -4988.76 -4988.78 -4997.85 -5064.81 -5073.87 -5073.89 -5073.89 -5073.89 -5073.86 -5059.85 -4956.39 -4942.39 -4942.35 -4942.35 -4942.35 -4942.39 -4957.66 -5070.52 -5085.80 -5085.83 -5085.83 -5085.83 -5085.83 -5083.09 -5062.83 -5060.09 -5060.08 -5060.08 -5060.08 -5060.08 -5059.56 -5055.74 -5055.22 -5055.22 -5055.22 -5055.22 -5055.20 -5047.07 -4987.00 -4978.87 -4978.85 -4978.85 -4978.85 -4978.84 -4974.39 -4941.53 -4937.09 -4937.08 -4937.08 -4937.08 -4936.44 -4678.93 -2569.26 -721.82 -255.54 -167.97 -247.46 -272.06 -431.23 -1721.60 -1977.54 -2628.88 -4201.48 -4406.34 -4407.03 -4480.27 -5021.49 -5094.73 -5094.91 -5094.91 -5094.91 -5094.90 -5089.11 -5046.37 -5040.58 -5040.57 -5040.57 -5040.57 -5040.56 -5037.54 -5015.23 -5012.21 -5012.20 -5012.20 -5012.20 -5012.18 -5004.84 -4950.59 -4943.25 -4943.23 -4943.23 -4943.23 -4943.27 -4959.62 -5080.40 -5096.75 -5096.79 -5096.79 -5096.79 -5096.76 -5086.46 -5010.33 -5000.03 -5000.00 -5000.00 -5000.00 -5000.00 -5000.00 -5000.00
-5068.61 -5068.61 -5068.61 -5068.61 -5068.61 -5068.59 -5058.63 -4985.06 -4975.10 -4975.08 -4975.08 -4975.08 -4975.06 -4969.98 -4932.38 -4927.29 -4927.28 -4927.28 -4927.28 -4927.29 -4929.86 -4948.85 -4951.42 -4951.42 -4951.42 -4951.42 -4951.42 -4951.77 -4954.34 -4954.69 -4954.69 -4954.69 -4954.69 -4954.71 -4961.07 -5008.11 -5014.48 -5014.50 -5014.50 -5014.50 -5014.48 -5006.59 -4948.32 -4940.44 -4940.42 -4940.42 -4940.42 -4940.45 -4953.97 -5053.85 -5067.37 -5067.41 -5067.41 -5067.41 -5067.41 -5068.70 -5078.25 -5079.54 -5079.55 -5079.55 -5079.55 -5079.55 -5080.84 -5090.37 -5091.66 -5091.67 -5091.67 -5091.67 -5091.63 -5077.69 -4974.71 -4960.77 -4960.73 -4960.73 -4960.73 -4960.50 -4866.32 -4170.41 -4076.22 -4075.99 -4075.99 -4075.99 -4075.05 -3694.27 -835.25 -106.02 -7.87 -12.82 -61.00 -62.50 -156.32 -1117.15 -1252.26 -1587.21 -3479.44 -3734.07 -3735.02 -3861.54 -4796.41 -4922.93 -4923.25 -4923.25 -4923.25 -4923.26 -4928.71 -4968.99 -4974.44 -4974.46 -4974.46 -4974.46 -4974.46 -4974.39 -4973.93 -4973.87 -4973.87 -4973.87 -4973.87 -4973.86 -4970.63 -4946.75 -4943.52 -4943.51 -4943.51 -4943.51 -4943.52 -4947.72 -4978.79 -4982.99 -4983.00 -4983.00 -4983.00 -4983.01 -4984.82 -4998.19 -5000.00 -5000.00 -5000.00 -5000.00 -5000.00 -5000.00 -5000.00
-5071.57 -5071.57 -5071.57 -5071.57 -5071.57 -5071.55 -5060.83 -4981.62 -4970.90 -4970.87 -4970.87 -4970.87 -4970.85 -4963.99 -4913.31 -4906.45 -4906.43 -4906.43 -4906.43 -4906.44 -4910.82 -4943.18 -4947.56 -4947.57 -4947.57 -4947.57 -4947.57 -4947.84 -4949.81 -4950.08 -4950.08 -4950.08 -4950.08 -4950.10 -4956.10 -5000.44 -5006.44 -5006.46 -5006.46 -5006.46 -5006.44 -4999.38 -4947.23 -4940.17 -4940.16 -4940.16 -4940.16 -4940.19 -4953.47 -5051.60 -5064.88 -5064.91 -5064.91 -5064.91 -5064.92 -5066.75 -5080.34 -5082.17 -5082.18 -5082.18 -5082.18 -5082.18 -5083.72 -5095.06 -5096.60 -5096.60 -5096.60 -5096.60 -5096.56 -5081.84 -4973.04 -4958.32 -4958.28 -4958.28 -4958.28 -4958.02 -4851.69 -4066.05 -3959.72 -3959.46 -3959.46 -3959.46 -3958.42 -3540.18 -444.80 10.98 15.76 2.02 -19.84 -9.97 -115.92 -1030.11 -1152.77 -1448.30 -3382.02 -3643.09 -3644.07 -3777.80 -4765.95 -4899.68 -4900.01 -4900.01 -4900.01 -4900.03 -4907.00 -4958.52 -4965.49 -4965.51 -4965.51 -4965.51 -4965.51 -4965.85 -4968.34 -4968.68 -4968.68 -4968.68 -4968.68 -4968.67 -4966.00 -4946.23 -4943.55 -4943.55 -4943.55 -4943.55 -4943.55 -4946.11 -4965.04 -4967.60 -4967.60 -4967.60 -4967.60 -4967.61 -4971.06 -4996.54 -4999.99 -5000.00 -5000.00 -5000.00 -5000.00 -5000.00 -5000.00
-5071.58 -5071.58 -5071.58 -5071.58 -5071.58 -5071.55 -5060.83 -4981.61 -4970.89 -4970.86 -4970.86 -4970.86 -4970.84 -4963.98 -4913.26 -4906.40 -4906.38 -4906.38 -4906.38 -4906.39 -4910.78 -4943.17 -4947.55 -4947.56 -4947.56 -4947.56 -4947.56 -4947.83 -4949.80 -4950.07 -4950.07 -4950.07 -4950.07 -4950.09 -4956.09 -5000.42 -5006.42 -5006.44 -5006.44 -5006.44 -5006.42 -4999.36 -4947.23 -4940.17 -4940.15 -4940.15 -4940.15 -4940.19 -4953.47 -5051.59 -5064.87 -5064.91 -5064.91 -5064.91 -5064.91 -5066.75 -5080.34 -5082.18 -5082.19 -5082.19 -5082.19 -5082.19 -5083.73 -5095.07 -5096.61 -5096.61 -5096.61 -5096.61 -5096.58 -5081.85 -4973.04 -4958.31 -4958.28 -4958.28 -4958.28 -4958.01 -4851.66 -4065.79 -3959.43 -3959.17 -3959.17 -3959.17 -3958.06 -3538.43 -434.30 34.08 4.36 -9.42 -17.77 -1.37 -112.95 -1032.54 -1164.93 -1438.82 -3380.30 -3642.86 -3643.85 -3777.60 -4765.88 -4899.63 -4899.96 -4899.96 -4899.96 -4899.97 -4906.95 -4958.49 -4965.47 -4965.49 -4965.49 -4965.49 -4965.49 -4965.83 -4968.33 -4968.67 -4968.67 -4968.67 -4968.67 -4968.66 -4965.99 -4946.23 -4943.55 -4943.55 -4943.55 -4943.55 -4943.55 -4946.11 -4965.00 -4967.56 -4967.57 -4967.57 -4967.57 -4967.57 -4971.03 -4996.54 -4999.99 -5000.00 -5000.00 -5000.00 -5000.00 -5000.00 -5000.00
-5071.58 -5071.58 -5071.58 -5071.58 -5071.58 -5071.55 -5060.83 -4981.61 -4970.89 -4970.86 -4970.86 -4970.86 -4970.84 -4963.98 -4913.26 -4906.40 -4906.38 -4906.38 -4906.38 -4906.39 -4910.78 -4943.17 -4947.55 -4947.56 -4947.56 -4947.56 -4947.56 -4947.83 -4949.80 -4950.07 -4950.07 -4950.07 -4950.07 -4950.09 -4956.09 -5000.42 -5006.42 -5006.44 -5006.44 -5006.44 -5006.42 -4999.36 -4947.23 -4940.17 -4940.15 -4940.15 -4940.15 -4940.19 -4953.47 -5051.59 -5064.87 -5064.91 -5064.91 -5064.91 -5064.91 -5066.75 -5080.34 -5082.18 -5082.19 -5082.19 -5082.19 -5082.19 -5083.73 -5095.07 -5096.61 -5096.61 -5096.61 -5096.61 -5096.58 -5081.85 -4973.04 -4958.31 -4958.28 -4958.28 -4958.28 -4958.01 -4851.66 -4065.79 -3959.43 -3959.17 -3959.10 -3958.53 -3929.66 -3335.59 -431.95 4.04 8.46 -2.86 0.16 25.90 -102.21 -1041.94 -1178.30 -1468.92 -3383.65 -3642.23 -3643.27 -3777.53 -4765.88 -4899.63 -4899.96 -4899.96 -4899.96 -4899.97 -4906.95 -4958.49 -4965.47 -4965.49 -4965.49 -4965.49 -4965.49 -4965.83 -4968.33 -4968.67 -4968.67 -4968.67 -4968.67 -4968.66 -4965.99 -4946.23 -4943.55 -4943.55 -4943.55 -4943.55 -4943.55 -4946.11 -4965.00 -4967.56 -4967.57 -4967.57 -4967.57 -4967.57 -4971.03 -4996.54 -4999.99 -5000.00 -5000.00 -5000.00 -5000.00 -5000.00 -5000.00
-5071.58 -5071.58 -5071.58 -5071.58 -5071.58 -5071.56 -5060.84 -4981.62 -4970.90 -4970.88 -4970.88 -4970.88 -4970.86 -4963.99 -4913.27 -4906.41 -4906.39 -4906.39 -4906.39 -4906.40 -4910.78 -4943.16 -4947.54 -4947.56 -4947.56 -4947.56 -4947.56 -4947.80 -4949.62 -4949.86 -4949.86 -4949.86 -4949.86 -4949.88 -4955.86 -5000.03 -5006.01 -5006.03 -5006.03 -5006.03 -5006.01 -4998.98 -4947.07 -4940.05 -4940.03 -4940.03 -4940.03 -4940.06 -4953.35 -5051.52 -5064.81 -5064.84 -5064.84 -5064.84 -5064.85 -5066.69 -5080.31 -5082.15 -5082.16 -5082.16 -5082.16 -5082.16 -5083.69 -5095.01 -5096.54 -5096.54 -5096.54 -5096.54 -5096.50 -5081.74 -4972.63 -4957.86 -4957.83 -4957.83 -4957.83 -4957.56 -4851.22 -4065.40 -3958.99 -3958.18 -3930.61 -3727.47 -3495.26 -1779.06 -183.43 10.84 0.11 7.74 21.71 69.54 -85.51 -1029.80 -1177.68 -1433.72 -3148.39 -3381.93 -3411.45 -3749.54 -4765.68 -4899.53 -4899.86 -4899.86 -4899.86 -4899.87 -4906.86 -4958.49 -4965.48 -4965.50 -4965.50 -4965.50 -4965.50 -4965.84 -4968.35 -4968.69 -4968.69 -4968.69 -4968.69 -4968.69 -4966.01 -4946.24 -4943.57 -4943.56 -4943.56 -4943.56 -4943.57 -4946.12 -4965.02 -4967.58 -4967.59 -4967.59 -4967.59 -4967.60 -4971.05 -4996.54 -4999.99 -5000.00 -5000.00 -5000.00 -5000.00 -5000.00 -5000.00
-5073.23 -5073.23 -5073.23 -5073.23 -5073.23 -5073.20 -5062.96 -4987.32 -4977.08 -4977.06 -4977.06 -4977.06 -4977.04 -4969.86 -4916.79 -4909.60 -4909.59 -4909.59 -4909.59 -4909.60 -4913.27 -4940.42 -4944.10 -4944.10 -4944.10 -4944.10 -4944.08 -4935.85 -4874.99 -4866.75 -4866.73 -4866.73 -4866.73 -4866.72 -4863.85 -4842.66 -4839.79 -4839.78 -4839.78 -4839.78 -4839.79 -4845.18 -4884.99 -4890.37 -4890.39 -4890.39 -4890.39 -4890.43 -4906.25 -5023.20 -5039.03 -5039.07 -5039.07 -5039.07 -5039.07 -5042.49 -5067.74 -5071.16 -5071.17 -5071.17 -5071.17 -5071.17 -5070.83 -5068.30 -5067.96 -5067.96 -5067.96 -5067.96 -5067.88 -5036.88 -4807.78 -4776.78 -4776.70 -4776.70 -4776.70 -4776.44 -4673.31 -3911.15 -3781.55 -3586.79 -3342.56 -1837.48 -1614.46 -1196.69 -45.41 131.79 41.92 101.73 76.71 196.35 4.99 -861.44 -988.17 -1028.94 -1236.18 -1284.56 -1526.86 -3400.92 -4712.73 -4859.20 -4859.56 -4859.56 -4859.56 -4859.59 -4871.23 -4957.26 -4968.90 -4968.93 -4968.93 -4968.93 -4968.93 -4970.05 -4978.27 -4979.38 -4979.39 -4979.39 -4979.39 -4979.38 -4976.20 -4952.69 -4949.51 -4949.50 -4949.50 -4949.50 -4949.51 -4952.42 -4973.93 -4976.84 -4976.85 -4976.85 -4976.85 -4976.86 -4979.32 -4997.53 -4999.99 -5000.00 -5000.00 -5000.00 -5000.00 -5000.00 -5000.00
-5085.35 -5085.35 -5085.35 -5085.35 -5085.35 -5085.33 -5078.66 -5029.41 -5022.75 -5022.73 -5022.73 -5022.73 -5022.71 -5013.18 -4942.77 -4933.24 -4933.21 -4933.21 -4933.21 -4933.21 -4931.65 -4920.16 -4918.61 -4918.60 -4918.60 -4918.60 -4918.43 -4847.52 -4323.54 -4252.62 -4252.45 -4252.45 -4252.45 -4252.28 -4184.04 -3679.80 -3611.56 -3611.39 -3611.39 -3611.39 -3611.63 -3708.73 -4426.22 -4523.32 -4523.56 -4523.56 -4523.56 -4523.65 -4558.25 -4813.91 -4848.51 -4848.60 -4848.60 -4848.60 -4848.64 -4863.69 -4974.89 -4989.94 -4989.98 -4989.98 -4989.98 -4989.94 -4975.76 -4870.98 -4856.80 -4856.77 -4856.77 -4856.77 -4856.39 -4705.40 -3589.70 -3438.70 -3438.33 -3438.33 -3438.33 -3438.13 -3358.64 -2745.16 -2278.46 -802.84 -464.79 -199.49 -149.86 -103.80 145.71 185.82 149.82 131.83 199.57 382.13 433.32 301.77 261.82 279.73 345.94 302.34 13.92 -2134.25 -4301.74 -4561.17 -4561.81 -4561.81 -4561.81 -4561.93 -4607.97 -4948.15 -4994.19 -4994.30 -4994.30 -4994.30 -4994.32 -5001.14 -5051.55 -5058.37 -5058.39 -5058.39 -5058.39 -5058.37 -5051.45 -5000.35 -4993.44 -4993.42 -4993.42 -4993.42 -4993.44 -4998.96 -5039.75 -5045.27 -5045.29 -5045.29 -5045.29 -5045.27 -5040.45 -5004.83 -5000.01 -5000.00 -5000.00 -5000.00 -5000.00 -5000.00 -5000.00
-5086.99 -5086.99 -5086.99 -5086.99 -5086.99 -5086.97 -5080.79 -5035.11 -5028.93 -5028.91 -5028.91 -5028.91 -5028.89 -5019.04 -4946.28 -4936.43 -4936.41 -4936.41 -4936.41 -4936.40 -4934.14 -4917.42 -4915.16 -4915.15 -4915.15 -4915.15 -4914.96 -4835.56 -4248.90 -4169.51 -4169.31 -4169.31 -4169.31 -4169.12 -4092.03 -3522.42 -3445.33 -3445.14 -3445.14 -3445.14 -3445.41 -3554.93 -4364.13 -4473.64 -4473.91 -4473.91 -4473.91 -4474.01 -4511.15 -4785.59 -4822.73 -4822.82 -4822.82 -4822.82 -4822.86 -4839.49 -4962.32 -4978.95 -4978.99 -4978.99 -4978.99 -4978.95 -4962.89 -4844.28 -4828.23 -4828.19 -4828.19 -4828.19 -4827.77 -4660.54 -3424.85 -3257.62 -3257.20 -3257.14 -3256.65 -3256.31 -3152.38 -2193.99 -614.59 -102.03 -16.18 29.79 69.88 106.08 231.11 294.93 352.59 250.42 280.06 518.60 614.26 626.45 657.24 683.53 627.63 616.59 334.05 -669.69 -4069.70 -4520.40 -4521.52 -4521.52 -4521.52 -4521.64 -4572.34 -4946.92 -4997.61 -4997.74 -4997.74 -4997.74 -4997.76 -5005.35 -5061.47 -5069.06 -5069.08 -5069.08 -5069.08 -5069.06 -5061.64 -5006.80 -4999.38 -4999.37 -4999.37 -4999.37 -4999.38 -5005.25 -5048.66 -5054.53 -5054.55 -5054.55 -5054.55 -5054.53 -5048.73 -5005.82 -5000.01 -5000.00 -5000.00 -5000.00 -5000.00 -5000.00 -5000.00
-5086.99 -5086.99 -5086.99 -5086.99 -5086.99 -5086.98 -5080.80 -5035.12 -5028.94 -5028.93 -5028.93 -5028.93 -5028.90 -5019.05 -4946.29 -4936.44 -4936.42 -4936.42 -4936.42 -4936.41 -4934.15 -4917.41 -4915.15 -4915.14 -4915.14 -4915.14 -4914.95 -4835.53 -4248.72 -4169.30 -4169.11 -4169.05 -4168.62 -4168.29 -4091.16 -3521.38 -3444.27 -3444.08 -3444.08 -3444.17 -3444.94 -3554.55 -4363.98 -4473.52 -4473.79 -4473.79 -4473.79 -4473.88 -4511.03 -4785.52 -4822.67 -4822.76 -4822.76 -4822.76 -4822.80 -4839.43 -4962.29 -4978.92 -4978.96 -4978.96 -4978.96 -4978.92 -4962.86 -4844.21 -4828.16 -4828.12 -4828.12 -4828.12 -4827.70 -4660.43 -3424.44 -3257.17 -3256.62 -3229.98 -3035.64 -3000.03 -2715.85 -630.16 -102.19 -31.39 -4.35 45.23 70.61 120.96 223.69 251.36 271.66 259.35 274.40 423.11 443.63 661.12 814.67 922.95 700.45 692.63 442.60 -277.34 -4016.87 -4520.10 -4521.42 -4521.42 -4521.42 -4521.55 -4572.25 -4946.92 -4997.62 -4997.75 -4997.75 -4997.75 -4997.77 -5005.36 -5061.49 -5069.09 -5069.10 -5069.10 -5069.10 -5069.09 -5061.66 -5006.82 -4999.40 -4999.38 -4999.38 -4999.38 -4999.39 -5005.27 -5048.68 -5054.56 -5054.57 -5054.57 -5054.57 -5054.56 -5048.75 -5005.82 -5000.01 -5000.00 -5000.00 -5000.00 -5000.00 -5000.00 -5000.00
-5086.99 -5086.99 -5086.99 -5086.99 -5086.99 -5086.98 -5080.80 -5035.12 -5028.94 -5028.93 -5028.93 -5028.93 -5028.90 -5019.05 -4946.29 -4936.44 -4936.42 -4936.42 -4936.42 -4936.41 -4934.15 -4917.41 -4915.15 -4915.14 -4915.14 -4915.14 -4914.95 -4835.53 -4248.72 -4169.30 -4169.05 -4146.23 -3972.89 -3914.38 -3830.60 -3258.95 -3181.34 -3181.92 -3183.27 -3219.94 -3417.80 -3554.41 -4363.98 -4473.52 -4473.79 -4473.79 -4473.79 -4473.88 -4511.03 -4785.52 -4822.67 -4822.76 -4822.76 -4822.76 -4822.80 -4839.43 -4962.29 -4978.92 -4978.96 -4978.96 -4978.96 -4978.92 -4962.86 -4844.21 -4828.16 -4828.12 -4828.12 -4828.12 -4827.70 -4660.43 -3424.38 -3256.58 -3228.90 -2837.42 -1365.72 -1104.99 -955.07 -189.01 -48.21 -26.79 2.98 36.06 33.22 56.01 186.71 231.01 195.12 199.52 182.41 208.25 254.33 595.78 612.00 597.37 880.75 713.76 484.68 -170.33 -3803.09 -4492.03 -4521.28 -4521.42 -4521.42 -4521.55 -4572.25 -4946.92 -4997.62 -4997.75 -4997.75 -4997.75 -4997.77 -5005.36 -5061.49 -5069.09 -5069.10 -5069.10 -5069.10 -5069.09 -5061.66 -5006.82 -4999.40 -4999.38 -4999.38 -4999.38 -4999.39 -5005.27 -5048.68 -5054.56 -5054.57 -5054.57 -5054.57 -5054.56 -5048.75 -5005.82 -5000.01 -5000.00 -5000.00 -5000.00 -5000.00 -5000.00 -5000.00
-5087.00 -5087.00 -5087.00 -5087.00 -5087.00 -5086.98 -5080.80 -5035.12 -5028.93 -5028.92 -5028.92 -5028.92 -5028.89 -5019.05 -4946.33 -4936.48 -4936.46 -4936.46 -4936.46 -4936.45 -4934.18 -4917.43 -4915.16 -4915.15 -4915.15 -4915.15 -4914.95 -4835.49 -4248.33 -4168.87 -4168.19 -3972.42 -2490.68 -2027.39 -1895.02 -1307.17 -1225.41 -1231.86 -1245.55 -1520.75 -3011.21 -3524.93 -4363.20 -4472.85 -4473.12 -4473.12 -4473.12 -4473.21 -4510.36 -4784.83 -4821.97 -4822.06 -4822.06 -4822.06 -4822.10 -4838.73 -4961.61 -4978.24 -4978.28 -4978.28 -4978.28 -4978.24 -4962.18 -4843.55 -4827.50 -4827.46 -4827.46 -4827.46 -4827.04 -4659.69 -3399.05 -3046.50 -2797.77 -1301.96 -837.24 -787.25 -708.12 -141.37 -45.94 -26.06 4.52 26.14 12.21 31.33 148.87 170.75 158.82 158.81 159.01 166.50 204.66 438.23 537.19 594.98 850.11 766.44 667.22 130.07 -2251.34 -4084.25 -4492.80 -4520.75 -4520.82 -4520.95 -4571.71 -4946.85 -4997.61 -4997.74 -4997.74 -4997.74 -4997.76 -5005.35 -5061.46 -5069.05 -5069.07 -5069.07 -5069.07 -5069.05 -5061.64 -5006.83 -4999.41 -4999.39 -4999.39 -4999.39 -4999.41 -5005.28 -5048.65 -5054.52 -5054.54 -5054.54 -5054.54 -5054.52 -5048.72 -5005.82 -5000.01 -5000.00 -5000.00 -5000.00 -5000.00 -5000.00 -5000.00
-5089.12 -5089.12 -5089.12 -5089.12 -5089.12 -5089.10 -5082.35 -5032.45 -5025.70 -5025.68 -5025.68 -5025.68 -5025.66 -5017.90 -4960.57 -4952.81 -4952.79 -4952.79 -4952.79 -4952.78 -4949.07 -4921.71 -4918.01 -4918.00 -4918.00 -4918.00 -4917.75 -4819.35 -4092.24 -3993.84 -3992.90 -3738.02 -1848.04 -1512.92 -1380.02 -808.61 -727.22 -733.25 -762.47 -839.15 -1272.49 -2960.35 -4077.48 -4201.05 -4201.36 -4201.36 -4201.36 -4201.45 -4237.69 -4505.39 -4541.62 -4541.71 -4541.71 -4541.71 -4541.76 -4558.86 -4685.25 -4702.36 -4702.40 -4702.40 -4702.40 -4702.36 -4687.39 -4576.73 -4561.75 -4561.72 -4561.72 -4561.72 -4561.22 -4385.96 -2912.25 -1338.25 -927.72 -692.43 -636.03 -661.33 -620.06 -101.13 -8.75 6.85 38.11 45.64 30.81 42.82 139.25 152.15 148.65 151.43 157.33 164.56 194.55 372.45 440.11 493.15 578.73 584.00 621.27 322.99 -1513.51 -2302.92 -4047.42 -4278.22 -4278.86 -4279.04 -4355.27 -4918.51 -4994.73 -4994.92 -4994.92 -4994.92 -4994.94 -5001.46 -5049.67 -5056.19 -5056.21 -5056.21 -5056.21 -5056.19 -5050.76 -5010.64 -5005.21 -5005.20 -5005.20 -5005.20 -5005.21 -5009.01 -5037.16 -5040.97 -5040.98 -5040.98 -5040.98 -5040.97 -5036.61 -5004.37 -5000.01 -5000.00 -5000.00 -5000.00 -5000.00 -5000.00 -5000.00
-5104.79 -5104.79 -5104.79 -5104.79 -5104.79 -5104.76 -5093.80 -5012.78 -5001.82 -5001.79 -5001.79 -5001.79 -5001.81 -5009.43 -5065.80 -5073.42 -5073.44 -5073.44 -5073.44 -5073.41 -5059.10 -4953.38 -4939.07 -4939.03 -4939.03 -4939.03 -4938.44 -4700.09 -2938.87 -2700.45 -2674.77 -2254.82 -458.00 -158.70 -39.75 263.17 315.24 326.01 322.59 259.32 157.76 -265.03 -1738.77 -1934.42 -1936.20 -1937.19 -1936.83 -1936.89 -1996.21 -2413.05 -2469.51 -2470.13 -2470.20 -2470.20 -2470.25 -2490.87 -2643.25 -2663.88 -2663.93 -2663.93 -2663.93 -2663.91 -2656.91 -2605.17 -2598.11 -2597.73 -2598.03 -2597.53 -2568.60 -2156.24 -569.78 77.97 168.27 199.35 233.88 208.61 254.22 204.66 212.58 226.42 239.70 231.97 224.36 221.15 164.77 159.37 158.84 162.98 168.98 176.86 188.19 233.36 267.44 280.90 323.05 399.87 490.08 458.23 278.82 -219.92 -2022.97 -2462.24 -2490.84 -2491.63 -2755.96 -4709.13 -4973.46 -4974.11 -4974.11 -4974.11 -4974.11 -4972.73 -4962.52 -4961.14 -4961.13 -4961.13 -4961.13 -4961.16 -4970.41 -5038.79 -5048.04 -5048.06 -5048.06 -5048.06 -5048.03 -5036.62 -4952.25 -4940.83 -4940.80 -4940.80 -4940.80 -4940.82 -4947.12 -4993.68 -4999.98 -5000.00 -5000.00 -5000.00 -5000.00 -5000.00 -5000.00
-5106.91 -5106.91 -5106.91 -5106.91 -5106.91 -5106.88 -5095.35 -5010.12 -4998.58 -4998.55 -4998.55 -4998.55 -4998.58 -5008.29 -5080.04 -5089.75 -5089.77 -5089.77 -5089.77 -5089.73 -5073.99 -4957.66 -4941.92 -4941.88 -4941.88 -4941.88 -4941.24 -4683.95 -2782.77 -2524.97 -2318.05 -737.16 -101.74 -9.30 126.61 409.81 460.00 473.62 461.30 451.99 399.72 334.37 291.37 283.54 270.69 263.47 267.93 268.42 15.96 -1697.54 -1966.25 -2162.82 -2189.29 -2189.79 -2189.90 -2211.00 -2366.90 -2388.00 -2388.05 -2388.05 -2388.05 -2388.04 -2382.11 -2338.29 -2309.08 -2159.73 -2281.78 -2106.57 -1862.15 -277.14 211.54 297.41 316.18 330.99 331.59 322.61 361.71 299.96 253.70 252.00 254.68 249.27 243.68 233.26 163.45 156.30 159.13 164.70 171.71 179.67 189.64 211.14 257.20 295.30 341.71 378.51 496.13 569.30 424.08 303.35 -232.80 -1813.35 -2220.44 -2249.59 -2539.52 -4680.79 -4970.58 -4971.30 -4971.30 -4971.30 -4971.29 -4968.84 -4950.73 -4948.27 -4948.27 -4948.27 -4948.27 -4948.30 -4959.54 -5042.60 -5053.84 -5053.86 -5053.86 -5053.86 -5053.83 -5040.35 -4940.76 -4927.28 -4927.24 -4927.24 -4927.24 -4927.26 -4935.01 -4992.24 -4999.98 -5000.00 -5000.00 -5000.00 -5000.00 -5000.00 -5000.00
-5106.91 -5106.91 -5106.91 -5106.91 -5106.91 -5106.89 -5095.35 -5010.11 -4998.57 -4998.55 -4998.55 -4998.55 -4998.57 -5008.29 -5080.07 -5089.79 -5089.81 -5089.81 -5089.81 -5089.77 -5074.03 -4957.67 -4941.93 -4941.89 -4941.89 -4941.89 -4941.25 -4683.91 -2782.39 -2524.45 -2286.03 -503.00 -67.87 -15.85 132.67 431.08 481.10 492.79 486.53 469.42 464.83 454.25 579.41 579.22 549.97 549.37 562.24 564.53 506.67 52.84 -290.62 -1737.91 -1991.23 -2165.65 -2188.65 -2210.24 -2366.21 -2387.32 -2387.31 -2386.95 -2387.31 -2387.30 -2380.96 -2336.65 -2135.19 -855.02 -1704.94 -412.95 -124.44 114.94 307.93 356.24 331.34 325.37 329.84 331.65 349.18 376.27 253.15 245.39 244.53 239.22 239.22 230.06 167.86 158.69 159.27 164.29 170.37 176.88 190.19 212.84 263.98 252.23 285.56 325.13 518.30 659.07 589.61 318.79 223.05 -250.03 -1813.27 -2220.46 -2538.84 -4680.72 -4970.57 -4971.29 -4971.29 -4971.29 -4971.28 -4968.83 -4950.70 -4948.24 -4948.24 -4948.24 -4948.24 -4948.26 -4959.51 -5042.60 -5053.85 -5053.88 -5053.88 -5053.88 -5053.84 -5040.36 -4940.73 -4927.24 -4927.21 -4927.21 -4927.21 -4927.23 -4934.98 -4992.23 -4999.98 -5000.00 -5000.00 -5000.00 -5000.00 -5000.00 -5000.00
-5106.91 -5106.91 -5106.91 -5106.91 -5106.91 -5106.89 -5095.35 -5010.11 -4998.57 -4998.55 -4998.55 -4998.55 -4998.57 -5008.29 -5080.07 -5089.79 -5089.81 -5089.81 -5089.81 -5089.77 -5074.03 -4957.67 -4941.93 -4941.89 -4941.89 -4941.89 -4941.25 -4683.91 -2782.39 -2524.48 -2294.58 -567.45 -85.32 -11.44 128.35 430.41 497.86 502.59 502.69 481.31 494.88 513.50 676.09 674.86 647.30 644.54 634.98 626.63 583.89 308.67 177.88 -10.60 -474.68 -1786.99 -1985.65 -2185.50 -2365.51 -2386.63 -2363.99 -2218.72 -2363.95 -2363.86 -2188.85 -2113.70 -1893.95 -394.83 -124.15 61.88 115.44 161.97 317.22 369.59 331.64 323.41 333.70 372.34 378.56 386.65 258.75 237.69 240.03 230.59 234.21 235.09 171.11 170.66 161.97 164.86 171.06 177.97 198.17 226.63 242.48 233.04 255.00 331.50 542.10 557.63 687.94 414.83 320.95 190.09 -245.61 -1811.73 -2510.20 -4680.59 -4970.57 -4971.29 -4971.29 -4971.29 -4971.28 -4968.83 -4950.70 -4948.24 -4948.24 -4948.24 -4948.24 -4948.26 -4959.51 -5042.60 -5053.85 -5053.88 -5053.88 -5053.88 -5053.84 -5040.36 -4940.73 -4927.24 -4927.21 -4927.21 -4927.21 -4927.23 -4934.98 -4992.23 -4999.98 -5000.00 -5000.00 -5000.00 -5000.00 -5000.00 -5000.00
-5106.89 -5106.89 -5106.89 -5106.89 -5106.89 -5106.87 -5095.33 -5010.09 -4998.56 -4998.53 -4998.53 -4998.53 -4998.55 -5008.27 -5080.07 -5089.78 -5089.81 -5089.81 -5089.81 -5089.77 -5074.01 -4957.54 -4941.77 -4941.74 -4941.74 -4941.74 -4941.10 -4683.76 -2782.31 -2524.44 -2308.07 -670.41 -120.13 -12.18 148.06 450.32 487.15 483.97 469.85 480.18 510.12 539.63 692.24 703.41 687.25 681.56 678.73 674.03 613.50 352.32 282.72 274.31 189.46 -188.33 -431.20 -1769.17 -2106.40 -2134.21 -1959.51 -890.64 -1966.44 -1969.59 -706.49 -430.31 -292.47 36.10 106.40 133.48 153.75 177.24 324.29 368.69 368.87 344.71 334.40 374.82 430.12 412.30 273.21 250.28 248.15 238.60 240.35 236.93 177.16 167.45 164.50 167.61 173.88 186.22 198.60 211.72 227.02 232.64 267.40 402.67 494.41 531.57 538.48 476.80 368.32 273.66 226.61 -236.18 -2110.20 -4653.59 -4970.40 -4971.19 -4971.19 -4971.19 -4971.18 -4968.74 -4950.70 -4948.26 -4948.25 -4948.25 -4948.25 -4948.28 -4959.52 -5042.58 -5053.82 -5053.85 -5053.85 -5053.85 -5053.81 -5040.34 -4940.76 -4927.28 -4927.25 -4927.25 -4927.25 -4927.27 -4935.01 -4992.24 -4999.98 -5000.00 -5000.00 -5000.00 -5000.00 -5000.00 -5000.00
-5098.55 -5098.55 -5098.55 -5098.55 -5098.55 -5098.52 -5087.11 -5002.74 -4991.32 -4991.29 -4991.29 -4991.29 -4991.32 -5001.55 -5077.13 -5087.36 -5087.38 -5087.38 -5087.38 -5087.33 -5065.27 -4902.26 -4880.20 -4880.14 -4880.14 -4880.14 -4879.51 -4625.79 -2751.07 -2496.80 -2273.30 -588.08 -70.32 25.03 139.71 420.37 470.81 509.06 491.82 508.26 530.46 564.91 721.20 746.05 722.67 720.94 724.73 704.37 637.82 412.98 329.88 306.60 290.76 257.17 220.77 29.77 -158.38 -226.63 -154.47 -45.42 -205.76 -234.76 -7.95 66.85 86.04 87.61 117.13 138.93 153.25 171.66 316.68 356.29 407.88 400.91 324.29 333.28 454.20 443.72 305.58 266.96 253.97 243.95 238.34 230.58 158.92 163.51 162.58 161.13 167.73 203.79 219.67 227.25 227.17 241.94 249.83 324.30 312.70 367.21 429.54 375.79 360.55 402.43 360.62 219.94 -619.96 -4418.96 -4927.36 -4928.62 -4928.62 -4928.62 -4928.63 -4931.29 -4950.98 -4953.64 -4953.65 -4953.65 -4953.65 -4953.67 -4963.02 -5032.08 -5041.43 -5041.45 -5041.45 -5041.45 -5041.42 -5030.96 -4953.64 -4943.18 -4943.16 -4943.16 -4943.16 -4943.17 -4949.22 -4993.93 -4999.99 -5000.00 -5000.00 -5000.00 -5000.00 -5000.00 -5000.00
-5036.91 -5036.91 -5036.91 -5036.91 -5036.91 -5036.89 -5026.34 -4948.39 -4937.84 -4937.81 -4937.81 -4937.81 -4937.85 -4951.86 -5055.43 -5069.44 -5069.48 -5069.48 -5069.48 -5069.31 -5000.70 -4493.79 -4425.18 -4425.01 -4425.01 -4425.01 -4424.45 -4197.46 -2520.22 -2292.55 -2041.35 -178.27 186.81 245.99 327.72 557.57 591.07 621.24 626.08 659.45 668.39 682.36 832.64 834.32 827.91 804.15 795.12 767.75 713.55 525.31 487.39 471.89 420.92 410.43 406.49 403.45 378.01 368.23 349.31 326.75 363.40 353.52 311.96 105.80 63.37 73.58 85.51 94.08 105.62 138.68 177.56 208.65 251.83 237.46 164.39 155.61 324.35 369.97 304.90 267.43 231.47 209.87 192.27 176.23 98.10 91.07 95.75 101.50 106.05 132.08 180.92 217.02 180.63 171.02 167.11 190.06 220.88 284.23 452.40 481.15 502.88 734.51 483.64 385.69 -287.90 -4099.30 -4612.77 -4614.10 -4614.10 -4614.10 -4614.20 -4654.59 -4953.07 -4993.46 -4993.56 -4993.56 -4993.56 -4993.55 -4988.90 -4954.50 -4949.85 -4949.83 -4949.83 -4949.83 -4949.86 -4961.66 -5048.85 -5060.65 -5060.68 -5060.68 -5060.68 -5060.66 -5054.20 -5006.48 -5000.02 -5000.00 -5000.00 -5000.00 -5000.00 -5000.00 -5000.00
-5028.57 -5028.57 -5028.57 -5028.57 -5028.57 -5028.55 -5018.11 -4941.03 -4930.60 -4930.58 -4930.58 -4930.58 -4930.61 -4945.14 -5052.49 -5067.02 -5067.05 -5067.05 -5067.05 -5066.87 -4991.97 -4438.51 -4363.61 -4363.42 -4363.42 -4363.42 -4362.87 -4139.49 -2488.86 -2238.08 -1805.50 -20.26 274.66 320.30 390.59 597.77 618.11 618.31 645.46 670.97 685.70 710.14 862.12 855.15 828.66 809.37 814.57 801.62 732.48 545.58 516.02 506.77 487.81 477.97 457.09 452.03 436.71 423.85 414.38 406.31 410.77 417.07 366.81 113.13 64.41 80.84 89.61 96.82 106.61 147.36 203.22 238.49 219.25 190.04 155.28 169.39 315.17 319.58 321.33 306.01 266.60 241.40 223.90 184.01 98.62 83.52 89.57 95.40 112.20 124.22 166.53 209.96 163.02 141.52 146.65 171.07 233.32 291.02 446.75 450.11 581.18 829.94 724.48 434.70 -205.67 -3869.70 -4545.21 -4571.47 -4571.53 -4571.53 -4571.65 -4617.15 -4953.35 -4998.85 -4998.97 -4998.97 -4998.97 -4998.95 -4992.40 -4944.00 -4937.45 -4937.44 -4937.44 -4937.44 -4937.47 -4952.28 -5061.73 -5076.55 -5076.58 -5076.58 -5076.58 -5076.56 -5068.41 -5008.17 -5000.02 -5000.00 -5000.00 -5000.00 -5000.00 -5000.00 -5000.00
-5028.55 -5028.55 -5028.55 -5028.55 -5028.55 -5028.52 -5018.09 -4941.02 -4930.58 -4930.56 -4930.56 -4930.56 -4930.59 -4945.12 -5052.48 -5067.01 -5067.05 -5067.05 -5067.05 -5066.86 -4991.94 -4438.37 -4363.45 -4363.27 -4363.27 -4363.27 -4362.71 -4139.23 -2463.75 -1863.27 -324.11 218.56 339.89 355.62 404.93 610.62 642.06 661.01 659.43 663.41 682.61 704.04 847.66 858.79 812.13 818.20 806.06 798.43 735.75 551.76 524.87 517.71 509.00 504.56 498.84 493.93 480.78 450.42 434.63 431.47 429.27 425.68 385.25 110.41 85.26 92.13 107.03 120.79 139.77 151.40 196.14 214.51 175.80 155.46 154.96 147.67 284.11 318.93 242.84 246.88 231.13 229.52 257.18 214.44 146.65 93.01 93.13 96.41 142.16 149.37 155.62 186.75 163.68 132.80 134.36 154.00 211.57 316.18 411.94 411.71 490.43 723.78 775.60 450.36 27.46 -2475.89 -4356.81 -4570.83 -4571.43 -4571.43 -4571.54 -4617.05 -4953.35 -4998.87 -4998.98 -4998.98 -4998.98 -4998.96 -4992.41 -4943.98 -4937.42 -4937.40 -4937.40 -4937.40 -4937.44 -4952.26 -5061.76 -5076.58 -5076.62 -5076.62 -5076.62 -5076.60 -5068.44 -5008.18 -5000.02 -5000.00 -5000.00 -5000.00 -5000.00 -5000.00 -5000.00
-5028.55 -5028.55 -5028.55 -5028.55 -5028.55 -5028.52 -5018.09 -4941.02 -4930.58 -4930.56 -4930.56 -4930.56 -4930.59 -4945.12 -5052.48 -5067.01 -5067.05 -5067.05 -5067.05 -5066.86 -4991.94 -4438.37 -4363.45 -4363.27 -4363.27 -4363.27 -4362.65 -4114.81 -2104.58 -455.25 154.85 302.15 367.74 383.98 418.81 604.68 653.30 674.00 665.42 674.42 685.34 718.14 868.15 845.10 832.04 833.96 823.01 816.00 755.44 559.56 535.08 530.20 522.66 521.33 520.43 518.73 508.22 501.47 493.74 485.83 478.07 467.64 427.57 163.12 121.79 126.54 149.37 162.14 153.35 160.80 168.01 172.71 168.46 152.16 142.38 128.74 211.80 296.06 202.25 191.16 190.47 208.67 276.86 220.73 144.66 102.42 91.38 91.15 110.47 164.04 154.44 160.84 148.97 123.96 121.60 131.20 160.14 229.55 419.67 447.67 527.20 686.94 786.22 781.55 353.75 -2054.65 -4108.29 -4543.72 -4571.36 -4571.43 -4571.54 -4617.05 -4953.35 -4998.87 -4998.98 -4998.98 -4998.98 -4998.96 -4992.41 -4943.98 -4937.42 -4937.40 -4937.40 -4937.40 -4937.44 -4952.26 -5061.76 -5076.58 -5076.62 -5076.62 -5076.62 -5076.60 -5068.44 -5008.18 -5000.02 -5000.00 -5000.00 -5000.00 -5000.00 -5000.00 -5000.00
-5028.55 -5028.55 -5028.55 -5028.55 -5028.55 -5028.52 -5018.10 -4941.04 -4930.61 -4930.59 -4930.59 -4930.59 -4930.63 -4945.15 -5052.47 -5067.00 -5067.03 -5067.03 -5067.03 -5066.85 -4991.89 -4438.06 -4363.10 -4362.92 -4362.92 -4362.92 -4361.79 -3932.56 -711.39 123.28 224.15 291.73 357.36 385.55 411.42 630.63 654.95 678.41 694.09 684.44 701.99 704.91 856.27 863.77 852.44 845.05 841.90 813.88 771.33 575.59 544.79 540.42 537.43 536.55 538.04 533.78 525.47 519.92 514.86 507.33 500.77 490.70 444.63 170.28 135.91 164.07 161.12 172.85 183.51 172.35 165.82 175.33 165.09 166.42 158.23 125.46 187.97 316.84 190.34 160.91 173.16 190.88 233.08 213.73 159.09 123.19 96.17 92.10 96.40 119.86 128.96 121.46 127.37 114.11 112.96 114.92 124.79 166.50 368.52 536.38 583.60 663.94 841.34 583.96 181.01 -1829.42 -2621.60 -4343.23 -4570.75 -4571.31 -4571.42 -4616.95 -4953.37 -4998.90 -4999.01 -4999.01 -4999.01 -4999.00 -4992.44 -4943.98 -4937.42 -4937.41 -4937.41 -4937.41 -4937.44 -4952.26 -5061.77 -5076.59 -5076.63 -5076.63 -5076.63 -5076.61 -5068.45 -5008.18 -5000.02 -5000.00 -5000.00 -5000.00 -5000.00 -5000.00 -5000.00
-5028.45 -5028.45 -5028.45 -5028.45 -5028.45 -5028.42 -5019.31 -4951.97 -4942.86 -4942.83 -4942.83 -4942.83 -4942.87 -4955.35 -5047.60 -5060.08 -5060.11 -5060.11 -5060.11 -5059.89 -4970.66 -4311.32 -4222.08 -4221.86 -4221.80 -4221.30 -4192.30 -3544.36 -242.71 232.59 273.48 325.96 397.46 406.06 428.07 662.89 666.28 674.81 727.41 711.42 696.52 706.09 833.18 839.95 844.27 828.80 847.55 828.26 786.91 600.99 552.36 553.24 553.01 552.23 553.40 548.60 530.62 520.32 514.42 505.82 500.25 492.19 449.89 197.69 167.54 188.69 193.80 179.11 186.23 187.54 161.35 166.76 149.28 144.04 126.78 126.70 243.99 371.00 220.08 145.12 155.47 174.81 182.94 191.79 122.12 113.52 101.20 92.26 91.49 103.20 97.05 92.33 95.50 96.37 98.86 101.95 108.23 138.99 311.97 400.01 465.47 549.65 710.83 629.59 126.76 -1772.30 -2322.06 -4261.36 -4523.57 -4524.29 -4524.42 -4576.42 -4960.69 -5012.69 -5012.82 -5012.82 -5012.82 -5012.80 -5004.85 -4946.11 -4938.16 -4938.14 -4938.14 -4938.14 -4938.18 -4953.18 -5064.09 -5079.10 -5079.14 -5079.14 -5079.14 -5079.12 -5070.69 -5008.45 -5000.02 -5000.00 -5000.00 -5000.00 -5000.00 -5000.00 -5000.00
-5027.68 -5027.68 -5027.68 -5027.68 -5027.68 -5027.68 -5028.28 -5032.71 -5033.31 -5033.31 -5033.31 -5033.31 -5033.31 -5030.72 -5011.59 -5009.00 -5008.99 -5008.99 -5008.99 -5008.51 -4813.77 -3374.82 -3180.08 -3179.48 -3155.42 -2977.48 -2726.20 -1054.22 182.53 346.50 437.09 452.48 497.06 486.27 549.22 737.01 788.56 809.38 809.78 807.94 803.98 795.17 795.57 801.32 801.98 792.14 824.86 811.81 795.32 634.46 583.91 564.69 566.98 572.92 574.49 560.51 468.58 449.48 441.63 436.36 424.38 420.79 403.45 333.71 299.03 312.00 304.51 303.30 292.01 274.29 148.23 121.89 97.07 94.74 68.31 93.02 113.84 173.80 258.30 62.12 44.33 66.05 82.46 75.49 47.61 57.02 74.96 63.49 49.79 51.89 50.50 21.50 18.29 20.75 23.93 29.65 31.87 44.29 99.45 133.05 189.45 259.96 384.96 439.29 -32.56 -1469.69 -1910.46 -3707.84 -4148.87 -4176.77 -4177.09 -4276.94 -5014.77 -5114.62 -5114.87 -5114.87 -5114.87 -5114.82 -5096.59 -4961.83 -4943.59 -4943.55 -4943.55 -4943.55 -4943.59 -4959.99 -5081.23 -5097.64 -5097.68 -5097.68 -5097.68 -5097.66 -5087.26 -5010.42 -5000.03 -5000.00 -5000.00 -5000.00 -5000.00 -5000.00 -5000.00
-5027.57 -5027.57 -5027.57 -5027.57 -5027.57 -5027.58 -5029.49 -5043.64 -5045.55 -5045.56 -5045.56 -5045.56 -5045.55 -5040.92 -5006.71 -5002.08 -5002.07 -5002.07 -5002.07 -5001.56 -4792.54 -3248.08 -3039.01 -3014.60 -2664.93 -1315.26 -928.29 -508.48 256.46 445.67 481.97 486.10 504.29 507.22 550.53 753.33 812.69 836.39 836.08 842.96 820.23 820.79 817.97 798.74 812.94 803.64 823.33 815.92 795.46 661.86 598.02 570.31 564.95 568.87 571.60 563.05 466.09 446.62 442.58 439.33 426.84 427.71 425.80 335.32 318.22 320.40 317.91 310.08 304.07 284.47 150.25 121.67 88.40 73.48 51.00 70.40 73.43 74.50 80.95 26.83 30.56 55.62 85.91 81.91 42.18 35.42 56.88 64.06 50.50 54.71 53.08 22.34 15.41 14.61 18.72 24.10 27.22 32.68 67.13 91.50 113.92 148.56 275.92 370.39 58.78 -1385.47 -1607.12 -2165.06 -3900.35 -4129.25 -4130.08 -4236.41 -5022.08 -5128.41 -5128.68 -5128.68 -5128.68 -5128.63 -5109.00 -4963.96 -4944.33 -4944.28 -4944.28 -4944.28 -4944.32 -4960.92 -5083.55 -5100.15 -5100.19 -5100.19 -5100.19 -5100.16 -5089.50 -5010.69 -5000.03 -5000.00 -5000.00 -5000.00 -5000.00 -5000.00 -5000.00
-5027.57 -5027.57 -5027.57 -5027.57 -5027.57 -5027.58 -5029.50 -5043.67 -5045.58 -5045.59 -5045.59 -5045.59 -5045.58 -5040.94 -5006.70 -5002.07 -5002.06 -5002.06 -5002.06 -5001.54 -4792.48 -3247.77 -3038.17 -2839.80 -1342.38 -830.47 -611.90 -468.81 281.75 449.93 477.22 495.73 501.87 532.03 588.17 779.56 825.52 842.59 840.85 841.15 831.57 833.60 806.29 821.71 825.14 828.06 837.36 825.82 794.86 661.01 617.11 602.05 572.16 578.77 577.35 567.32 478.23 468.40 475.65 469.64 462.56 455.58 443.91 362.14 333.42 322.79 314.71 308.89 304.37 282.79 127.39 100.64 79.72 50.19 32.04 38.97 49.08 39.66 29.70 22.35 30.88 57.03 78.92 83.09 35.55 33.03 47.68 67.56 58.05 59.60 68.71 30.04 21.60 19.60 24.02 30.10 37.16 40.74 71.85 84.14 99.63 146.99 207.07 248.69 132.87 -1374.80 -1619.50 -1957.54 -3871.42 -4129.06 -4129.96 -4236.31 -5022.10 -5128.45 -5128.71 -5128.71 -5128.71 -5128.66 -5109.03 -4963.96 -4944.33 -4944.28 -4944.28 -4944.28 -4944.32 -4960.92 -5083.56 -5100.16 -5100.20 -5100.20 -5100.20 -5100.17 -5089.50 -5010.69 -5000.03 -5000.00 -5000.00 -5000.00 -5000.00 -5000.00 -5000.00
-5027.57 -5027.57 -5027.57 -5027.57 -5027.57 -5027.58 -5029.50 -5043.67 -5045.58 -5045.59 -5045.59 -5045.59 -5045.58 -5040.94 -5006.70 -5002.07 -5002.06 -5002.06 -5002.06 -5001.54 -4792.48 -3247.71 -3014.38 -2632.19 -1061.92 -670.91 -593.40 -462.20 325.02 452.70 475.52 480.66 504.89 536.10 587.56 796.23 827.27 844.69 870.73 873.79 840.56 851.06 836.47 834.06 826.86 854.35 852.05 825.67 796.16 678.52 650.55 628.20 626.40 635.11 625.22 601.01 502.11 487.42 493.20 510.79 499.42 480.01 470.05 378.11 347.01 340.58 322.95 315.67 323.46 294.33 115.29 92.76 79.08 50.65 29.92 31.69 40.19 32.40 23.83 21.43 26.17 46.05 65.71 64.33 37.62 40.02 48.30 66.19 65.86 65.91 77.59 40.35 30.85 29.50 34.19 42.34 45.48 53.61 103.14 106.31 116.68 152.30 179.16 227.70 12.71 -1401.00 -1623.75 -1956.16 -3871.17 -4129.06 -4129.96 -4236.31 -5022.10 -5128.45 -5128.71 -5128.71 -5128.71 -5128.66 -5109.03 -4963.96 -4944.33 -4944.28 -4944.28 -4944.28 -4944.32 -4960.92 -5083.56 -5100.16 -5100.20 -5100.20 -5100.20 -5100.17 -5089.50 -5010.69 -5000.03 -5000.00 -5000.00 -5000.00 -5000.00 -5000.00 -5000.00
-5027.59 -5027.59 -5027.59 -5027.59 -5027.59 -5027.59 -5029.51 -5043.65 -5045.57 -5045.57 -5045.57 -5045.57 -5045.56 -5040.93 -5006.69 -5002.06 -5002.05 -5002.05 -5002.05 -5001.53 -4792.49 -3247.33 -2837.33 -1317.26 -812.90 -630.39 -577.70 -433.22 314.31 446.49 481.55 492.21 501.30 552.69 589.90 808.16 848.88 873.08 875.06 864.44 873.99 849.50 826.48 829.43 862.30 856.10 828.95 806.32 772.45 665.90 665.94 653.72 657.16 657.79 640.31 636.07 533.62 523.45 509.53 544.46 518.87 529.65 513.60 397.41 364.95 360.55 345.14 329.09 343.89 291.24 117.34 86.53 65.10 39.82 29.25 33.71 41.28 28.18 21.70 21.82 26.77 43.87 65.77 52.65 57.33 59.67 50.16 57.81 65.00 75.64 79.34 50.14 43.24 46.10 51.16 60.31 64.21 71.05 118.25 122.89 127.16 159.31 163.00 199.11 6.74 -1332.87 -1627.86 -1967.07 -3872.34 -4128.97 -4129.87 -4236.23 -5022.09 -5128.44 -5128.71 -5128.71 -5128.71 -5128.66 -5109.03 -4963.99 -4944.36 -4944.31 -4944.31 -4944.31 -4944.35 -4960.94 -5083.54 -5100.13 -5100.17 -5100.17 -5100.17 -5100.15 -5089.48 -5010.69 -5000.03 -5000.00 -5000.00 -5000.00 -5000.00 -5000.00 -5000.00
-5032.26 -5032.26 -5032.26 -5032.26 -5032.26 -5032.26 -5032.98 -5038.34 -5039.07 -5039.07 -5039.07 -5039.07 -5039.06 -5034.65 -5002.04 -4997.62 -4997.61 -4997.61 -4997.61 -4997.11 -4794.02 -3268.96 -2672.67 -1051.72 -697.37 -643.59 -596.26 -471.13 303.72 457.66 501.19 510.99 519.80 554.45 626.87 844.46 843.75 857.14 872.85 876.50 876.05 864.31 815.01 830.70 835.60 836.69 805.53 799.42 759.98 680.07 666.01 650.77 652.75 660.03 663.00 623.65 582.14 575.32 564.35 582.58 563.68 588.15 563.67 460.16 418.08 400.50 380.91 361.07 364.30 305.75 131.37 95.43 76.00 56.23 51.19 53.92 60.19 44.29 35.35 36.14 43.48 57.84 76.28 57.17 34.95 43.70 65.07 61.42 73.56 92.70 87.55 72.08 73.10 78.69 86.84 98.01 104.35 91.30 124.28 127.60 136.99 160.31 180.53 271.33 22.28 -1213.62 -1575.03 -1921.45 -3833.43 -4091.05 -4091.96 -4202.13 -5016.14 -5126.30 -5126.58 -5126.58 -5126.58 -5126.53 -5108.36 -4974.08 -4955.91 -4955.86 -4955.86 -4955.86 -4955.90 -4970.24 -5076.20 -5090.54 -5090.58 -5090.58 -5090.58 -5090.55 -5080.91 -5009.67 -5000.02 -5000.00 -5000.00 -5000.00 -5000.00 -5000.00 -5000.00
-5066.76 -5066.76 -5066.76 -5066.76 -5066.76 -5066.74 -5058.68 -4999.10 -4991.04 -4991.02 -4991.02 -4991.02 -4991.02 -4988.23 -4967.65 -4964.86 -4964.86 -4964.86 -4964.86 -4964.46 -4805.33 -3429.99 -1719.81 -1135.05 -1038.48 -992.85 -968.00 -811.92 369.14 572.34 616.98 639.90 665.02 669.36 709.50 835.73 844.80 872.05 902.53 906.70 871.62 850.52 636.01 609.94 601.37 592.93 588.27 590.59 573.58 567.88 557.06 545.76 562.45 568.52 554.29 553.73 785.57 776.69 782.12 800.47 810.27 810.04 776.21 615.87 581.81 552.39 534.91 508.49 499.34 452.23 277.94 262.18 215.10 189.11 185.56 185.00 177.65 137.89 138.45 131.62 133.58 154.01 169.41 150.09 35.15 21.59 38.75 57.00 44.33 61.04 79.63 155.29 176.71 199.44 210.62 222.83 220.75 193.98 178.75 187.03 184.98 202.09 246.06 267.41 90.58 -1026.63 -1299.35 -1606.32 -3548.06 -3810.81 -3811.87 -3950.18 -4972.18 -5110.49 -5110.83 -5110.83 -5110.83 -5110.81 -5103.41 -5048.66 -5041.25 -5041.24 -5041.24 -5041.24 -5041.23 -5038.93 -5021.96 -5019.67 -5019.66 -5019.66 -5019.66 -5019.66 -5017.56 -5002.10 -5000.01 -5000.00 -5000.00 -5000.00 -5000.00 -5000.00 -5000.00
-5071.43 -5071.43 -5071.43 -5071.43 -5071.43 -5071.40 -5062.15 -4993.79 -4984.54 -4984.52 -4984.52 -4984.52 -4984.51 -4981.95 -4962.99 -4960.43 -4960.42 -4960.42 -4960.42 -4960.04 -4806.81 -3453.94 -1609.28 -1144.37 -1081.97 -1045.81 -1028.36 -851.98 382.20 587.71 629.13 654.00 678.54 693.75 715.63 811.87 844.33 867.20 906.56 898.13 890.58 852.52 615.73 571.22 560.02 554.98 544.08 539.19 524.90 551.63 556.00 562.95 535.63 557.50 557.38 557.63 811.07 821.26 848.88 870.22 877.59 869.67 842.94 664.94 636.35 615.83 582.51 549.70 518.82 461.48 292.10 255.50 225.00 210.90 209.72 206.56 196.12 143.66 141.65 142.44 142.26 156.80 174.86 158.24 35.86 35.61 38.81 69.16 52.07 70.66 94.86 181.68 199.35 233.48 266.11 264.80 256.08 232.19 222.93 208.90 196.06 211.75 236.80 224.45 14.67 -1092.38 -1272.67 -1537.62 -3315.54 -3746.64 -3773.90 -3916.08 -4966.23 -5108.35 -5108.70 -5108.70 -5108.70 -5108.69 -5102.73 -5058.76 -5052.81 -5052.79 -5052.79 -5052.79 -5052.78 -5048.23 -5014.62 -5010.08 -5010.07 -5010.07 -5010.07 -5010.06 -5008.99 -5001.07 -5000.00 -5000.00 -5000.00 -5000.00 -5000.00 -5000.00 -5000.00
-5071.44 -5071.44 -5071.44 -5071.44 -5071.44 -5071.42 -5062.16 -4993.78 -4984.53 -4984.50 -4984.50 -4984.50 -4984.50 -4981.93 -4962.98 -4960.42 -4960.41 -4960.41 -4960.41 -4959.98 -4784.08 -3279.61 -1538.85 -1140.74 -1070.02 -1036.38 -1021.80 -840.75 391.60 589.57 610.35 653.79 691.89 725.13 746.89 832.28 872.56 893.36 912.95 907.25 899.34 853.53 613.66 561.10 544.06 543.82 544.59 542.75 529.82 537.79 557.58 557.36 557.30 564.50 549.38 579.31 826.33 853.91 878.58 909.89 928.21 903.64 874.69 696.85 664.38 640.73 601.21 554.43 521.03 471.86 305.96 270.81 230.65 219.87 217.19 209.51 198.83 145.03 139.91 144.56 150.65 180.62 185.27 155.00 26.48 57.62 31.79 42.19 60.93 81.30 113.98 196.33 215.37 255.80 293.30 316.81 315.13 276.95 240.81 184.30 186.83 197.72 167.14 130.02 -14.45 -1095.41 -1271.73 -1361.55 -2071.82 -3578.38 -3773.39 -3916.00 -4966.21 -5108.34 -5108.70 -5108.70 -5108.70 -5108.68 -5102.73 -5058.78 -5052.83 -5052.82 -5052.82 -5052.82 -5052.81 -5048.25 -5014.61 -5010.05 -5010.04 -5010.04 -5010.04 -5010.04 -5008.97 -5001.07 -5000.00 -5000.00 -5000.00 -5000.00 -5000.00 -5000.00 -5000.00
-5071.44 -5071.44 -5071.44 -5071.44 -5071.44 -5071.42 -5062.16 -4993.78 -4984.53 -4984.50 -4984.50 -4984.50 -4984.50 -4981.93 -4962.98 -4960.42 -4960.41 -4960.41 -4960.41 -4959.62 -4638.61 -2234.53 -1620.60 -1195.49 -1070.97 -1035.28 -1019.45 -832.37 411.59 624.02 621.96 657.59 696.30 710.98 734.14 826.03 856.58 875.50 897.85 898.76 898.63 864.43 619.84 571.47 556.99 546.14 545.80 543.99 543.17 548.97 552.03 551.43 561.00 591.32 576.93 613.38 846.75 906.35 948.88 967.44 1041.66 944.94 908.72 741.83 696.90 655.10 621.26 589.85 546.94 488.42 307.79 265.66 238.94 228.61 220.99 212.60 201.42 148.84 145.65 152.86 158.71 187.92 188.90 160.74 24.00 22.14 27.13 49.45 74.60 84.25 128.61 212.77 222.38 254.87 294.78 315.51 315.18 296.56 278.83 194.04 187.52 228.39 187.01 190.78 -44.21 -1114.46 -1273.24 -1492.76 -3309.30 -3746.53 -3773.80 -3916.00 -4966.21 -5108.34 -5108.70 -5108.70 -5108.70 -5108.68 -5102.73 -5058.78 -5052.83 -5052.82 -5052.82 -5052.82 -5052.81 -5048.25 -5014.61 -5010.05 -5010.04 -5010.04 -5010.04 -5010.04 -5008.97 -5001.07 -5000.00 -5000.00 -5000.00 -5000.00 -5000.00 -5000.00 -5000.00
-5071.45 -5071.45 -5071.45 -5071.45 -5071.45 -5071.42 -5062.17 -4993.78 -4984.53 -4984.50 -4984.50 -4984.50 -4984.50 -4981.93 -4962.98 -4960.42 -4960.41 -4960.41 -4960.41 -4959.98 -4784.61 -3487.19 -3090.32 -1489.79 -1098.25 -1026.62 -1020.51 -826.50 420.85 621.49 639.79 665.17 701.02 742.40 767.76 853.71 885.30 901.65 901.30 918.57 926.67 868.19 614.49 585.09 560.44 544.88 543.27 549.09 546.07 551.38 544.35 542.43 560.59 578.85 589.41 620.37 855.70 916.13 939.37 960.36 996.33 920.45 868.25 684.42 649.12 635.13 624.17 592.45 555.13 499.21 306.87 259.81 249.17 240.12 229.15 220.57 206.81 155.90 157.85 152.92 153.56 161.88 174.71 175.27 29.20 14.41 26.72 72.46 88.31 104.47 118.73 227.58 238.76 276.38 316.30 379.12 387.96 244.36 229.95 198.05 139.08 219.77 264.44 233.13 -47.90 -1132.78 -1290.60 -1573.17 -3510.49 -3772.45 -3773.88 -3916.06 -4966.20 -5108.32 -5108.67 -5108.67 -5108.67 -5108.66 -5102.71 -5058.75 -5052.80 -5052.78 -5052.78 -5052.78 -5052.77 -5048.22 -5014.58 -5010.02 -5010.01 -5010.01 -5010.01 -5010.01 -5008.94 -5001.07 -5000.00 -5000.00 -5000.00 -5000.00 -5000.00 -5000.00 -5000.00
-5075.20 -5075.20 -5075.20 -5075.20 -5075.20 -5075.17 -5065.52 -4994.24 -4984.59 -4984.57 -4984.57 -4984.57 -4984.56 -4981.96 -4962.76 -4960.16 -4960.15 -4960.15 -4960.15 -4959.79 -4814.95 -3744.19 -3394.59 -1830.75 -1236.51 -1121.08 -1090.90 -892.70 396.88 603.43 628.71 659.30 681.28 731.53 757.72 803.00 822.63 862.74 888.60 900.84 876.01 828.55 582.69 559.04 543.41 510.15 525.96 518.78 517.31 537.23 534.45 535.81 546.64 550.75 547.23 591.89 863.76 916.60 945.50 936.24 902.24 871.70 836.45 662.09 632.41 620.25 598.29 578.87 551.63 514.83 323.93 280.28 271.30 261.03 247.01 237.05 222.21 170.34 172.35 170.31 167.99 171.12 189.48 184.66 64.61 46.31 42.05 58.63 87.69 134.34 133.18 222.89 272.18 317.45 323.57 318.29 375.06 217.11 205.00 137.24 116.21 178.89 255.97 123.82 -75.93 -1170.70 -1366.75 -1821.35 -3545.98 -3630.41 -3780.02 -3941.18 -4960.57 -5098.52 -5098.86 -5098.86 -5098.86 -5098.84 -5092.43 -5045.00 -5038.59 -5038.57 -5038.57 -5038.57 -5038.56 -5034.27 -5002.57 -4998.28 -4998.27 -4998.27 -4998.27 -4998.27 -4998.46 -4999.82 -5000.00 -5000.00 -5000.00 -5000.00 -5000.00 -5000.00 -5000.00
-5102.89 -5102.89 -5102.89 -5102.89 -5102.89 -5102.86 -5090.32 -4997.61 -4985.07 -4985.03 -4985.03 -4985.03 -4985.03 -4982.18 -4961.10 -4958.25 -4958.24 -4958.24 -4958.24 -4958.03 -4870.87 -4226.78 -4114.73 -3715.28 -2051.70 -1684.11 -1611.37 -1386.84 201.80 448.80 485.17 518.60 523.31 536.11 526.98 579.84 602.26 619.39 641.00 653.27 652.77 607.32 427.74 395.50 383.83 351.89 362.79 362.55 367.83 438.42 452.83 447.90 454.36 467.45 453.72 499.86 838.67 880.58 894.72 887.68 871.29 863.14 853.21 745.06 725.78 715.55 675.98 659.58 636.16 587.75 398.93 354.25 341.98 329.61 313.34 301.53 287.18 244.02 242.95 248.39 252.48 250.02 270.59 263.07 187.58 169.27 155.94 167.36 173.44 194.14 218.08 337.53 414.08 458.82 431.72 365.57 356.60 312.27 273.39 223.54 187.81 216.00 266.08 171.35 -44.78 -1370.11 -1666.66 -1987.73 -3393.22 -2535.28 -3822.73 -4126.78 -4918.96 -5026.10 -5026.37 -5026.37 -5026.37 -5026.34 -5016.46 -4943.45 -4933.57 -4933.54 -4933.54 -4933.54 -4933.54 -4931.20 -4913.89 -4911.55 -4911.54 -4911.54 -4911.54 -4911.56 -4920.98 -4990.56 -4999.98 -5000.00 -5000.00 -5000.00 -5000.00 -5000.00 -5000.00
-5106.64 -5106.64 -5106.64 -5106.64 -5106.64 -5106.61 -5093.67 -4998.07 -4985.13 -4985.10 -4985.10 -4985.10 -4985.09 -4982.20 -4960.88 -4957.99 -4957.98 -4957.98 -4957.98 -4957.79 -4878.43 -4292.03 -4212.11 -4011.79 -2473.11 -1790.78 -1671.08 -1460.96 149.84 411.95 460.37 432.87 439.02 463.05 518.38 577.48 633.79 626.89 602.48 615.71 604.83 559.02 387.08 351.00 332.07 311.04 330.97 335.26 344.18 414.92 424.72 422.04 408.99 445.23 456.38 493.12 831.62 851.22 856.71 860.17 884.30 910.57 908.97 831.86 761.15 732.17 722.82 699.63 671.64 608.23 421.73 382.11 366.83 351.11 332.64 319.60 304.55 258.62 257.85 262.37 269.50 267.53 268.92 282.75 191.69 188.92 177.83 178.22 202.52 199.74 225.94 356.88 425.91 444.37 418.76 370.26 346.01 306.53 255.51 226.74 200.05 211.52 176.36 151.86 -44.34 -1411.45 -1677.55 -1733.99 -1950.27 -2054.11 -3808.46 -4151.85 -4913.33 -5016.30 -5016.56 -5016.56 -5016.56 -5016.53 -5006.18 -4929.71 -4919.36 -4919.33 -4919.33 -4919.33 -4919.33 -4917.25 -4901.89 -4899.81 -4899.80 -4899.80 -4899.80 -4899.83 -4910.49 -4989.31 -4999.97 -5000.00 -5000.00 -5000.00 -5000.00 -5000.00 -5000.00
-5106.65 -5106.65 -5106.65 -5106.65 -5106.65 -5106.62 -5093.68 -4998.07 -4985.13 -4985.10 -4985.10 -4985.10 -4985.09 -4982.20 -4960.88 -4957.99 -4957.98 -4957.98 -4957.98 -4957.79 -4878.45 -4292.19 -4212.79 -4188.46 -3776.56 -1989.53 -1712.41 -1483.61 123.70 388.27 398.39 439.29 479.17 537.35 620.66 640.23 662.30 641.34 590.31 561.79 572.83 553.76 377.86 327.92 307.05 304.71 315.49 327.70 338.96 404.83 411.75 403.70 395.59 430.84 426.41 491.59 804.15 846.47 873.41 884.16 906.07 945.48 951.44 866.40 830.36 780.80 784.57 761.65 742.73 658.95 476.95 410.49 384.83 362.29 347.35 331.96 318.89 271.37 281.74 272.30 273.81 275.51 270.24 277.93 189.31 194.42 187.47 183.35 189.73 198.06 234.68 344.63 384.00 394.53 397.69 406.30 356.97 310.29 232.28 229.84 231.86 183.27 194.29 143.55 -48.18 -1421.55 -1619.08 -1626.87 -1690.74 -1988.59 -3804.09 -4151.90 -4913.31 -5016.28 -5016.53 -5016.53 -5016.53 -5016.51 -5006.16 -4929.67 -4919.32 -4919.29 -4919.29 -4919.29 -4919.29 -4917.21 -4901.86 -4899.78 -4899.77 -4899.77 -4899.77 -4899.80 -4910.47 -4989.30 -4999.97 -5000.00 -5000.00 -5000.00 -5000.00 -5000.00 -5000.00
-5106.65 -5106.65 -5106.65 -5106.65 -5106.65 -5106.62 -5093.68 -4998.07 -4985.13 -4985.10 -4985.10 -4985.10 -4985.09 -4982.20 -4960.88 -4957.99 -4957.98 -4957.98 -4957.98 -4957.79 -4878.45 -4292.19 -4212.85 -4212.00 -3971.24 -2171.05 -1745.85 -1494.11 111.15 368.37 403.05 527.37 561.59 682.18 648.64 666.52 638.86 566.30 538.69 536.46 560.85 527.20 358.23 325.62 330.18 309.83 297.94 316.87 327.13 386.75 398.75 410.77 403.08 397.18 421.86 486.81 805.86 841.17 884.98 889.20 918.75 929.22 952.12 842.09 828.41 812.70 798.31 811.30 818.53 775.87 536.61 444.44 407.94 379.84 361.11 346.69 342.35 288.48 281.78 281.67 281.41 284.87 281.91 266.79 188.60 194.96 203.08 194.92 195.00 193.35 223.64 332.36 377.94 383.54 382.93 414.64 366.96 370.94 238.85 207.95 185.21 171.52 161.50 133.07 -57.58 -1400.65 -1596.45 -1635.98 -1705.13 -2026.14 -3809.02 -4151.91 -4913.31 -5016.28 -5016.53 -5016.53 -5016.53 -5016.51 -5006.16 -4929.67 -4919.32 -4919.29 -4919.29 -4919.29 -4919.29 -4917.21 -4901.86 -4899.78 -4899.77 -4899.77 -4899.77 -4899.80 -4910.47 -4989.30 -4999.97 -5000.00 -5000.00 -5000.00 -5000.00 -5000.00 -5000.00
-5106.61 -5106.61 -5106.61 -5106.61 -5106.61 -5106.58 -5093.64 -4998.04 -4985.10 -4985.07 -4985.07 -4985.07 -4985.06 -4982.18 -4960.90 -4958.02 -4958.02 -4958.02 -4958.02 -4957.82 -4878.49 -4292.29 -4212.60 -4212.21 -3988.04 -2292.71 -1776.69 -1507.57 95.41 341.19 392.77 488.22 539.50 588.65 564.37 536.42 548.45 553.74 564.29 545.14 533.11 494.57 347.77 324.78 288.53 271.02 280.05 302.58 305.59 384.19 401.34 411.87 416.86 411.98 430.30 476.21 780.48 817.79 828.98 850.16 876.77 896.30 891.55 778.12 764.60 767.13 780.10 799.85 794.73 745.34 557.71 466.67 423.78 393.63 385.75 366.41 366.14 309.21 292.17 292.52 295.09 296.38 308.30 281.59 181.83 200.58 215.97 203.68 205.04 198.73 228.33 341.41 371.08 373.96 361.04 373.60 382.25 353.88 240.66 242.48 163.03 157.41 143.13 122.08 -65.22 -1388.79 -1564.79 -1625.61 -1709.46 -1980.99 -3802.86 -4152.06 -4913.33 -5016.27 -5016.52 -5016.52 -5016.52 -5016.50 -5006.15 -4929.68 -4919.34 -4919.31 -4919.31 -4919.31 -4919.30 -4917.23 -4901.86 -4899.78 -4899.77 -4899.77 -4899.77 -4899.80 -4910.47 -4989.30 -4999.97 -5000.00 -5000.00 -5000.00 -5000.00 -5000.00 -5000.00
-5092.08 -5092.08 -5092.08 -5092.08 -5092.08 -5092.05 -5079.55 -4987.25 -4974.76 -4974.73 -4974.73 -4974.73 -4974.73 -4974.36 -4971.67 -4971.30 -4971.30 -4971.30 -4971.30 -4971.12 -4897.95 -4334.51 -4112.80 -4260.29 -4084.17 -2556.96 -1957.34 -1615.63 21.70 264.30 308.91 363.33 407.80 429.37 404.85 415.53 427.41 438.56 468.04 469.12 472.46 441.74 341.81 323.61 288.59 283.69 296.21 316.29 327.00 405.36 430.64 445.26 451.00 466.37 460.25 488.53 766.40 800.17 808.24 838.94 889.31 904.28 899.33 773.11 757.28 776.10 777.03 751.38 747.47 699.59 514.16 489.19 426.71 387.46 363.60 352.98 336.02 294.50 299.56 313.12 304.83 301.18 317.23 288.62 199.80 178.50 188.48 206.01 220.20 205.93 228.61 322.33 363.06 349.68 332.38 327.69 337.18 344.63 256.29 259.61 159.79 140.19 130.05 122.01 -54.01 -1439.22 -1634.57 -1705.38 -1767.96 -2297.58 -3910.09 -4217.44 -4918.72 -5013.56 -5013.79 -5013.79 -5013.79 -5013.77 -5004.36 -4934.87 -4925.46 -4925.44 -4925.44 -4925.44 -4925.43 -4922.68 -4902.33 -4899.58 -4899.57 -4899.57 -4899.57 -4899.60 -4910.29 -4989.28 -4999.97 -5000.00 -5000.00 -5000.00 -5000.00 -5000.00 -5000.00
-4984.65 -4984.65 -4984.65 -4984.65 -4984.65 -4984.63 -4975.44 -4907.53 -4898.34 -4898.32 -4898.32 -4898.32 -4898.36 -4916.58 -5051.22 -5069.44 -5069.48 -5069.48 -5069.48 -5069.41 -5041.71 -4646.29 -3351.90 -4446.66 -4765.56 -4425.15 -2964.13 -2173.73 -357.44 -123.52 -90.28 -63.07 -60.28 -53.52 -27.57 60.75 112.66 106.27 124.35 141.85 156.47 195.49 423.83 462.43 470.67 466.70 458.51 474.92 504.24 658.58 680.70 677.89 700.46 708.51 701.29 705.36 761.92 773.57 783.44 819.78 865.65 875.14 864.36 690.68 663.04 673.07 636.80 623.79 625.53 573.85 393.89 346.09 320.26 283.11 263.23 254.35 234.97 186.85 210.11 226.45 224.50 230.98 228.39 221.71 217.13 200.12 208.67 225.35 245.67 240.63 254.18 271.24 304.15 278.59 237.62 235.82 262.82 293.17 299.55 256.63 155.73 133.08 123.24 135.25 -106.63 -1926.45 -2175.99 -2234.77 -2573.68 -4234.02 -4639.70 -4700.40 -4958.59 -4993.53 -4993.61 -4993.61 -4993.61 -4993.61 -4991.17 -4973.16 -4970.72 -4970.72 -4970.72 -4970.72 -4970.70 -4962.96 -4905.83 -4898.09 -4898.07 -4898.07 -4898.07 -4898.10 -4908.95 -4989.12 -4999.97 -5000.00 -5000.00 -5000.00 -5000.00 -5000.00 -5000.00
-4970.12 -4970.12 -4970.12 -4970.12 -4970.12 -4970.09 -4961.35 -4896.74 -4888.00 -4887.97 -4887.97 -4887.97 -4888.02 -4908.76 -5061.98 -5082.72 -5082.77 -5082.77 -5082.77 -5082.72 -5061.22 -4710.36 -3244.98 -3247.68 -4689.61 -4858.77 -4441.88 -2457.98 -421.22 -178.23 -166.32 -156.32 -156.38 -153.26 -125.98 -18.48 19.44 29.81 40.27 65.85 61.92 118.93 425.57 479.00 487.30 490.28 486.59 492.56 505.65 667.63 699.73 712.29 720.41 741.91 717.71 745.43 758.93 766.61 800.63 794.83 815.77 827.06 811.57 627.89 604.95 599.82 584.54 602.34 574.71 538.57 358.58 326.51 300.96 272.80 260.00 249.25 222.18 182.16 209.73 261.95 236.04 253.25 199.37 191.20 209.56 202.05 214.38 235.19 250.48 258.33 279.74 292.72 278.66 247.70 240.22 242.38 290.71 322.47 356.41 198.29 143.03 135.23 136.08 137.76 -133.24 -2036.54 -2293.81 -2439.24 -2919.20 -4525.03 -4738.34 -4765.76 -4963.99 -4990.82 -4990.88 -4990.88 -4990.88 -4990.88 -4989.38 -4978.34 -4976.85 -4976.84 -4976.84 -4976.84 -4976.82 -4968.42 -4906.30 -4897.89 -4897.87 -4897.87 -4897.87 -4897.90 -4908.77 -4989.10 -4999.97 -5000.00 -5000.00 -5000.00 -5000.00 -5000.00 -5000.00
-4970.08 -4970.08 -4970.08 -4970.08 -4970.08 -4970.06 -4961.32 -4896.71 -4887.97 -4887.95 -4887.95 -4887.95 -4888.00 -4908.74 -5062.01 -5082.75 -5082.80 -5082.80 -5082.80 -5082.75 -5061.69 -4882.68 -4495.37 -3255.75 -4668.09 -4884.45 -4679.40 -2874.62 -494.16 -192.84 -183.78 -176.23 -172.92 -169.82 -147.83 -51.18 -26.88 -19.88 2.00 28.90 53.72 113.34 423.08 459.03 465.78 478.48 486.53 496.99 518.90 682.56 702.29 708.22 699.26 719.98 717.95 733.54 765.16 760.25 781.51 776.51 781.28 791.47 783.16 590.49 568.87 565.96 557.72 560.60 544.08 525.48 351.54 299.68 278.38 269.14 253.27 240.36 223.99 191.42 225.14 294.34 256.45 224.38 179.61 160.16 184.66 188.92 205.96 229.88 247.17 287.89 323.82 322.16 275.86 241.90 227.82 253.67 249.27 255.68 196.51 155.63 130.63 139.67 135.72 114.72 -209.39 -2102.61 -2393.55 -2674.67 -4309.18 -4713.11 -4739.05 -4765.92 -4964.00 -4990.81 -4990.88 -4990.88 -4990.88 -4990.87 -4989.38 -4978.35 -4976.86 -4976.86 -4976.86 -4976.86 -4976.84 -4968.43 -4906.30 -4897.89 -4897.87 -4897.87 -4897.87 -4897.90 -4908.77 -4989.10 -4999.97 -5000.00 -5000.00 -5000.00 -5000.00 -5000.00 -5000.00
-4970.08 -4970.08 -4970.08 -4970.08 -4970.08 -4970.06 -4961.32 -4896.71 -4887.97 -4887.95 -4887.95 -4887.95 -4888.00 -4908.74 -5062.01 -5082.75 -5082.80 -5082.80 -5082.80 -5082.75 -5061.75 -4906.07 -4694.26 -3474.78 -4694.64 -4885.02 -4860.37 -4216.77 -739.71 -224.14 -195.22 -195.17 -189.53 -184.56 -164.41 -67.56 -46.31 -46.57 -25.71 -3.62 21.30 78.62 386.23 431.33 439.83 459.41 477.84 480.73 506.16 668.02 668.98 691.10 703.70 691.70 704.49 723.74 773.32 775.07 772.57 776.19 772.43 790.30 760.80 562.52 535.94 535.13 537.81 520.35 524.47 544.09 350.00 287.85 268.88 269.60 250.62 237.00 233.49 205.99 233.32 263.16 225.87 177.93 149.12 140.91 175.94 188.12 211.69 242.07 295.79 346.57 414.57 360.61 292.43 277.34 275.74 286.96 209.85 176.45 174.71 188.67 138.22 126.28 107.01 34.47 -240.20 -2113.60 -2400.24 -2752.68 -4503.11 -4738.40 -4739.11 -4765.92 -4964.00 -4990.81 -4990.88 -4990.88 -4990.88 -4990.87 -4989.38 -4978.35 -4976.86 -4976.86 -4976.86 -4976.86 -4976.84 -4968.43 -4906.30 -4897.89 -4897.87 -4897.87 -4897.87 -4897.90 -4908.77 -4989.10 -4999.97 -5000.00 -5000.00 -5000.00 -5000.00 -5000.00 -5000.00
-4970.08 -4970.08 -4970.08 -4970.08 -4970.08 -4970.06 -4961.32 -4896.76 -4888.02 -4888.00 -4888.00 -4888.00 -4888.05 -4908.78 -5061.98 -5082.71 -5082.76 -5082.76 -5082.76 -5082.71 -5061.72 -4906.59 -4862.91 -4717.52 -4862.86 -4885.55 -4884.45 -4439.77 -1114.36 -341.39 -246.21 -227.64 -211.99 -198.83 -179.23 -82.26 -58.89 -62.05 -56.95 -49.76 -39.41 11.95 342.74 390.54 404.76 426.66 444.04 464.50 469.85 622.19 664.54 663.76 678.98 682.15 688.49 735.61 776.02 796.69 788.30 774.19 772.27 778.57 738.78 535.66 509.64 500.00 499.80 497.56 514.06 503.11 308.84 267.86 262.05 275.43 250.68 243.57 239.48 215.48 238.10 263.51 193.43 153.47 136.17 131.40 169.71 193.72 232.68 284.74 373.56 488.61 463.83 405.96 309.38 270.04 262.55 181.02 137.94 119.89 131.26 131.30 126.73 110.17 30.16 -21.56 -275.34 -2145.09 -2385.13 -2699.72 -4496.65 -4738.48 -4739.15 -4765.95 -4963.99 -4990.79 -4990.86 -4990.86 -4990.86 -4990.85 -4989.36 -4978.36 -4976.87 -4976.87 -4976.87 -4976.87 -4976.85 -4968.44 -4906.34 -4897.94 -4897.92 -4897.92 -4897.92 -4897.95 -4908.81 -4989.11 -4999.97 -5000.00 -5000.00 -5000.00 -5000.00 -5000.00 -5000.00
-4969.24 -4969.24 -4969.24 -4969.24 -4969.24 -4969.23 -4962.83 -4915.54 -4909.15 -4909.13 -4909.13 -4909.13 -4909.17 -4926.04 -5050.67 -5067.54 -5067.58 -5067.58 -5067.58 -5067.54 -5050.36 -4923.46 -4906.24 -4905.83 -4906.19 -4906.25 -4905.66 -4667.59 -2722.59 -1078.20 -804.79 -584.40 -508.15 -477.54 -430.32 -244.93 -213.87 -209.36 -196.35 -195.94 -187.66 -122.66 283.64 355.49 364.69 382.76 379.78 387.13 410.28 568.45 603.67 617.17 632.70 653.17 646.89 666.34 709.29 725.07 732.97 740.27 702.21 696.81 659.87 490.23 468.27 457.21 458.21 467.13 488.00 449.69 269.23 242.39 243.64 242.91 240.85 243.56 237.96 216.34 228.08 224.71 149.48 128.30 113.93 116.64 151.47 183.47 234.69 334.17 474.22 520.21 397.93 207.91 140.19 140.10 116.26 25.03 -57.63 -75.30 -88.94 -102.46 -112.30 -196.76 -484.54 -588.78 -718.32 -2480.20 -2696.84 -3022.42 -4549.89 -4754.34 -4754.91 -4779.19 -4958.64 -4982.92 -4982.98 -4982.98 -4982.98 -4982.98 -4982.68 -4980.42 -4980.12 -4980.12 -4980.12 -4980.12 -4980.10 -4973.42 -4924.07 -4917.39 -4917.38 -4917.38 -4917.38 -4917.40 -4926.19 -4991.18 -4999.98 -5000.00 -5000.00 -5000.00 -5000.00 -5000.00 -5000.00
-4963.06 -4963.06 -4963.06 -4963.06 -4963.06 -4963.09 -4973.97 -5054.35 -5065.23 -5065.26 -5065.26 -5065.26 -5065.23 -5053.53 -4967.10 -4955.40 -4955.37 -4955.37 -4955.37 -4955.40 -4966.41 -5047.73 -5058.74 -5058.77 -5058.77 -5058.77 -5058.67 -5019.66 -4706.54 -4479.22 -4265.48 -2913.85 -2628.30 -2350.72 -2160.33 -1320.19 -1199.12 -1192.01 -1171.08 -1168.63 -1159.39 -1017.25 -53.22 103.34 117.80 120.01 110.59 120.27 129.81 239.58 262.11 284.22 320.43 365.81 340.62 328.35 319.23 348.26 348.90 343.86 307.00 282.56 277.38 312.82 326.21 317.21 327.77 344.65 336.73 296.63 166.03 146.37 148.37 152.31 159.34 164.38 159.06 127.45 134.71 140.57 66.05 54.67 46.40 46.83 30.86 55.96 102.77 182.12 255.45 303.32 134.81 -1002.71 -1173.90 -1105.84 -1353.92 -1408.76 -1423.38 -1468.12 -1704.84 -1997.34 -2132.55 -2348.24 -3703.27 -3894.97 -3960.09 -4548.75 -4626.17 -4666.17 -4847.10 -4871.29 -4871.36 -4877.05 -4919.09 -4924.78 -4924.79 -4924.79 -4924.79 -4924.81 -4933.26 -4995.66 -5004.11 -5004.13 -5004.13 -5004.13 -5004.14 -5010.21 -5055.06 -5061.13 -5061.15 -5061.15 -5061.15 -5061.13 -5054.62 -5006.53 -5000.02 -5000.00 -5000.00 -5000.00 -5000.00 -5000.00 -5000.00
-4962.22 -4962.22 -4962.22 -4962.22 -4962.22 -4962.26 -4975.47 -5073.14 -5086.36 -5086.39 -5086.39 -5086.39 -5086.35 -5070.79 -4955.79 -4940.23 -4940.19 -4940.19 -4940.19 -4940.22 -4955.04 -5064.55 -5079.37 -5079.41 -5079.41 -5079.41 -5079.37 -5064.06 -4950.90 -4935.06 -4910.44 -4727.71 -4504.68 -3064.35 -2476.06 -1482.31 -1340.97 -1333.22 -1321.87 -1313.90 -1299.04 -1147.93 -122.76 60.33 83.15 63.68 52.12 55.15 60.61 170.06 194.42 236.92 255.89 295.63 312.05 297.03 280.17 283.29 278.15 301.76 265.05 227.04 213.77 281.57 288.34 285.71 292.09 315.09 298.39 263.93 148.16 127.95 133.57 148.56 155.36 155.05 147.43 101.63 71.74 58.74 36.49 33.35 28.74 27.04 3.73 28.29 88.30 119.13 170.99 208.17 71.17 -1157.94 -1299.33 -1515.33 -1588.83 -1614.96 -1687.43 -1995.60 -2542.77 -3723.26 -3876.34 -3892.21 -4071.68 -4106.13 -4170.11 -4619.74 -4860.86 -4886.48 -4887.05 -4887.11 -4887.12 -4890.30 -4913.74 -4916.91 -4916.92 -4916.92 -4916.92 -4916.94 -4926.57 -4997.72 -5007.35 -5007.38 -5007.38 -5007.38 -5007.40 -5015.19 -5072.79 -5080.59 -5080.60 -5080.60 -5080.60 -5080.58 -5072.00 -5008.60 -5000.02 -5000.00 -5000.00 -5000.00 -5000.00 -5000.00 -5000.00
-4962.22 -4962.22 -4962.22 -4962.22 -4962.22 -4962.25 -4975.48 -5073.19 -5086.41 -5086.44 -5086.44 -5086.44 -5086.40 -5070.83 -4955.76 -4940.19 -4940.15 -4940.15 -4940.15 -4940.19 -4955.02 -5064.59 -5079.42 -5079.46 -5079.46 -5079.46 -5079.42 -5064.17 -4951.50 -4936.25 -4936.15 -4935.64 -4909.58 -4530.92 -2943.57 -1571.55 -1388.48 -1364.45 -1347.66 -1314.21 -1306.58 -1160.30 -145.46 16.40 44.40 27.53 21.41 28.33 59.92 174.53 191.65 211.95 241.11 300.81 317.42 306.92 273.27 267.28 268.46 290.28 250.20 215.09 207.82 268.44 280.89 276.89 276.75 301.90 277.38 253.32 143.43 130.22 136.87 152.53 171.34 152.80 159.27 66.66 40.23 32.19 23.94 32.10 20.62 16.87 -6.91 14.36 54.26 78.29 151.25 185.14 134.73 -1098.71 -1299.86 -1553.93 -1601.86 -1692.35 -2296.11 -3499.21 -3695.10 -2660.19 -2418.24 -2302.44 -2279.89 -2345.16 -2449.55 -3036.70 -4467.18 -4858.40 -4887.08 -4887.15 -4887.16 -4890.33 -4913.72 -4916.89 -4916.90 -4916.90 -4916.90 -4916.92 -4926.55 -4997.73 -5007.36 -5007.39 -5007.39 -5007.39 -5007.41 -5015.20 -5072.83 -5080.63 -5080.65 -5080.65 -5080.65 -5080.63 -5072.05 -5008.61 -5000.02 -5000.00 -5000.00 -5000.00 -5000.00 -5000.00 -5000.00
-4962.22 -4962.22 -4962.22 -4962.22 -4962.22 -4962.25 -4975.48 -5073.19 -5086.41 -5086.44 -5086.44 -5086.44 -5086.40 -5070.83 -4955.76 -4940.19 -4940.15 -4940.15 -4940.15 -4940.19 -4955.02 -5064.59 -5079.42 -5079.46 -5079.46 -5079.46 -5079.42 -5064.17 -4951.50 -4936.25 -4936.21 -4936.21 -4936.09 -4909.28 -4380.92 -1834.59 -1426.13 -1417.72 -1392.67 -1333.23 -1310.91 -1165.07 -142.85 45.60 38.94 11.30 34.68 36.64 76.69 225.93 222.91 263.15 278.21 345.87 338.55 318.05 250.77 265.31 274.69 283.71 225.62 199.20 199.99 278.37 285.25 274.27 269.26 278.15 273.08 254.36 145.14 134.29 141.21 155.98 144.85 118.33 91.94 47.70 25.57 16.76 12.29 11.86 15.36 14.25 -9.43 6.83 28.29 56.82 100.39 180.32 72.70 -1097.72 -1237.57 -1515.73 -1638.59 -2167.40 -3501.59 -2460.25 -2400.17 -2232.66 -2201.34 -2013.24 -1945.57 -1925.87 -2018.05 -2514.11 -2913.42 -4652.99 -4886.58 -4887.15 -4887.16 -4890.33 -4913.72 -4916.89 -4916.90 -4916.90 -4916.90 -4916.92 -4926.55 -4997.73 -5007.36 -5007.39 -5007.39 -5007.39 -5007.41 -5015.20 -5072.83 -5080.63 -5080.65 -5080.65 -5080.65 -5080.63 -5072.05 -5008.61 -5000.02 -5000.00 -5000.00 -5000.00 -5000.00 -5000.00 -5000.00
-4962.20 -4962.20 -4962.20 -4962.20 -4962.20 -4962.23 -4975.46 -5073.18 -5086.41 -5086.44 -5086.44 -5086.44 -5086.40 -5070.83 -4955.76 -4940.18 -4940.14 -4940.14 -4940.14 -4940.18 -4955.00 -5064.55 -5079.37 -5079.41 -5079.41 -5079.41 -5079.37 -5064.13 -4951.53 -4936.30 -4936.26 -4936.26 -4936.26 -4935.40 -4616.29 -2218.63 -1571.11 -1488.64 -1446.11 -1368.87 -1318.20 -1157.99 -140.15 56.48 28.73 -1.51 5.79 24.85 78.67 307.86 292.79 279.39 348.73 481.70 355.66 281.70 212.53 232.34 269.05 275.70 229.82 191.14 189.99 269.66 282.21 280.36 271.03 275.29 279.72 268.72 165.93 143.50 144.77 174.47 158.90 136.73 102.24 40.53 20.42 10.11 7.18 6.37 9.56 11.34 -14.35 -2.87 17.13 45.50 81.79 125.03 48.70 -1131.70 -1253.14 -1427.01 -1820.74 -3630.55 -3824.22 -2300.54 -3487.13 -2442.37 -2158.34 -2037.93 -1935.26 -2104.99 -2232.51 -2724.83 -2902.38 -4648.00 -4886.55 -4887.14 -4887.15 -4890.31 -4913.72 -4916.88 -4916.89 -4916.89 -4916.89 -4916.91 -4926.55 -4997.71 -5007.34 -5007.36 -5007.36 -5007.36 -5007.38 -5015.18 -5072.83 -5080.63 -5080.65 -5080.65 -5080.65 -5080.62 -5072.04 -5008.61 -5000.02 -5000.00 -5000.00 -5000.00 -5000.00 -5000.00 -5000.00
-4954.15 -4954.15 -4954.15 -4954.15 -4954.15 -4954.18 -4968.14 -5071.30 -5085.26 -5085.29 -5085.29 -5085.29 -5085.25 -5069.48 -4952.96 -4937.19 -4937.15 -4937.15 -4937.15 -4937.18 -4950.22 -5046.58 -5059.62 -5059.65 -5059.65 -5059.65 -5059.62 -5048.32 -4964.76 -4953.45 -4953.42 -4953.42 -4953.42 -4953.08 -4815.95 -3634.19 -2212.18 -1879.10 -1622.36 -1505.91 -1415.37 -1255.47 -191.53 -34.33 -29.90 -40.41 -28.70 -1.16 67.90 254.04 345.81 350.94 346.50 374.20 341.05 236.13 180.63 170.22 217.79 238.28 206.61 161.40 172.39 266.41 292.59 286.54 278.15 279.02 279.07 269.19 165.27 125.87 119.38 126.17 121.42 107.88 64.92 20.56 11.10 6.43 4.20 3.14 4.77 1.01 -72.07 -70.38 -52.20 -32.76 -11.48 28.30 -43.57 -1266.16 -1502.77 -1684.44 -2162.81 -3944.58 -3925.49 -2117.06 -2496.76 -2387.34 -2423.09 -2170.04 -2140.63 -2267.95 -2401.85 -2997.41 -3236.16 -4683.45 -4879.98 -4880.47 -4880.48 -4884.04 -4910.37 -4913.93 -4913.94 -4913.94 -4913.94 -4913.96 -4922.94 -4989.30 -4998.28 -4998.30 -4998.30 -4998.30 -4998.32 -5006.79 -5069.42 -5077.90 -5077.92 -5077.92 -5077.92 -5077.90 -5069.60 -5008.32 -5000.02 -5000.00 -5000.00 -5000.00 -5000.00 -5000.00 -5000.00
-4894.61 -4894.61 -4894.61 -4894.61 -4894.61 -4894.66 -4914.06 -5057.36 -5076.76 -5076.81 -5076.81 -5076.81 -5076.76 -5059.54 -4932.28 -4915.06 -4915.01 -4915.01 -4915.01 -4915.01 -4914.87 -4913.81 -4913.66 -4913.66 -4913.66 -4913.66 -4913.71 -4931.44 -5062.49 -5080.22 -5080.27 -5080.27 -5080.27 -5080.17 -5038.95 -4711.95 -4499.06 -4247.96 -2671.43 -2327.12 -2222.77 -2014.03 -506.51 -295.89 -284.29 -280.32 -260.81 -261.04 -187.41 107.97 192.76 175.73 153.40 156.38 101.63 57.04 69.84 106.08 82.87 153.07 136.36 75.78 112.94 257.31 300.80 292.35 286.94 295.21 294.09 276.03 135.03 83.58 75.67 73.17 65.26 61.07 24.23 -6.76 -10.35 -8.31 -11.68 -14.54 -13.78 -62.21 -453.05 -494.24 -479.52 -462.46 -444.73 -417.66 -540.90 -1958.42 -2334.86 -2643.71 -4399.53 -4841.22 -4632.14 -2920.36 -3032.49 -3208.74 -4083.50 -2727.83 -2712.36 -3027.47 -3192.21 -4445.65 -4636.31 -4807.91 -4831.13 -4831.19 -4831.21 -4837.70 -4885.64 -4892.13 -4892.14 -4892.14 -4892.14 -4892.15 -4896.32 -4927.13 -4931.30 -4931.31 -4931.31 -4931.31 -4931.35 -4944.81 -5044.28 -5057.74 -5057.77 -5057.77 -5057.77 -5057.76 -5051.61 -5006.17 -5000.02 -5000.00 -5000.00 -5000.00 -5000.00 -5000.00 -5000.00
-4886.56 -4886.56 -4886.56 -4886.56 -4886.56 -4886.61 -4906.74 -5055.48 -5075.61 -5075.66 -5075.66 -5075.66 -5075.62 -5058.20 -4929.48 -4912.06 -4912.02 -4912.02 -4912.02 -4912.01 -4910.08 -4895.84 -4893.91 -4893.90 -4893.90 -4893.90 -4893.96 -4915.62 -5075.71 -5097.38 -5097.43 -5097.43 -5097.43 -5097.36 -5066.09 -4834.99 -4802.78 -4592.61 -3000.51 -2475.44 -2351.13 -2123.99 -548.70 -337.98 -323.27 -322.08 -318.27 -286.16 -203.71 72.16 160.71 135.64 105.90 72.84 46.04 43.03 75.49 65.46 43.37 110.49 103.19 84.52 95.98 255.68 286.13 280.94 274.87 284.88 282.57 247.06 105.55 79.74 54.80 33.92 28.58 21.93 12.17 -12.70 -16.20 -15.74 -17.71 -21.12 -20.24 -73.37 -504.03 -552.00 -538.85 -517.24 -477.15 -459.90 -577.40 -2072.04 -2494.09 -3113.04 -4748.26 -4962.73 -4770.52 -3511.06 -4561.02 -4582.43 -3480.22 -3267.45 -4513.07 -4724.05 -4733.70 -4813.10 -4824.02 -4824.47 -4824.52 -4824.52 -4824.54 -4831.42 -4882.29 -4889.18 -4889.19 -4889.19 -4889.19 -4889.20 -4892.72 -4918.72 -4922.24 -4922.25 -4922.25 -4922.25 -4922.28 -4936.42 -5040.88 -5055.01 -5055.05 -5055.05 -5055.05 -5055.03 -5049.17 -5005.87 -5000.01 -5000.00 -5000.00 -5000.00 -5000.00 -5000.00 -5000.00
-4886.54 -4886.54 -4886.54 -4886.54 -4886.54 -4886.59 -4906.72 -5055.47 -5075.61 -5075.66 -5075.66 -5075.66 -5075.61 -5058.19 -4929.47 -4912.05 -4912.01 -4912.01 -4912.01 -4912.00 -4910.07 -4895.79 -4893.86 -4893.85 -4893.85 -4893.85 -4893.91 -4915.58 -5075.75 -5097.42 -5097.48 -5097.48 -5097.48 -5097.40 -5066.16 -4835.30 -4803.99 -4778.31 -4378.11 -2751.94 -2427.14 -2131.25 -559.68 -348.47 -328.52 -329.08 -320.03 -271.47 -241.30 41.85 106.69 104.06 92.81 80.54 6.20 -28.76 17.29 35.35 42.28 30.54 65.72 102.02 92.53 252.73 267.98 265.77 263.05 272.93 265.01 229.57 84.86 71.40 37.34 19.89 19.81 14.57 8.53 -15.99 -20.14 -20.80 -22.14 -23.50 -22.23 -75.05 -506.06 -555.92 -542.19 -511.25 -461.53 -494.66 -694.02 -2166.16 -2700.47 -4511.48 -4937.68 -4963.86 -4941.26 -4793.71 -4923.88 -4921.85 -4753.76 -4749.12 -4921.09 -4944.53 -4931.80 -4837.32 -4824.54 -4824.51 -4824.51 -4824.51 -4824.52 -4831.41 -4882.28 -4889.17 -4889.19 -4889.19 -4889.19 -4889.19 -4892.71 -4918.70 -4922.22 -4922.22 -4922.22 -4922.22 -4922.26 -4936.40 -5040.87 -5055.01 -5055.04 -5055.04 -5055.04 -5055.03 -5049.17 -5005.87 -5000.01 -5000.00 -5000.00 -5000.00 -5000.00 -5000.00 -5000.00
-4886.54 -4886.54 -4886.54 -4886.54 -4886.54 -4886.59 -4906.72 -5055.47 -5075.61 -5075.66 -5075.66 -5075.66 -5075.61 -5058.19 -4929.47 -4912.05 -4912.01 -4912.01 -4912.01 -4912.00 -4910.07 -4895.79 -4893.86 -4893.85 -4893.85 -4893.85 -4893.91 -4915.58 -5075.75 -5097.42 -5097.48 -5097.48 -5097.48 -5097.40 -5066.16 -4835.30 -4804.06 -4803.41 -4599.26 -3079.29 -2726.42 -2216.20 -573.75 -332.23 -347.09 -342.61 -335.73 -316.18 -281.87 -57.82 46.24 87.95 75.73 58.77 -44.54 -73.85 11.41 10.47 39.47 22.78 28.91 97.08 98.63 240.23 257.73 255.02 251.05 252.48 230.13 192.43 56.00 35.83 19.55 15.86 15.22 11.73 5.31 -19.22 -23.65 -24.65 -25.66 -25.70 -23.44 -76.94 -508.73 -554.41 -533.70 -511.49 -520.10 -534.74 -733.16 -2193.11 -2724.81 -4673.50 -4787.82 -4940.29 -4963.92 -4961.61 -4947.12 -4945.11 -4944.69 -4944.68 -4945.11 -4945.13 -4932.29 -4837.38 -4824.54 -4824.51 -4824.51 -4824.51 -4824.52 -4831.41 -4882.28 -4889.17 -4889.19 -4889.19 -4889.19 -4889.19 -4892.71 -4918.70 -4922.22 -4922.22 -4922.22 -4922.22 -4922.26 -4936.40 -5040.87 -5055.01 -5055.04 -5055.04 -5055.04 -5055.03 -5049.17 -5005.87 -5000.01 -5000.00 -5000.00 -5000.00 -5000.00 -5000.00 -5000.00
-4886.56 -4886.56 -4886.56 -4886.56 -4886.56 -4886.61 -4906.73 -5055.44 -5075.57 -5075.62 -5075.62 -5075.62 -5075.58 -5058.16 -4929.47 -4912.05 -4912.01 -4912.01 -4912.01 -4912.00 -4910.08 -4895.84 -4893.91 -4893.91 -4893.91 -4893.91 -4893.96 -4915.63 -5075.76 -5097.43 -5097.48 -5097.48 -5097.48 -5097.40 -5066.17 -4835.36 -4804.13 -4803.99 -4779.82 -4598.87 -4336.59 -2464.53 -643.29 -377.95 -351.98 -353.52 -354.62 -341.12 -290.45 -80.79 -64.83 3.92 19.81 27.04 -35.46 -81.76 -11.34 -2.14 6.67 33.13 65.33 103.87 81.52 217.21 244.07 262.77 233.47 211.14 211.66 175.37 41.94 17.36 15.32 15.13 13.95 9.71 2.64 -22.06 -26.65 -27.74 -28.74 -28.44 -24.56 -77.23 -507.38 -549.26 -524.52 -493.69 -530.79 -559.19 -754.87 -2283.54 -2946.28 -4550.91 -3666.39 -4788.26 -4963.32 -4961.72 -4946.69 -4944.65 -4944.65 -4944.65 -4944.65 -4944.62 -4931.81 -4837.21 -4824.41 -4824.38 -4824.38 -4824.38 -4824.39 -4831.30 -4882.30 -4889.20 -4889.22 -4889.22 -4889.22 -4889.23 -4892.75 -4918.75 -4922.27 -4922.27 -4922.27 -4922.27 -4922.31 -4936.44 -5040.87 -5055.00 -5055.04 -5055.04 -5055.04 -5055.02 -5049.16 -5005.87 -5000.01 -5000.00 -5000.00 -5000.00 -5000.00 -5000.00 -5000.00
-4894.77 -4894.77 -4894.77 -4894.77 -4894.77 -4894.81 -4912.54 -5043.56 -5061.29 -5061.34 -5061.34 -5061.34 -5061.30 -5045.41 -4928.04 -4912.16 -4912.12 -4912.12 -4912.12 -4912.12 -4912.39 -4914.43 -4914.71 -4914.71 -4914.71 -4914.71 -4914.76 -4934.39 -5079.47 -5099.10 -5099.15 -5099.15 -5099.15 -5099.08 -5070.82 -4862.00 -4833.74 -4833.67 -4833.61 -4832.51 -4569.28 -2457.09 -925.55 -706.48 -652.85 -612.54 -590.73 -585.53 -544.02 -349.66 -323.76 -286.89 -275.92 -262.50 -318.86 -312.03 -92.17 -54.35 -24.14 32.25 66.29 74.91 30.94 188.24 211.33 246.48 241.81 193.53 191.18 179.45 49.81 26.74 23.61 26.84 22.40 15.38 8.42 -14.20 -18.50 -18.98 -19.41 -18.97 -14.85 -62.93 -463.56 -497.81 -474.10 -448.81 -490.47 -552.42 -961.23 -2646.65 -4405.52 -4798.81 -4675.84 -4827.66 -4851.32 -4839.06 -4748.01 -4735.69 -4735.66 -4735.66 -4735.66 -4735.67 -4739.58 -4768.45 -4772.36 -4772.37 -4772.37 -4772.37 -4772.40 -4786.31 -4889.10 -4903.00 -4903.04 -4903.04 -4903.04 -4903.05 -4907.28 -4938.55 -4942.78 -4942.79 -4942.79 -4942.79 -4942.82 -4954.56 -5041.35 -5053.10 -5053.13 -5053.13 -5053.13 -5053.11 -5047.46 -5005.67 -5000.01 -5000.00 -5000.00 -5000.00 -5000.00 -5000.00 -5000.00
-4955.39 -4954.96 -4955.39 -4955.45 -4955.45 -4955.45 -4955.49 -4955.76 -4955.79 -4955.79 -4955.79 -4955.79 -4955.78 -4951.22 -4917.48 -4912.92 -4912.91 -4912.91 -4912.91 -4912.95 -4929.50 -5051.84 -5068.40 -5068.44 -5068.44 -5068.44 -5068.45 -5073.03 -5106.89 -5111.48 -5111.49 -5111.49 -5111.49 -5111.47 -5105.19 -5058.81 -5052.53 -5052.52 -5052.52 -5051.88 -4792.50 -2870.46 -2565.12 -2515.21 -2451.76 -2402.91 -2362.35 -2342.88 -2302.69 -2057.03 -2014.28 -2004.82 -1997.67 -2010.68 -2031.37 -1858.60 -586.03 -407.40 -391.69 -364.43 -358.86 -352.81 -301.88 -72.11 8.08 18.69 26.88 -12.73 -58.31 -22.19 102.28 104.76 85.50 107.21 81.16 70.23 65.61 60.63 59.48 59.08 59.06 59.85 63.94 43.21 -151.68 -149.98 -132.06 -108.54 -157.49 -425.62 -2325.14 -3641.71 -3992.13 -4021.03 -4020.79 -4021.16 -4021.00 -3932.67 -3279.99 -3191.66 -3191.44 -3191.44 -3191.44 -3191.76 -3319.14 -4260.39 -4387.77 -4388.08 -4388.08 -4388.08 -4388.25 -4453.94 -4939.31 -5004.99 -5005.16 -5005.16 -5005.16 -5005.18 -5014.68 -5084.84 -5094.34 -5094.36 -5094.36 -5094.36 -5094.35 -5088.46 -5044.92 -5039.03 -5039.01 -5039.01 -5039.01 -5039.00 -5034.85 -5004.16 -5000.01 -5000.00 -5000.00 -5000.00 -5000.00 -5000.00 -5000.00
-4936.48 -4763.25 -4936.54 -4963.60 -4963.67 -4963.66 -4961.30 -4943.88 -4941.52 -4941.51 -4941.51 -4941.51 -4941.50 -4938.47 -4916.05 -4913.02 -4913.01 -4913.01 -4913.01 -4913.06 -4931.82 -5070.44 -5089.20 -5089.24 -5089.24 -5089.24 -5089.25 -5091.79 -5110.60 -5113.15 -5113.16 -5113.16 -5113.16 -5113.15 -5109.85 -5085.45 -5082.14 -5082.14 -5082.14 -5081.64 -4883.36 -3404.10 -3069.08 -2819.39 -2743.18 -2655.31 -2611.26 -2597.24 -2547.43 -2291.60 -2250.06 -2261.27 -2265.61 -2271.59 -2269.80 -2069.43 -654.51 -460.05 -448.90 -434.19 -419.39 -379.37 -351.95 -124.06 -78.20 -2.97 27.44 -16.35 -72.56 -50.40 170.20 116.09 91.67 90.84 85.30 77.66 73.04 70.41 69.72 69.65 69.90 70.95 74.79 57.18 -109.44 -108.89 -97.02 -58.93 -132.77 -618.22 -2537.91 -3772.40 -3908.47 -3908.87 -3908.87 -3908.87 -3908.63 -3810.01 -3081.31 -2982.70 -2982.45 -2982.45 -2982.45 -2982.81 -3126.90 -4191.63 -4335.72 -4336.08 -4336.08 -4336.08 -4336.26 -4408.95 -4946.10 -5018.80 -5018.98 -5018.98 -5018.98 -5019.00 -5029.21 -5104.64 -5114.85 -5114.88 -5114.88 -5114.88 -5114.86 -5106.58 -5045.40 -5037.12 -5037.10 -5037.10 -5037.10 -5037.09 -5033.14 -5003.96 -5000.01 -5000.00 -5000.00 -5000.00 -5000.00 -5000.00 -5000.00
-4762.77 -3482.80 -4763.27 -4963.19 -4963.69 -4963.68 -4961.32 -4943.85 -4941.48 -4941.48 -4941.48 -4941.48 -4941.47 -4938.44 -4916.05 -4913.02 -4913.01 -4913.01 -4913.01 -4913.06 -4931.83 -5070.48 -5089.25 -5089.29 -5089.29 -5089.29 -5089.30 -5091.84 -5110.61 -5113.15 -5113.16 -5113.16 -5113.16 -5113.15 -5109.86 -5085.51 -5082.22 -5082.21 -5082.21 -5082.15 -5059.06 -4882.09 -4602.05 -3014.03 -2745.29 -2648.36 -2624.33 -2589.52 -2549.85 -2301.68 -2263.74 -2268.62 -2268.31 -2267.56 -2271.87 -2084.82 -667.58 -468.79 -454.60 -439.89 -425.51 -398.32 -381.39 -155.70 -124.47 -74.43 -12.59 0.71 -36.50 -78.11 113.07 110.52 96.74 89.95 84.33 77.62 72.71 70.32 69.69 69.70 70.18 71.42 74.86 57.82 -101.77 -109.29 -98.42 -77.81 -334.18 -1990.91 -2723.90 -3773.19 -3908.26 -3908.59 -3908.59 -3908.59 -3908.35 -3809.70 -3080.82 -2982.18 -2981.93 -2981.93 -2981.93 -2982.29 -3126.43 -4191.46 -4335.59 -4335.95 -4335.95 -4335.95 -4336.13 -4408.84 -4946.12 -5018.83 -5019.01 -5019.01 -5019.01 -5019.04 -5029.25 -5104.69 -5114.90 -5114.93 -5114.93 -5114.93 -5114.91 -5106.62 -5045.40 -5037.12 -5037.10 -5037.10 -5037.10 -5037.09 -5033.14 -5003.96 -5000.01 -5000.00 -5000.00 -5000.00 -5000.00 -5000.00 -5000.00
-4936.50 -4763.27 -4936.56 -4963.62 -4963.69 -4963.68 -4961.32 -4943.85 -4941.48 -4941.48 -4941.48 -4941.48 -4941.47 -4938.44 -4916.05 -4913.02 -4913.01 -4913.01 -4913.01 -4913.06 -4931.83 -5070.48 -5089.25 -5089.29 -5089.29 -5089.29 -5089.30 -5091.84 -5110.61 -5113.15 -5113.16 -5113.16 -5113.16 -5113.15 -5109.86 -5085.51 -5082.22 -5082.21 -5082.21 -5082.21 -5082.14 -5076.95 -4807.10 -3017.29 -2621.11 -2579.12 -2592.97 -2589.44 -2548.11 -2301.00 -2266.88 -2268.59 -2269.46 -2273.41 -2284.94 -2091.32 -675.42 -472.20 -459.82 -447.68 -424.63 -422.33 -393.15 -173.05 -148.35 -125.57 -32.62 -48.14 -101.31 -104.77 76.27 124.59 106.16 107.07 87.16 78.02 72.36 70.09 69.56 69.64 70.26 71.94 75.24 56.84 -110.51 -128.42 -114.27 -100.28 -202.54 -894.62 -2575.27 -3772.82 -3908.26 -3908.59 -3908.59 -3908.59 -3908.35 -3809.70 -3080.82 -2982.18 -2981.93 -2981.93 -2981.93 -2982.29 -3126.43 -4191.40 -4335.09 -4335.30 -4335.29 -4335.36 -4336.06 -4408.84 -4946.12 -5018.83 -5019.01 -5019.01 -5019.01 -5019.04 -5029.25 -5104.69 -5114.90 -5114.93 -5114.93 -5114.93 -5114.91 -5106.62 -5045.40 -5037.12 -5037.10 -5037.10 -5037.10 -5037.09 -5033.14 -5003.96 -5000.01 -5000.00 -5000.00 -5000.00 -5000.00 -5000.00 -5000.00
-4963.63 -4963.20 -4963.63 -4963.70 -4963.70 -4963.69 -4961.33 -4943.87 -4941.51 -4941.50 -4941.50 -4941.50 -4941.49 -4938.46 -4916.08 -4913.05 -4913.04 -4913.04 -4913.04 -4913.09 -4931.84 -5070.45 -5089.21 -5089.25 -5089.25 -5089.25 -5089.26 -5091.80 -5110.59 -5113.14 -5113.14 -5113.14 -5113.14 -5113.14 -5109.84 -5085.49 -5082.19 -5082.18 -5082.18 -5082.18 -5082.17 -5077.46 -4829.43 -3180.97 -2664.02 -2613.78 -2601.92 -2609.38 -2557.44 -2303.83 -2271.29 -2268.95 -2268.31 -2282.00 -2288.34 -2086.66 -672.38 -471.27 -460.21 -452.65 -441.88 -436.76 -409.55 -186.67 -153.69 -137.71 -118.40 -116.76 -127.54 -120.22 63.37 97.67 91.20 96.44 85.87 77.85 71.49 69.29 69.08 69.26 70.24 72.24 75.33 55.79 -116.58 -124.60 -113.02 -127.00 -147.50 -449.10 -2514.81 -3772.32 -3907.88 -3908.21 -3908.21 -3908.21 -3907.97 -3809.39 -3081.01 -2982.44 -2982.19 -2982.19 -2982.19 -2982.48 -3126.03 -4167.20 -4131.99 -4075.24 -4069.76 -4097.90 -4307.78 -4408.86 -4946.11 -5018.80 -5018.98 -5018.98 -5018.98 -5019.01 -5029.22 -5104.69 -5114.90 -5114.93 -5114.93 -5114.93 -5114.91 -5106.62 -5045.41 -5037.13 -5037.11 -5037.11 -5037.11 -5037.10 -5033.15 -5003.96 -5000.01 -5000.00 -5000.00 -5000.00 -5000.00 -5000.00 -5000.00
-4967.47 -4967.47 -4967.47 -4967.47 -4967.47 -4967.46 -4965.77 -4953.25 -4951.56 -4951.56 -4951.56 -4951.56 -4951.55 -4948.51 -4926.04 -4923.00 -4923.00 -4923.00 -4923.00 -4923.03 -4938.96 -5056.61 -5072.54 -5072.58 -5072.58 -5072.58 -5072.59 -5076.23 -5103.13 -5106.77 -5106.78 -5106.78 -5106.78 -5106.77 -5103.03 -5075.43 -5071.70 -5071.69 -5071.69 -5071.69 -5071.68 -5067.51 -5010.73 -4631.79 -3236.75 -2907.02 -2846.91 -2923.97 -2878.83 -2606.33 -2567.99 -2577.86 -2571.04 -2582.80 -2539.68 -2142.40 -795.61 -612.95 -603.06 -589.71 -577.08 -562.21 -547.35 -237.20 -191.06 -183.97 -189.32 -190.97 -194.79 -169.10 34.87 61.37 63.52 64.82 60.63 53.84 49.06 58.78 60.29 61.09 62.33 64.57 67.74 53.75 -74.29 -80.61 -55.84 -85.69 -92.00 -358.43 -2446.51 -3630.05 -3754.91 -3755.22 -3755.22 -3755.22 -3755.04 -3683.95 -3158.66 -3087.57 -3087.34 -3086.90 -3086.68 -3058.79 -2987.56 -3828.94 -2817.85 -2218.84 -2153.40 -2398.94 -4143.32 -4446.14 -4941.48 -5008.44 -5008.60 -5008.60 -5008.60 -5008.63 -5019.95 -5103.58 -5114.90 -5114.93 -5114.93 -5114.93 -5114.91 -5107.09 -5049.32 -5041.50 -5041.48 -5041.48 -5041.48 -5041.47 -5037.05 -5004.43 -5000.01 -5000.00 -5000.00 -5000.00 -5000.00 -5000.00 -5000.00
-4995.34 -4995.34 -4995.34 -4995.34 -4995.34 -4995.35 -4998.60 -5022.61 -5025.85 -5025.86 -5025.86 -5025.86 -5025.85 -5022.74 -4999.69 -4996.57 -4996.56 -4996.56 -4996.56 -4996.55 -4991.53 -4954.40 -4949.37 -4949.36 -4949.36 -4949.36 -4949.39 -4961.14 -5047.96 -5059.71 -5059.74 -5059.74 -5059.74 -5059.72 -5052.74 -5001.14 -4994.16 -4994.14 -4994.14 -4994.14 -4994.13 -4990.57 -4964.08 -4935.55 -4751.96 -4707.36 -4699.34 -4709.84 -4708.51 -4704.80 -4704.06 -4705.48 -4704.55 -4705.36 -4468.79 -2650.68 -1780.98 -1688.53 -1685.26 -1680.67 -1676.35 -1671.97 -1546.84 -591.76 -461.56 -469.78 -475.57 -478.00 -479.70 -440.57 -154.46 -114.88 -112.35 -105.61 -108.26 -115.73 -108.54 -13.26 0.75 2.26 3.82 6.36 9.83 42.26 259.64 294.00 308.05 293.73 290.88 47.73 -1813.63 -2556.32 -2624.51 -2624.24 -2624.68 -2624.75 -2625.08 -2757.00 -3731.82 -3863.66 -3840.50 -3662.22 -3602.54 -3389.35 -1944.54 -2583.82 -3815.74 -2452.35 -2462.12 -2800.87 -4475.74 -4725.39 -4907.29 -4931.83 -4931.89 -4931.89 -4931.89 -4931.94 -4951.42 -5095.39 -5114.88 -5114.93 -5114.93 -5114.93 -5114.91 -5110.53 -5078.16 -5073.78 -5073.77 -5073.77 -5073.77 -5073.75 -5065.90 -5007.87 -5000.02 -5000.00 -5000.00 -5000.00 -5000.00 -5000.00 -5000.00
-4999.11 -4999.11 -4999.11 -4999.11 -4999.11 -4999.12 -5003.04 -5031.99 -5035.91 -5035.92 -5035.92 -5035.92 -5035.91 -5032.78 -5009.66 -5006.53 -5006.52 -5006.52 -5006.52 -5006.50 -4998.64 -4940.56 -4932.70 -4932.68 -4932.68 -4932.68 -4932.71 -4945.56 -5040.50 -5053.34 -5053.38 -5053.38 -5053.38 -5053.36 -5045.93 -4991.09 -4983.66 -4983.65 -4983.65 -4983.65 -4983.64 -4980.14 -4954.33 -4950.77 -4950.31 -4950.20 -4950.18 -4950.22 -4954.77 -4988.46 -4993.01 -4993.03 -4993.03 -4992.38 -4731.47 -2730.27 -1916.31 -1834.78 -1844.02 -1849.02 -1846.91 -1843.01 -1701.02 -663.25 -518.27 -517.79 -522.26 -526.82 -525.70 -486.02 -189.18 -147.35 -146.48 -141.67 -140.67 -146.79 -136.02 -25.05 -7.20 -5.16 -3.65 -0.46 2.93 41.16 304.66 343.40 346.76 343.80 342.92 269.98 -480.85 -2241.68 -2443.07 -2264.43 -2443.70 -2471.69 -2472.01 -2602.61 -3570.23 -3692.15 -3517.68 -2191.87 -1730.97 -1772.07 -1837.03 -2301.46 -2709.32 -2768.46 -4273.35 -4518.28 -4718.10 -4763.67 -4902.66 -4921.46 -4921.51 -4921.51 -4921.51 -4921.56 -4942.15 -5094.28 -5114.87 -5114.93 -5114.93 -5114.93 -5114.92 -5111.00 -5082.06 -5078.15 -5078.14 -5078.14 -5078.14 -5078.12 -5069.80 -5008.34 -5000.02 -5000.00 -5000.00 -5000.00 -5000.00 -5000.00 -5000.00
-4999.12 -4999.12 -4999.12 -4999.12 -4999.12 -4999.13 -5003.05 -5032.01 -5035.93 -5035.94 -5035.94 -5035.94 -5035.94 -5032.81 -5009.68 -5006.55 -5006.54 -5006.54 -5006.54 -5006.52 -4998.66 -4940.53 -4932.66 -4932.64 -4932.64 -4932.64 -4932.67 -4945.52 -5040.48 -5053.33 -5053.36 -5053.36 -5053.36 -5053.34 -5045.92 -4991.06 -4983.64 -4983.62 -4983.62 -4983.62 -4983.61 -4980.12 -4954.30 -4950.81 -4950.80 -4950.80 -4950.80 -4950.81 -4955.38 -4989.16 -4993.73 -4993.74 -4993.74 -4993.09 -4730.93 -2721.64 -1917.74 -1856.37 -1875.90 -1875.12 -1863.78 -1856.38 -1712.89 -681.81 -545.99 -536.18 -536.30 -532.09 -521.76 -483.38 -189.93 -150.36 -152.40 -152.56 -151.98 -150.39 -136.67 -23.17 -4.75 -2.87 -0.74 2.02 4.87 42.37 305.31 342.99 343.69 343.47 343.22 311.29 -162.66 -2016.19 -2238.27 -939.34 -2264.05 -2470.72 -2442.20 -2180.55 -1757.94 -1624.69 -1616.60 -1375.40 -1150.57 -1953.39 -3142.25 -2565.91 -4235.96 -4507.92 -4690.21 -4555.76 -4719.46 -4763.77 -4902.65 -4921.44 -4921.48 -4921.48 -4921.48 -4921.53 -4942.13 -5094.28 -5114.87 -5114.93 -5114.93 -5114.93 -5114.92 -5111.00 -5082.07 -5078.16 -5078.15 -5078.15 -5078.15 -5078.13 -5069.81 -5008.34 -5000.02 -5000.00 -5000.00 -5000.00 -5000.00 -5000.00 -5000.00
-4999.12 -4999.12 -4999.12 -4999.12 -4999.12 -4999.13 -5003.05 -5032.01 -5035.93 -5035.94 -5035.94 -5035.94 -5035.94 -5032.81 -5009.68 -5006.55 -5006.54 -5006.54 -5006.54 -5006.52 -4998.66 -4940.53 -4932.66 -4932.64 -4932.64 -4932.64 -4932.67 -4945.52 -5040.48 -5053.33 -5053.36 -5053.36 -5053.36 -5053.34 -5045.92 -4991.06 -4983.64 -4983.62 -4983.62 -4983.62 -4983.61 -4980.12 -4954.30 -4950.81 -4950.80 -4950.80 -4950.80 -4950.81 -4955.38 -4989.16 -4993.73 -4993.74 -4993.74 -4993.10 -4734.29 -2748.18 -1935.07 -1870.05 -1930.26 -1933.47 -1913.99 -1879.36 -1720.61 -699.73 -592.98 -553.73 -547.97 -545.10 -535.82 -495.36 -197.03 -153.28 -152.71 -149.92 -149.27 -146.98 -131.40 -16.94 0.11 1.71 3.33 5.30 7.61 44.68 307.06 343.14 343.44 343.21 341.93 337.20 217.78 -603.25 -2229.23 -2263.45 -2443.18 -2441.73 -2020.56 -532.83 -1082.52 -1139.73 -1358.04 -1321.37 -1457.90 -1672.33 -1793.60 -2492.49 -4454.94 -4520.30 -4312.07 -3120.05 -4528.55 -4763.29 -4902.65 -4921.44 -4921.48 -4921.48 -4921.48 -4921.53 -4942.13 -5094.28 -5114.87 -5114.93 -5114.93 -5114.93 -5114.92 -5111.00 -5082.07 -5078.16 -5078.15 -5078.15 -5078.15 -5078.13 -5069.81 -5008.34 -5000.02 -5000.00 -5000.00 -5000.00 -5000.00 -5000.00 -5000.00
-4999.14 -4999.14 -4999.14 -4999.14 -4999.14 -4999.15 -5003.07 -5032.01 -5035.93 -5035.94 -5035.94 -5035.94 -5035.93 -5032.80 -5009.69 -5006.57 -5006.56 -5006.56 -5006.56 -5006.54 -4998.67 -4940.57 -4932.70 -4932.68 -4932.68 -4932.68 -4932.72 -4945.56 -5040.47 -5053.31 -5053.34 -5053.34 -5053.34 -5053.32 -5045.90 -4991.05 -4983.62 -4983.60 -4983.60 -4983.60 -4983.59 -4980.10 -4954.30 -4950.81 -4950.80 -4950.80 -4950.80 -4950.81 -4955.37 -4989.10 -4993.66 -4993.67 -4993.67 -4993.16 -4785.51 -3171.34 -2363.81 -2285.92 -2254.63 -2064.09 -2016.23 -1946.00 -1752.05 -721.55 -610.58 -576.34 -566.87 -559.29 -552.80 -509.77 -201.87 -156.30 -149.24 -144.14 -146.07 -145.44 -123.55 -11.12 4.94 6.04 7.21 8.76 10.71 48.08 309.90 344.67 345.25 345.11 339.75 334.41 280.25 -240.20 -2008.59 -2442.43 -2442.28 -2020.90 -370.94 153.58 -335.00 -1084.47 -1374.78 -1125.60 -1640.28 -1635.53 -1583.79 -2424.57 -4048.13 -2892.67 -2886.48 -2815.66 -4509.09 -4763.11 -4902.66 -4921.47 -4921.51 -4921.51 -4921.51 -4921.56 -4942.15 -5094.26 -5114.85 -5114.90 -5114.90 -5114.90 -5114.89 -5110.98 -5082.08 -5078.17 -5078.16 -5078.16 -5078.16 -5078.14 -5069.82 -5008.34 -5000.02 -5000.00 -5000.00 -5000.00 -5000.00 -5000.00 -5000.00
-5007.00 -5007.00 -5007.00 -5007.00 -5007.00 -5007.01 -5009.87 -5031.05 -5033.92 -5033.92 -5033.92 -5033.92 -5033.92 -5031.65 -5014.85 -5012.58 -5012.58 -5012.58 -5012.58 -5012.56 -5005.94 -4956.99 -4950.36 -4950.34 -4950.34 -4950.34 -4950.37 -4960.52 -5035.50 -5045.65 -5045.68 -5045.68 -5045.68 -5045.66 -5038.32 -4984.09 -4976.75 -4976.73 -4976.73 -4976.73 -4976.72 -4973.82 -4952.40 -4949.50 -4949.49 -4949.49 -4949.49 -4949.50 -4951.30 -4964.64 -4966.45 -4966.45 -4966.45 -4966.39 -4941.86 -4689.95 -4134.06 -4039.27 -3696.69 -2396.00 -2206.95 -2218.94 -1803.29 -738.34 -680.97 -630.15 -604.19 -595.28 -578.73 -528.90 -152.90 -89.74 -84.20 -82.18 -87.34 -79.01 -60.26 29.26 41.96 42.24 43.09 44.36 46.92 77.32 268.39 294.34 298.78 301.84 288.11 276.70 206.73 -208.42 -678.74 -2214.52 -2213.13 -602.42 116.70 545.49 -713.96 -1418.51 -1563.35 -1549.53 -1706.82 -1622.55 -1682.16 -2227.37 -2654.20 -2926.19 -4258.41 -4446.12 -4654.20 -4709.32 -4906.39 -4933.05 -4933.12 -4933.12 -4933.12 -4933.16 -4951.30 -5085.35 -5103.50 -5103.54 -5103.54 -5103.54 -5103.54 -5101.28 -5084.58 -5082.32 -5082.31 -5082.31 -5082.31 -5082.29 -5073.53 -5008.78 -5000.02 -5000.00 -5000.00 -5000.00 -5000.00 -5000.00 -5000.00
-5065.09 -5065.09 -5065.09 -5065.09 -5065.09 -5065.07 -5060.17 -5023.95 -5019.04 -5019.03 -5019.03 -5019.03 -5019.04 -5023.09 -5052.98 -5057.03 -5057.04 -5057.04 -5057.04 -5057.05 -5059.58 -5078.30 -5080.83 -5080.84 -5080.84 -5080.84 -5080.81 -5071.04 -4998.84 -4989.07 -4989.05 -4989.05 -4989.05 -4989.03 -4982.31 -4932.66 -4925.94 -4925.92 -4925.92 -4925.92 -4925.93 -4927.41 -4938.37 -4939.86 -4939.86 -4939.86 -4939.86 -4939.82 -4921.24 -4783.94 -4765.36 -4765.31 -4765.31 -4765.31 -4765.10 -4704.56 -4259.96 -4003.74 -2528.24 -2132.28 -2253.70 -3368.79 -2257.05 -887.45 -763.09 -715.46 -696.90 -718.57 -719.40 -598.18 227.64 362.48 366.26 358.13 361.89 373.40 369.96 298.39 288.70 288.24 288.47 290.44 296.82 250.68 -96.58 -141.13 -146.37 -143.87 -155.69 -159.75 -337.21 -1599.83 -1798.63 -2003.00 -2024.84 -1656.85 -892.87 -386.98 -1797.19 -2157.40 -2369.82 -2390.07 -2543.32 -2670.33 -2545.13 -2562.52 -3790.36 -4014.68 -4198.34 -4222.59 -4223.37 -4308.14 -4933.95 -5018.65 -5018.86 -5018.86 -5018.86 -5018.86 -5018.94 -5019.55 -5019.64 -5019.64 -5019.64 -5019.64 -5019.66 -5029.60 -5103.05 -5112.99 -5113.02 -5113.02 -5113.02 -5112.99 -5100.95 -5012.06 -5000.03 -5000.00 -5000.00 -5000.00 -5000.00 -5000.00 -5000.00
-5072.95 -5072.95 -5072.95 -5072.95 -5072.95 -5072.93 -5066.98 -5022.99 -5017.03 -5017.02 -5017.02 -5017.02 -5017.03 -5021.93 -5058.15 -5063.05 -5063.06 -5063.06 -5063.06 -5063.07 -5066.84 -5094.71 -5098.49 -5098.50 -5098.50 -5098.50 -5098.46 -5086.00 -4993.88 -4981.42 -4981.39 -4981.39 -4981.39 -4981.37 -4974.73 -4925.70 -4919.06 -4919.05 -4919.05 -4919.05 -4919.05 -4921.13 -4936.48 -4938.55 -4938.56 -4938.56 -4938.56 -4938.51 -4917.17 -4759.49 -4738.15 -4738.09 -4738.09 -4738.09 -4737.95 -4679.29 -4245.32 -3953.65 -2252.26 -2169.92 -2144.30 -2166.84 -3240.67 -1468.13 -971.16 -791.20 -743.69 -732.54 -733.37 -602.94 275.81 411.24 414.19 423.08 426.95 436.94 433.02 338.07 327.66 327.01 328.36 332.12 332.73 276.50 -149.66 -206.35 -200.68 -207.85 -211.07 -211.98 -400.69 -1752.51 -1940.69 -1914.51 -1845.42 -1711.62 -772.97 -1132.37 -2319.88 -2932.41 -4227.08 -4395.90 -4415.75 -4434.67 -4369.60 -4019.45 -4137.68 -4160.48 -4160.99 -4161.05 -4161.28 -4253.83 -4937.69 -5030.23 -5030.46 -5030.46 -5030.46 -5030.46 -5028.10 -5010.65 -5008.29 -5008.28 -5008.28 -5008.28 -5008.31 -5019.90 -5105.55 -5117.14 -5117.17 -5117.17 -5117.17 -5117.14 -5104.67 -5012.50 -5000.03 -5000.00 -5000.00 -5000.00 -5000.00 -5000.00 -5000.00
-5072.97 -5072.97 -5072.97 -5072.97 -5072.97 -5072.95 -5067.00 -5022.98 -5017.03 -5017.01 -5017.01 -5017.01 -5017.02 -5021.93 -5058.16 -5063.06 -5063.07 -5063.07 -5063.07 -5063.08 -5066.86 -5094.75 -5098.53 -5098.54 -5098.54 -5098.54 -5098.51 -5086.03 -4993.87 -4981.40 -4981.37 -4981.37 -4981.37 -4981.35 -4974.71 -4925.68 -4919.05 -4919.03 -4919.03 -4919.03 -4919.03 -4921.11 -4936.47 -4938.55 -4938.56 -4938.56 -4938.56 -4938.50 -4917.16 -4759.42 -4738.08 -4738.03 -4738.03 -4738.03 -4737.88 -4679.23 -4245.79 -4158.62 -3950.62 -3942.93 -3731.69 -2165.17 -1985.79 -2449.19 -1336.54 -805.52 -750.20 -719.98 -698.88 -582.19 288.45 411.16 411.86 420.00 428.96 436.64 429.07 337.11 327.68 329.18 332.72 335.93 338.47 281.88 -147.30 -196.12 -186.68 -194.58 -201.83 -203.34 -381.84 -1721.22 -1899.52 -1791.22 -1360.88 -1357.30 -1118.51 -2218.49 -4152.62 -4459.91 -4635.35 -4658.29 -4658.40 -4658.31 -4605.26 -4213.57 -4160.97 -4160.90 -4160.90 -4160.90 -4161.13 -4253.70 -4937.69 -5030.26 -5030.49 -5030.49 -5030.49 -5030.49 -5028.12 -5010.63 -5008.26 -5008.25 -5008.25 -5008.25 -5008.28 -5019.88 -5105.56 -5117.15 -5117.18 -5117.18 -5117.18 -5117.15 -5104.68 -5012.50 -5000.03 -5000.00 -5000.00 -5000.00 -5000.00 -5000.00 -5000.00
-5072.97 -5072.97 -5072.97 -5072.97 -5072.97 -5072.95 -5067.00 -5022.98 -5017.03 -5017.01 -5017.01 -5017.01 -5017.02 -5021.93 -5058.16 -5063.06 -5063.07 -5063.07 -5063.07 -5063.08 -5066.86 -5094.75 -5098.53 -5098.54 -5098.54 -5098.54 -5098.51 -5086.03 -4993.87 -4981.40 -4981.37 -4981.37 -4981.37 -4981.35 -4974.71 -4925.68 -4919.05 -4919.03 -4919.03 -4919.03 -4919.03 -4921.11 -4936.47 -4938.55 -4938.56 -4938.56 -4938.56 -4938.50 -4917.16 -4759.42 -4738.08 -4738.03 -4738.03 -4738.03 -4737.88 -4679.23 -4245.86 -4187.14 -4186.48 -4186.39 -4157.53 -3708.02 -1839.69 -1330.06 -2535.33 -1201.73 -731.51 -691.84 -680.35 -567.04 302.07 419.37 420.59 423.12 429.56 435.70 427.06 334.40 323.86 327.36 331.07 339.57 341.01 281.21 -149.41 -196.56 -165.46 -137.39 -167.06 -103.73 -263.65 -1552.47 -1722.60 -1614.49 -1208.39 -1385.79 -1662.54 -3623.86 -4344.24 -4627.85 -4658.29 -4658.34 -4658.32 -4658.16 -4605.14 -4213.46 -4160.96 -4160.90 -4160.90 -4160.90 -4161.13 -4253.70 -4937.69 -5030.26 -5030.49 -5030.49 -5030.49 -5030.49 -5028.12 -5010.63 -5008.26 -5008.25 -5008.25 -5008.25 -5008.28 -5019.88 -5105.56 -5117.15 -5117.18 -5117.18 -5117.18 -5117.15 -5104.68 -5012.50 -5000.03 -5000.00 -5000.00 -5000.00 -5000.00 -5000.00 -5000.00
-5072.92 -5072.92 -5072.92 -5072.92 -5072.92 -5072.91 -5066.96 -5022.98 -5017.03 -5017.02 -5017.02 -5017.02 -5017.03 -5021.93 -5058.13 -5063.03 -5063.05 -5063.05 -5063.05 -5063.06 -5066.83 -5094.71 -5098.48 -5098.49 -5098.49 -5098.49 -5098.46 -5085.99 -4993.87 -4981.41 -4981.37 -4981.37 -4981.37 -4981.36 -4974.72 -4925.69 -4919.06 -4919.04 -4919.04 -4919.04 -4919.05 -4921.13 -4936.49 -4938.56 -4938.57 -4938.57 -4938.57 -4938.52 -4917.17 -4759.45 -4738.10 -4738.05 -4738.05 -4738.05 -4737.90 -4679.22 -4245.57 -4186.88 -4186.74 -4186.74 -4186.07 -3945.11 -2092.21 -1459.59 -2741.43 -2705.64 -1129.61 -709.77 -661.83 -558.11 310.10 424.51 424.15 424.58 428.99 434.46 425.82 333.73 326.06 334.29 342.84 342.56 349.31 287.07 -136.29 -179.66 -106.77 179.63 20.43 187.87 92.78 -1204.31 -1070.40 -1078.58 -1120.91 -1661.94 -1722.46 -1742.45 -2677.50 -4405.29 -4423.54 -4391.28 -4386.18 -4373.50 -4319.00 -3973.09 -4132.04 -4160.50 -4161.07 -4161.13 -4161.36 -4253.91 -4937.73 -5030.28 -5030.51 -5030.51 -5030.51 -5030.50 -5028.13 -5010.63 -5008.26 -5008.25 -5008.25 -5008.25 -5008.28 -5019.87 -5105.51 -5117.10 -5117.13 -5117.13 -5117.13 -5117.10 -5104.63 -5012.50 -5000.03 -5000.00 -5000.00 -5000.00 -5000.00 -5000.00 -5000.00
