-4952.06 -4952.06 -4952.06 -4952.06 -4952.06 -4952.08 -4961.35 -5029.82 -5039.09 -5039.11 -5039.11 -5039.11 -5039.11 -5037.39 -5024.70 -5022.98 -5022.97 -5022.97 -5022.97 -5022.94 -5008.31 -4900.27 -4885.64 -4885.61 -4885.61 -4885.61 -4885.62 -4890.18 -4923.90 -4928.46 -4928.48 -4928.48 -4928.48 -4928.49 -4936.07 -4992.05 -4999.62 -4999.64 -4999.64 -4999.64 -4999.62 -4990.73 -4925.07 -4916.19 -4916.17 -4916.17 -4916.17 -4916.21 -4933.80 -5063.76 -5081.35 -5081.39 -5081.39 -5081.39 -5081.37 -5071.37 -4997.53 -4987.54 -4987.51 -4987.51 -4987.51 -4987.53 -4995.43 -5053.77 -5061.67 -5061.69 -5061.69 -5061.69 -5061.70 -5066.24 -5099.81 -5104.35 -5104.36 -5104.36 -5104.36 -5104.33 -5094.57 -5022.38 -5012.61 -5012.59 -5012.59 -5012.59 -5012.61 -5020.69 -5080.38 -5088.45 -5088.47 -5088.47 -5088.47 -5088.45 -5079.32 -5011.88 -5002.75 -5002.73 -5002.73 -5002.73 -5002.72 -5000.98 -4988.15 -4986.41 -4986.40 -4986.40 -4986.40 -4986.42 -4991.26 -5027.08 -5031.93 -5031.94 -5031.94 -5031.94 -5031.92 -5023.54 -4961.64 -4953.26 -4953.24 -4953.24 -4953.24 -4953.29 -4971.00 -5101.88 -5119.60 -5119.64 -5119.64 -5119.64 -5119.62 -5113.17 -5065.50 -5059.05 -5059.03 -5059.03 -5059.03 -5059.02 -5052.73 -5006.30 -5000.02 -5000.00 -5000.00 -5000.00 -5000.00 -5000.00 -5000.00
-4952.06 -4952.06 -4952.06 -4952.06 -4952.06 -4952.08 -4961.35 -5029.82 -5039.09 -5039.11 -5039.11 -5039.11 -5039.11 -5037.39 -5024.70 -5022.98 -5022.97 -5022.97 -5022.97 -5022.94 -5008.31 -4900.27 -4885.64 -4885.61 -4885.61 -4885.61 -4885.62 -4890.18 -4923.90 -4928.46 -4928.48 -4928.48 -4928.48 -4928.49 -4936.07 -4992.05 -4999.62 -4999.64 -4999.64 -4999.64 -4999.62 -4990.73 -4925.07 -4916.19 -4916.17 -4916.17 -4916.17 -4916.21 -4933.80 -5063.76 -5081.35 -5081.39 -5081.39 -5081.39 -5081.37 -5071.37 -4997.53 -4987.54 -4987.51 -4987.51 -4987.51 -4987.53 -4995.43 -5053.77 -5061.67 -5061.69 -5061.69 -5061.69 -5061.70 -5066.24 -5099.81 -5104.35 -5104.36 -5104.36 -5104.36 -5104.33 -5094.57 -5022.38 -5012.61 -5012.59 -5012.59 -5012.59 -5012.61 -5020.69 -5080.38 -5088.45 -5088.47 -5088.47 -5088.47 -5088.45 -5079.32 -5011.88 -5002.75 -5002.73 -5002.73 -5002.73 -5002.72 -5000.98 -4988.15 -4986.41 -4986.40 -4986.40 -4986.40 -4986.42 -4991.26 -5027.08 -5031.93 -5031.94 -5031.94 -5031.94 -5031.92 -5023.54 -4961.64 -4953.26 -4953.24 -4953.24 -4953.24 -4953.29 -4971.00 -5101.88 -5119.60 -5119.64 -5119.64 -5119.64 -5119.62 -5113.17 -5065.50 -5059.05 -5059.03 -5059.03 -5059.03 -5059.02 -5052.73 -5006.30 -5000.02 -5000.00 -5000.00 -5000.00 -5000.00 -5000.00 -5000.00
-4952.06 -4952.06 -4952.06 -4952.06 -4952.06 -4952.08 -4961.35 -5029.82 -5039.09 -5039.11 -5039.11 -5039.11 -5039.11 -5037.39 -5024.70 -5022.98 -5022.97 -5022.97 -5022.97 -5022.94 -5008.31 -4900.27 -4885.64 -4885.61 -4885.61 -4885.61 -4885.62 -4890.18 -4923.90 -4928.46 -4928.48 -4928.48 -4928.48 -4928.49 -4936.07 -4992.05 -4999.62 -4999.64 -4999.64 -4999.64 -4999.62 -4990.73 -4925.07 -4916.19 -4916.17 -4916.17 -4916.17 -4916.21 -4933.80 -5063.76 -5081.35 -5081.39 -5081.39 -5081.39 -5081.37 -5071.37 -4997.53 -4987.54 -4987.51 -4987.51 -4987.51 -4987.53 -4995.43 -5053.77 -5061.67 -5061.69 -5061.69 -5061.69 -5061.70 -5066.24 -5099.81 -5104.35 -5104.36 -5104.36 -5104.36 -5104.33 -5094.57 -5022.38 -5012.61 -5012.59 -5012.59 -5012.59 -5012.61 -5020.69 -5080.38 -5088.45 -5088.47 -5088.47 -5088.47 -5088.45 -5079.32 -5011.88 -5002.75 -5002.73 -5002.73 -5002.73 -5002.72 -5000.98 -4988.15 -4986.41 -4986.40 -4986.40 -4986.40 -4986.42 -4991.26 -5027.08 -5031.93 -5031.94 -5031.94 -5031.94 -5031.92 -5023.54 -4961.64 -4953.26 -4953.24 -4953.24 -4953.24 -4953.29 -4971.00 -5101.88 -5119.60 -5119.64 -5119.64 -5119.64 -5119.62 -5113.17 -5065.50 -5059.05 -5059.03 -5059.03 -5059.03 -5059.02 -5052.73 -5006.30 -5000.02 -5000.00 -5000.00 -5000.00 -5000.00 -5000.00 -5000.00
-4952.08 -4952.08 -4952.08 -4952.08 -4952.08 -4952.10 -4961.36 -5029.80 -5039.06 -5039.08 -5039.08 -5039.08 -5039.08 -5037.36 -5024.67 -5022.95 -5022.95 -5022.95 -5022.95 -5022.91 -5008.30 -4900.30 -4885.68 -4885.65 -4885.65 -4885.65 -4885.66 -4890.22 -4923.90 -4928.46 -4928.47 -4928.47 -4928.47 -4928.49 -4936.07 -4992.03 -4999.60 -4999.62 -4999.62 -4999.62 -4999.60 -4990.71 -4925.08 -4916.19 -4916.17 -4916.17 -4916.17 -4916.21 -4933.80 -5063.75 -5081.33 -5081.38 -5081.38 -5081.38 -5081.35 -5071.36 -4997.52 -4987.53 -4987.50 -4987.50 -4987.50 -4987.52 -4995.42 -5053.75 -5061.65 -5061.67 -5061.67 -5061.67 -5061.68 -5066.22 -5099.80 -5104.35 -5104.36 -5104.36 -5104.36 -5104.34 -5094.56 -5022.35 -5012.58 -5012.55 -5012.55 -5012.55 -5012.57 -5020.65 -5080.35 -5088.43 -5088.45 -5088.45 -5088.45 -5088.42 -5079.30 -5011.90 -5002.78 -5002.75 -5002.75 -5002.75 -5002.75 -5001.01 -4988.17 -4986.43 -4986.43 -4986.43 -4986.43 -4986.44 -4991.29 -5027.09 -5031.94 -5031.95 -5031.95 -5031.95 -5031.93 -5023.55 -4961.64 -4953.26 -4953.24 -4953.24 -4953.24 -4953.28 -4970.99 -5101.84 -5119.55 -5119.60 -5119.60 -5119.60 -5119.58 -5113.13 -5065.49 -5059.05 -5059.03 -5059.03 -5059.03 -5059.02 -5052.73 -5006.30 -5000.02 -5000.00 -5000.00 -5000.00 -5000.00 -5000.00 -5000.00
-4961.75 -4961.75 -4961.75 -4961.75 -4961.75 -4961.76 -4968.71 -5020.01 -5026.96 -5026.97 -5026.97 -5026.97 -5026.97 -5025.52 -5014.81 -5013.36 -5013.36 -5013.36 -5013.36 -5013.33 -5001.41 -4913.36 -4901.44 -4901.42 -4901.42 -4901.42 -4901.42 -4904.27 -4925.27 -4928.12 -4928.13 -4928.13 -4928.13 -4928.14 -4934.71 -4983.29 -4989.86 -4989.88 -4989.88 -4989.88 -4989.86 -4982.19 -4925.52 -4917.86 -4917.84 -4917.84 -4917.84 -4917.88 -4934.64 -5058.54 -5075.30 -5075.35 -5075.35 -5075.35 -5075.32 -5065.59 -4993.67 -4983.94 -4983.92 -4983.92 -4983.92 -4983.93 -4991.28 -5045.53 -5052.87 -5052.89 -5052.89 -5052.89 -5052.90 -5058.45 -5099.45 -5105.00 -5105.01 -5105.01 -5105.01 -5104.98 -5093.63 -5009.71 -4998.35 -4998.32 -4998.32 -4998.32 -4998.35 -5006.70 -5068.40 -5076.75 -5076.77 -5076.77 -5076.77 -5076.75 -5070.06 -5020.56 -5013.86 -5013.84 -5013.84 -5013.84 -5013.84 -5012.09 -4999.16 -4997.41 -4997.40 -4997.40 -4997.40 -4997.41 -5001.31 -5030.10 -5034.00 -5034.01 -5034.01 -5034.01 -5033.99 -5025.23 -4960.54 -4951.79 -4951.76 -4951.76 -4951.76 -4951.80 -4967.73 -5085.41 -5101.33 -5101.37 -5101.37 -5101.37 -5101.36 -5096.88 -5063.77 -5059.29 -5059.28 -5059.28 -5059.28 -5059.26 -5052.95 -5006.33 -5000.02 -5000.00 -5000.00 -5000.00 -5000.00 -5000.00 -5000.00
-5033.17 -5033.17 -5033.17 -5033.17 -5033.17 -5033.15 -5022.97 -4947.72 -4937.54 -4937.51 -4937.51 -4937.51 -4937.51 -4938.04 -4941.96 -4942.49 -4942.49 -4942.49 -4942.49 -4942.51 -4950.54 -5009.88 -5017.91 -5017.93 -5017.93 -5017.93 -5017.90 -5008.07 -4935.40 -4925.57 -4925.55 -4925.55 -4925.55 -4925.54 -4924.73 -4918.71 -4917.90 -4917.89 -4917.89 -4917.89 -4917.90 -4919.20 -4928.84 -4930.14 -4930.14 -4930.14 -4930.14 -4930.17 -4940.88 -5020.03 -5030.75 -5030.77 -5030.77 -5030.77 -5030.75 -5022.95 -4965.25 -4957.44 -4957.42 -4957.42 -4957.42 -4957.43 -4960.68 -4984.73 -4987.99 -4988.00 -4988.00 -4988.00 -4988.03 -5001.00 -5096.82 -5109.78 -5109.82 -5109.82 -5109.82 -5109.76 -5086.70 -4916.32 -4893.26 -4893.20 -4893.20 -4893.20 -4893.23 -4903.58 -4980.11 -4990.47 -4990.50 -4990.50 -4990.50 -4990.53 -5001.73 -5084.56 -5095.77 -5095.80 -5095.80 -5095.80 -5095.79 -5093.95 -5080.34 -5078.49 -5078.49 -5078.49 -5078.49 -5078.48 -5075.37 -5052.35 -5049.24 -5049.23 -5049.23 -5049.23 -5049.20 -5037.66 -4952.43 -4940.90 -4940.87 -4940.87 -4940.87 -4940.88 -4943.63 -4963.96 -4966.71 -4966.72 -4966.72 -4966.72 -4966.74 -4976.79 -5051.05 -5061.09 -5061.12 -5061.12 -5061.12 -5061.10 -5054.60 -5006.52 -5000.02 -5000.00 -5000.00 -5000.00 -5000.00 -5000.00 -5000.00
-5042.84 -5042.84 -5042.84 -5042.84 -5042.84 -5042.81 -5030.31 -4937.94 -4925.44 -4925.41 -4925.41 -4925.41 -4925.41 -4926.21 -4932.10 -4932.90 -4932.90 -4932.90 -4932.90 -4932.93 -4943.66 -5022.94 -5033.67 -5033.70 -5033.70 -5033.70 -5033.67 -5022.12 -4936.77 -4925.22 -4925.20 -4925.20 -4925.20 -4925.19 -4923.38 -4909.97 -4908.16 -4908.15 -4908.15 -4908.15 -4908.16 -4910.68 -4929.28 -4931.80 -4931.81 -4931.81 -4931.81 -4931.83 -4941.72 -5014.82 -5024.72 -5024.74 -5024.74 -5024.74 -5024.72 -5017.17 -4961.40 -4953.85 -4953.83 -4953.83 -4953.83 -4953.84 -4956.54 -4976.51 -4979.21 -4979.21 -4979.21 -4979.21 -4979.25 -4993.22 -5096.46 -5110.43 -5110.47 -5110.47 -5110.47 -5110.41 -5085.76 -4903.68 -4879.03 -4878.97 -4878.97 -4878.97 -4879.00 -4889.63 -4968.17 -4978.80 -4978.82 -4978.82 -4978.82 -4978.86 -4992.49 -5093.22 -5106.85 -5106.89 -5106.89 -5106.89 -5106.88 -5105.03 -5091.32 -5089.47 -5089.46 -5089.46 -5089.46 -5089.45 -5085.39 -5055.36 -5051.30 -5051.29 -5051.29 -5051.29 -5051.26 -5039.35 -4951.33 -4939.42 -4939.39 -4939.39 -4939.39 -4939.40 -4940.37 -4947.52 -4948.49 -4948.50 -4948.50 -4948.50 -4948.53 -4960.54 -5049.32 -5061.34 -5061.37 -5061.37 -5061.37 -5061.35 -5054.82 -5006.55 -5000.02 -5000.00 -5000.00 -5000.00 -5000.00 -5000.00 -5000.00
-5042.86 -5042.86 -5042.86 -5042.86 -5042.86 -5042.83 -5030.33 -4937.91 -4925.41 -4925.38 -4925.38 -4925.38 -4925.38 -4926.18 -4932.08 -4932.88 -4932.88 -4932.88 -4932.88 -4932.91 -4943.64 -5022.97 -5033.71 -5033.73 -5033.73 -5033.73 -5033.71 -5022.15 -4936.78 -4925.22 -4925.20 -4925.20 -4925.20 -4925.19 -4923.37 -4909.95 -4908.13 -4908.13 -4908.13 -4908.13 -4908.13 -4910.66 -4929.28 -4931.81 -4931.81 -4931.81 -4931.81 -4931.84 -4941.73 -5014.81 -5024.70 -5024.73 -5024.73 -5024.73 -5024.71 -5017.16 -4961.39 -4953.84 -4953.83 -4953.83 -4953.83 -4953.83 -4956.53 -4976.49 -4979.19 -4979.19 -4979.19 -4979.19 -4979.23 -4993.20 -5096.46 -5110.43 -5110.47 -5110.47 -5110.47 -5110.41 -5085.76 -4903.65 -4879.00 -4878.94 -4878.94 -4878.94 -4878.96 -4889.59 -4968.14 -4978.77 -4978.79 -4978.79 -4978.79 -4978.83 -4992.47 -5093.24 -5106.88 -5106.91 -5106.91 -5106.91 -5106.91 -5105.05 -5091.35 -5089.49 -5089.49 -5089.49 -5089.49 -5089.48 -5085.41 -5055.37 -5051.30 -5051.29 -5051.29 -5051.29 -5051.26 -5039.35 -4951.33 -4939.42 -4939.39 -4939.39 -4939.39 -4939.39 -4940.36 -4947.48 -4948.45 -4948.45 -4948.45 -4948.45 -4948.48 -4960.50 -5049.32 -5061.34 -5061.37 -5061.37 -5061.37 -5061.35 -5054.82 -5006.55 -5000.02 -5000.00 -5000.00 -5000.00 -5000.00 -5000.00 -5000.00
-5042.86 -5042.86 -5042.86 -5042.86 -5042.86 -5042.83 -5030.33 -4937.91 -4925.41 -4925.38 -4925.38 -4925.38 -4925.38 -4926.18 -4932.08 -4932.88 -4932.88 -4932.88 -4932.88 -4932.91 -4943.64 -5022.97 -5033.71 -5033.73 -5033.73 -5033.73 -5033.71 -5022.15 -4936.78 -4925.22 -4925.20 -4925.20 -4925.20 -4925.19 -4923.37 -4909.95 -4908.13 -4908.13 -4908.13 -4908.13 -4908.13 -4910.66 -4929.28 -4931.81 -4931.81 -4931.81 -4931.81 -4931.84 -4941.73 -5014.81 -5024.70 -5024.73 -5024.73 -5024.73 -5024.71 -5017.16 -4961.39 -4953.84 -4953.83 -4953.83 -4953.83 -4953.83 -4956.53 -4976.49 -4979.19 -4979.19 -4979.19 -4979.19 -4979.23 -4993.20 -5096.46 -5110.43 -5110.47 -5110.47 -5110.47 -5110.41 -5085.76 -4903.65 -4879.00 -4878.94 -4878.94 -4878.94 -4878.96 -4889.59 -4968.14 -4978.77 -4978.79 -4978.79 -4978.79 -4978.83 -4992.47 -5093.24 -5106.88 -5106.91 -5106.91 -5106.91 -5106.91 -5105.05 -5091.35 -5089.49 -5089.49 -5089.49 -5089.49 -5089.48 -5085.41 -5055.37 -5051.30 -5051.29 -5051.29 -5051.29 -5051.26 -5039.35 -4951.33 -4939.42 -4939.39 -4939.39 -4939.39 -4939.39 -4940.36 -4947.48 -4948.45 -4948.45 -4948.45 -4948.45 -4948.48 -4960.50 -5049.32 -5061.34 -5061.37 -5061.37 -5061.37 -5061.35 -5054.82 -5006.55 -5000.02 -5000.00 -5000.00 -5000.00 -5000.00 -5000.00 -5000.00
-5042.88 -5042.88 -5042.88 -5042.88 -5042.88 -5042.85 -5030.34 -4937.93 -4925.42 -4925.39 -4925.39 -4925.39 -4925.39 -4926.19 -4932.07 -4932.87 -4932.87 -4932.87 -4932.87 -4932.90 -4943.64 -5022.98 -5033.72 -5033.75 -5033.75 -5033.75 -5033.72 -5022.16 -4936.77 -4925.22 -4925.19 -4925.19 -4925.19 -4925.19 -4923.37 -4909.99 -4908.18 -4908.18 -4908.18 -4908.18 -4908.18 -4910.70 -4929.28 -4931.80 -4931.80 -4931.80 -4931.80 -4931.83 -4941.71 -5014.78 -5024.67 -5024.69 -5024.69 -5024.69 -5024.67 -5017.13 -4961.42 -4953.88 -4953.86 -4953.86 -4953.86 -4953.86 -4956.56 -4976.50 -4979.20 -4979.20 -4979.20 -4979.20 -4979.24 -4993.21 -5096.44 -5110.41 -5110.44 -5110.44 -5110.44 -5110.38 -5085.74 -4903.66 -4879.01 -4878.95 -4878.95 -4878.95 -4878.98 -4889.59 -4967.99 -4978.61 -4978.63 -4978.63 -4978.63 -4978.67 -4992.32 -5093.19 -5106.84 -5106.87 -5106.87 -5106.87 -5106.87 -5105.01 -5091.33 -5089.48 -5089.47 -5089.47 -5089.47 -5089.46 -5085.40 -5055.37 -5051.31 -5051.30 -5051.30 -5051.30 -5051.27 -5039.36 -4951.37 -4939.46 -4939.43 -4939.43 -4939.43 -4939.43 -4940.39 -4947.49 -4948.45 -4948.45 -4948.45 -4948.45 -4948.48 -4960.50 -5049.33 -5061.35 -5061.38 -5061.38 -5061.38 -5061.37 -5054.83 -5006.55 -5000.02 -5000.00 -5000.00 -5000.00 -5000.00 -5000.00 -5000.00
-5049.78 -5049.78 -5049.78 -5049.78 -5049.78 -5049.75 -5037.05 -4943.26 -4930.57 -4930.53 -4930.53 -4930.53 -4930.53 -4930.55 -4930.71 -4930.73 -4930.73 -4930.73 -4930.73 -4930.76 -4942.24 -5027.05 -5038.52 -5038.55 -5038.55 -5038.55 -5038.52 -5026.23 -4935.41 -4923.12 -4923.09 -4923.09 -4923.09 -4923.09 -4923.59 -4927.30 -4927.80 -4927.80 -4927.80 -4927.80 -4927.80 -4927.78 -4927.65 -4927.64 -4927.64 -4927.64 -4927.64 -4927.66 -4936.51 -5001.95 -5010.80 -5010.82 -5010.82 -5010.82 -5010.81 -5006.09 -4971.22 -4966.50 -4966.49 -4966.49 -4966.49 -4966.50 -4968.30 -4981.67 -4983.48 -4983.49 -4983.49 -4983.49 -4983.52 -4995.97 -5087.93 -5100.38 -5100.41 -5100.41 -5100.41 -5100.35 -5077.37 -4907.50 -4884.51 -4884.46 -4884.46 -4884.46 -4884.46 -4887.58 -4910.57 -4913.69 -4913.69 -4913.69 -4913.69 -4913.74 -4932.46 -5070.79 -5089.51 -5089.56 -5089.56 -5089.56 -5089.55 -5088.73 -5082.64 -5081.82 -5081.82 -5081.82 -5081.82 -5081.81 -5078.91 -5057.45 -5054.55 -5054.54 -5054.54 -5054.54 -5054.52 -5043.87 -4965.23 -4954.58 -4954.56 -4954.56 -4954.56 -4954.55 -4953.79 -4948.12 -4947.35 -4947.35 -4947.35 -4947.35 -4947.38 -4960.10 -5054.10 -5066.82 -5066.85 -5066.85 -5066.85 -5066.83 -5059.72 -5007.13 -5000.02 -5000.00 -5000.00 -5000.00 -5000.00 -5000.00 -5000.00
-5100.74 -5100.74 -5100.74 -5100.74 -5100.74 -5100.70 -5086.63 -4982.66 -4968.59 -4968.55 -4968.55 -4968.55 -4968.54 -4962.83 -4920.62 -4914.91 -4914.89 -4914.89 -4914.89 -4914.94 -4931.88 -5057.09 -5074.03 -5074.07 -5074.07 -5074.07 -5074.03 -5056.30 -4925.33 -4907.60 -4907.56 -4907.56 -4907.56 -4907.60 -4925.19 -5055.18 -5072.78 -5072.82 -5072.82 -5072.82 -5072.77 -5054.04 -4915.64 -4896.90 -4896.86 -4896.86 -4896.86 -4896.86 -4898.09 -4907.13 -4908.36 -4908.36 -4908.36 -4908.36 -4908.40 -4924.53 -5043.68 -5059.81 -5059.85 -5059.85 -5059.85 -5059.84 -5055.08 -5019.92 -5015.16 -5015.15 -5015.15 -5015.15 -5015.15 -5016.34 -5025.09 -5026.28 -5026.28 -5026.28 -5026.28 -5026.26 -5015.49 -4935.92 -4925.15 -4925.12 -4925.12 -4925.12 -4924.99 -4872.70 -4486.29 -4433.99 -4433.86 -4433.86 -4433.86 -4434.00 -4490.18 -4905.29 -4961.47 -4961.61 -4961.61 -4961.61 -4961.63 -4968.40 -5018.47 -5025.24 -5025.26 -5025.26 -5025.26 -5025.27 -5030.94 -5072.82 -5078.48 -5078.50 -5078.50 -5078.50 -5078.49 -5077.20 -5067.63 -5066.34 -5066.33 -5066.33 -5066.33 -5066.30 -5052.77 -4952.80 -4939.27 -4939.23 -4939.23 -4939.23 -4939.28 -4957.16 -5089.32 -5107.20 -5107.24 -5107.24 -5107.24 -5107.22 -5095.80 -5011.44 -5000.03 -5000.00 -5000.00 -5000.00 -5000.00 -5000.00 -5000.00
-5107.63 -5107.63 -5107.63 -5107.63 -5107.63 -5107.60 -5093.34 -4987.99 -4973.73 -4973.70 -4973.70 -4973.70 -4973.68 -4967.19 -4919.25 -4912.77 -4912.75 -4912.75 -4912.75 -4912.79 -4930.48 -5061.15 -5078.84 -5078.88 -5078.88 -5078.88 -5078.83 -5060.37 -4923.96 -4905.50 -4905.46 -4905.46 -4905.46 -4905.50 -4925.41 -5072.49 -5092.40 -5092.45 -5092.45 -5092.45 -5092.39 -5071.13 -4914.01 -4892.75 -4892.69 -4892.69 -4892.69 -4892.69 -4892.88 -4894.30 -4894.50 -4894.50 -4894.50 -4894.50 -4894.54 -4913.49 -5053.49 -5072.44 -5072.48 -5072.48 -5072.48 -5072.47 -5066.82 -5025.10 -5019.45 -5019.44 -5019.44 -5019.44 -5019.44 -5019.10 -5016.59 -5016.25 -5016.25 -5016.25 -5016.25 -5016.23 -5007.11 -4939.76 -4930.65 -4930.62 -4930.62 -4930.62 -4930.48 -4870.68 -4428.87 -4369.07 -4368.93 -4368.93 -4368.93 -4369.08 -4430.33 -4882.90 -4944.14 -4944.30 -4944.30 -4944.30 -4944.32 -4952.12 -5009.78 -5017.59 -5017.61 -5017.61 -5017.61 -5017.62 -5024.45 -5074.89 -5081.72 -5081.74 -5081.74 -5081.74 -5081.74 -5081.71 -5081.49 -5081.46 -5081.46 -5081.46 -5081.46 -5081.42 -5066.17 -4953.43 -4938.17 -4938.13 -4938.13 -4938.13 -4938.18 -4956.76 -5094.08 -5112.67 -5112.71 -5112.71 -5112.71 -5112.68 -5100.68 -5012.03 -5000.03 -5000.00 -5000.00 -5000.00 -5000.00 -5000.00 -5000.00
-5107.65 -5107.65 -5107.65 -5107.65 -5107.65 -5107.61 -5093.36 -4988.00 -4973.75 -4973.71 -4973.71 -4973.71 -4973.69 -4967.20 -4919.25 -4912.76 -4912.74 -4912.74 -4912.74 -4912.79 -4930.48 -5061.16 -5078.85 -5078.89 -5078.89 -5078.89 -5078.85 -5060.38 -4923.96 -4905.50 -4905.45 -4905.45 -4905.45 -4905.50 -4925.41 -5072.53 -5092.44 -5092.49 -5092.49 -5092.49 -5092.44 -5071.17 -4914.01 -4892.73 -4892.68 -4892.68 -4892.68 -4892.68 -4892.87 -4894.27 -4894.46 -4894.46 -4894.46 -4894.46 -4894.51 -4913.46 -5053.51 -5072.47 -5072.51 -5072.51 -5072.51 -5072.50 -5066.85 -5025.11 -5019.46 -5019.45 -5019.45 -5019.45 -5019.45 -5019.10 -5016.57 -5016.23 -5016.23 -5016.23 -5016.23 -5016.20 -5007.09 -4939.77 -4930.66 -4930.64 -4930.64 -4930.64 -4930.49 -4870.68 -4428.73 -4368.91 -4368.76 -4368.70 -4368.23 -4368.29 -4429.66 -4882.78 -4944.10 -4944.25 -4944.25 -4944.25 -4944.27 -4952.08 -5009.76 -5017.57 -5017.59 -5017.59 -5017.59 -5017.60 -5024.43 -5074.90 -5081.73 -5081.75 -5081.75 -5081.75 -5081.75 -5081.72 -5081.53 -5081.50 -5081.50 -5081.50 -5081.50 -5081.46 -5066.20 -4953.43 -4938.17 -4938.13 -4938.13 -4938.13 -4938.18 -4956.76 -5094.09 -5112.68 -5112.73 -5112.73 -5112.73 -5112.70 -5100.70 -5012.03 -5000.03 -5000.00 -5000.00 -5000.00 -5000.00 -5000.00 -5000.00
-5107.65 -5107.65 -5107.65 -5107.65 -5107.65 -5107.61 -5093.36 -4988.00 -4973.75 -4973.71 -4973.71 -4973.71 -4973.69 -4967.20 -4919.25 -4912.76 -4912.74 -4912.74 -4912.74 -4912.79 -4930.48 -5061.16 -5078.85 -5078.89 -5078.89 -5078.89 -5078.85 -5060.38 -4923.96 -4905.50 -4905.45 -4905.45 -4905.45 -4905.50 -4925.41 -5072.53 -5092.44 -5092.49 -5092.49 -5092.49 -5092.44 -5071.17 -4914.01 -4892.73 -4892.68 -4892.68 -4892.68 -4892.68 -4892.87 -4894.27 -4894.46 -4894.46 -4894.46 -4894.46 -4894.51 -4913.46 -5053.51 -5072.47 -5072.51 -5072.51 -5072.51 -5072.50 -5066.85 -5025.11 -5019.46 -5019.45 -5019.45 -5019.45 -5019.45 -5019.10 -5016.57 -5016.23 -5016.23 -5016.23 -5016.23 -5016.20 -5007.09 -4939.77 -4930.66 -4930.64 -4930.64 -4930.64 -4930.49 -4870.68 -4428.73 -4368.91 -4368.70 -4342.87 -4150.56 -4116.73 -4222.01 -4858.31 -4944.04 -4944.25 -4944.25 -4944.25 -4944.27 -4952.08 -5009.76 -5017.57 -5017.59 -5017.59 -5017.59 -5017.60 -5024.43 -5074.90 -5081.73 -5081.75 -5081.75 -5081.75 -5081.75 -5081.72 -5081.53 -5081.50 -5081.50 -5081.50 -5081.50 -5081.46 -5066.20 -4953.43 -4938.17 -4938.13 -4938.13 -4938.13 -4938.18 -4956.76 -5094.09 -5112.68 -5112.73 -5112.73 -5112.73 -5112.70 -5100.70 -5012.03 -5000.03 -5000.00 -5000.00 -5000.00 -5000.00 -5000.00 -5000.00
-5107.63 -5107.63 -5107.63 -5107.63 -5107.63 -5107.59 -5093.34 -4988.01 -4973.76 -4973.72 -4973.72 -4973.72 -4973.71 -4967.22 -4919.30 -4912.81 -4912.79 -4912.79 -4912.79 -4912.84 -4930.52 -5061.14 -5078.82 -5078.86 -5078.86 -5078.86 -5078.82 -5060.36 -4923.97 -4905.52 -4905.47 -4905.47 -4905.47 -4905.52 -4925.43 -5072.54 -5092.45 -5092.50 -5092.50 -5092.50 -5092.44 -5071.17 -4914.01 -4892.75 -4892.69 -4892.69 -4892.69 -4892.69 -4892.89 -4894.32 -4894.51 -4894.51 -4894.51 -4894.51 -4894.56 -4913.50 -5053.51 -5072.46 -5072.51 -5072.51 -5072.51 -5072.49 -5066.85 -5025.11 -5019.47 -5019.45 -5019.45 -5019.45 -5019.45 -5019.11 -5016.56 -5016.21 -5016.21 -5016.21 -5016.21 -5016.19 -5007.08 -4939.80 -4930.69 -4930.67 -4930.67 -4930.67 -4930.52 -4870.66 -4428.36 -4368.50 -4367.74 -4148.74 -2523.54 -2246.59 -2664.44 -4673.84 -4943.40 -4944.14 -4944.14 -4944.14 -4944.16 -4951.98 -5009.77 -5017.59 -5017.61 -5017.61 -5017.61 -5017.63 -5024.46 -5074.90 -5081.72 -5081.74 -5081.74 -5081.74 -5081.74 -5081.71 -5081.51 -5081.49 -5081.49 -5081.49 -5081.49 -5081.45 -5066.19 -4953.43 -4938.17 -4938.13 -4938.13 -4938.13 -4938.18 -4956.76 -5094.09 -5112.68 -5112.72 -5112.72 -5112.72 -5112.69 -5100.69 -5012.03 -5000.03 -5000.00 -5000.00 -5000.00 -5000.00 -5000.00 -5000.00
-5099.71 -5099.71 -5099.71 -5099.71 -5099.71 -5099.67 -5086.76 -4991.37 -4978.46 -4978.43 -4978.43 -4978.43 -4978.42 -4973.56 -4937.67 -4932.82 -4932.80 -4932.80 -4932.80 -4932.84 -4947.16 -5052.94 -5067.26 -5067.30 -5067.30 -5067.30 -5067.26 -5050.91 -4930.09 -4913.74 -4913.70 -4913.70 -4913.70 -4913.75 -4932.83 -5073.79 -5092.86 -5092.91 -5092.91 -5092.91 -5092.86 -5072.02 -4918.02 -4897.18 -4897.13 -4897.13 -4897.13 -4897.13 -4898.93 -4912.20 -4914.00 -4914.00 -4914.00 -4914.00 -4914.04 -4930.69 -5053.67 -5070.31 -5070.35 -5070.35 -5070.35 -5070.34 -5065.14 -5026.71 -5021.51 -5021.49 -5021.49 -5021.49 -5021.49 -5020.39 -5012.28 -5011.18 -5011.18 -5011.18 -5011.18 -5011.16 -5003.93 -4950.47 -4943.23 -4943.21 -4943.21 -4943.21 -4943.02 -4864.13 -4281.24 -4202.22 -4172.89 -3727.05 -1937.97 -1726.53 -2096.34 -4361.34 -4868.39 -4896.94 -4897.01 -4897.01 -4897.05 -4910.95 -5013.69 -5027.60 -5027.63 -5027.63 -5027.63 -5027.64 -5033.13 -5073.63 -5079.11 -5079.13 -5079.13 -5079.13 -5079.12 -5078.79 -5076.31 -5075.97 -5075.97 -5075.97 -5075.97 -5075.94 -5061.28 -4953.02 -4938.37 -4938.33 -4938.33 -4938.33 -4938.38 -4956.87 -5093.49 -5111.98 -5112.02 -5112.02 -5112.02 -5111.99 -5100.07 -5011.95 -5000.03 -5000.00 -5000.00 -5000.00 -5000.00 -5000.00 -5000.00
-5041.16 -5041.16 -5041.16 -5041.16 -5041.16 -5041.16 -5038.18 -5016.18 -5013.20 -5013.19 -5013.19 -5013.19 -5013.21 -5020.39 -5073.46 -5080.65 -5080.66 -5080.66 -5080.66 -5080.64 -5070.12 -4992.37 -4981.85 -4981.82 -4981.82 -4981.82 -4981.82 -4981.05 -4975.31 -4974.53 -4974.53 -4974.53 -4974.53 -4974.56 -4987.49 -5083.02 -5095.95 -5095.98 -5095.98 -5095.98 -5095.94 -5078.26 -4947.63 -4929.95 -4929.90 -4929.90 -4929.90 -4929.94 -4943.58 -5044.37 -5058.01 -5058.04 -5058.04 -5058.04 -5058.04 -5057.66 -5054.81 -5054.43 -5054.43 -5054.43 -5054.43 -5054.42 -5052.52 -5038.48 -5036.58 -5036.58 -5036.58 -5036.58 -5036.56 -5029.90 -4980.66 -4974.00 -4973.98 -4973.98 -4973.98 -4974.00 -4980.59 -5029.29 -5035.89 -5035.90 -5035.90 -5035.90 -5035.36 -4815.89 -3194.13 -2946.34 -2531.36 -894.93 -227.22 -343.46 -669.45 -2391.62 -4314.01 -4548.15 -4548.80 -4548.80 -4548.95 -4607.80 -5042.66 -5101.51 -5101.66 -5101.66 -5101.66 -5101.65 -5097.19 -5064.27 -5059.81 -5059.80 -5059.80 -5059.80 -5059.80 -5057.18 -5037.85 -5035.24 -5035.23 -5035.23 -5035.23 -5035.21 -5025.05 -4949.99 -4939.83 -4939.81 -4939.81 -4939.81 -4939.85 -4957.63 -5089.02 -5106.80 -5106.84 -5106.84 -5106.84 -5106.81 -5095.44 -5011.40 -5000.03 -5000.00 -5000.00 -5000.00 -5000.00 -5000.00 -5000.00
-5033.24 -5033.24 -5033.24 -5033.24 -5033.24 -5033.24 -5031.60 -5019.53 -5017.90 -5017.90 -5017.90 -5017.90 -5017.92 -5026.73 -5091.84 -5100.65 -5100.68 -5100.68 -5100.68 -5100.64 -5086.76 -4984.17 -4970.29 -4970.26 -4970.26 -4970.26 -4970.26 -4971.59 -4981.43 -4982.76 -4982.76 -4982.76 -4982.76 -4982.79 -4994.89 -5084.27 -5096.36 -5096.39 -5096.39 -5096.39 -5096.35 -5079.10 -4951.63 -4934.38 -4934.34 -4934.34 -4934.34 -4934.38 -4949.62 -5062.26 -5077.50 -5077.54 -5077.54 -5077.54 -5077.53 -5074.84 -5054.97 -5052.28 -5052.27 -5052.27 -5052.27 -5052.27 -5050.82 -5040.08 -5038.62 -5038.62 -5038.62 -5038.62 -5038.60 -5031.18 -4976.38 -4968.96 -4968.95 -4968.95 -4968.95 -4968.97 -4977.43 -5039.96 -5048.43 -5048.45 -5048.45 -5048.45 -5047.86 -4809.36 -3046.51 -2575.43 -813.91 -250.54 -129.89 -205.13 -423.20 -2054.15 -4029.31 -4473.22 -4501.61 -4501.67 -4501.84 -4566.77 -5046.58 -5111.52 -5111.68 -5111.68 -5111.68 -5111.66 -5105.86 -5063.00 -5057.20 -5057.19 -5057.19 -5057.19 -5057.18 -5054.26 -5032.65 -5029.73 -5029.72 -5029.72 -5029.72 -5029.70 -5020.15 -4949.58 -4940.03 -4940.01 -4940.01 -4940.01 -4940.05 -4957.74 -5088.41 -5106.10 -5106.14 -5106.14 -5106.14 -5106.11 -5094.82 -5011.33 -5000.03 -5000.00 -5000.00 -5000.00 -5000.00 -5000.00 -5000.00
-5033.22 -5033.22 -5033.22 -5033.22 -5033.22 -5033.22 -5031.59 -5019.54 -5017.91 -5017.91 -5017.91 -5017.91 -5017.93 -5026.75 -5091.89 -5100.70 -5100.73 -5100.73 -5100.73 -5100.69 -5086.80 -4984.15 -4970.26 -4970.23 -4970.23 -4970.23 -4970.23 -4971.57 -4981.44 -4982.78 -4982.78 -4982.78 -4982.78 -4982.81 -4994.91 -5084.27 -5096.37 -5096.40 -5096.40 -5096.40 -5096.35 -5079.10 -4951.64 -4934.39 -4934.35 -4934.35 -4934.35 -4934.39 -4949.63 -5062.30 -5077.55 -5077.59 -5077.59 -5077.59 -5077.58 -5074.88 -5054.97 -5052.27 -5052.27 -5052.27 -5052.27 -5052.26 -5050.81 -5040.08 -5038.63 -5038.62 -5038.62 -5038.62 -5038.61 -5031.19 -4976.37 -4968.95 -4968.93 -4968.93 -4968.93 -4968.95 -4977.42 -5039.99 -5048.46 -5048.48 -5048.48 -5048.48 -5047.89 -4809.34 -3046.08 -2549.57 -622.01 -180.21 35.81 -5.60 -333.75 -1744.43 -2501.57 -4268.12 -4500.98 -4501.56 -4501.72 -4566.67 -5046.59 -5111.54 -5111.70 -5111.70 -5111.70 -5111.69 -5105.88 -5063.00 -5057.20 -5057.18 -5057.18 -5057.18 -5057.17 -5054.25 -5032.64 -5029.71 -5029.71 -5029.71 -5029.71 -5029.68 -5020.13 -4949.58 -4940.03 -4940.01 -4940.01 -4940.01 -4940.05 -4957.74 -5088.41 -5106.10 -5106.14 -5106.14 -5106.14 -5106.11 -5094.81 -5011.33 -5000.03 -5000.00 -5000.00 -5000.00 -5000.00 -5000.00 -5000.00
-5033.22 -5033.22 -5033.22 -5033.22 -5033.22 -5033.22 -5031.59 -5019.54 -5017.91 -5017.91 -5017.91 -5017.91 -5017.93 -5026.75 -5091.89 -5100.70 -5100.73 -5100.73 -5100.73 -5100.69 -5086.80 -4984.15 -4970.26 -4970.23 -4970.23 -4970.23 -4970.23 -4971.57 -4981.44 -4982.78 -4982.78 -4982.78 -4982.78 -4982.81 -4994.91 -5084.27 -5096.37 -5096.40 -5096.40 -5096.40 -5096.35 -5079.10 -4951.64 -4934.39 -4934.35 -4934.35 -4934.35 -4934.39 -4949.63 -5062.30 -5077.55 -5077.59 -5077.59 -5077.59 -5077.58 -5074.88 -5054.97 -5052.27 -5052.27 -5052.27 -5052.27 -5052.26 -5050.81 -5040.08 -5038.63 -5038.62 -5038.62 -5038.62 -5038.61 -5031.19 -4976.37 -4968.95 -4968.93 -4968.93 -4968.93 -4968.95 -4977.42 -5039.99 -5048.46 -5048.48 -5048.48 -5048.48 -5047.89 -4809.34 -3046.02 -2553.06 -631.35 -33.05 66.66 113.42 -328.76 -1701.47 -2289.55 -4239.29 -4500.85 -4501.56 -4501.72 -4566.67 -5046.59 -5111.54 -5111.70 -5111.70 -5111.70 -5111.69 -5105.88 -5063.00 -5057.20 -5057.18 -5057.18 -5057.18 -5057.17 -5054.25 -5032.64 -5029.71 -5029.71 -5029.71 -5029.71 -5029.68 -5020.13 -4949.58 -4940.03 -4940.01 -4940.01 -4940.01 -4940.05 -4957.74 -5088.41 -5106.10 -5106.14 -5106.14 -5106.14 -5106.11 -5094.81 -5011.33 -5000.03 -5000.00 -5000.00 -5000.00 -5000.00 -5000.00 -5000.00
-5033.24 -5033.24 -5033.24 -5033.24 -5033.24 -5033.23 -5031.60 -5019.53 -5017.89 -5017.89 -5017.89 -5017.89 -5017.91 -5026.72 -5091.84 -5100.65 -5100.67 -5100.67 -5100.67 -5100.64 -5086.75 -4984.14 -4970.26 -4970.22 -4970.22 -4970.22 -4970.23 -4971.56 -4981.43 -4982.77 -4982.77 -4982.77 -4982.77 -4982.80 -4994.89 -5084.25 -5096.34 -5096.37 -5096.37 -5096.37 -5096.33 -5079.08 -4951.64 -4934.40 -4934.35 -4934.35 -4934.35 -4934.39 -4949.64 -5062.30 -5077.55 -5077.59 -5077.59 -5077.59 -5077.58 -5074.89 -5054.98 -5052.28 -5052.27 -5052.27 -5052.27 -5052.27 -5050.82 -5040.09 -5038.64 -5038.63 -5038.63 -5038.63 -5038.62 -5031.20 -4976.37 -4968.95 -4968.93 -4968.93 -4968.93 -4968.95 -4977.39 -5039.73 -5048.17 -5048.19 -5048.19 -5048.19 -5047.60 -4808.95 -3017.22 -2332.56 -516.59 -53.54 -78.22 -158.40 -349.75 -1691.02 -2261.42 -4061.41 -4476.63 -4501.27 -4501.49 -4566.46 -5046.52 -5111.49 -5111.65 -5111.65 -5111.65 -5111.63 -5105.83 -5062.97 -5057.17 -5057.15 -5057.15 -5057.15 -5057.15 -5054.22 -5032.62 -5029.69 -5029.69 -5029.69 -5029.69 -5029.66 -5020.12 -4949.58 -4940.03 -4940.01 -4940.01 -4940.01 -4940.05 -4957.73 -5088.38 -5106.06 -5106.10 -5106.10 -5106.10 -5106.08 -5094.78 -5011.32 -5000.03 -5000.00 -5000.00 -5000.00 -5000.00 -5000.00 -5000.00
-5039.12 -5039.12 -5039.12 -5039.12 -5039.12 -5039.11 -5036.11 -5013.89 -5010.89 -5010.88 -5010.88 -5010.88 -5010.90 -5018.06 -5071.03 -5078.20 -5078.22 -5078.22 -5078.22 -5078.19 -5066.42 -4979.43 -4967.66 -4967.63 -4967.63 -4967.63 -4967.63 -4968.70 -4976.56 -4977.62 -4977.62 -4977.62 -4977.62 -4977.65 -4989.29 -5075.32 -5086.97 -5087.00 -5087.00 -5087.00 -5086.96 -5070.91 -4952.38 -4936.34 -4936.30 -4936.30 -4936.30 -4936.34 -4951.50 -5063.49 -5078.64 -5078.68 -5078.68 -5078.68 -5078.67 -5076.22 -5058.06 -5055.60 -5055.60 -5055.60 -5055.60 -5055.60 -5054.20 -5043.92 -5042.53 -5042.53 -5042.53 -5042.53 -5042.51 -5034.52 -4975.46 -4967.47 -4967.45 -4967.45 -4967.45 -4967.44 -4963.82 -4937.06 -4933.44 -4933.43 -4933.43 -4933.43 -4932.80 -4676.79 -2578.17 -732.22 -265.94 -178.37 -257.86 -282.46 -440.65 -1723.85 -1978.82 -2630.15 -4202.76 -4407.61 -4408.30 -4480.84 -5016.86 -5089.40 -5089.58 -5089.58 -5089.58 -5089.57 -5084.99 -5051.14 -5046.56 -5046.55 -5046.55 -5046.55 -5046.54 -5043.88 -5024.22 -5021.56 -5021.55 -5021.55 -5021.55 -5021.53 -5012.92 -4949.30 -4940.69 -4940.67 -4940.67 -4940.67 -4940.71 -4956.75 -5075.26 -5091.30 -5091.34 -5091.34 -5091.34 -5091.31 -5081.59 -5009.75 -5000.02 -5000.00 -5000.00 -5000.00 -5000.00 -5000.00 -5000.00
-5082.59 -5082.59 -5082.59 -5082.59 -5082.59 -5082.56 -5069.41 -4972.25 -4959.10 -4959.06 -4959.06 -4959.06 -4959.05 -4954.08 -4917.32 -4912.34 -4912.33 -4912.33 -4912.33 -4912.34 -4916.19 -4944.63 -4948.48 -4948.49 -4948.49 -4948.49 -4948.49 -4947.54 -4940.52 -4939.57 -4939.57 -4939.57 -4939.57 -4939.59 -4947.91 -5009.38 -5017.70 -5017.72 -5017.72 -5017.72 -5017.70 -5010.56 -4957.84 -4950.71 -4950.69 -4950.69 -4950.69 -4950.73 -4965.21 -5072.22 -5086.70 -5086.74 -5086.74 -5086.74 -5086.74 -5086.04 -5080.86 -5080.16 -5080.16 -5080.16 -5080.16 -5080.16 -5079.22 -5072.26 -5071.32 -5071.32 -5071.32 -5071.32 -5071.29 -5059.07 -4968.76 -4956.54 -4956.51 -4956.51 -4956.51 -4956.28 -4863.56 -4178.41 -4085.68 -4085.45 -4085.45 -4085.45 -4084.50 -3701.18 -823.41 -91.64 6.51 1.56 -46.61 -48.11 -141.84 -1101.96 -1236.97 -1571.92 -3464.15 -3718.78 -3719.73 -3848.23 -4797.73 -4926.23 -4926.55 -4926.55 -4926.55 -4926.56 -4930.99 -4963.74 -4968.17 -4968.18 -4968.18 -4968.18 -4968.18 -4967.46 -4962.17 -4961.46 -4961.46 -4961.46 -4961.46 -4961.45 -4959.76 -4947.25 -4945.55 -4945.55 -4945.55 -4945.55 -4945.56 -4949.46 -4978.31 -4982.21 -4982.22 -4982.22 -4982.22 -4982.22 -4984.12 -4998.10 -5000.00 -5000.00 -5000.00 -5000.00 -5000.00 -5000.00 -5000.00
-5088.48 -5088.48 -5088.48 -5088.48 -5088.48 -5088.44 -5073.92 -4966.61 -4952.09 -4952.05 -4952.05 -4952.05 -4952.04 -4945.42 -4896.51 -4889.89 -4889.88 -4889.88 -4889.88 -4889.89 -4895.86 -4939.92 -4945.88 -4945.90 -4945.90 -4945.90 -4945.90 -4944.67 -4935.64 -4934.42 -4934.42 -4934.42 -4934.42 -4934.44 -4942.31 -5000.45 -5008.32 -5008.34 -5008.34 -5008.34 -5008.33 -5002.40 -4958.58 -4952.65 -4952.64 -4952.64 -4952.64 -4952.68 -4967.07 -5073.40 -5087.80 -5087.83 -5087.83 -5087.83 -5087.83 -5087.37 -5083.95 -5083.48 -5083.48 -5083.48 -5083.48 -5083.48 -5082.60 -5076.10 -5075.21 -5075.21 -5075.21 -5075.21 -5075.18 -5062.39 -4967.86 -4955.07 -4955.03 -4955.03 -4955.03 -4954.77 -4849.99 -4075.73 -3970.95 -3970.69 -3970.69 -3970.69 -3969.65 -3548.32 -430.16 28.71 33.50 19.76 -2.10 7.76 -98.20 -1012.56 -1135.23 -1430.77 -3364.49 -3625.56 -3626.55 -3762.62 -4768.08 -4904.15 -4904.49 -4904.49 -4904.49 -4904.50 -4910.15 -4951.91 -4957.56 -4957.57 -4957.57 -4957.57 -4957.57 -4957.12 -4953.78 -4953.32 -4953.32 -4953.32 -4953.32 -4953.32 -4952.56 -4946.97 -4946.21 -4946.21 -4946.21 -4946.21 -4946.22 -4948.48 -4965.19 -4967.45 -4967.45 -4967.45 -4967.45 -4967.46 -4970.93 -4996.53 -4999.99 -5000.00 -5000.00 -5000.00 -5000.00 -5000.00 -5000.00
-5088.49 -5088.49 -5088.49 -5088.49 -5088.49 -5088.46 -5073.93 -4966.60 -4952.07 -4952.03 -4952.03 -4952.03 -4952.02 -4945.40 -4896.46 -4889.84 -4889.82 -4889.82 -4889.82 -4889.84 -4895.81 -4939.91 -4945.88 -4945.89 -4945.89 -4945.89 -4945.89 -4944.67 -4935.63 -4934.41 -4934.40 -4934.40 -4934.40 -4934.42 -4942.29 -5000.43 -5008.30 -5008.32 -5008.32 -5008.32 -5008.30 -5002.38 -4958.59 -4952.66 -4952.64 -4952.64 -4952.64 -4952.68 -4967.07 -5073.41 -5087.80 -5087.83 -5087.83 -5087.83 -5087.83 -5087.37 -5083.95 -5083.49 -5083.49 -5083.49 -5083.49 -5083.49 -5082.61 -5076.10 -5075.22 -5075.22 -5075.22 -5075.22 -5075.19 -5062.40 -4967.86 -4955.06 -4955.03 -4955.03 -4955.03 -4954.77 -4849.96 -4075.48 -3970.67 -3970.41 -3970.41 -3970.41 -3969.29 -3546.58 -419.65 51.82 22.11 8.33 -0.02 16.38 -95.22 -1014.98 -1147.39 -1421.28 -3362.76 -3625.33 -3626.31 -3762.41 -4768.00 -4904.09 -4904.43 -4904.43 -4904.43 -4904.45 -4910.10 -4951.88 -4957.53 -4957.55 -4957.55 -4957.55 -4957.55 -4957.10 -4953.76 -4953.30 -4953.30 -4953.30 -4953.30 -4953.30 -4952.55 -4946.97 -4946.21 -4946.21 -4946.21 -4946.21 -4946.22 -4948.47 -4965.15 -4967.41 -4967.42 -4967.42 -4967.42 -4967.42 -4970.89 -4996.52 -4999.99 -5000.00 -5000.00 -5000.00 -5000.00 -5000.00 -5000.00
-5088.49 -5088.49 -5088.49 -5088.49 -5088.49 -5088.46 -5073.93 -4966.60 -4952.07 -4952.03 -4952.03 -4952.03 -4952.02 -4945.40 -4896.46 -4889.84 -4889.82 -4889.82 -4889.82 -4889.84 -4895.81 -4939.91 -4945.88 -4945.89 -4945.89 -4945.89 -4945.89 -4944.67 -4935.63 -4934.41 -4934.40 -4934.40 -4934.40 -4934.42 -4942.29 -5000.43 -5008.30 -5008.32 -5008.32 -5008.32 -5008.30 -5002.38 -4958.59 -4952.66 -4952.64 -4952.64 -4952.64 -4952.68 -4967.07 -5073.41 -5087.80 -5087.83 -5087.83 -5087.83 -5087.83 -5087.37 -5083.95 -5083.49 -5083.49 -5083.49 -5083.49 -5083.49 -5082.61 -5076.10 -5075.22 -5075.22 -5075.22 -5075.22 -5075.19 -5062.40 -4967.86 -4955.06 -4955.03 -4955.03 -4955.03 -4954.77 -4849.96 -4075.48 -3970.67 -3970.41 -3970.34 -3969.77 -3940.89 -3343.73 -417.30 21.78 26.20 14.88 17.90 43.64 -84.49 -1024.38 -1160.76 -1451.38 -3366.12 -3624.69 -3625.74 -3762.34 -4768.00 -4904.09 -4904.43 -4904.43 -4904.43 -4904.45 -4910.10 -4951.88 -4957.53 -4957.55 -4957.55 -4957.55 -4957.55 -4957.10 -4953.76 -4953.30 -4953.30 -4953.30 -4953.30 -4953.30 -4952.55 -4946.97 -4946.21 -4946.21 -4946.21 -4946.21 -4946.22 -4948.47 -4965.15 -4967.41 -4967.42 -4967.42 -4967.42 -4967.42 -4970.89 -4996.52 -4999.99 -5000.00 -5000.00 -5000.00 -5000.00 -5000.00 -5000.00
-5088.49 -5088.49 -5088.49 -5088.49 -5088.49 -5088.46 -5073.93 -4966.61 -4952.09 -4952.05 -4952.05 -4952.05 -4952.04 -4945.41 -4896.47 -4889.85 -4889.83 -4889.83 -4889.83 -4889.85 -4895.81 -4939.90 -4945.87 -4945.89 -4945.89 -4945.89 -4945.88 -4944.64 -4935.45 -4934.20 -4934.20 -4934.20 -4934.20 -4934.22 -4942.07 -5000.04 -5007.89 -5007.91 -5007.91 -5007.91 -5007.89 -5002.00 -4958.43 -4952.53 -4952.52 -4952.52 -4952.52 -4952.55 -4966.95 -5073.33 -5087.73 -5087.76 -5087.76 -5087.76 -5087.76 -5087.30 -5083.92 -5083.46 -5083.46 -5083.46 -5083.46 -5083.46 -5082.58 -5076.04 -5075.16 -5075.16 -5075.16 -5075.16 -5075.12 -5062.29 -4967.45 -4954.61 -4954.58 -4954.58 -4954.58 -4954.32 -4849.52 -4075.09 -3970.22 -3969.41 -3941.85 -3738.70 -3506.49 -1787.20 -168.78 28.57 17.85 25.47 39.45 87.28 -67.79 -1012.24 -1160.15 -1416.19 -3130.86 -3364.40 -3393.92 -3734.36 -4767.80 -4904.00 -4904.33 -4904.33 -4904.33 -4904.35 -4910.01 -4951.88 -4957.54 -4957.56 -4957.56 -4957.56 -4957.56 -4957.11 -4953.78 -4953.33 -4953.33 -4953.33 -4953.33 -4953.33 -4952.57 -4946.99 -4946.23 -4946.23 -4946.23 -4946.23 -4946.23 -4948.49 -4965.17 -4967.43 -4967.44 -4967.44 -4967.44 -4967.44 -4970.91 -4996.52 -4999.99 -5000.00 -5000.00 -5000.00 -5000.00 -5000.00 -5000.00
-5088.46 -5088.46 -5088.46 -5088.46 -5088.46 -5088.42 -5074.78 -4973.95 -4960.31 -4960.27 -4960.27 -4960.27 -4960.25 -4953.23 -4901.29 -4894.27 -4894.25 -4894.25 -4894.25 -4894.26 -4899.49 -4938.11 -4943.34 -4943.35 -4943.35 -4943.35 -4943.33 -4933.63 -4861.96 -4852.26 -4852.24 -4852.24 -4852.24 -4852.24 -4851.14 -4843.02 -4841.92 -4841.92 -4841.92 -4841.92 -4841.93 -4848.19 -4894.40 -4900.65 -4900.67 -4900.67 -4900.67 -4900.71 -4917.60 -5042.46 -5059.35 -5059.39 -5059.39 -5059.39 -5059.40 -5060.67 -5070.11 -5071.38 -5071.39 -5071.39 -5071.39 -5071.38 -5068.98 -5051.21 -5048.80 -5048.80 -5048.80 -5048.80 -5048.73 -5019.50 -4803.59 -4774.37 -4774.30 -4774.30 -4774.30 -4774.05 -4672.23 -3919.75 -3791.47 -3596.71 -3352.48 -1847.40 -1624.38 -1203.97 -33.18 146.66 56.79 116.60 91.58 211.23 19.92 -846.08 -972.75 -1013.51 -1220.75 -1269.13 -1511.44 -3387.63 -4715.17 -4863.78 -4864.14 -4864.14 -4864.14 -4864.17 -4874.49 -4950.74 -4961.06 -4961.09 -4961.09 -4961.09 -4961.09 -4961.54 -4964.92 -4965.38 -4965.38 -4965.38 -4965.38 -4965.38 -4964.02 -4953.95 -4952.59 -4952.59 -4952.59 -4952.59 -4952.60 -4955.06 -4973.25 -4975.71 -4975.72 -4975.72 -4975.72 -4975.73 -4978.31 -4997.41 -4999.99 -5000.00 -5000.00 -5000.00 -5000.00 -5000.00 -5000.00
-5088.21 -5088.21 -5088.21 -5088.21 -5088.21 -5088.19 -5081.03 -5028.17 -5021.01 -5020.99 -5020.99 -5020.99 -5020.97 -5010.95 -4936.92 -4926.90 -4926.87 -4926.87 -4926.87 -4926.87 -4926.63 -4924.88 -4924.64 -4924.64 -4924.64 -4924.64 -4924.46 -4852.28 -4318.97 -4246.79 -4246.61 -4246.61 -4246.61 -4246.44 -4179.26 -3682.79 -3615.60 -3615.43 -3615.43 -3615.43 -3615.67 -3711.70 -4421.28 -4517.31 -4517.55 -4517.55 -4517.55 -4517.64 -4553.00 -4814.32 -4849.68 -4849.77 -4849.77 -4849.77 -4849.81 -4863.90 -4968.03 -4982.12 -4982.16 -4982.16 -4982.16 -4982.12 -4968.48 -4867.70 -4854.06 -4854.03 -4854.03 -4854.03 -4853.66 -4703.36 -3592.84 -3442.54 -3442.17 -3442.17 -3442.17 -3441.97 -3362.10 -2745.77 -2278.68 -803.06 -465.01 -199.71 -150.08 -104.67 140.05 179.51 143.52 125.52 193.27 375.83 427.67 300.97 261.67 279.58 345.80 302.19 13.77 -2134.96 -4306.56 -4566.55 -4567.19 -4567.19 -4567.19 -4567.30 -4612.01 -4942.34 -4987.05 -4987.16 -4987.16 -4987.16 -4987.18 -4994.34 -5047.22 -5054.38 -5054.40 -5054.40 -5054.40 -5054.38 -5048.55 -5005.45 -4999.62 -4999.61 -4999.61 -4999.61 -4999.62 -5003.59 -5032.95 -5036.92 -5036.93 -5036.93 -5036.93 -5036.92 -5032.99 -5003.94 -5000.01 -5000.00 -5000.00 -5000.00 -5000.00 -5000.00 -5000.00
-5088.17 -5088.17 -5088.17 -5088.17 -5088.17 -5088.16 -5081.88 -5035.50 -5029.23 -5029.21 -5029.21 -5029.21 -5029.19 -5018.76 -4941.74 -4931.31 -4931.29 -4931.29 -4931.29 -4931.29 -4930.31 -4923.09 -4922.11 -4922.11 -4922.11 -4922.11 -4921.91 -4841.27 -4245.48 -4164.85 -4164.65 -4164.65 -4164.65 -4164.46 -4088.33 -3525.77 -3449.63 -3449.44 -3449.44 -3449.44 -3449.71 -3557.89 -4357.25 -4465.43 -4465.70 -4465.70 -4465.70 -4465.79 -4503.66 -4783.44 -4821.31 -4821.40 -4821.40 -4821.40 -4821.44 -4837.27 -4954.22 -4970.04 -4970.08 -4970.08 -4970.08 -4970.04 -4954.88 -4842.87 -4827.71 -4827.67 -4827.67 -4827.67 -4827.26 -4660.58 -3428.98 -3262.30 -3261.89 -3261.82 -3261.34 -3261.00 -3156.45 -2193.51 -613.50 -100.93 -15.08 30.89 70.98 106.08 223.04 285.76 343.41 241.25 270.89 509.43 605.83 623.45 654.98 681.27 625.37 614.34 331.79 -672.29 -4074.84 -4525.88 -4527.00 -4527.00 -4527.00 -4527.12 -4576.48 -4941.21 -4990.57 -4990.69 -4990.69 -4990.69 -4990.71 -4998.77 -5058.36 -5066.43 -5066.45 -5066.45 -5066.45 -5066.43 -5059.99 -5012.42 -5005.99 -5005.97 -5005.97 -5005.97 -5005.98 -5010.16 -5041.03 -5045.21 -5045.22 -5045.22 -5045.22 -5045.21 -5040.39 -5004.83 -5000.01 -5000.00 -5000.00 -5000.00 -5000.00 -5000.00 -5000.00
-5088.17 -5088.17 -5088.17 -5088.17 -5088.17 -5088.16 -5081.88 -5035.52 -5029.25 -5029.23 -5029.23 -5029.23 -5029.21 -5018.78 -4941.75 -4931.32 -4931.30 -4931.30 -4931.30 -4931.30 -4930.32 -4923.08 -4922.10 -4922.10 -4922.10 -4922.10 -4921.90 -4841.25 -4245.30 -4164.65 -4164.45 -4164.39 -4163.96 -4163.63 -4087.45 -3524.73 -3448.57 -3448.38 -3448.38 -3448.48 -3449.23 -3557.51 -4357.09 -4465.30 -4465.57 -4465.57 -4465.57 -4465.66 -4503.53 -4783.37 -4821.24 -4821.33 -4821.33 -4821.33 -4821.37 -4837.20 -4954.18 -4970.01 -4970.05 -4970.05 -4970.05 -4970.01 -4954.85 -4842.81 -4827.64 -4827.60 -4827.60 -4827.60 -4827.19 -4660.47 -3428.57 -3261.85 -3261.31 -3234.67 -3040.33 -3004.71 -2719.92 -629.68 -101.10 -30.30 -3.26 46.32 71.70 120.96 215.61 242.19 262.48 250.17 265.22 413.93 435.18 658.12 812.41 920.69 698.19 690.37 440.34 -279.94 -4022.01 -4525.59 -4526.90 -4526.90 -4526.90 -4527.03 -4576.40 -4941.20 -4990.57 -4990.70 -4990.70 -4990.70 -4990.72 -4998.78 -5058.39 -5066.46 -5066.48 -5066.48 -5066.48 -5066.46 -5060.02 -5012.44 -5006.00 -5005.99 -5005.99 -5005.99 -5006.00 -5010.17 -5041.05 -5045.23 -5045.24 -5045.24 -5045.24 -5045.23 -5040.41 -5004.83 -5000.01 -5000.00 -5000.00 -5000.00 -5000.00 -5000.00 -5000.00
-5088.17 -5088.17 -5088.17 -5088.17 -5088.17 -5088.16 -5081.88 -5035.52 -5029.25 -5029.23 -5029.23 -5029.23 -5029.21 -5018.78 -4941.75 -4931.32 -4931.30 -4931.30 -4931.30 -4931.30 -4930.32 -4923.08 -4922.10 -4922.10 -4922.10 -4922.10 -4921.90 -4841.25 -4245.30 -4164.65 -4164.39 -4141.56 -3968.23 -3909.72 -3826.90 -3262.30 -3185.64 -3186.22 -3187.57 -3224.24 -3422.10 -3557.38 -4357.09 -4465.30 -4465.57 -4465.57 -4465.57 -4465.66 -4503.53 -4783.37 -4821.24 -4821.33 -4821.33 -4821.33 -4821.37 -4837.20 -4954.18 -4970.01 -4970.05 -4970.05 -4970.05 -4970.01 -4954.85 -4842.81 -4827.64 -4827.60 -4827.60 -4827.60 -4827.19 -4660.47 -3428.51 -3261.27 -3233.59 -2842.11 -1370.41 -1109.68 -959.14 -188.53 -47.11 -25.70 4.08 37.16 34.32 56.01 178.62 221.83 185.94 190.34 173.23 199.07 245.89 592.79 609.74 595.11 878.49 711.50 482.42 -172.93 -3808.23 -4497.51 -4526.77 -4526.90 -4526.90 -4527.03 -4576.40 -4941.20 -4990.57 -4990.70 -4990.70 -4990.70 -4990.72 -4998.78 -5058.39 -5066.46 -5066.48 -5066.48 -5066.48 -5066.46 -5060.02 -5012.44 -5006.00 -5005.99 -5005.99 -5005.99 -5006.00 -5010.17 -5041.05 -5045.23 -5045.24 -5045.24 -5045.24 -5045.23 -5040.41 -5004.83 -5000.01 -5000.00 -5000.00 -5000.00 -5000.00 -5000.00 -5000.00
-5088.17 -5088.17 -5088.17 -5088.17 -5088.17 -5088.16 -5081.88 -5035.52 -5029.24 -5029.23 -5029.23 -5029.23 -5029.20 -5018.78 -4941.79 -4931.37 -4931.34 -4931.34 -4931.34 -4931.34 -4930.36 -4923.10 -4922.11 -4922.11 -4922.11 -4922.11 -4921.91 -4841.21 -4244.91 -4164.21 -4163.53 -3967.76 -2486.02 -2022.73 -1891.31 -1310.51 -1229.71 -1236.16 -1249.85 -1525.05 -3015.51 -3527.89 -4356.31 -4464.63 -4464.90 -4464.90 -4464.90 -4464.99 -4502.86 -4782.68 -4820.55 -4820.64 -4820.64 -4820.64 -4820.68 -4836.51 -4953.50 -4969.33 -4969.37 -4969.37 -4969.37 -4969.34 -4954.17 -4842.14 -4826.98 -4826.94 -4826.94 -4826.94 -4826.53 -4659.73 -3403.18 -3051.19 -2802.45 -1306.65 -841.93 -791.93 -712.19 -140.89 -44.84 -24.97 5.61 27.24 13.30 31.33 140.79 161.57 149.64 149.63 149.83 157.33 196.22 435.23 534.92 592.72 847.84 764.18 664.96 127.46 -2256.48 -4089.73 -4498.28 -4526.23 -4526.30 -4526.42 -4575.86 -4941.13 -4990.57 -4990.69 -4990.69 -4990.69 -4990.71 -4998.78 -5058.36 -5066.43 -5066.45 -5066.45 -5066.45 -5066.43 -5060.00 -5012.45 -5006.02 -5006.00 -5006.00 -5006.00 -5006.01 -5010.18 -5041.02 -5045.20 -5045.21 -5045.21 -5045.21 -5045.20 -5040.38 -5004.82 -5000.01 -5000.00 -5000.00 -5000.00 -5000.00 -5000.00 -5000.00
-5089.79 -5089.79 -5089.79 -5089.79 -5089.79 -5089.77 -5083.03 -5033.23 -5026.49 -5026.48 -5026.48 -5026.48 -5026.46 -5018.23 -4957.42 -4949.19 -4949.16 -4949.16 -4949.16 -4949.16 -4946.75 -4928.94 -4926.53 -4926.53 -4926.53 -4926.53 -4926.28 -4826.41 -4088.49 -3988.62 -3987.68 -3732.80 -1842.82 -1507.71 -1375.76 -811.40 -730.96 -737.00 -766.21 -842.90 -1276.23 -2962.82 -4070.50 -4192.80 -4193.11 -4193.11 -4193.11 -4193.20 -4230.32 -4504.54 -4541.66 -4541.75 -4541.75 -4541.75 -4541.79 -4558.16 -4679.15 -4695.53 -4695.57 -4695.57 -4695.57 -4695.53 -4681.21 -4575.38 -4561.06 -4561.02 -4561.02 -4561.02 -4560.52 -4385.89 -2916.85 -1343.48 -932.95 -697.66 -641.27 -666.57 -624.83 -102.51 -9.67 5.93 37.20 44.72 29.89 41.19 132.33 144.51 141.01 143.78 149.69 156.92 187.47 369.60 437.83 490.88 576.45 581.72 618.99 320.61 -1516.61 -2306.13 -4050.63 -4281.42 -4282.06 -4282.25 -4357.45 -4913.09 -4988.29 -4988.47 -4988.47 -4988.47 -4988.49 -4995.61 -5048.24 -5055.36 -5055.38 -5055.38 -5055.38 -5055.36 -5050.69 -5016.18 -5011.51 -5011.50 -5011.50 -5011.50 -5011.51 -5013.80 -5030.78 -5033.07 -5033.08 -5033.08 -5033.08 -5033.07 -5029.55 -5003.53 -5000.01 -5000.00 -5000.00 -5000.00 -5000.00 -5000.00 -5000.00
-5101.68 -5101.68 -5101.68 -5101.68 -5101.68 -5101.66 -5091.49 -5016.37 -5006.20 -5006.18 -5006.18 -5006.18 -5006.19 -5014.14 -5072.88 -5080.83 -5080.85 -5080.85 -5080.85 -5080.82 -5067.87 -4972.16 -4959.20 -4959.17 -4959.17 -4959.17 -4958.57 -4717.08 -2932.70 -2691.14 -2665.46 -2245.51 -448.68 -149.39 -31.39 264.46 315.57 326.34 322.92 259.65 158.09 -263.83 -1731.17 -1925.96 -1927.73 -1928.72 -1928.36 -1928.43 -1989.80 -2421.79 -2480.30 -2480.93 -2480.99 -2480.99 -2481.04 -2501.42 -2651.98 -2672.36 -2672.41 -2672.41 -2672.41 -2672.39 -2664.26 -2604.24 -2596.06 -2595.67 -2595.98 -2595.47 -2566.54 -2155.39 -577.83 68.72 159.02 190.09 224.63 199.36 244.27 189.58 196.80 210.65 223.93 216.20 208.59 207.45 166.38 163.05 162.52 166.66 172.67 180.54 191.22 231.62 265.05 278.50 320.65 397.47 487.69 457.54 290.69 -206.34 -2009.38 -2448.65 -2477.25 -2478.05 -2743.61 -4705.86 -4971.42 -4972.08 -4972.08 -4972.08 -4972.08 -4972.24 -4973.39 -4973.55 -4973.55 -4973.55 -4973.55 -4973.57 -4981.94 -5043.77 -5052.14 -5052.16 -5052.16 -5052.16 -5052.13 -5040.56 -4955.06 -4943.49 -4943.46 -4943.46 -4943.46 -4943.48 -4949.50 -4993.97 -4999.99 -5000.00 -5000.00 -5000.00 -5000.00 -5000.00 -5000.00
-5103.29 -5103.29 -5103.29 -5103.29 -5103.29 -5103.27 -5092.64 -5014.08 -5003.45 -5003.43 -5003.43 -5003.43 -5003.45 -5013.59 -5088.51 -5098.65 -5098.67 -5098.67 -5098.67 -5098.64 -5084.26 -4978.00 -4963.62 -4963.59 -4963.59 -4963.59 -4962.94 -4702.29 -2776.28 -2515.11 -2308.18 -727.29 -91.87 0.56 135.52 411.65 460.88 474.50 462.19 452.87 400.61 336.07 299.06 292.04 279.18 271.97 276.42 276.91 22.24 -1707.58 -1978.49 -2175.07 -2201.55 -2202.04 -2202.15 -2223.07 -2377.63 -2398.55 -2398.60 -2398.60 -2398.60 -2398.59 -2391.30 -2337.42 -2306.84 -2157.49 -2279.55 -2104.33 -1859.92 -276.19 203.03 287.62 306.38 321.19 321.79 312.81 351.06 283.03 235.92 234.21 236.89 231.49 225.90 217.93 166.21 161.51 164.35 169.92 176.93 184.89 194.05 209.54 254.79 292.89 339.29 376.10 493.72 568.84 437.98 319.20 -216.94 -1797.49 -2204.58 -2233.74 -2525.20 -4677.81 -4969.14 -4969.86 -4969.86 -4969.86 -4969.86 -4969.07 -4963.26 -4962.48 -4962.47 -4962.47 -4962.47 -4962.50 -4972.63 -5047.50 -5057.64 -5057.66 -5057.66 -5057.66 -5057.63 -5044.18 -4944.82 -4931.37 -4931.34 -4931.34 -4931.34 -4931.35 -4938.66 -4992.67 -4999.98 -5000.00 -5000.00 -5000.00 -5000.00 -5000.00 -5000.00
-5103.30 -5103.30 -5103.30 -5103.30 -5103.30 -5103.27 -5092.64 -5014.08 -5003.45 -5003.42 -5003.42 -5003.42 -5003.45 -5013.59 -5088.55 -5098.69 -5098.72 -5098.72 -5098.72 -5098.68 -5084.30 -4978.02 -4963.64 -4963.60 -4963.60 -4963.60 -4962.95 -4702.25 -2775.89 -2514.59 -2276.16 -493.13 -58.00 -5.98 141.58 432.92 481.99 493.68 487.41 470.31 465.72 455.95 587.10 587.71 558.47 557.87 570.74 573.02 512.96 42.80 -302.87 -1750.17 -2003.49 -2177.91 -2200.90 -2222.32 -2376.95 -2397.87 -2397.87 -2397.51 -2397.87 -2397.85 -2390.15 -2335.78 -2132.95 -852.78 -1702.70 -410.71 -122.20 115.89 299.42 346.44 321.54 315.57 320.04 321.85 338.53 359.34 235.36 227.61 226.75 221.43 221.43 214.72 170.62 163.91 164.49 169.52 175.59 182.10 194.60 211.24 261.57 249.82 283.15 322.72 515.89 658.60 603.52 334.64 238.91 -234.17 -1797.41 -2204.60 -2524.52 -4677.74 -4969.13 -4969.86 -4969.86 -4969.86 -4969.85 -4969.06 -4963.24 -4962.45 -4962.45 -4962.45 -4962.45 -4962.47 -4972.61 -5047.51 -5057.65 -5057.67 -5057.67 -5057.67 -5057.64 -5044.19 -4944.79 -4931.34 -4931.31 -4931.31 -4931.31 -4931.32 -4938.64 -4992.67 -4999.98 -5000.00 -5000.00 -5000.00 -5000.00 -5000.00 -5000.00
-5103.30 -5103.30 -5103.30 -5103.30 -5103.30 -5103.27 -5092.64 -5014.08 -5003.45 -5003.42 -5003.42 -5003.42 -5003.45 -5013.59 -5088.55 -5098.69 -5098.72 -5098.72 -5098.72 -5098.68 -5084.30 -4978.02 -4963.64 -4963.60 -4963.60 -4963.60 -4962.95 -4702.25 -2775.89 -2514.62 -2284.71 -557.58 -75.45 -1.58 137.26 432.26 498.75 503.48 503.58 482.20 495.77 515.20 683.77 683.36 655.80 653.04 643.48 635.12 590.17 298.62 165.63 -22.85 -486.93 -1799.24 -1997.91 -2197.57 -2376.25 -2397.19 -2374.54 -2229.28 -2374.51 -2374.41 -2198.04 -2112.82 -1891.72 -392.59 -121.91 64.12 117.68 162.93 308.71 359.79 321.84 313.61 323.90 362.53 367.91 369.72 240.96 219.90 222.24 212.81 216.43 219.76 173.88 175.88 167.19 170.09 176.29 183.19 202.58 225.03 240.07 230.62 252.59 329.08 539.69 557.17 701.85 430.68 336.81 205.95 -229.75 -1795.88 -2495.88 -4677.61 -4969.13 -4969.86 -4969.86 -4969.86 -4969.85 -4969.06 -4963.24 -4962.45 -4962.45 -4962.45 -4962.45 -4962.47 -4972.61 -5047.51 -5057.65 -5057.67 -5057.67 -5057.67 -5057.64 -5044.19 -4944.79 -4931.34 -4931.31 -4931.31 -4931.31 -4931.32 -4938.64 -4992.67 -4999.98 -5000.00 -5000.00 -5000.00 -5000.00 -5000.00 -5000.00
-5103.28 -5103.28 -5103.28 -5103.28 -5103.28 -5103.25 -5092.62 -5014.06 -5003.43 -5003.40 -5003.40 -5003.40 -5003.43 -5013.57 -5088.54 -5098.69 -5098.71 -5098.71 -5098.71 -5098.68 -5084.28 -4977.87 -4963.47 -4963.44 -4963.44 -4963.44 -4962.79 -4702.10 -2775.81 -2514.58 -2298.21 -660.54 -110.27 -2.32 156.97 452.17 488.03 484.85 470.74 481.07 511.00 541.32 699.93 711.90 695.75 690.05 687.22 682.52 619.78 342.29 270.48 262.06 177.21 -200.58 -443.45 -1781.24 -2117.14 -2144.77 -1970.06 -901.20 -1976.99 -1980.14 -715.68 -429.43 -290.23 38.34 108.64 135.72 155.99 178.20 315.78 358.90 359.08 334.91 324.61 365.02 419.47 395.37 255.43 232.49 230.37 220.82 222.57 221.60 179.93 172.67 169.72 172.83 179.10 191.44 203.00 210.12 224.61 230.22 264.99 400.25 492.00 531.11 552.39 492.65 384.18 289.52 242.47 -220.33 -2095.88 -4650.61 -4968.96 -4969.75 -4969.75 -4969.75 -4969.74 -4968.97 -4963.24 -4962.46 -4962.46 -4962.46 -4962.46 -4962.48 -4972.62 -5047.49 -5057.62 -5057.64 -5057.64 -5057.64 -5057.61 -5044.17 -4944.82 -4931.38 -4931.34 -4931.34 -4931.34 -4931.36 -4938.67 -4992.67 -4999.98 -5000.00 -5000.00 -5000.00 -5000.00 -5000.00 -5000.00
-5095.38 -5095.38 -5095.38 -5095.38 -5095.38 -5095.35 -5084.77 -5006.60 -4996.02 -4996.00 -4996.00 -4996.00 -4996.02 -5006.71 -5085.66 -5096.34 -5096.37 -5096.37 -5096.37 -5096.32 -5075.28 -4919.81 -4898.77 -4898.72 -4898.72 -4898.72 -4898.08 -4641.44 -2745.16 -2487.97 -2264.46 -579.25 -61.48 33.86 147.57 421.04 470.50 508.76 491.51 507.96 530.16 565.40 727.58 753.22 729.84 728.12 731.90 711.54 643.23 405.42 320.56 297.27 281.44 247.85 211.44 20.50 -167.24 -235.43 -163.27 -54.23 -214.56 -243.56 -15.55 68.17 88.57 90.14 119.66 141.46 155.77 173.16 310.60 349.18 400.77 393.81 317.19 326.17 446.16 428.83 289.76 251.14 238.14 228.12 222.52 216.88 160.82 167.52 166.59 165.15 171.74 207.81 222.99 225.39 224.61 239.38 247.27 321.74 310.14 366.56 442.89 391.05 375.81 417.69 375.88 235.20 -606.04 -4414.90 -4924.63 -4925.90 -4925.90 -4925.90 -4925.91 -4930.31 -4962.84 -4967.24 -4967.25 -4967.25 -4967.25 -4967.27 -4975.60 -5037.12 -5045.45 -5045.47 -5045.47 -5045.47 -5045.45 -5034.92 -4957.12 -4946.59 -4946.56 -4946.56 -4946.56 -4946.58 -4952.27 -4994.30 -4999.99 -5000.00 -5000.00 -5000.00 -5000.00 -5000.00 -5000.00
-5037.01 -5037.01 -5037.01 -5037.01 -5037.01 -5036.99 -5026.79 -4951.49 -4941.30 -4941.27 -4941.27 -4941.27 -4941.31 -4955.98 -5064.35 -5079.01 -5079.05 -5079.05 -5079.05 -5078.88 -5008.77 -4490.75 -4420.64 -4420.47 -4420.47 -4420.47 -4419.91 -4193.27 -2518.65 -2291.33 -2040.13 -177.05 188.02 247.20 327.83 549.55 581.95 612.12 616.96 650.34 659.27 673.94 829.36 831.73 825.32 801.56 792.53 765.17 712.54 535.99 499.65 484.15 433.19 422.70 418.76 414.84 383.00 372.34 353.43 330.87 367.52 357.64 316.13 110.39 68.02 78.23 90.16 98.73 110.28 144.19 189.44 221.39 264.57 250.20 177.13 168.35 335.58 370.13 303.56 266.08 230.13 208.53 190.92 174.51 93.62 86.21 90.89 96.64 101.19 127.22 176.19 213.24 176.98 167.37 163.45 186.41 217.23 282.12 461.69 491.97 513.71 745.34 494.47 396.51 -276.93 -4087.23 -4600.55 -4601.88 -4601.88 -4601.88 -4601.99 -4644.65 -4959.88 -5002.54 -5002.65 -5002.65 -5002.65 -5002.63 -4997.62 -4960.56 -4955.54 -4955.53 -4955.53 -4955.53 -4955.56 -4966.58 -5047.99 -5059.00 -5059.03 -5059.03 -5059.03 -5059.01 -5052.73 -5006.30 -5000.02 -5000.00 -5000.00 -5000.00 -5000.00 -5000.00 -5000.00
-5029.11 -5029.11 -5029.11 -5029.11 -5029.11 -5029.09 -5018.95 -4944.03 -4933.89 -4933.87 -4933.87 -4933.87 -4933.90 -4949.11 -5061.46 -5076.67 -5076.71 -5076.71 -5076.71 -5076.52 -4999.77 -4432.68 -4355.94 -4355.75 -4355.75 -4355.75 -4355.20 -4132.62 -2487.87 -2237.89 -1805.32 -20.08 274.85 320.48 389.65 588.58 607.80 608.00 635.15 660.66 675.39 700.52 857.52 851.24 824.75 805.46 810.66 797.71 730.61 558.73 531.21 521.96 503.00 493.16 472.28 466.22 443.57 429.72 420.25 412.18 416.64 422.93 372.58 118.17 69.35 85.78 94.54 101.76 111.55 153.41 217.53 253.91 234.68 205.46 170.71 184.82 329.02 321.77 321.95 306.63 267.22 242.02 224.52 183.92 93.28 77.46 83.51 89.34 106.14 118.16 160.72 205.92 159.22 137.72 142.85 167.27 229.52 288.71 455.48 460.34 591.40 840.17 734.71 444.93 -195.09 -3856.55 -4531.70 -4557.97 -4558.03 -4558.03 -4558.15 -4605.99 -4959.48 -5007.32 -5007.44 -5007.44 -5007.44 -5007.42 -5000.60 -4950.20 -4943.38 -4943.36 -4943.36 -4943.36 -4943.39 -4957.33 -5060.28 -5074.22 -5074.25 -5074.25 -5074.25 -5074.23 -5066.33 -5007.92 -5000.02 -5000.00 -5000.00 -5000.00 -5000.00 -5000.00 -5000.00
-5029.09 -5029.09 -5029.09 -5029.09 -5029.09 -5029.07 -5018.93 -4944.01 -4933.87 -4933.85 -4933.85 -4933.85 -4933.89 -4949.09 -5061.46 -5076.66 -5076.70 -5076.70 -5076.70 -5076.51 -4999.75 -4432.54 -4355.78 -4355.59 -4355.59 -4355.59 -4355.04 -4132.35 -2462.77 -1863.09 -323.93 218.74 340.07 355.80 403.99 601.43 631.75 650.70 649.12 653.10 672.30 694.41 843.07 854.88 808.22 814.29 802.15 794.53 733.87 564.92 540.06 532.90 524.20 519.76 514.04 508.13 487.65 456.29 440.50 437.34 435.14 431.55 391.02 115.44 90.20 97.07 111.97 125.73 144.71 157.46 210.46 229.94 191.24 170.90 170.39 163.10 297.97 321.13 243.47 247.51 231.76 230.14 257.80 214.35 141.30 86.95 87.06 90.34 136.10 143.30 149.80 182.71 159.88 129.00 130.56 150.20 207.77 313.87 420.66 421.93 500.66 734.01 785.82 460.59 38.04 -2462.74 -4343.31 -4557.33 -4557.92 -4557.92 -4558.04 -4605.89 -4959.48 -5007.33 -5007.45 -5007.45 -5007.45 -5007.43 -5000.61 -4950.17 -4943.35 -4943.33 -4943.33 -4943.33 -4943.36 -4957.30 -5060.31 -5074.25 -5074.29 -5074.29 -5074.29 -5074.27 -5066.36 -5007.93 -5000.02 -5000.00 -5000.00 -5000.00 -5000.00 -5000.00 -5000.00
-5029.09 -5029.09 -5029.09 -5029.09 -5029.09 -5029.07 -5018.93 -4944.01 -4933.87 -4933.85 -4933.85 -4933.85 -4933.89 -4949.09 -5061.46 -5076.66 -5076.70 -5076.70 -5076.70 -5076.51 -4999.75 -4432.54 -4355.78 -4355.59 -4355.59 -4355.59 -4354.98 -4107.93 -2103.60 -455.07 155.03 302.33 367.92 384.16 417.87 595.48 642.99 663.69 655.11 664.11 675.03 708.51 863.56 841.19 828.12 830.05 819.10 812.09 753.57 572.72 550.27 545.40 537.86 536.52 535.62 532.93 515.08 507.34 499.61 491.70 483.94 473.51 433.34 168.16 126.73 131.48 154.31 167.08 158.29 166.86 182.32 188.15 183.90 167.60 157.81 144.17 225.65 298.26 202.88 191.78 191.09 209.29 277.48 220.63 139.31 96.36 85.32 85.09 104.40 157.98 148.62 156.79 145.17 120.16 117.80 127.40 156.34 227.24 428.40 457.89 537.43 697.16 796.45 791.78 364.32 -2041.49 -4094.78 -4530.22 -4557.86 -4557.92 -4558.04 -4605.89 -4959.48 -5007.33 -5007.45 -5007.45 -5007.45 -5007.43 -5000.61 -4950.17 -4943.35 -4943.33 -4943.33 -4943.33 -4943.36 -4957.30 -5060.31 -5074.25 -5074.29 -5074.29 -5074.29 -5074.27 -5066.36 -5007.93 -5000.02 -5000.00 -5000.00 -5000.00 -5000.00 -5000.00 -5000.00
-5029.09 -5029.09 -5029.09 -5029.09 -5029.09 -5029.06 -5018.93 -4944.04 -4933.90 -4933.88 -4933.88 -4933.88 -4933.92 -4949.12 -5061.44 -5076.64 -5076.68 -5076.68 -5076.68 -5076.49 -4999.69 -4432.23 -4355.43 -4355.24 -4355.24 -4355.24 -4354.11 -3925.68 -710.41 123.46 224.33 291.91 357.54 385.73 410.48 621.44 644.64 668.10 683.78 674.13 691.68 695.28 851.67 859.86 848.53 841.14 837.99 809.97 769.45 588.75 559.98 555.61 552.63 551.74 553.23 547.98 532.33 525.80 520.73 513.20 506.64 496.57 450.40 175.32 140.84 169.01 166.05 177.78 188.45 178.40 180.14 190.76 180.52 181.86 173.67 140.89 201.82 319.05 190.97 161.53 173.78 191.51 233.71 213.64 153.74 117.13 90.11 86.04 90.34 113.80 123.14 117.42 123.57 110.31 109.16 111.12 120.99 164.20 377.24 546.59 593.82 674.16 851.56 594.18 191.58 -1816.27 -2608.10 -4329.74 -4557.25 -4557.81 -4557.93 -4605.80 -4959.49 -5007.36 -5007.48 -5007.48 -5007.48 -5007.46 -5000.63 -4950.17 -4943.34 -4943.33 -4943.33 -4943.33 -4943.36 -4957.30 -5060.32 -5074.26 -5074.29 -5074.29 -5074.29 -5074.27 -5066.36 -5007.93 -5000.02 -5000.00 -5000.00 -5000.00 -5000.00 -5000.00 -5000.00
-5028.19 -5028.19 -5028.19 -5028.19 -5028.19 -5028.17 -5019.44 -4954.92 -4946.19 -4946.17 -4946.17 -4946.17 -4946.20 -4959.33 -5056.38 -5069.52 -5069.55 -5069.55 -5069.55 -5069.33 -4978.24 -4305.19 -4214.11 -4213.88 -4213.82 -4213.31 -4184.32 -3537.20 -241.60 232.88 273.77 326.26 397.75 406.35 427.33 654.57 656.93 665.46 718.06 702.07 687.18 697.40 829.31 836.74 841.06 825.58 844.34 825.05 785.50 612.87 566.04 566.92 566.69 565.91 567.08 561.53 538.01 526.96 521.06 512.46 506.89 498.83 456.25 201.98 171.56 192.70 197.81 183.13 190.25 192.70 174.96 181.51 164.03 158.80 141.54 141.45 257.33 373.95 221.62 146.65 157.01 176.35 184.48 192.64 117.94 108.67 96.34 87.40 86.63 98.34 92.25 87.98 91.20 92.08 94.56 97.65 103.94 136.04 318.99 408.37 473.84 558.02 719.19 637.96 135.39 -1761.75 -2311.25 -4250.55 -4512.77 -4513.48 -4513.62 -4567.53 -4965.93 -5019.84 -5019.98 -5019.98 -5019.98 -5019.96 -5011.68 -4950.48 -4942.19 -4942.17 -4942.17 -4942.17 -4942.21 -4956.44 -5061.59 -5075.82 -5075.86 -5075.86 -5075.86 -5075.84 -5067.76 -5008.10 -5000.02 -5000.00 -5000.00 -5000.00 -5000.00 -5000.00 -5000.00
-5021.57 -5021.57 -5021.57 -5021.57 -5021.57 -5021.58 -5023.22 -5035.31 -5036.95 -5036.95 -5036.95 -5036.95 -5036.95 -5034.81 -5019.01 -5016.87 -5016.87 -5016.87 -5016.87 -5016.38 -4819.71 -3366.55 -3169.89 -3169.28 -3145.21 -2967.28 -2716.00 -1044.99 184.63 347.62 438.21 453.60 498.19 487.39 549.99 735.13 786.32 807.13 807.54 805.70 801.74 793.37 797.07 803.27 803.93 794.09 826.81 813.76 797.33 636.88 586.39 567.17 569.46 575.41 576.98 564.04 479.83 461.78 453.93 448.65 436.67 433.08 414.13 332.52 296.23 309.20 301.70 300.49 289.21 272.82 156.64 131.63 106.81 104.49 78.06 102.76 123.43 182.22 266.57 70.39 52.60 74.32 90.73 83.30 52.07 61.03 78.97 67.49 53.79 55.90 53.23 14.82 10.34 12.80 15.98 21.70 23.92 36.62 93.84 127.72 184.13 254.63 379.63 433.96 -38.28 -1478.36 -1919.53 -3716.92 -4157.95 -4185.85 -4186.16 -4284.78 -5013.46 -5112.08 -5112.33 -5112.33 -5112.33 -5112.28 -5093.26 -4952.72 -4933.70 -4933.66 -4933.66 -4933.66 -4933.70 -4950.07 -5071.01 -5087.38 -5087.42 -5087.42 -5087.42 -5087.40 -5078.09 -5009.33 -5000.02 -5000.00 -5000.00 -5000.00 -5000.00 -5000.00 -5000.00
-5020.68 -5020.68 -5020.68 -5020.68 -5020.68 -5020.69 -5023.73 -5046.19 -5049.23 -5049.24 -5049.24 -5049.24 -5049.23 -5045.03 -5013.95 -5009.75 -5009.74 -5009.74 -5009.74 -5009.21 -4798.26 -3239.52 -3028.51 -3004.10 -2654.43 -1304.76 -917.79 -498.97 258.69 446.91 483.21 487.34 505.53 508.46 551.50 752.32 811.41 835.11 834.80 841.68 818.96 819.93 820.20 801.39 815.59 806.28 825.98 818.56 797.93 663.01 598.99 571.28 565.92 569.84 572.57 565.31 477.86 459.68 455.65 452.40 439.90 440.77 437.07 333.39 314.50 316.67 314.18 306.36 300.34 282.11 157.95 130.73 97.47 82.54 60.07 79.47 82.51 83.67 90.13 36.00 39.74 64.80 95.09 90.67 47.81 40.63 62.09 69.26 55.71 59.91 56.83 15.35 6.97 6.17 10.27 15.65 18.77 24.37 59.82 84.33 106.74 141.38 268.75 363.21 51.12 -1396.75 -1618.89 -2176.83 -3912.12 -4141.02 -4141.85 -4246.51 -5019.90 -5124.56 -5124.82 -5124.82 -5124.82 -5124.77 -5104.30 -4953.03 -4932.56 -4932.50 -4932.50 -4932.50 -4932.55 -4949.20 -5072.29 -5088.94 -5088.99 -5088.99 -5088.99 -5088.96 -5079.49 -5009.50 -5000.02 -5000.00 -5000.00 -5000.00 -5000.00 -5000.00 -5000.00
-5020.68 -5020.68 -5020.68 -5020.68 -5020.68 -5020.68 -5023.73 -5046.22 -5049.26 -5049.27 -5049.27 -5049.27 -5049.26 -5045.05 -5013.94 -5009.73 -5009.72 -5009.72 -5009.72 -5009.20 -4798.21 -3239.21 -3027.67 -2829.30 -1331.88 -819.97 -601.40 -459.29 283.98 451.17 478.46 496.97 503.11 533.26 589.14 778.55 824.24 841.32 839.57 839.88 830.29 832.74 808.52 824.36 827.79 830.71 840.01 828.47 797.33 662.16 618.08 603.02 573.13 579.74 578.32 569.58 490.00 481.46 488.72 482.70 475.62 468.64 455.18 360.20 329.70 319.06 310.98 305.16 300.65 280.42 135.09 109.70 88.78 59.26 41.11 48.03 58.15 48.83 38.88 31.53 40.06 66.21 88.10 91.85 41.19 38.24 52.89 72.77 63.26 64.81 72.46 23.05 13.16 11.15 15.58 21.65 28.71 32.43 64.53 76.96 92.45 139.81 199.89 241.51 125.20 -1386.09 -1631.27 -1969.31 -3883.19 -4140.84 -4141.74 -4246.42 -5019.91 -5124.60 -5124.85 -5124.85 -5124.85 -5124.80 -5104.33 -4953.03 -4932.55 -4932.50 -4932.50 -4932.50 -4932.54 -4949.20 -5072.29 -5088.95 -5088.99 -5088.99 -5088.99 -5088.97 -5079.49 -5009.50 -5000.02 -5000.00 -5000.00 -5000.00 -5000.00 -5000.00 -5000.00
-5020.68 -5020.68 -5020.68 -5020.68 -5020.68 -5020.68 -5023.73 -5046.22 -5049.26 -5049.27 -5049.27 -5049.27 -5049.26 -5045.05 -5013.94 -5009.73 -5009.72 -5009.72 -5009.72 -5009.20 -4798.21 -3239.15 -3003.88 -2621.68 -1051.42 -660.41 -582.90 -452.69 327.24 453.94 476.76 481.90 506.13 537.34 588.53 795.22 825.99 843.41 869.45 872.51 839.28 850.21 838.70 836.71 829.51 857.00 854.70 828.32 798.63 679.67 651.52 629.16 627.37 636.08 626.19 603.26 513.88 500.49 506.26 523.85 512.48 493.07 481.32 376.17 343.29 336.85 319.22 311.94 319.74 291.96 122.99 101.83 88.14 59.72 38.99 40.76 49.27 41.57 33.01 30.61 35.35 55.23 74.89 73.09 43.25 45.23 53.51 71.40 71.07 71.12 81.35 33.36 22.41 21.06 25.74 33.89 37.03 45.31 95.82 99.13 109.50 145.12 171.98 220.52 5.04 -1412.29 -1635.52 -1967.93 -3882.95 -4140.84 -4141.74 -4246.42 -5019.91 -5124.60 -5124.85 -5124.85 -5124.85 -5124.80 -5104.33 -4953.03 -4932.55 -4932.50 -4932.50 -4932.50 -4932.54 -4949.20 -5072.29 -5088.95 -5088.99 -5088.99 -5088.99 -5088.97 -5079.49 -5009.50 -5000.02 -5000.00 -5000.00 -5000.00 -5000.00 -5000.00 -5000.00
-5020.69 -5020.69 -5020.69 -5020.69 -5020.69 -5020.70 -5023.74 -5046.21 -5049.25 -5049.26 -5049.26 -5049.26 -5049.25 -5045.04 -5013.93 -5009.72 -5009.71 -5009.71 -5009.71 -5009.18 -4798.21 -3238.76 -2826.83 -1306.75 -802.40 -619.89 -567.20 -423.71 316.53 447.73 482.78 493.44 502.53 553.92 590.87 807.15 847.61 871.80 873.78 863.16 872.71 848.64 828.71 832.08 864.95 858.75 831.59 808.97 774.92 667.04 666.90 654.68 658.13 658.76 641.28 638.33 545.39 536.51 522.60 557.53 531.93 542.71 524.87 395.47 361.23 356.82 341.41 325.36 340.17 288.88 125.05 95.60 74.17 48.89 38.31 42.78 50.36 37.35 30.88 31.00 35.96 53.06 74.96 61.41 62.96 64.87 55.37 63.02 70.20 80.85 83.09 43.15 34.80 37.66 42.72 51.87 55.77 62.75 110.94 115.71 119.98 152.13 155.82 191.93 -0.93 -1344.15 -1639.64 -1978.84 -3884.12 -4140.75 -4141.64 -4246.33 -5019.90 -5124.59 -5124.85 -5124.85 -5124.85 -5124.80 -5104.33 -4953.06 -4932.58 -4932.53 -4932.53 -4932.53 -4932.58 -4949.23 -5072.27 -5088.93 -5088.97 -5088.97 -5088.97 -5088.94 -5079.47 -5009.49 -5000.02 -5000.00 -5000.00 -5000.00 -5000.00 -5000.00 -5000.00
-5026.08 -5026.08 -5026.08 -5026.08 -5026.08 -5026.09 -5027.94 -5041.62 -5043.47 -5043.47 -5043.47 -5043.47 -5043.46 -5039.42 -5009.56 -5005.52 -5005.51 -5005.51 -5005.51 -5005.00 -4799.96 -3260.51 -2662.27 -1041.32 -686.97 -633.19 -585.86 -461.82 304.96 457.81 501.34 511.14 519.94 554.60 627.05 844.83 844.15 857.54 873.24 876.89 876.44 864.76 815.86 831.61 836.51 837.59 806.43 800.32 760.84 680.60 666.49 651.26 653.24 660.51 663.49 625.46 593.72 588.23 577.26 595.49 576.59 601.05 574.76 457.77 413.87 396.29 376.69 356.85 360.08 303.04 139.74 105.30 85.88 66.10 61.06 63.80 70.16 54.93 46.09 46.87 54.22 68.58 87.01 67.19 39.67 47.71 69.07 65.43 77.57 96.71 90.41 66.43 66.31 71.89 80.04 91.22 97.56 84.57 118.05 121.43 130.83 154.14 174.37 265.16 15.55 -1224.53 -1586.50 -1932.92 -3844.90 -4102.53 -4103.44 -4211.93 -5013.56 -5122.05 -5122.32 -5122.32 -5122.32 -5122.27 -5103.45 -4964.39 -4945.57 -4945.53 -4945.53 -4945.53 -4945.56 -4959.88 -5065.72 -5080.04 -5080.08 -5080.08 -5080.08 -5080.05 -5071.53 -5008.55 -5000.02 -5000.00 -5000.00 -5000.00 -5000.00 -5000.00 -5000.00
-5065.93 -5065.93 -5065.93 -5065.93 -5065.93 -5065.92 -5058.97 -5007.68 -5000.73 -5000.72 -5000.72 -5000.72 -5000.71 -4997.91 -4977.26 -4974.46 -4974.45 -4974.45 -4974.45 -4974.05 -4812.87 -3422.38 -1710.15 -1125.37 -1028.80 -983.17 -958.34 -804.12 363.11 564.44 609.08 632.00 657.12 661.46 703.79 846.27 857.54 884.79 915.27 919.44 884.36 860.63 626.69 597.98 589.41 580.97 576.30 578.62 562.57 563.89 554.02 542.72 559.41 565.48 551.25 552.26 795.75 788.44 793.87 812.22 822.02 821.79 785.88 610.14 574.00 544.57 527.09 500.67 491.53 446.93 291.25 278.01 230.94 204.95 201.40 200.83 194.17 159.44 160.68 153.86 155.81 176.24 191.64 169.44 33.21 16.76 33.92 52.17 39.49 56.21 75.88 159.56 182.07 204.79 215.98 228.19 226.11 198.90 180.51 188.36 186.31 203.42 247.39 268.73 90.78 -1034.76 -1308.61 -1615.59 -3557.33 -3820.08 -3821.13 -3957.69 -4966.73 -5103.29 -5103.63 -5103.63 -5103.63 -5103.61 -5097.00 -5048.16 -5041.55 -5041.53 -5041.53 -5041.53 -5041.52 -5038.63 -5017.27 -5014.38 -5014.37 -5014.37 -5014.37 -5014.37 -5012.84 -5001.53 -5000.00 -5000.00 -5000.00 -5000.00 -5000.00 -5000.00 -5000.00
-5071.33 -5071.33 -5071.33 -5071.33 -5071.33 -5071.31 -5063.17 -5003.08 -4994.95 -4994.93 -4994.93 -4994.93 -4994.92 -4992.30 -4972.88 -4970.26 -4970.25 -4970.25 -4970.25 -4969.87 -4814.57 -3446.44 -1599.71 -1134.80 -1072.40 -1036.23 -1018.79 -844.39 375.19 578.72 620.14 645.00 669.55 684.76 709.14 823.78 858.74 881.61 920.98 912.55 904.99 863.93 605.02 557.52 546.31 541.27 530.37 525.49 512.28 547.02 552.48 559.43 532.11 553.98 553.86 555.73 821.06 832.86 860.48 881.82 889.19 881.27 852.41 658.76 628.05 607.52 574.21 541.40 510.52 455.83 306.07 272.13 241.64 227.54 226.36 223.20 213.52 166.68 165.44 166.22 166.05 180.59 198.64 178.84 33.01 29.59 32.78 63.13 46.04 64.64 90.22 187.29 206.35 240.48 273.11 271.80 263.07 238.69 225.77 211.24 198.40 214.09 239.14 226.79 15.81 -1100.14 -1281.63 -1546.59 -3324.51 -3755.61 -3782.86 -3923.28 -4960.39 -5100.75 -5101.10 -5101.10 -5101.10 -5101.09 -5096.13 -5059.49 -5054.53 -5054.52 -5054.52 -5054.52 -5054.51 -5049.29 -5010.71 -5005.49 -5005.48 -5005.48 -5005.48 -5005.48 -5004.89 -5000.58 -5000.00 -5000.00 -5000.00 -5000.00 -5000.00 -5000.00 -5000.00
-5071.34 -5071.34 -5071.34 -5071.34 -5071.34 -5071.32 -5063.18 -5003.07 -4994.94 -4994.92 -4994.92 -4994.92 -4994.91 -4992.28 -4972.87 -4970.25 -4970.24 -4970.24 -4970.24 -4969.80 -4791.83 -3272.10 -1529.28 -1131.16 -1060.45 -1026.81 -1012.23 -833.15 384.59 580.58 601.36 644.80 682.89 716.14 740.39 844.20 886.98 907.78 927.37 921.67 913.75 864.94 602.95 547.39 530.35 530.11 530.88 529.04 517.19 533.18 554.05 553.84 553.78 560.98 545.86 577.40 836.32 865.50 890.18 921.50 939.81 915.24 884.16 690.67 656.08 632.42 592.90 546.12 512.73 466.21 319.94 287.44 247.29 236.51 233.83 226.15 216.23 168.06 163.70 168.35 174.44 204.41 209.06 175.61 23.64 51.60 25.76 36.16 54.90 75.27 109.34 201.94 222.38 262.80 300.30 323.82 322.13 283.45 243.65 186.65 189.17 200.06 169.48 132.36 -13.31 -1103.17 -1280.70 -1370.52 -2080.79 -3587.35 -3782.35 -3923.20 -4960.38 -5100.74 -5101.09 -5101.09 -5101.09 -5101.08 -5096.13 -5059.52 -5054.57 -5054.55 -5054.55 -5054.55 -5054.54 -5049.32 -5010.70 -5005.47 -5005.46 -5005.46 -5005.46 -5005.46 -5004.87 -5000.58 -5000.00 -5000.00 -5000.00 -5000.00 -5000.00 -5000.00 -5000.00
-5071.34 -5071.34 -5071.34 -5071.34 -5071.34 -5071.32 -5063.18 -5003.07 -4994.94 -4994.92 -4994.92 -4994.92 -4994.91 -4992.28 -4972.87 -4970.25 -4970.24 -4970.24 -4970.24 -4969.44 -4646.37 -2227.02 -1611.03 -1185.91 -1061.40 -1025.70 -1009.88 -824.78 404.57 615.03 612.96 648.59 687.30 701.99 727.64 837.95 870.99 889.92 912.27 913.18 913.04 875.85 609.13 557.76 543.28 532.43 532.09 530.29 530.55 544.36 548.50 547.90 557.48 587.80 573.41 611.47 856.73 917.95 960.48 979.04 1053.26 956.54 918.19 735.64 688.59 646.79 612.95 581.54 538.63 482.78 321.77 282.29 255.58 245.26 237.63 229.24 218.83 171.87 169.44 176.65 182.50 211.71 212.68 181.35 21.15 16.12 21.10 43.42 68.56 78.23 123.97 218.38 229.39 261.88 301.78 322.52 322.18 303.07 281.67 196.38 189.86 230.73 189.35 193.11 -43.07 -1122.22 -1282.21 -1501.73 -3318.27 -3755.50 -3782.77 -3923.20 -4960.38 -5100.74 -5101.09 -5101.09 -5101.09 -5101.08 -5096.13 -5059.52 -5054.57 -5054.55 -5054.55 -5054.55 -5054.54 -5049.32 -5010.70 -5005.47 -5005.46 -5005.46 -5005.46 -5005.46 -5004.87 -5000.58 -5000.00 -5000.00 -5000.00 -5000.00 -5000.00 -5000.00 -5000.00
-5071.35 -5071.35 -5071.35 -5071.35 -5071.35 -5071.33 -5063.19 -5003.07 -4994.94 -4994.92 -4994.92 -4994.92 -4994.91 -4992.28 -4972.87 -4970.24 -4970.24 -4970.24 -4970.24 -4969.80 -4792.37 -3479.69 -3080.75 -1480.22 -1088.68 -1017.05 -1010.94 -818.91 413.84 612.50 630.80 656.18 692.03 733.41 761.27 865.63 899.71 916.06 915.71 932.99 941.08 879.61 603.78 571.38 546.73 531.17 529.56 535.38 533.44 546.76 540.82 538.90 557.07 575.33 585.89 618.46 865.69 927.73 950.97 971.96 1007.93 932.04 877.73 678.25 640.83 626.83 615.87 584.15 546.83 493.57 320.85 276.44 265.81 256.76 245.79 237.21 224.21 178.92 181.63 176.70 177.34 185.66 198.49 195.87 26.36 8.39 20.69 66.43 82.28 98.45 114.09 233.20 245.76 283.38 323.30 386.12 394.96 250.86 232.79 200.39 141.42 222.12 266.78 235.47 -46.77 -1140.54 -1299.57 -1582.13 -3519.46 -3781.42 -3782.85 -3923.26 -4960.37 -5100.73 -5101.08 -5101.08 -5101.08 -5101.06 -5096.11 -5059.49 -5054.53 -5054.52 -5054.52 -5054.52 -5054.51 -5049.28 -5010.67 -5005.44 -5005.43 -5005.43 -5005.43 -5005.43 -5004.85 -5000.58 -5000.00 -5000.00 -5000.00 -5000.00 -5000.00 -5000.00 -5000.00
-5074.07 -5074.07 -5074.07 -5074.07 -5074.07 -5074.05 -5065.69 -5003.99 -4995.64 -4995.62 -4995.62 -4995.62 -4995.61 -4992.83 -4972.31 -4969.53 -4969.52 -4969.52 -4969.52 -4969.16 -4822.35 -3737.10 -3385.54 -1821.70 -1227.45 -1112.02 -1081.85 -885.54 390.07 594.72 620.00 650.59 672.57 722.82 751.41 814.43 836.46 876.57 902.43 914.67 889.83 839.46 572.11 545.55 529.92 496.65 512.46 505.29 504.86 532.49 530.76 532.12 542.94 547.05 543.54 589.80 873.53 927.98 956.88 947.63 913.63 883.08 845.94 657.68 626.12 613.95 591.99 572.57 545.34 510.82 336.85 295.49 286.52 276.25 262.23 252.27 237.97 190.08 192.63 190.59 188.27 191.40 209.75 202.24 62.32 41.33 37.06 53.65 82.71 129.36 129.36 227.68 278.14 323.41 329.54 324.26 381.03 222.68 207.68 139.53 118.49 181.18 258.26 126.10 -74.75 -1177.71 -1374.87 -1829.48 -3554.10 -3638.54 -3788.15 -3947.97 -4957.53 -5094.15 -5094.49 -5094.49 -5094.49 -5094.47 -5088.70 -5046.04 -5040.27 -5040.25 -5040.25 -5040.25 -5040.24 -5035.36 -4999.32 -4994.45 -4994.43 -4994.43 -4994.43 -4994.44 -4995.03 -4999.41 -5000.00 -5000.00 -5000.00 -5000.00 -5000.00 -5000.00 -5000.00
-5094.17 -5094.17 -5094.17 -5094.17 -5094.17 -5094.14 -5084.20 -5010.75 -5000.81 -5000.79 -5000.79 -5000.79 -5000.78 -4996.89 -4968.14 -4964.24 -4964.24 -4964.24 -4964.24 -4964.02 -4875.66 -4222.72 -4109.47 -3710.02 -2046.44 -1678.85 -1606.11 -1382.85 196.45 442.19 478.55 511.99 516.69 529.50 522.07 587.60 611.73 628.87 650.48 662.74 662.24 614.51 418.14 383.63 371.95 340.01 350.91 350.67 356.69 432.71 447.86 442.93 449.39 462.48 448.75 496.46 846.86 890.34 904.49 897.45 881.06 872.91 862.84 753.70 734.28 724.05 684.49 668.09 644.67 595.85 404.06 358.98 346.71 334.33 318.07 306.25 290.80 239.52 237.35 242.79 246.88 244.42 265.00 258.36 189.43 172.01 158.69 170.10 176.18 196.89 220.35 336.31 412.38 457.12 430.02 363.87 354.90 310.95 274.89 225.42 189.69 217.87 267.96 173.23 -43.30 -1371.62 -1668.58 -1989.65 -3395.13 -2537.19 -3824.65 -4130.56 -4936.52 -5045.52 -5045.79 -5045.79 -5045.79 -5045.76 -5033.95 -4946.68 -4934.87 -4934.84 -4934.84 -4934.84 -4934.83 -4932.53 -4915.50 -4913.20 -4913.19 -4913.19 -4913.19 -4913.22 -4922.46 -4990.74 -4999.98 -5000.00 -5000.00 -5000.00 -5000.00 -5000.00 -5000.00
-5096.89 -5096.89 -5096.89 -5096.89 -5096.89 -5096.86 -5086.70 -5011.67 -5001.51 -5001.49 -5001.49 -5001.49 -5001.48 -4997.43 -4967.57 -4963.53 -4963.52 -4963.52 -4963.52 -4963.32 -4882.87 -4288.38 -4207.37 -4007.04 -2468.36 -1786.04 -1666.34 -1457.40 144.69 405.62 454.04 426.54 432.69 456.72 513.67 584.74 642.67 635.77 611.37 624.60 613.70 565.72 377.61 339.34 320.41 299.38 319.31 323.60 333.21 409.08 419.57 416.89 403.84 440.09 451.23 489.54 839.61 860.77 866.26 869.72 893.86 920.13 918.62 842.26 771.66 742.68 733.33 710.14 682.15 617.97 425.81 385.42 370.14 354.41 335.95 322.91 306.53 250.84 248.75 253.27 260.40 258.42 259.82 275.02 194.10 192.70 181.62 182.01 206.31 203.52 229.03 354.84 423.18 441.63 416.02 367.52 343.27 304.28 256.85 228.56 201.87 213.34 178.18 153.68 -42.83 -1412.22 -1678.63 -1735.07 -1951.34 -2055.18 -3809.54 -4155.22 -4933.67 -5038.94 -5039.20 -5039.20 -5039.20 -5039.17 -5026.54 -4933.23 -4920.60 -4920.57 -4920.57 -4920.57 -4920.56 -4918.61 -4904.16 -4902.20 -4902.20 -4902.20 -4902.20 -4902.22 -4912.64 -4989.56 -4999.97 -5000.00 -5000.00 -5000.00 -5000.00 -5000.00 -5000.00
-5096.89 -5096.89 -5096.89 -5096.89 -5096.89 -5096.87 -5086.71 -5011.67 -5001.51 -5001.49 -5001.49 -5001.49 -5001.48 -4997.43 -4967.57 -4963.53 -4963.52 -4963.52 -4963.52 -4963.32 -4882.88 -4288.54 -4208.05 -4183.72 -3771.82 -1984.79 -1707.67 -1480.06 118.55 381.94 392.06 432.96 472.83 531.02 615.95 647.49 671.18 650.23 599.19 570.68 581.71 560.45 368.39 316.27 295.40 293.05 303.83 316.04 327.99 398.99 406.60 398.55 390.44 425.69 421.27 488.01 812.14 856.02 882.96 893.71 915.63 955.04 961.10 876.81 840.87 791.32 795.08 772.16 753.24 668.69 481.02 413.79 388.13 365.59 350.66 335.26 320.86 263.59 272.64 263.19 264.70 266.40 261.13 270.20 191.73 198.20 191.27 187.14 193.53 201.85 237.78 342.58 381.26 391.79 394.95 403.56 354.23 308.04 233.62 231.66 233.68 185.09 196.11 145.37 -46.67 -1422.31 -1620.15 -1627.94 -1691.81 -1989.66 -3805.16 -4155.28 -4933.67 -5038.93 -5039.19 -5039.19 -5039.19 -5039.16 -5026.53 -4933.20 -4920.57 -4920.53 -4920.53 -4920.53 -4920.53 -4918.57 -4904.13 -4902.18 -4902.17 -4902.17 -4902.17 -4902.20 -4912.61 -4989.56 -4999.97 -5000.00 -5000.00 -5000.00 -5000.00 -5000.00 -5000.00
-5096.89 -5096.89 -5096.89 -5096.89 -5096.89 -5096.87 -5086.71 -5011.67 -5001.51 -5001.49 -5001.49 -5001.49 -5001.48 -4997.43 -4967.57 -4963.53 -4963.52 -4963.52 -4963.52 -4963.32 -4882.88 -4288.54 -4208.11 -4207.25 -3966.50 -2166.31 -1741.11 -1490.55 105.99 362.04 396.72 521.04 555.25 675.85 643.93 673.78 647.74 575.19 547.57 545.35 569.73 533.89 348.76 313.96 318.52 298.17 286.28 305.22 316.16 380.91 393.61 405.62 397.93 392.04 416.72 483.24 813.84 850.72 894.53 898.76 928.30 938.78 961.78 852.50 838.93 823.21 808.83 821.81 829.04 785.61 540.68 447.74 411.25 383.14 364.42 349.98 344.32 280.69 272.67 272.56 272.29 275.76 272.80 259.05 191.02 198.75 206.87 198.72 198.80 197.14 226.74 330.32 375.20 380.80 380.19 411.90 364.22 368.68 240.18 209.77 187.03 173.35 163.32 134.89 -56.06 -1401.41 -1597.52 -1637.05 -1706.21 -2027.21 -3810.10 -4155.29 -4933.67 -5038.93 -5039.19 -5039.19 -5039.19 -5039.16 -5026.53 -4933.20 -4920.57 -4920.53 -4920.53 -4920.53 -4920.53 -4918.57 -4904.13 -4902.18 -4902.17 -4902.17 -4902.17 -4902.20 -4912.61 -4989.56 -4999.97 -5000.00 -5000.00 -5000.00 -5000.00 -5000.00 -5000.00
-5096.86 -5096.86 -5096.86 -5096.86 -5096.86 -5096.83 -5086.68 -5011.64 -5001.48 -5001.46 -5001.46 -5001.46 -5001.45 -4997.41 -4967.60 -4963.56 -4963.55 -4963.55 -4963.55 -4963.35 -4882.93 -4288.65 -4207.86 -4207.47 -3983.30 -2287.97 -1771.96 -1504.01 90.26 334.87 386.44 481.89 533.17 582.32 559.66 543.68 557.33 562.62 573.17 554.02 541.99 501.25 338.30 313.13 276.88 259.36 268.40 290.93 294.63 378.35 396.20 406.72 411.72 406.84 425.16 472.63 788.46 827.34 838.53 859.71 886.32 905.85 901.20 788.53 775.12 777.65 790.61 810.36 805.24 755.09 561.78 469.97 427.09 396.93 389.05 369.71 368.11 301.43 283.07 283.41 285.98 287.27 299.19 273.86 184.24 204.37 219.76 207.47 208.83 202.52 231.42 339.37 368.35 371.22 358.30 370.86 379.52 351.63 241.99 244.30 164.85 159.23 144.96 123.90 -63.71 -1389.55 -1565.86 -1626.68 -1710.53 -1982.06 -3803.94 -4155.43 -4933.67 -5038.91 -5039.17 -5039.17 -5039.17 -5039.14 -5026.51 -4933.20 -4920.58 -4920.55 -4920.55 -4920.55 -4920.54 -4918.58 -4904.13 -4902.17 -4902.17 -4902.17 -4902.17 -4902.19 -4912.61 -4989.56 -4999.97 -5000.00 -5000.00 -5000.00 -5000.00 -5000.00 -5000.00
-5083.89 -5083.89 -5083.89 -5083.89 -5083.89 -5083.86 -5073.89 -5000.17 -4990.19 -4990.17 -4990.17 -4990.17 -4990.16 -4988.70 -4977.86 -4976.40 -4976.39 -4976.39 -4976.39 -4976.21 -4901.96 -4330.59 -4107.80 -4255.30 -4079.17 -2551.97 -1952.35 -1611.66 18.07 259.64 304.25 358.67 403.14 424.71 401.44 421.35 434.48 445.63 475.11 476.19 479.53 446.89 332.75 312.63 277.61 272.70 285.22 305.30 316.76 400.54 426.56 441.18 446.92 462.29 456.18 485.87 774.19 809.37 817.44 848.14 898.51 913.49 908.66 783.36 767.66 786.48 787.40 761.75 757.84 709.16 517.78 492.00 429.52 390.27 366.41 355.79 337.65 287.46 291.34 304.90 296.61 292.96 309.02 281.59 201.52 181.40 191.38 208.91 223.09 208.83 231.13 322.10 362.46 349.08 331.78 327.09 336.59 344.29 257.88 261.46 161.63 142.04 131.90 123.85 -52.47 -1439.93 -1635.59 -1706.40 -1768.99 -2298.61 -3911.12 -4220.48 -4936.63 -5033.48 -5033.72 -5033.72 -5033.72 -5033.69 -5022.14 -4936.77 -4925.21 -4925.19 -4925.19 -4925.19 -4925.18 -4922.65 -4903.95 -4901.42 -4901.42 -4901.42 -4901.42 -4901.44 -4911.94 -4989.48 -4999.97 -5000.00 -5000.00 -5000.00 -5000.00 -5000.00 -5000.00
-4988.04 -4988.04 -4988.04 -4988.04 -4988.04 -4988.02 -4979.36 -4915.40 -4906.75 -4906.73 -4906.73 -4906.73 -4906.77 -4924.29 -5053.73 -5071.24 -5071.29 -5071.29 -5071.29 -5071.22 -5042.59 -4640.35 -3345.04 -4439.80 -4758.70 -4418.29 -2957.27 -2166.79 -349.89 -115.89 -82.65 -55.44 -52.65 -45.89 -21.43 55.96 106.39 99.99 118.07 135.57 150.19 189.24 417.79 456.42 464.65 460.69 452.49 468.91 499.27 661.34 684.51 681.70 704.27 712.31 705.10 709.47 768.25 780.19 790.07 826.41 872.28 881.77 871.27 699.73 672.38 682.40 646.14 633.12 634.86 582.10 394.15 345.27 319.44 282.29 262.40 253.52 234.05 185.29 208.46 224.81 222.86 229.34 226.75 219.85 213.66 196.43 204.98 221.66 241.98 236.94 252.51 284.41 319.33 293.78 252.81 251.01 278.01 306.95 302.98 258.66 157.76 135.10 125.27 137.27 -104.90 -1926.84 -2176.66 -2235.44 -2574.35 -4234.69 -4640.37 -4700.97 -4958.47 -4993.31 -4993.39 -4993.39 -4993.39 -4993.38 -4989.77 -4963.09 -4959.48 -4959.47 -4959.47 -4959.47 -4959.45 -4952.68 -4902.65 -4895.88 -4895.86 -4895.86 -4895.86 -4895.89 -4906.98 -4988.89 -4999.97 -5000.00 -5000.00 -5000.00 -5000.00 -5000.00 -5000.00
-4975.07 -4975.07 -4975.07 -4975.07 -4975.07 -4975.04 -4966.57 -4903.93 -4895.46 -4895.43 -4895.43 -4895.43 -4895.48 -4915.57 -5063.99 -5084.08 -5084.13 -5084.13 -5084.13 -5084.07 -5061.68 -4704.15 -3237.87 -3240.57 -4682.50 -4851.66 -4434.77 -2450.63 -412.15 -168.94 -157.02 -147.02 -147.09 -143.97 -118.54 -24.70 11.37 21.73 32.19 57.77 53.84 111.14 419.93 473.66 481.96 484.94 481.25 487.23 501.40 671.41 704.60 717.17 725.28 746.78 722.58 750.46 765.06 772.89 806.91 801.11 822.04 833.34 818.16 636.78 614.14 609.02 593.74 611.53 583.90 546.64 358.38 325.19 299.64 271.49 258.68 247.93 220.92 181.34 208.97 261.20 235.28 252.49 198.61 190.04 205.39 197.47 209.80 230.61 245.90 253.76 277.49 307.71 295.98 265.02 257.54 259.71 308.03 338.16 360.09 200.34 145.08 137.28 138.13 139.81 -131.48 -2036.88 -2294.44 -2439.86 -2919.82 -4525.65 -4738.96 -4766.00 -4961.42 -4987.87 -4987.93 -4987.93 -4987.93 -4987.93 -4985.39 -4966.65 -4964.12 -4964.11 -4964.11 -4964.11 -4964.09 -4956.75 -4902.48 -4895.13 -4895.11 -4895.11 -4895.11 -4895.14 -4906.31 -4988.81 -4999.97 -5000.00 -5000.00 -5000.00 -5000.00 -5000.00 -5000.00
-4975.03 -4975.03 -4975.03 -4975.03 -4975.03 -4975.01 -4966.54 -4903.90 -4895.43 -4895.41 -4895.41 -4895.41 -4895.46 -4915.55 -5064.02 -5084.11 -5084.16 -5084.16 -5084.16 -5084.11 -5062.15 -4876.47 -4488.26 -3248.64 -4660.98 -4877.34 -4672.29 -2867.28 -485.09 -183.54 -174.48 -166.93 -163.62 -160.52 -140.38 -57.41 -34.96 -27.97 -6.08 20.81 45.64 105.55 417.45 453.69 460.44 473.14 481.19 491.65 514.65 686.35 707.16 713.09 704.14 724.86 722.83 738.57 771.29 766.53 787.78 782.79 787.56 797.75 789.75 599.37 578.06 575.15 566.92 569.79 553.27 533.55 351.35 298.37 277.06 267.82 251.95 239.04 222.73 190.61 224.39 293.59 255.70 223.62 178.86 159.00 180.49 184.34 201.38 225.29 242.59 283.31 321.58 337.15 293.19 259.23 245.15 271.00 266.59 271.38 200.19 157.68 132.68 141.72 137.77 116.77 -207.63 -2102.95 -2394.17 -2675.29 -4309.80 -4713.73 -4739.67 -4766.16 -4961.43 -4987.86 -4987.92 -4987.92 -4987.92 -4987.92 -4985.38 -4966.66 -4964.13 -4964.12 -4964.12 -4964.12 -4964.11 -4956.76 -4902.47 -4895.13 -4895.11 -4895.11 -4895.11 -4895.14 -4906.30 -4988.81 -4999.97 -5000.00 -5000.00 -5000.00 -5000.00 -5000.00 -5000.00
-4975.03 -4975.03 -4975.03 -4975.03 -4975.03 -4975.01 -4966.54 -4903.90 -4895.43 -4895.41 -4895.41 -4895.41 -4895.46 -4915.55 -5064.02 -5084.11 -5084.16 -5084.16 -5084.16 -5084.11 -5062.21 -4899.87 -4687.15 -3467.67 -4687.53 -4877.91 -4853.26 -4209.42 -730.64 -214.84 -185.92 -185.87 -180.23 -175.26 -156.97 -73.79 -54.39 -54.66 -33.79 -11.70 13.22 70.83 380.60 425.99 434.49 454.07 472.50 475.39 501.91 671.81 673.85 695.98 708.58 696.57 709.36 728.77 779.45 781.35 778.84 782.46 778.70 796.58 767.39 571.40 545.14 544.32 547.00 529.55 533.66 552.16 349.81 286.53 267.56 268.28 249.31 235.68 232.23 205.18 232.57 262.41 225.11 177.18 148.36 139.75 171.77 183.54 207.11 237.49 291.21 341.99 412.32 375.60 309.76 294.67 293.07 304.29 227.17 192.15 178.39 190.72 140.27 128.32 109.06 36.52 -238.44 -2113.93 -2400.87 -2753.30 -4503.73 -4739.02 -4739.73 -4766.16 -4961.43 -4987.86 -4987.92 -4987.92 -4987.92 -4987.92 -4985.38 -4966.66 -4964.13 -4964.12 -4964.12 -4964.12 -4964.11 -4956.76 -4902.47 -4895.13 -4895.11 -4895.11 -4895.11 -4895.14 -4906.30 -4988.81 -4999.97 -5000.00 -5000.00 -5000.00 -5000.00 -5000.00 -5000.00
-4975.03 -4975.03 -4975.03 -4975.03 -4975.03 -4975.01 -4966.54 -4903.95 -4895.48 -4895.46 -4895.46 -4895.46 -4895.51 -4915.59 -5063.99 -5084.07 -5084.12 -5084.12 -5084.12 -5084.07 -5062.18 -4900.38 -4855.80 -4710.41 -4855.75 -4878.44 -4877.34 -4432.42 -1105.29 -332.09 -236.92 -218.34 -202.70 -189.54 -171.79 -88.48 -66.96 -70.13 -65.03 -57.85 -47.49 4.16 337.11 385.20 399.42 421.33 438.70 459.16 465.60 625.97 669.41 668.64 683.85 687.03 693.37 740.64 782.15 802.97 794.58 780.47 778.55 784.85 745.37 544.54 518.83 509.19 508.99 506.75 523.25 511.18 308.64 266.54 260.73 274.11 249.36 242.25 238.22 214.67 237.35 262.76 192.68 152.72 135.42 130.24 165.54 189.14 228.10 280.16 368.97 484.04 461.59 420.95 326.70 287.37 279.87 198.35 155.26 135.59 134.94 133.35 128.78 112.22 32.20 -19.52 -273.57 -2145.42 -2385.75 -2700.33 -4497.27 -4739.10 -4739.77 -4766.19 -4961.42 -4987.84 -4987.91 -4987.91 -4987.91 -4987.90 -4985.37 -4966.67 -4964.14 -4964.13 -4964.13 -4964.13 -4964.12 -4956.77 -4902.52 -4895.18 -4895.16 -4895.16 -4895.16 -4895.18 -4906.35 -4988.81 -4999.97 -5000.00 -5000.00 -5000.00 -5000.00 -5000.00 -5000.00
-4974.14 -4974.14 -4974.14 -4974.14 -4974.14 -4974.12 -4968.07 -4923.31 -4917.26 -4917.24 -4917.24 -4917.24 -4917.28 -4933.29 -5051.56 -5067.57 -5067.61 -5067.61 -5067.61 -5067.56 -5049.71 -4917.77 -4899.86 -4899.46 -4899.81 -4899.87 -4899.28 -4661.06 -2714.93 -1070.38 -796.97 -576.58 -500.33 -469.73 -424.10 -250.44 -220.96 -216.46 -203.45 -203.04 -194.76 -129.59 277.90 349.91 359.12 377.19 374.21 381.55 405.77 571.77 608.05 621.55 637.08 657.55 651.28 670.97 715.70 731.73 739.63 746.93 708.87 703.47 666.71 498.40 476.62 465.56 466.57 475.49 496.35 456.94 268.38 240.45 241.69 240.96 238.90 241.61 236.29 216.77 228.80 225.43 150.19 129.02 114.65 116.70 146.71 178.05 229.27 328.75 468.80 514.80 394.91 222.57 157.24 157.16 133.31 42.08 -40.58 -59.87 -85.46 -100.61 -110.45 -194.91 -482.69 -586.93 -716.59 -2479.40 -2696.16 -3021.75 -4549.22 -4753.67 -4754.24 -4778.45 -4957.34 -4981.55 -4981.61 -4981.61 -4981.61 -4981.61 -4980.17 -4969.55 -4968.12 -4968.11 -4968.11 -4968.11 -4968.10 -4962.35 -4919.90 -4914.15 -4914.14 -4914.14 -4914.14 -4914.16 -4923.30 -4990.84 -4999.98 -5000.00 -5000.00 -5000.00 -5000.00 -5000.00 -5000.00
-4967.53 -4967.53 -4967.53 -4967.53 -4967.53 -4967.56 -4979.34 -5066.38 -5078.16 -5078.19 -5078.19 -5078.19 -5078.15 -5064.04 -4959.75 -4945.63 -4945.60 -4945.60 -4945.60 -4945.63 -4957.57 -5045.82 -5057.77 -5057.80 -5057.80 -5057.80 -5057.70 -5019.12 -4709.20 -4482.31 -4268.57 -2916.94 -2631.40 -2353.81 -2163.07 -1320.36 -1198.94 -1191.83 -1170.90 -1168.45 -1159.21 -1017.87 -59.73 96.03 110.49 112.70 103.28 112.96 123.36 239.48 262.87 284.98 321.20 366.58 341.39 330.05 327.79 357.75 358.39 353.35 316.49 292.05 286.09 315.76 328.37 319.37 329.93 346.81 338.89 297.85 160.36 139.76 141.76 145.71 152.74 157.77 154.39 137.07 146.26 152.13 77.61 66.22 57.95 55.92 21.74 44.37 91.18 170.53 243.86 291.73 126.05 -990.53 -1158.89 -1090.82 -1338.90 -1393.74 -1408.36 -1454.66 -1702.89 -1996.95 -2132.16 -2347.85 -3702.88 -3894.57 -3958.65 -4539.59 -4615.96 -4655.96 -4836.89 -4861.08 -4861.16 -4869.03 -4927.19 -4935.07 -4935.09 -4935.09 -4935.09 -4935.10 -4941.75 -4990.87 -4997.51 -4997.53 -4997.53 -4997.53 -4997.54 -5003.60 -5048.32 -5054.37 -5054.39 -5054.39 -5054.39 -5054.37 -5048.58 -5005.80 -5000.01 -5000.00 -5000.00 -5000.00 -5000.00 -5000.00 -5000.00
-4966.63 -4966.63 -4966.63 -4966.63 -4966.63 -4966.67 -4980.86 -5085.74 -5099.94 -5099.97 -5099.97 -5099.97 -5099.93 -5081.74 -4947.32 -4929.13 -4929.09 -4929.09 -4929.09 -4929.13 -4945.10 -5063.16 -5079.13 -5079.17 -5079.17 -5079.17 -5079.13 -5064.34 -4954.95 -4939.63 -4915.01 -4732.28 -4509.25 -3068.91 -2480.02 -1481.75 -1339.81 -1332.05 -1320.70 -1312.73 -1297.87 -1147.70 -129.38 52.79 75.61 56.13 44.57 47.60 53.90 169.50 194.69 237.20 256.17 295.91 312.33 298.34 289.02 293.16 288.02 311.63 274.92 236.91 222.73 283.80 289.67 287.03 293.41 316.41 299.71 264.34 141.83 120.72 126.34 141.33 148.13 147.82 142.36 112.49 84.76 71.76 49.51 46.37 41.76 37.35 -5.99 15.86 75.87 106.70 158.56 195.74 61.64 -1146.09 -1284.59 -1500.59 -1574.08 -1600.22 -1672.69 -1982.41 -2541.03 -3723.06 -3876.14 -3892.02 -4071.48 -4105.93 -4168.71 -4609.44 -4849.36 -4874.97 -4875.55 -4875.61 -4875.63 -4881.29 -4923.12 -4928.78 -4928.79 -4928.79 -4928.79 -4928.81 -4936.55 -4993.75 -5001.49 -5001.51 -5001.51 -5001.51 -5001.53 -5009.18 -5065.70 -5073.35 -5073.37 -5073.37 -5073.37 -5073.35 -5065.54 -5007.83 -5000.02 -5000.00 -5000.00 -5000.00 -5000.00 -5000.00 -5000.00
-4966.63 -4966.63 -4966.63 -4966.63 -4966.63 -4966.67 -4980.87 -5085.79 -5099.99 -5100.02 -5100.02 -5100.02 -5099.98 -5081.78 -4947.29 -4929.09 -4929.05 -4929.05 -4929.05 -4929.09 -4945.07 -5063.20 -5079.18 -5079.22 -5079.22 -5079.22 -5079.19 -5064.45 -4955.56 -4940.82 -4940.73 -4940.21 -4914.15 -4535.49 -2947.53 -1570.99 -1387.31 -1363.29 -1346.50 -1313.04 -1305.42 -1160.06 -152.08 8.86 36.85 19.98 13.86 20.79 53.21 173.97 191.92 212.23 241.39 301.09 317.70 308.22 282.12 277.15 278.34 300.15 260.07 224.96 216.78 270.67 282.21 278.20 278.07 303.21 278.70 253.73 137.11 122.98 129.64 145.30 164.11 145.57 154.20 77.52 53.25 45.22 36.96 45.12 33.64 27.18 -16.62 1.94 41.82 65.86 138.82 172.71 125.20 -1086.86 -1285.12 -1539.18 -1587.12 -1677.61 -2281.37 -3486.02 -3693.36 -2659.99 -2418.05 -2302.25 -2279.70 -2344.96 -2448.15 -3026.40 -4455.68 -4846.89 -4875.58 -4875.65 -4875.66 -4881.32 -4923.11 -4928.76 -4928.77 -4928.77 -4928.77 -4928.79 -4936.54 -4993.76 -5001.50 -5001.52 -5001.52 -5001.52 -5001.54 -5009.19 -5065.74 -5073.40 -5073.42 -5073.42 -5073.42 -5073.40 -5065.58 -5007.83 -5000.02 -5000.00 -5000.00 -5000.00 -5000.00 -5000.00 -5000.00
-4966.63 -4966.63 -4966.63 -4966.63 -4966.63 -4966.67 -4980.87 -5085.79 -5099.99 -5100.02 -5100.02 -5100.02 -5099.98 -5081.78 -4947.29 -4929.09 -4929.05 -4929.05 -4929.05 -4929.09 -4945.07 -5063.20 -5079.18 -5079.22 -5079.22 -5079.22 -5079.19 -5064.45 -4955.56 -4940.82 -4940.79 -4940.79 -4940.66 -4913.86 -4384.88 -1834.03 -1424.96 -1416.56 -1391.50 -1332.06 -1309.74 -1164.84 -149.47 38.06 31.39 3.76 27.14 29.09 69.98 225.38 223.19 263.43 278.48 346.15 338.83 319.35 259.62 275.18 284.56 293.58 235.50 209.07 208.95 280.60 286.57 275.59 270.58 279.47 274.40 254.76 138.82 127.05 133.97 148.74 137.62 111.10 86.87 58.56 38.59 29.78 25.32 24.89 28.37 24.56 -19.14 -5.60 15.86 44.39 87.95 167.90 63.17 -1085.87 -1222.83 -1500.99 -1623.84 -2152.66 -3486.85 -2447.06 -2398.43 -2232.46 -2201.15 -2013.05 -1945.38 -1925.67 -2016.65 -2503.82 -2901.92 -4641.49 -4875.07 -4875.65 -4875.66 -4881.32 -4923.11 -4928.76 -4928.77 -4928.77 -4928.77 -4928.79 -4936.54 -4993.76 -5001.50 -5001.52 -5001.52 -5001.52 -5001.54 -5009.19 -5065.74 -5073.40 -5073.42 -5073.42 -5073.42 -5073.40 -5065.58 -5007.83 -5000.02 -5000.00 -5000.00 -5000.00 -5000.00 -5000.00 -5000.00
-4966.61 -4966.61 -4966.61 -4966.61 -4966.61 -4966.65 -4980.85 -5085.78 -5099.98 -5100.02 -5100.02 -5100.02 -5099.97 -5081.77 -4947.29 -4929.09 -4929.04 -4929.04 -4929.04 -4929.08 -4945.07 -5063.16 -5079.14 -5079.18 -5079.18 -5079.18 -5079.14 -5064.41 -4955.59 -4940.87 -4940.83 -4940.83 -4940.83 -4939.97 -4620.25 -2218.07 -1569.95 -1487.47 -1444.95 -1367.70 -1317.03 -1157.75 -146.76 48.94 21.19 -9.06 -1.75 17.31 71.96 307.30 293.07 279.66 349.00 481.97 355.93 283.00 221.38 242.22 278.93 285.58 239.70 201.01 198.95 271.89 283.53 281.67 272.35 276.60 281.04 269.13 159.61 136.27 137.54 167.23 151.67 129.50 97.17 51.39 33.43 23.13 20.21 19.39 22.57 21.64 -24.07 -15.30 4.70 33.07 69.36 112.61 39.17 -1119.86 -1238.41 -1412.26 -1805.99 -3615.81 -3809.48 -2287.35 -3485.38 -2442.17 -2158.15 -2037.74 -1935.07 -2104.79 -2231.11 -2714.54 -2890.88 -4636.50 -4875.05 -4875.64 -4875.65 -4881.31 -4923.09 -4928.75 -4928.76 -4928.76 -4928.76 -4928.78 -4936.52 -4993.74 -5001.48 -5001.50 -5001.50 -5001.50 -5001.52 -5009.17 -5065.74 -5073.39 -5073.41 -5073.41 -5073.41 -5073.39 -5065.58 -5007.83 -5000.02 -5000.00 -5000.00 -5000.00 -5000.00 -5000.00 -5000.00
-4958.76 -4958.76 -4958.76 -4958.76 -4958.76 -4958.80 -4973.63 -5083.17 -5098.00 -5098.04 -5098.04 -5098.04 -5097.99 -5079.88 -4946.04 -4927.93 -4927.88 -4927.88 -4927.88 -4927.92 -4941.98 -5045.89 -5059.95 -5059.99 -5059.99 -5059.99 -5059.96 -5049.03 -4968.27 -4957.34 -4957.31 -4957.31 -4957.31 -4956.97 -4819.34 -3633.89 -2211.38 -1878.30 -1621.55 -1505.11 -1414.57 -1255.41 -196.95 -40.49 -36.06 -46.58 -34.86 -7.33 62.27 252.37 344.68 349.81 345.37 373.06 339.92 236.30 190.34 181.22 228.79 249.28 217.61 172.40 182.33 268.54 293.66 287.61 279.22 280.09 280.14 269.55 160.38 120.28 113.79 120.58 115.83 102.29 61.26 31.12 23.58 18.92 16.70 15.64 17.26 11.03 -80.25 -81.02 -62.85 -43.41 -22.13 17.66 -51.56 -1254.54 -1488.50 -1670.17 -2148.54 -3930.31 -3911.22 -2104.30 -2495.14 -2387.22 -2422.98 -2169.92 -2140.51 -2267.84 -2400.74 -2988.97 -3226.73 -4674.02 -4870.55 -4871.04 -4871.05 -4876.67 -4918.19 -4923.80 -4923.82 -4923.82 -4923.82 -4923.84 -4931.19 -4985.50 -4992.85 -4992.87 -4992.87 -4992.87 -4992.89 -5001.19 -5062.59 -5070.90 -5070.92 -5070.92 -5070.92 -5070.90 -5063.35 -5007.57 -5000.02 -5000.00 -5000.00 -5000.00 -5000.00 -5000.00 -5000.00
-4900.78 -4900.78 -4900.78 -4900.78 -4900.78 -4900.83 -4920.26 -5063.90 -5083.34 -5083.39 -5083.39 -5083.39 -5083.34 -5065.87 -4936.80 -4919.33 -4919.29 -4919.29 -4919.29 -4919.29 -4919.17 -4918.33 -4918.22 -4918.22 -4918.22 -4918.22 -4918.26 -4935.39 -5061.93 -5079.05 -5079.10 -5079.10 -5079.10 -5078.99 -5038.10 -4713.51 -4500.95 -4249.85 -2673.32 -2329.01 -2224.66 -2015.29 -503.11 -291.87 -280.27 -276.29 -256.78 -257.02 -185.04 98.11 181.25 164.22 141.88 144.87 90.12 48.81 85.85 125.37 102.17 172.37 155.66 95.07 130.10 258.70 300.06 291.60 286.19 294.46 293.34 276.05 140.76 90.09 82.18 79.67 71.77 67.58 30.96 1.59 -1.78 0.26 -3.11 -5.97 -5.21 -54.29 -449.90 -491.74 -477.01 -459.95 -442.23 -415.15 -537.51 -1948.49 -2324.05 -2632.89 -4388.72 -4830.40 -4621.32 -2910.75 -3031.75 -3209.21 -4083.97 -2728.30 -2712.82 -3027.94 -3193.25 -4450.92 -4642.15 -4813.75 -4836.98 -4837.03 -4837.05 -4842.40 -4881.92 -4887.27 -4887.29 -4887.29 -4887.29 -4887.30 -4891.75 -4924.62 -4929.07 -4929.08 -4929.08 -4929.08 -4929.11 -4942.25 -5039.31 -5052.45 -5052.48 -5052.48 -5052.48 -5052.47 -5046.88 -5005.60 -5000.01 -5000.00 -5000.00 -5000.00 -5000.00 -5000.00 -5000.00
-4892.93 -4892.93 -4892.93 -4892.93 -4892.93 -4892.98 -4913.04 -5061.29 -5081.35 -5081.40 -5081.40 -5081.40 -5081.36 -5063.98 -4935.55 -4918.17 -4918.12 -4918.12 -4918.12 -4918.12 -4916.09 -4901.07 -4899.04 -4899.03 -4899.03 -4899.03 -4899.08 -4920.00 -5074.60 -5095.53 -5095.58 -5095.58 -5095.58 -5095.50 -5064.67 -4836.81 -4805.04 -4594.87 -3002.77 -2477.70 -2353.38 -2125.43 -544.11 -332.58 -317.86 -316.67 -312.87 -280.76 -200.26 61.20 147.79 122.72 92.98 59.92 33.13 33.67 92.35 85.87 63.79 130.91 123.61 104.93 114.11 256.97 285.14 279.95 273.87 283.88 281.58 247.04 112.71 87.88 62.94 42.06 36.72 30.07 20.30 -4.64 -8.16 -7.70 -9.67 -13.08 -12.20 -65.73 -499.34 -547.72 -534.56 -512.96 -472.87 -455.61 -572.47 -2062.34 -2483.74 -3102.69 -4737.91 -4952.38 -4760.17 -3501.87 -4560.41 -4582.97 -3480.77 -3268.00 -4513.61 -4724.60 -4735.03 -4820.22 -4831.92 -4832.38 -4832.43 -4832.43 -4832.45 -4837.76 -4877.02 -4882.33 -4882.34 -4882.34 -4882.34 -4882.35 -4886.41 -4916.38 -4920.44 -4920.45 -4920.45 -4920.45 -4920.48 -4934.27 -5036.16 -5049.95 -5049.99 -5049.99 -5049.99 -5049.97 -5044.65 -5005.33 -5000.01 -5000.00 -5000.00 -5000.00 -5000.00 -5000.00 -5000.00
