-5094.93 -5094.93 -5094.93 -5094.93 -5094.93 -5094.92 -5089.59 -5050.25 -5044.92 -5044.91 -5044.91 -5044.91 -5044.88 -5034.39 -4956.82 -4946.32 -4946.29 -4946.29 -4946.29 -4946.28 -4942.46 -4914.22 -4910.40 -4910.39 -4910.39 -4910.39 -4910.19 -4831.75 -4252.15 -4173.71 -4173.46 -4150.64 -3977.30 -3918.79 -3834.57 -3259.68 -3181.62 -3182.20 -3183.55 -3220.22 -3418.08 -3553.41 -4353.52 -4461.78 -4462.05 -4462.05 -4462.05 -4462.15 -4501.08 -4788.77 -4827.70 -4827.80 -4827.80 -4827.80 -4827.84 -4843.33 -4957.79 -4973.28 -4973.32 -4973.32 -4973.32 -4973.28 -4957.92 -4844.43 -4829.07 -4829.03 -4829.03 -4829.03 -4828.62 -4661.48 -3426.40 -3258.73 -3231.05 -2839.57 -1367.87 -1107.14 -956.57 -185.76 -44.32 -22.91 6.87 39.94 37.11 59.24 185.15 228.80 192.91 197.30 180.19 206.04 253.03 601.20 618.33 603.70 887.08 720.09 491.01 -165.40 -3808.46 -4498.79 -4528.04 -4528.18 -4528.18 -4528.31 -4579.30 -4956.07 -5007.06 -5007.19 -5007.19 -5007.19 -5007.20 -5013.93 -5063.59 -5070.32 -5070.33 -5070.33 -5070.33 -5070.32 -5064.53 -5021.73 -5015.93 -5015.92 -5015.92 -5015.92 -5015.93 -5020.08 -5050.71 -5054.86 -5054.87 -5054.87 -5054.87 -5054.86 -5049.01 -5005.86 -5000.01 -5000.00 -5000.00 -5000.00 -5000.00 -5000.00 -5000.00
-5094.94 -5094.94 -5094.94 -5094.94 -5094.94 -5094.93 -5089.60 -5050.24 -5044.91 -5044.90 -5044.90 -5044.90 -5044.87 -5034.38 -4956.85 -4946.36 -4946.33 -4946.33 -4946.33 -4946.32 -4942.50 -4914.23 -4910.41 -4910.40 -4910.40 -4910.40 -4910.20 -4831.71 -4251.76 -4173.28 -4172.60 -3976.83 -2495.09 -2031.80 -1898.98 -1307.89 -1225.70 -1232.14 -1245.83 -1521.03 -3011.49 -3523.93 -4352.75 -4461.11 -4461.38 -4461.38 -4461.38 -4461.48 -4500.41 -4788.08 -4827.01 -4827.11 -4827.11 -4827.11 -4827.15 -4842.64 -4957.11 -4972.60 -4972.64 -4972.64 -4972.64 -4972.60 -4957.24 -4843.77 -4828.42 -4828.38 -4828.38 -4828.38 -4827.96 -4660.74 -3401.06 -3048.65 -2799.91 -1304.11 -839.39 -789.39 -709.62 -138.13 -42.06 -22.18 8.40 30.03 16.09 34.57 147.31 168.54 156.61 156.60 156.79 164.29 203.36 443.65 543.51 601.31 856.43 772.77 673.55 135.00 -2256.70 -4091.00 -4499.56 -4527.51 -4527.58 -4527.70 -4578.76 -4956.00 -5007.05 -5007.18 -5007.18 -5007.18 -5007.20 -5013.92 -5063.57 -5070.29 -5070.31 -5070.31 -5070.31 -5070.29 -5064.50 -5021.74 -5015.95 -5015.93 -5015.93 -5015.93 -5015.94 -5020.08 -5050.69 -5054.83 -5054.84 -5054.84 -5054.84 -5054.82 -5048.98 -5005.85 -5000.01 -5000.00 -5000.00 -5000.00 -5000.00 -5000.00 -5000.00
-5098.19 -5098.19 -5098.19 -5098.19 -5098.19 -5098.18 -5092.05 -5046.78 -5040.65 -5040.64 -5040.64 -5040.64 -5040.62 -5032.28 -4970.69 -4962.35 -4962.33 -4962.33 -4962.33 -4962.32 -4957.24 -4919.69 -4914.60 -4914.59 -4914.59 -4914.59 -4914.35 -4816.67 -4094.88 -3997.20 -3996.27 -3741.39 -1851.40 -1516.29 -1383.06 -809.19 -727.47 -733.50 -762.72 -839.40 -1272.73 -2959.39 -4067.53 -4189.89 -4190.20 -4190.20 -4190.20 -4190.29 -4228.35 -4509.49 -4547.54 -4547.63 -4547.63 -4547.63 -4547.67 -4563.81 -4683.08 -4699.23 -4699.27 -4699.27 -4699.27 -4699.23 -4684.74 -4577.69 -4563.20 -4563.17 -4563.17 -4563.17 -4562.66 -4387.41 -2913.73 -1339.74 -929.20 -693.91 -637.52 -662.82 -621.15 -99.32 -6.55 9.04 40.31 47.84 33.01 44.61 138.02 150.51 147.01 149.78 155.69 162.92 193.76 377.98 446.48 499.53 585.11 590.38 627.64 328.04 -1518.18 -2308.91 -4053.41 -4284.21 -4284.84 -4285.03 -4361.59 -4927.30 -5003.86 -5004.05 -5004.05 -5004.05 -5004.06 -5009.96 -5053.58 -5059.48 -5059.49 -5059.49 -5059.49 -5059.48 -5055.39 -5025.14 -5021.05 -5021.04 -5021.04 -5021.04 -5021.04 -5023.23 -5039.39 -5041.58 -5041.59 -5041.59 -5041.59 -5041.57 -5037.15 -5004.44 -5000.01 -5000.00 -5000.00 -5000.00 -5000.00 -5000.00 -5000.00
-5122.23 -5122.23 -5122.23 -5122.23 -5122.23 -5122.20 -5110.16 -5021.22 -5009.18 -5009.15 -5009.15 -5009.15 -5009.17 -5016.77 -5072.95 -5080.55 -5080.57 -5080.57 -5080.57 -5080.53 -5066.16 -4960.00 -4945.63 -4945.59 -4945.59 -4945.59 -4945.00 -4705.48 -2935.69 -2696.11 -2670.43 -2250.48 -453.66 -154.36 -35.87 263.61 315.21 325.98 322.56 259.29 157.73 -264.32 -1732.62 -1927.54 -1929.31 -1930.30 -1929.94 -1930.01 -1991.38 -2423.35 -2481.85 -2482.48 -2482.55 -2482.55 -2482.60 -2503.54 -2658.29 -2679.23 -2679.29 -2679.29 -2679.29 -2679.27 -2671.20 -2611.59 -2603.47 -2603.08 -2603.38 -2602.88 -2573.95 -2160.66 -567.30 81.38 171.68 202.76 237.29 212.02 256.18 195.88 202.35 216.19 229.48 221.74 214.13 212.29 165.96 161.93 161.40 165.54 171.55 179.42 191.20 239.65 274.18 287.63 329.79 406.61 496.82 464.21 279.27 -220.22 -2023.26 -2462.54 -2491.14 -2491.93 -2756.95 -4715.22 -4980.24 -4980.90 -4980.90 -4980.90 -4980.90 -4980.76 -4979.75 -4979.61 -4979.61 -4979.61 -4979.61 -4979.63 -4988.06 -5050.31 -5058.73 -5058.75 -5058.75 -5058.75 -5058.72 -5046.47 -4955.95 -4943.70 -4943.67 -4943.67 -4943.67 -4943.69 -4949.68 -4993.99 -4999.99 -5000.00 -5000.00 -5000.00 -5000.00 -5000.00 -5000.00
-5125.48 -5125.48 -5125.48 -5125.48 -5125.48 -5125.45 -5112.62 -5017.76 -5004.92 -5004.89 -5004.89 -5004.89 -5004.91 -5014.67 -5086.79 -5096.54 -5096.57 -5096.57 -5096.57 -5096.53 -5080.91 -4965.45 -4949.83 -4949.79 -4949.79 -4949.79 -4949.15 -4690.44 -2778.81 -2519.59 -2312.66 -731.78 -96.35 -3.92 131.42 410.39 460.00 473.62 461.31 451.99 399.73 335.05 297.01 289.85 277.00 269.78 274.24 274.72 20.18 -1708.68 -1979.46 -2176.04 -2202.51 -2203.01 -2203.12 -2224.71 -2384.26 -2405.86 -2405.91 -2405.91 -2405.91 -2405.89 -2398.70 -2345.45 -2314.96 -2165.61 -2287.66 -2112.45 -1868.03 -281.96 214.55 301.48 320.25 335.07 335.66 326.68 364.08 289.75 241.80 240.09 242.77 237.36 231.77 222.95 164.98 159.43 162.26 167.83 174.85 182.81 193.16 217.53 263.98 302.09 348.49 385.30 502.91 575.41 425.22 303.82 -232.32 -1812.88 -2219.96 -2249.12 -2539.79 -4686.52 -4977.05 -4977.77 -4977.77 -4977.77 -4977.76 -4976.81 -4969.76 -4968.80 -4968.80 -4968.80 -4968.80 -4968.83 -4978.94 -5053.71 -5063.83 -5063.86 -5063.86 -5063.86 -5063.82 -5049.62 -4944.66 -4930.46 -4930.42 -4930.42 -4930.42 -4930.44 -4937.85 -4992.58 -4999.98 -5000.00 -5000.00 -5000.00 -5000.00 -5000.00 -5000.00
-5125.49 -5125.49 -5125.49 -5125.49 -5125.49 -5125.46 -5112.62 -5017.75 -5004.91 -5004.88 -5004.88 -5004.88 -5004.90 -5014.67 -5086.82 -5096.58 -5096.61 -5096.61 -5096.61 -5096.57 -5080.94 -4965.47 -4949.84 -4949.80 -4949.80 -4949.80 -4949.16 -4690.40 -2778.42 -2519.07 -2280.65 -497.61 -62.49 -10.47 137.48 431.65 481.10 492.79 486.53 469.42 464.84 454.93 585.05 585.52 556.28 555.68 568.55 570.83 510.90 41.70 -303.84 -1751.13 -2004.46 -2178.88 -2201.87 -2223.96 -2383.59 -2405.18 -2405.18 -2404.82 -2405.18 -2405.16 -2397.54 -2343.81 -2141.07 -860.90 -1710.82 -418.83 -130.31 110.12 310.95 360.31 335.41 329.45 333.92 335.72 351.55 366.06 241.24 233.48 232.62 227.30 227.30 219.75 169.38 161.82 162.40 167.43 173.50 180.01 193.72 219.23 270.77 259.01 292.34 331.92 525.08 665.18 590.75 319.26 223.52 -249.56 -1812.80 -2219.99 -2539.11 -4686.45 -4977.04 -4977.76 -4977.76 -4977.76 -4977.76 -4976.80 -4969.73 -4968.78 -4968.77 -4968.77 -4968.77 -4968.80 -4978.92 -5053.72 -5063.85 -5063.87 -5063.87 -5063.87 -5063.84 -5049.63 -4944.63 -4930.42 -4930.39 -4930.39 -4930.39 -4930.41 -4937.82 -4992.57 -4999.98 -5000.00 -5000.00 -5000.00 -5000.00 -5000.00 -5000.00
-5125.49 -5125.49 -5125.49 -5125.49 -5125.49 -5125.46 -5112.62 -5017.75 -5004.91 -5004.88 -5004.88 -5004.88 -5004.90 -5014.67 -5086.82 -5096.58 -5096.61 -5096.61 -5096.61 -5096.57 -5080.94 -4965.47 -4949.84 -4949.80 -4949.80 -4949.80 -4949.16 -4690.40 -2778.42 -2519.09 -2289.20 -562.06 -79.93 -6.06 133.16 430.99 497.87 502.59 502.70 481.31 494.89 514.17 681.72 681.17 653.61 650.85 641.29 632.93 588.12 297.53 164.67 -23.82 -487.90 -1800.21 -1998.88 -2199.21 -2382.88 -2404.50 -2381.85 -2236.59 -2381.82 -2381.72 -2205.43 -2120.86 -1899.84 -400.71 -130.03 56.00 109.56 157.15 320.23 373.66 335.71 327.49 337.78 376.41 380.93 376.44 246.84 225.78 228.11 218.68 222.30 224.78 172.64 173.79 165.10 168.00 174.20 181.10 201.70 233.02 249.26 239.82 261.79 338.28 548.88 563.74 689.09 415.30 321.43 190.56 -245.14 -1811.26 -2510.47 -4686.31 -4977.04 -4977.76 -4977.76 -4977.76 -4977.76 -4976.80 -4969.73 -4968.78 -4968.77 -4968.77 -4968.77 -4968.80 -4978.92 -5053.72 -5063.85 -5063.87 -5063.87 -5063.87 -5063.84 -5049.63 -4944.63 -4930.42 -4930.39 -4930.39 -4930.39 -4930.41 -4937.82 -4992.57 -4999.98 -5000.00 -5000.00 -5000.00 -5000.00 -5000.00 -5000.00
-5125.47 -5125.47 -5125.47 -5125.47 -5125.47 -5125.44 -5112.60 -5017.73 -5004.89 -5004.86 -5004.86 -5004.86 -5004.88 -5014.65 -5086.81 -5096.58 -5096.60 -5096.60 -5096.60 -5096.56 -5080.92 -4965.33 -4949.69 -4949.65 -4949.65 -4949.65 -4949.01 -4690.26 -2778.34 -2519.06 -2302.69 -665.02 -114.75 -6.80 152.87 450.90 487.15 483.96 469.85 480.18 510.12 540.30 697.88 709.71 693.56 687.86 685.03 680.33 617.73 341.19 269.51 261.09 176.24 -201.55 -444.42 -1782.89 -2123.77 -2152.07 -1977.37 -908.50 -1984.30 -1987.45 -723.08 -437.46 -298.35 30.22 100.53 127.61 147.87 172.43 327.30 372.76 372.95 348.78 338.48 378.89 432.49 402.09 261.30 238.36 236.24 226.69 228.44 226.62 178.69 170.58 167.63 170.74 177.00 189.35 202.11 218.11 233.80 239.42 274.18 409.45 501.19 537.68 539.63 477.27 368.79 274.13 227.08 -235.71 -2110.46 -4659.31 -4976.86 -4977.65 -4977.65 -4977.65 -4977.65 -4976.70 -4969.73 -4968.79 -4968.79 -4968.79 -4968.79 -4968.81 -4978.93 -5053.70 -5063.81 -5063.84 -5063.84 -5063.84 -5063.80 -5049.60 -4944.66 -4930.46 -4930.43 -4930.43 -4930.43 -4930.45 -4937.85 -4992.58 -4999.98 -5000.00 -5000.00 -5000.00 -5000.00 -5000.00 -5000.00
-5116.46 -5116.46 -5116.46 -5116.46 -5116.46 -5116.42 -5103.73 -5009.97 -4997.28 -4997.25 -4997.25 -4997.25 -4997.28 -5007.62 -5084.01 -5094.35 -5094.37 -5094.37 -5094.37 -5094.32 -5072.38 -4910.29 -4888.35 -4888.29 -4888.29 -4888.29 -4887.66 -4632.52 -2747.27 -2491.58 -2268.08 -582.86 -65.10 30.24 144.22 419.68 469.41 507.67 490.42 506.87 529.07 564.19 725.48 751.00 727.62 725.90 729.68 709.32 640.99 402.98 318.09 294.80 278.97 245.38 208.97 17.57 -173.61 -242.27 -170.11 -61.06 -221.40 -250.39 -22.40 61.24 81.62 83.19 112.71 134.51 148.83 168.16 319.89 360.41 412.00 405.04 328.42 337.40 456.75 434.70 294.99 256.37 243.37 233.35 227.75 221.27 159.06 164.93 164.00 162.56 169.15 205.22 221.57 232.64 233.04 247.81 255.70 330.17 318.57 372.41 429.76 375.35 360.10 401.99 360.18 219.50 -620.99 -4424.32 -4933.30 -4934.56 -4934.56 -4934.56 -4934.57 -4938.75 -4969.60 -4973.77 -4973.78 -4973.78 -4973.78 -4973.80 -4982.04 -5042.89 -5051.13 -5051.15 -5051.15 -5051.15 -5051.12 -5039.92 -4957.15 -4945.95 -4945.92 -4945.92 -4945.92 -4945.93 -4951.69 -4994.23 -4999.99 -5000.00 -5000.00 -5000.00 -5000.00 -5000.00 -5000.00
-5049.84 -5049.84 -5049.84 -5049.84 -5049.84 -5049.81 -5038.23 -4952.65 -4941.07 -4941.04 -4941.04 -4941.04 -4941.08 -4955.65 -5063.28 -5077.84 -5077.88 -5077.88 -5077.88 -5077.71 -5009.27 -4503.57 -4435.13 -4434.96 -4434.96 -4434.96 -4434.40 -4205.92 -2517.70 -2288.54 -2037.34 -174.26 190.82 250.00 330.05 547.54 579.37 609.54 614.38 647.76 656.69 671.37 826.91 829.29 822.89 799.12 790.10 762.73 708.92 523.64 486.12 470.62 419.65 409.16 405.23 402.40 378.57 369.00 350.08 327.53 364.17 354.29 313.33 111.56 69.73 79.94 91.87 100.44 111.98 144.83 182.24 213.13 256.31 241.93 168.86 160.08 328.25 369.69 304.05 266.58 230.62 209.02 191.41 174.28 88.05 79.92 84.60 90.35 94.90 120.93 170.86 215.06 179.77 170.16 166.25 189.20 220.02 282.69 445.87 473.94 495.67 727.30 476.42 378.47 -294.57 -4101.92 -4614.85 -4616.18 -4616.18 -4616.18 -4616.28 -4658.28 -4968.61 -5010.60 -5010.71 -5010.71 -5010.71 -5010.69 -5005.02 -4963.06 -4957.38 -4957.37 -4957.37 -4957.37 -4957.39 -4968.36 -5049.40 -5060.37 -5060.39 -5060.39 -5060.39 -5060.38 -5053.95 -5006.44 -5000.02 -5000.00 -5000.00 -5000.00 -5000.00 -5000.00 -5000.00
-5040.83 -5040.83 -5040.83 -5040.83 -5040.83 -5040.80 -5029.37 -4944.90 -4933.47 -4933.44 -4933.44 -4933.44 -4933.47 -4948.61 -5060.47 -5075.61 -5075.65 -5075.65 -5075.65 -5075.46 -5000.73 -4448.53 -4373.80 -4373.61 -4373.61 -4373.61 -4373.05 -4148.19 -2486.51 -2234.24 -1801.66 -16.42 278.51 324.14 392.62 586.49 605.02 605.21 632.37 657.88 672.60 697.77 855.03 848.78 822.29 803.00 808.20 795.25 726.81 545.04 516.18 506.93 487.97 478.13 457.25 452.49 439.40 426.84 417.37 409.31 413.76 420.06 370.32 120.43 72.22 88.65 97.42 104.64 114.42 154.82 208.10 243.02 223.78 194.56 159.81 173.92 319.26 320.48 321.79 306.48 267.07 241.87 224.36 183.06 87.19 70.67 76.72 82.55 99.35 111.37 154.86 207.01 161.24 139.75 144.88 169.30 231.54 288.57 439.29 441.98 573.05 821.81 716.35 426.57 -213.10 -3871.96 -4546.76 -4573.03 -4573.09 -4573.09 -4573.21 -4620.32 -4968.47 -5015.59 -5015.71 -5015.71 -5015.71 -5015.69 -5008.13 -4952.26 -4944.69 -4944.68 -4944.68 -4944.68 -4944.71 -4958.68 -5061.88 -5075.85 -5075.89 -5075.89 -5075.89 -5075.87 -5067.79 -5008.10 -5000.02 -5000.00 -5000.00 -5000.00 -5000.00 -5000.00 -5000.00
-5040.80 -5040.80 -5040.80 -5040.80 -5040.80 -5040.78 -5029.34 -4944.88 -4933.45 -4933.42 -4933.42 -4933.42 -4933.46 -4948.60 -5060.46 -5075.60 -5075.64 -5075.64 -5075.64 -5075.46 -5000.71 -4448.39 -4373.64 -4373.46 -4373.46 -4373.46 -4372.90 -4147.92 -2461.41 -1859.43 -320.27 222.40 343.73 359.46 406.96 599.33 628.97 647.92 646.33 650.31 669.52 691.66 840.57 852.42 805.76 811.82 799.68 792.06 730.07 551.22 525.03 517.87 509.16 504.72 499.00 494.40 483.48 453.41 437.63 434.47 432.27 428.68 388.76 117.71 93.07 99.95 114.85 128.61 147.58 158.87 201.02 219.03 180.33 159.99 159.48 152.20 288.20 319.83 243.32 247.35 231.60 229.99 257.64 213.49 135.21 80.15 80.27 83.55 129.30 136.51 143.95 183.79 161.91 131.03 132.59 152.23 209.79 313.72 404.48 403.58 482.30 715.65 767.46 442.23 20.03 -2478.15 -4358.37 -4572.39 -4572.98 -4572.98 -4573.10 -4620.23 -4968.47 -5015.60 -5015.72 -5015.72 -5015.72 -5015.70 -5008.13 -4952.23 -4944.66 -4944.64 -4944.64 -4944.64 -4944.68 -4958.65 -5061.92 -5075.89 -5075.93 -5075.93 -5075.93 -5075.91 -5067.82 -5008.10 -5000.02 -5000.00 -5000.00 -5000.00 -5000.00 -5000.00 -5000.00
-5040.80 -5040.80 -5040.80 -5040.80 -5040.80 -5040.78 -5029.34 -4944.88 -4933.45 -4933.42 -4933.42 -4933.42 -4933.46 -4948.60 -5060.46 -5075.60 -5075.64 -5075.64 -5075.64 -5075.46 -5000.71 -4448.39 -4373.64 -4373.46 -4373.46 -4373.46 -4372.84 -4123.51 -2102.24 -451.41 158.69 305.99 371.58 387.82 420.84 593.39 640.21 660.90 652.33 661.32 672.25 705.76 861.06 838.72 825.66 827.58 816.63 809.63 749.76 559.03 535.24 530.37 522.82 521.49 520.59 519.19 510.91 504.46 496.73 488.83 481.07 470.64 431.08 170.42 129.61 134.36 157.19 169.96 161.17 168.26 172.88 177.24 172.99 156.69 146.90 133.26 215.89 296.96 202.72 191.63 190.94 209.14 277.32 219.77 133.22 89.57 78.52 78.30 97.61 151.18 142.77 157.88 147.19 122.19 119.83 129.43 158.37 227.09 412.21 439.54 519.07 678.81 778.09 773.42 346.31 -2056.91 -4109.85 -4545.28 -4572.92 -4572.98 -4573.10 -4620.23 -4968.47 -5015.60 -5015.72 -5015.72 -5015.72 -5015.70 -5008.13 -4952.23 -4944.66 -4944.64 -4944.64 -4944.64 -4944.68 -4958.65 -5061.92 -5075.89 -5075.93 -5075.93 -5075.93 -5075.91 -5067.82 -5008.10 -5000.02 -5000.00 -5000.00 -5000.00 -5000.00 -5000.00 -5000.00
-5040.80 -5040.80 -5040.80 -5040.80 -5040.80 -5040.77 -5029.34 -4944.90 -4933.48 -4933.45 -4933.45 -4933.45 -4933.49 -4948.62 -5060.45 -5075.58 -5075.62 -5075.62 -5075.62 -5075.44 -5000.65 -4448.07 -4373.29 -4373.10 -4373.10 -4373.10 -4371.97 -3941.25 -709.04 127.12 227.99 295.57 361.20 389.39 413.46 619.35 641.87 665.32 680.99 671.35 688.90 692.53 849.18 857.40 846.07 838.67 835.53 807.51 765.65 575.06 544.95 540.58 537.60 536.71 538.20 534.25 528.16 522.92 517.86 510.33 503.77 493.70 448.14 177.58 143.72 171.89 168.93 180.66 191.32 179.81 170.70 179.86 169.61 170.95 162.76 129.98 192.07 317.75 190.82 161.38 173.63 191.36 233.55 212.78 147.66 110.34 83.32 79.25 83.54 107.01 117.29 118.51 125.59 112.34 111.19 113.15 123.02 164.05 361.07 528.24 575.46 655.80 833.21 575.83 173.58 -1831.67 -2623.15 -4344.79 -4572.30 -4572.87 -4572.98 -4620.13 -4968.48 -5015.63 -5015.75 -5015.75 -5015.75 -5015.73 -5008.16 -4952.23 -4944.66 -4944.64 -4944.64 -4944.64 -4944.68 -4958.65 -5061.92 -5075.90 -5075.93 -5075.93 -5075.93 -5075.91 -5067.83 -5008.10 -5000.02 -5000.00 -5000.00 -5000.00 -5000.00 -5000.00 -5000.00
-5037.80 -5037.80 -5037.80 -5037.80 -5037.80 -5037.78 -5027.94 -4955.28 -4945.44 -4945.42 -4945.42 -4945.42 -4945.45 -4958.46 -5054.61 -5067.62 -5067.65 -5067.65 -5067.65 -5067.43 -4978.26 -4319.35 -4230.18 -4229.96 -4229.90 -4229.39 -4200.39 -3551.20 -240.35 236.20 277.10 329.58 401.07 409.67 430.14 653.63 655.48 664.00 716.60 700.61 685.72 695.83 826.97 834.30 838.62 823.15 841.90 822.61 781.92 600.93 552.96 553.84 553.62 552.83 554.01 549.49 533.60 523.58 517.68 509.09 503.51 495.46 453.37 202.77 172.85 193.99 199.10 184.42 191.54 192.81 166.32 171.69 154.21 148.98 131.72 131.63 248.60 373.26 222.01 147.05 157.41 176.75 184.88 192.25 111.69 101.63 89.31 80.36 79.59 91.31 86.28 89.91 94.20 95.08 97.56 100.65 106.93 136.98 304.71 392.04 457.50 541.68 702.85 621.62 119.46 -1774.65 -2323.75 -4263.05 -4525.26 -4525.97 -4526.11 -4579.44 -4973.54 -5026.87 -5027.01 -5027.01 -5027.01 -5026.98 -5018.25 -4953.75 -4945.02 -4944.99 -4944.99 -4944.99 -4945.03 -4959.17 -5063.65 -5077.79 -5077.83 -5077.83 -5077.83 -5077.81 -5069.52 -5008.31 -5000.02 -5000.00 -5000.00 -5000.00 -5000.00 -5000.00 -5000.00
-5015.68 -5015.68 -5015.68 -5015.68 -5015.68 -5015.69 -5017.62 -5031.92 -5033.85 -5033.86 -5033.86 -5033.86 -5033.85 -5031.18 -5011.42 -5008.75 -5008.74 -5008.74 -5008.74 -5008.26 -4812.76 -3368.22 -3172.72 -3172.12 -3148.05 -2970.11 -2718.83 -1047.43 185.05 348.44 439.02 454.42 499.00 488.20 551.60 742.64 794.63 815.44 815.84 814.01 810.04 800.55 795.94 801.01 801.68 791.83 824.56 811.51 795.46 637.87 587.76 568.54 570.83 576.78 578.35 564.51 473.64 454.69 446.85 441.57 429.59 426.00 406.69 322.45 285.80 298.77 291.28 290.07 278.79 263.32 153.92 129.84 105.02 102.69 76.27 100.97 122.31 186.03 271.04 74.86 57.07 78.79 95.20 86.35 44.66 52.20 70.14 58.66 44.96 47.07 46.43 22.97 20.51 22.98 26.16 31.88 34.09 45.56 93.63 126.27 182.67 253.18 378.18 432.51 -38.90 -1472.76 -1913.09 -3710.47 -4151.50 -4179.40 -4179.72 -4278.80 -5010.88 -5109.96 -5110.21 -5110.21 -5110.21 -5110.16 -5092.85 -4964.93 -4947.62 -4947.57 -4947.57 -4947.57 -4947.61 -4962.97 -5076.46 -5091.82 -5091.86 -5091.86 -5091.86 -5091.84 -5082.06 -5009.80 -5000.02 -5000.00 -5000.00 -5000.00 -5000.00 -5000.00 -5000.00
-5012.69 -5012.69 -5012.69 -5012.69 -5012.69 -5012.70 -5016.22 -5042.29 -5045.82 -5045.82 -5045.82 -5045.82 -5045.81 -5041.02 -5005.58 -5000.78 -5000.77 -5000.77 -5000.77 -5000.25 -4790.36 -3239.50 -3029.55 -3005.15 -2655.47 -1305.81 -918.83 -499.85 259.00 447.39 483.68 487.81 506.00 508.93 552.95 760.97 821.03 844.74 844.43 851.31 828.58 828.29 819.23 799.16 813.36 804.05 823.75 816.33 796.29 665.75 602.31 574.61 569.25 573.16 575.90 567.47 471.44 452.10 448.06 444.81 432.31 433.18 429.02 321.85 302.49 304.66 302.17 294.35 288.34 271.31 156.04 130.02 96.76 81.84 59.36 78.76 82.41 88.08 95.16 41.03 44.77 69.83 100.11 94.19 40.24 31.56 53.01 60.19 46.63 50.85 49.91 24.34 18.11 17.32 21.42 26.80 29.92 34.39 61.51 84.89 107.30 141.94 269.31 363.77 52.58 -1388.64 -1609.88 -2167.82 -3903.12 -4132.01 -4132.84 -4238.11 -5015.94 -5121.21 -5121.47 -5121.47 -5121.47 -5121.42 -5102.95 -4966.44 -4947.97 -4947.92 -4947.92 -4947.92 -4947.96 -4963.49 -5078.20 -5093.72 -5093.76 -5093.76 -5093.76 -5093.74 -5083.75 -5010.01 -5000.02 -5000.00 -5000.00 -5000.00 -5000.00 -5000.00 -5000.00
-5012.68 -5012.68 -5012.68 -5012.68 -5012.68 -5012.69 -5016.22 -5042.31 -5045.84 -5045.85 -5045.85 -5045.85 -5045.84 -5041.04 -5005.56 -5000.76 -5000.75 -5000.75 -5000.75 -5000.23 -4790.31 -3239.18 -3028.71 -2830.34 -1332.92 -821.01 -602.44 -460.17 284.29 451.64 478.93 497.44 503.58 533.74 590.59 787.21 833.87 850.95 849.20 849.51 839.92 841.11 807.56 822.13 825.56 828.48 837.77 826.24 795.69 664.90 621.41 606.35 576.46 583.07 581.65 571.75 483.58 473.88 481.13 475.11 468.03 461.05 447.12 348.66 317.69 307.05 298.97 293.14 288.64 269.62 133.18 108.99 88.08 58.55 40.40 47.33 58.06 53.24 43.91 36.55 45.09 71.24 93.12 95.37 33.62 29.17 43.81 63.70 54.19 55.74 65.54 32.04 24.31 22.30 26.73 32.81 39.86 42.45 66.23 77.53 93.01 140.37 200.46 242.08 126.67 -1377.97 -1622.26 -1960.30 -3874.18 -4131.82 -4132.72 -4238.01 -5015.95 -5121.23 -5121.50 -5121.50 -5121.50 -5121.45 -5102.97 -4966.45 -4947.97 -4947.92 -4947.92 -4947.92 -4947.96 -4963.49 -5078.20 -5093.73 -5093.76 -5093.76 -5093.76 -5093.74 -5083.76 -5010.01 -5000.02 -5000.00 -5000.00 -5000.00 -5000.00 -5000.00 -5000.00
-5012.68 -5012.68 -5012.68 -5012.68 -5012.68 -5012.69 -5016.22 -5042.31 -5045.84 -5045.85 -5045.85 -5045.85 -5045.84 -5041.04 -5005.56 -5000.76 -5000.75 -5000.75 -5000.75 -5000.23 -4790.31 -3239.12 -3004.92 -2622.72 -1052.46 -661.45 -583.94 -453.57 327.55 454.42 477.23 482.37 506.60 537.81 589.98 803.87 835.62 853.05 879.08 882.15 848.91 858.57 837.74 834.48 827.28 854.77 852.47 826.09 796.99 682.40 654.85 632.49 630.70 639.41 629.52 605.43 507.46 492.90 498.67 516.26 504.90 485.48 473.26 364.63 331.27 324.83 307.21 299.93 307.73 281.16 121.08 101.12 87.44 59.01 38.28 40.05 49.18 45.99 38.04 35.63 40.38 60.26 79.91 76.61 35.68 36.16 44.44 62.33 61.99 62.05 74.43 42.35 33.56 32.21 36.89 45.04 48.18 55.33 97.52 99.70 110.07 145.68 172.55 221.08 6.51 -1404.18 -1626.51 -1958.92 -3873.93 -4131.82 -4132.72 -4238.01 -5015.95 -5121.23 -5121.50 -5121.50 -5121.50 -5121.45 -5102.97 -4966.45 -4947.97 -4947.92 -4947.92 -4947.92 -4947.96 -4963.49 -5078.20 -5093.73 -5093.76 -5093.76 -5093.76 -5093.74 -5083.76 -5010.01 -5000.02 -5000.00 -5000.00 -5000.00 -5000.00 -5000.00 -5000.00
-5012.70 -5012.70 -5012.70 -5012.70 -5012.70 -5012.70 -5016.23 -5042.30 -5045.83 -5045.84 -5045.84 -5045.84 -5045.83 -5041.03 -5005.55 -5000.75 -5000.74 -5000.74 -5000.74 -5000.22 -4790.31 -3238.73 -2827.87 -1307.79 -803.44 -620.93 -568.24 -424.58 316.85 448.20 483.26 493.92 503.01 554.40 592.32 815.80 857.24 881.43 883.41 872.79 882.34 857.00 827.74 829.85 862.71 856.51 829.36 806.74 773.28 669.78 670.23 658.01 661.46 662.09 644.61 640.50 538.97 528.93 515.01 549.94 524.35 535.13 516.82 383.93 349.22 344.81 329.40 313.35 328.16 278.08 123.13 94.89 73.46 48.18 37.61 42.08 50.27 41.76 35.90 36.03 40.98 58.08 79.98 64.93 55.39 55.80 46.29 53.94 61.13 71.78 76.18 52.15 45.94 48.81 53.86 63.02 66.91 72.77 112.63 116.28 120.55 152.70 156.39 192.50 0.54 -1336.04 -1630.63 -1969.83 -3875.11 -4131.73 -4132.63 -4237.92 -5015.94 -5121.23 -5121.49 -5121.49 -5121.49 -5121.44 -5102.97 -4966.47 -4948.00 -4947.95 -4947.95 -4947.95 -4947.99 -4963.51 -5078.18 -5093.70 -5093.74 -5093.74 -5093.74 -5093.72 -5083.74 -5010.00 -5000.02 -5000.00 -5000.00 -5000.00 -5000.00 -5000.00 -5000.00
-5019.00 -5019.00 -5019.00 -5019.00 -5019.00 -5019.01 -5021.23 -5037.65 -5039.87 -5039.88 -5039.88 -5039.88 -5039.86 -5035.37 -5002.18 -4997.68 -4997.67 -4997.67 -4997.67 -4997.17 -4793.05 -3260.44 -2663.12 -1042.17 -687.81 -634.04 -586.71 -462.46 305.82 458.88 502.40 512.20 521.01 555.67 628.77 851.40 851.37 864.76 880.47 884.12 883.67 870.91 814.13 828.81 833.71 834.80 803.64 797.53 758.68 683.21 669.75 654.51 656.50 663.77 666.74 627.68 588.31 581.78 570.80 589.04 570.14 594.60 567.96 448.43 404.18 386.60 367.01 347.17 350.40 294.22 137.35 103.78 84.36 64.58 59.54 62.28 69.20 58.11 49.82 50.61 57.95 72.31 90.75 69.62 32.51 39.25 60.61 56.97 69.11 88.25 83.89 74.26 76.08 81.67 89.81 100.99 107.33 93.41 120.03 122.49 131.88 155.20 175.42 266.22 17.36 -1217.13 -1578.35 -1924.77 -3836.75 -4094.37 -4095.28 -4204.27 -5009.55 -5118.54 -5118.81 -5118.81 -5118.81 -5118.76 -5101.81 -4976.55 -4959.60 -4959.56 -4959.56 -4959.56 -4959.59 -4972.88 -5071.05 -5084.33 -5084.37 -5084.37 -5084.37 -5084.34 -5075.36 -5009.00 -5000.02 -5000.00 -5000.00 -5000.00 -5000.00 -5000.00 -5000.00
-5065.59 -5065.59 -5065.59 -5065.59 -5065.59 -5065.57 -5058.14 -5003.25 -4995.83 -4995.81 -4995.81 -4995.81 -4995.80 -4993.59 -4977.21 -4974.99 -4974.99 -4974.99 -4974.99 -4974.59 -4813.29 -3421.92 -1709.57 -1124.80 -1028.23 -982.60 -957.76 -803.03 368.05 569.89 614.53 637.45 662.58 666.91 707.54 837.44 847.02 874.26 904.74 908.91 873.82 850.47 619.33 591.01 582.44 574.00 569.33 571.65 556.63 565.55 556.71 545.42 562.11 568.18 553.94 554.88 797.74 790.35 795.78 814.13 823.93 823.69 788.38 617.04 581.49 552.06 534.59 508.17 499.02 452.83 285.32 270.48 223.40 197.41 193.86 193.30 186.82 153.47 154.89 148.06 150.02 170.45 185.85 163.84 29.07 12.82 29.98 48.23 35.55 52.27 72.32 158.80 181.68 204.41 215.59 227.80 225.72 199.06 184.61 192.99 190.94 208.05 252.02 273.36 95.11 -1032.65 -1306.80 -1613.77 -3555.51 -3818.26 -3819.31 -3955.57 -4962.39 -5098.65 -5098.99 -5098.99 -5098.99 -5098.97 -5093.26 -5051.03 -5045.31 -5045.30 -5045.30 -5045.30 -5045.29 -5042.08 -5018.32 -5015.11 -5015.10 -5015.10 -5015.10 -5015.09 -5013.49 -5001.61 -5000.00 -5000.00 -5000.00 -5000.00 -5000.00 -5000.00 -5000.00
-5071.90 -5071.90 -5071.90 -5071.90 -5071.90 -5071.87 -5063.14 -4998.60 -4989.87 -4989.84 -4989.84 -4989.84 -4989.84 -4987.93 -4973.83 -4971.92 -4971.92 -4971.92 -4971.92 -4971.54 -4815.98 -3445.93 -1598.94 -1134.03 -1071.63 -1035.46 -1018.02 -843.06 380.67 584.77 626.19 651.05 675.60 690.80 713.16 812.87 845.81 868.68 908.04 899.61 892.05 851.57 596.91 549.98 538.77 533.73 522.84 517.96 505.83 548.56 555.10 562.05 534.73 556.60 556.48 558.39 824.05 835.89 863.52 884.86 892.23 884.31 856.18 667.86 637.88 617.35 584.03 551.22 520.34 463.72 299.67 263.79 233.30 219.19 218.01 214.86 205.31 159.46 158.35 159.14 158.97 173.51 191.56 172.16 29.28 26.26 29.45 59.80 42.71 61.31 87.06 185.36 204.59 238.72 271.35 270.04 261.32 237.67 230.15 216.35 203.52 219.21 244.25 231.91 20.48 -1098.74 -1280.67 -1545.63 -3323.55 -3754.65 -3781.90 -3921.92 -4956.01 -5095.96 -5096.31 -5096.31 -5096.31 -5096.30 -5092.10 -5061.11 -5056.91 -5056.90 -5056.90 -5056.90 -5056.89 -5051.44 -5011.19 -5005.74 -5005.72 -5005.72 -5005.72 -5005.72 -5005.11 -5000.61 -5000.00 -5000.00 -5000.00 -5000.00 -5000.00 -5000.00 -5000.00
-5071.91 -5071.91 -5071.91 -5071.91 -5071.91 -5071.89 -5063.15 -4998.59 -4989.85 -4989.83 -4989.83 -4989.83 -4989.82 -4987.92 -4973.82 -4971.92 -4971.91 -4971.91 -4971.91 -4971.47 -4793.25 -3271.59 -1528.51 -1130.39 -1059.68 -1026.04 -1011.46 -831.82 390.08 586.63 607.41 650.85 688.94 722.19 744.42 833.28 874.04 894.84 914.43 908.72 900.81 852.58 594.84 539.85 522.82 522.58 523.34 521.50 510.74 534.71 556.67 556.46 556.40 563.60 548.48 580.07 839.31 868.54 893.22 924.54 942.85 918.28 887.93 699.77 665.90 642.25 602.73 555.95 522.55 474.10 313.53 279.10 238.94 228.17 225.49 217.80 208.02 160.84 156.61 161.26 167.35 197.32 201.97 168.93 19.91 48.27 22.43 32.83 51.57 71.94 106.18 200.01 220.61 261.04 298.54 322.05 320.37 282.43 248.04 191.77 194.29 205.18 174.60 137.48 -8.64 -1101.77 -1279.74 -1369.56 -2079.83 -3586.39 -3781.39 -3921.83 -4955.99 -5095.95 -5096.30 -5096.30 -5096.30 -5096.29 -5092.10 -5061.13 -5056.94 -5056.93 -5056.93 -5056.93 -5056.92 -5051.47 -5011.17 -5005.71 -5005.70 -5005.70 -5005.70 -5005.70 -5005.09 -5000.61 -5000.00 -5000.00 -5000.00 -5000.00 -5000.00 -5000.00 -5000.00
-5071.91 -5071.91 -5071.91 -5071.91 -5071.91 -5071.89 -5063.15 -4998.59 -4989.85 -4989.83 -4989.83 -4989.83 -4989.82 -4987.92 -4973.82 -4971.92 -4971.91 -4971.91 -4971.91 -4971.11 -4647.78 -2226.51 -1610.26 -1185.14 -1060.63 -1024.93 -1009.11 -823.44 410.06 621.08 619.01 654.64 693.36 708.03 731.66 827.04 858.06 876.98 899.33 900.24 900.10 863.48 601.02 550.22 535.74 524.89 524.55 522.75 524.09 545.89 551.12 550.52 560.10 590.42 576.03 614.14 859.73 920.99 963.52 982.08 1056.30 959.58 921.96 744.75 698.42 656.62 622.78 591.37 548.46 490.67 315.37 273.95 247.24 236.91 229.28 220.89 210.61 164.65 162.35 169.56 175.41 204.63 205.60 174.67 17.42 12.79 17.77 40.09 65.24 74.90 120.81 216.45 227.62 260.11 300.02 320.76 320.42 302.04 286.05 201.50 194.98 235.85 194.47 198.23 -38.40 -1120.82 -1281.25 -1500.77 -3317.31 -3754.54 -3781.81 -3921.83 -4955.99 -5095.95 -5096.30 -5096.30 -5096.30 -5096.29 -5092.10 -5061.13 -5056.94 -5056.93 -5056.93 -5056.93 -5056.92 -5051.47 -5011.17 -5005.71 -5005.70 -5005.70 -5005.70 -5005.70 -5005.09 -5000.61 -5000.00 -5000.00 -5000.00 -5000.00 -5000.00 -5000.00 -5000.00
-5071.92 -5071.92 -5071.92 -5071.92 -5071.92 -5071.90 -5063.16 -4998.59 -4989.85 -4989.83 -4989.83 -4989.83 -4989.83 -4987.92 -4973.82 -4971.91 -4971.91 -4971.91 -4971.91 -4971.47 -4793.77 -3479.18 -3079.98 -1479.45 -1087.91 -1016.28 -1010.17 -817.57 419.32 618.55 636.84 662.22 698.07 739.45 765.29 854.72 886.78 903.13 902.78 920.05 928.15 867.24 595.67 563.85 539.19 523.63 522.02 527.85 526.99 548.30 543.44 541.53 559.69 577.95 588.51 621.13 868.69 930.77 954.01 975.00 1010.97 935.09 881.49 687.35 650.65 636.65 625.69 593.98 556.65 501.45 314.44 268.10 257.46 248.42 237.44 228.86 216.00 171.70 174.54 169.62 170.26 178.58 191.41 189.18 22.63 5.05 17.36 63.10 78.95 95.12 110.93 231.27 243.99 281.62 321.54 384.36 393.20 249.84 237.17 205.51 146.54 227.24 271.90 240.59 -42.09 -1139.14 -1298.61 -1581.18 -3518.50 -3780.46 -3781.89 -3921.90 -4955.99 -5095.94 -5096.28 -5096.28 -5096.28 -5096.27 -5092.08 -5061.10 -5056.91 -5056.90 -5056.90 -5056.90 -5056.89 -5051.43 -5011.14 -5005.69 -5005.67 -5005.67 -5005.67 -5005.67 -5005.07 -5000.61 -5000.00 -5000.00 -5000.00 -5000.00 -5000.00 -5000.00 -5000.00
-5075.37 -5075.37 -5075.37 -5075.37 -5075.37 -5075.34 -5066.28 -4999.26 -4990.19 -4990.17 -4990.17 -4990.17 -4990.17 -4988.02 -4972.13 -4969.98 -4969.97 -4969.97 -4969.97 -4969.61 -4822.66 -3736.33 -3384.63 -1820.79 -1226.54 -1111.11 -1080.94 -884.33 393.46 598.41 623.68 654.28 676.25 726.51 753.50 804.74 825.18 865.28 891.14 903.39 878.55 828.68 565.04 538.98 523.35 490.08 505.89 498.72 499.30 534.32 533.59 534.95 545.78 549.89 546.38 592.68 876.70 931.19 960.09 950.83 916.83 886.28 849.63 664.93 633.86 621.69 599.73 580.31 553.07 516.90 330.69 287.67 278.69 268.43 254.41 244.45 230.28 183.40 186.09 184.05 181.72 184.86 203.21 195.96 57.96 37.23 32.97 49.55 78.61 125.26 125.55 225.92 276.66 321.93 328.05 322.77 379.54 221.86 211.74 144.25 123.21 185.89 262.98 130.82 -70.49 -1176.84 -1374.46 -1829.07 -3553.69 -3638.13 -3787.74 -3947.05 -4952.78 -5088.89 -5089.22 -5089.22 -5089.22 -5089.21 -5084.33 -5048.24 -5043.36 -5043.34 -5043.34 -5043.34 -5043.33 -5038.16 -4999.98 -4994.81 -4994.80 -4994.80 -4994.80 -4994.80 -4995.35 -4999.44 -5000.00 -5000.00 -5000.00 -5000.00 -5000.00 -5000.00 -5000.00
-5100.83 -5100.83 -5100.83 -5100.83 -5100.83 -5100.80 -5089.29 -5004.24 -4992.73 -4992.70 -4992.70 -4992.70 -4992.69 -4988.75 -4959.61 -4955.67 -4955.66 -4955.66 -4955.66 -4955.44 -4867.79 -4220.08 -4107.54 -3708.09 -2044.51 -1676.92 -1604.19 -1382.59 184.38 428.46 464.82 498.25 502.95 515.77 509.91 586.97 612.67 629.81 651.42 663.69 663.19 615.42 418.74 384.19 372.51 340.57 351.48 351.23 357.66 436.72 452.28 447.36 453.82 466.91 453.18 500.89 851.30 894.78 908.92 901.88 885.50 877.34 865.98 747.32 726.61 716.38 676.82 660.42 637.00 588.58 399.71 355.02 342.76 330.38 314.11 302.30 286.99 236.81 234.79 240.23 244.32 241.86 262.44 255.03 180.43 162.24 148.92 160.33 166.41 187.12 211.68 335.75 412.93 457.67 430.57 364.41 355.45 311.63 276.51 227.16 191.44 219.62 269.71 174.98 -42.13 -1374.67 -1672.21 -1993.28 -3398.76 -2540.83 -3828.28 -4132.88 -4929.10 -5036.79 -5037.06 -5037.06 -5037.06 -5037.04 -5027.04 -4953.20 -4943.21 -4943.19 -4943.19 -4943.19 -4943.18 -4940.12 -4917.48 -4914.42 -4914.41 -4914.41 -4914.41 -4914.44 -4923.55 -4990.87 -4999.98 -5000.00 -5000.00 -5000.00 -5000.00 -5000.00 -5000.00
-5104.28 -5104.28 -5104.28 -5104.28 -5104.28 -5104.25 -5092.41 -5004.91 -4993.07 -4993.04 -4993.04 -4993.04 -4993.03 -4988.85 -4957.92 -4953.73 -4953.72 -4953.72 -4953.72 -4953.52 -4873.89 -4285.49 -4205.30 -4004.97 -2466.30 -1783.97 -1664.28 -1457.27 130.53 389.53 437.94 410.45 416.59 440.63 499.57 585.34 645.26 638.37 613.97 627.20 616.30 568.20 379.25 340.87 321.94 300.91 320.84 325.13 335.07 413.39 424.21 421.54 408.49 444.73 455.88 494.18 844.21 865.37 870.86 874.32 898.46 924.72 921.69 834.04 761.91 732.92 723.57 700.39 672.39 608.89 421.70 381.98 366.71 350.98 332.52 319.48 303.25 248.67 246.73 251.25 258.38 256.40 257.80 272.09 184.47 182.17 171.08 171.47 195.77 192.99 219.70 354.45 424.00 442.46 416.84 368.35 344.09 305.16 258.14 229.90 203.22 214.69 179.53 155.03 -42.07 -1415.81 -1682.81 -1739.25 -1955.52 -2059.36 -3813.72 -4157.98 -4925.90 -5029.74 -5030.00 -5030.00 -5030.00 -5029.98 -5019.29 -4940.34 -4929.66 -4929.63 -4929.63 -4929.63 -4929.63 -4926.85 -4906.32 -4903.54 -4903.54 -4903.54 -4903.54 -4903.56 -4913.83 -4989.71 -4999.97 -5000.00 -5000.00 -5000.00 -5000.00 -5000.00 -5000.00
-5104.29 -5104.29 -5104.29 -5104.29 -5104.29 -5104.26 -5092.42 -5004.92 -4993.07 -4993.04 -4993.04 -4993.04 -4993.03 -4988.85 -4957.91 -4953.72 -4953.71 -4953.71 -4953.71 -4953.52 -4873.91 -4285.65 -4205.98 -4181.65 -3769.75 -1982.72 -1705.61 -1479.92 104.39 365.84 375.96 416.86 456.73 514.93 601.84 648.10 673.78 652.83 601.80 573.28 584.31 562.94 370.04 317.80 296.92 294.57 305.36 317.57 329.85 403.30 411.25 403.19 395.09 430.34 425.92 492.65 816.74 860.62 887.56 898.31 920.23 959.63 964.16 868.58 831.11 781.56 785.32 762.40 743.48 659.61 476.92 410.36 384.70 362.16 347.23 331.83 317.58 261.42 270.62 261.17 262.69 264.38 259.11 267.27 182.10 187.67 180.73 176.60 182.99 191.31 228.45 342.20 382.08 392.61 395.77 404.38 355.06 308.92 234.91 233.01 235.03 186.44 197.46 146.72 -45.91 -1425.91 -1624.33 -1632.12 -1696.00 -1993.84 -3809.34 -4158.03 -4925.89 -5029.73 -5029.98 -5029.98 -5029.98 -5029.96 -5019.27 -4940.31 -4929.62 -4929.60 -4929.60 -4929.60 -4929.59 -4926.81 -4906.29 -4903.52 -4903.51 -4903.51 -4903.51 -4903.53 -4913.81 -4989.70 -4999.97 -5000.00 -5000.00 -5000.00 -5000.00 -5000.00 -5000.00
-5104.29 -5104.29 -5104.29 -5104.29 -5104.29 -5104.26 -5092.42 -5004.92 -4993.07 -4993.04 -4993.04 -4993.04 -4993.03 -4988.85 -4957.91 -4953.72 -4953.71 -4953.71 -4953.71 -4953.52 -4873.91 -4285.65 -4206.04 -4205.19 -3964.43 -2164.24 -1739.05 -1490.42 91.83 345.95 380.62 504.94 539.15 659.75 629.83 674.38 650.34 577.79 550.17 547.95 572.33 536.38 350.41 315.49 320.05 299.70 287.81 306.75 318.02 385.22 398.25 410.26 402.58 396.68 421.36 487.88 818.45 855.32 899.13 903.36 932.90 943.37 964.84 844.27 829.17 813.45 799.07 812.05 819.28 776.53 536.57 444.31 407.82 379.71 360.99 346.56 341.04 278.52 270.65 270.54 270.28 273.74 270.78 256.13 181.39 188.21 196.33 188.18 188.26 186.60 217.41 329.93 376.03 381.62 381.02 412.73 365.04 369.56 241.47 211.12 188.38 174.69 164.67 136.24 -55.31 -1405.01 -1601.70 -1641.24 -1710.39 -2031.39 -3814.28 -4158.04 -4925.89 -5029.73 -5029.98 -5029.98 -5029.98 -5029.96 -5019.27 -4940.31 -4929.62 -4929.60 -4929.60 -4929.60 -4929.59 -4926.81 -4906.29 -4903.52 -4903.51 -4903.51 -4903.51 -4903.53 -4913.81 -4989.70 -4999.97 -5000.00 -5000.00 -5000.00 -5000.00 -5000.00 -5000.00
-5104.25 -5104.25 -5104.25 -5104.25 -5104.25 -5104.22 -5092.38 -5004.89 -4993.05 -4993.02 -4993.02 -4993.02 -4993.01 -4988.83 -4957.94 -4953.76 -4953.75 -4953.75 -4953.75 -4953.55 -4873.96 -4285.76 -4205.79 -4205.41 -3981.23 -2285.90 -1769.90 -1503.88 76.10 318.78 370.35 465.79 517.07 566.23 545.56 544.29 559.93 565.23 575.78 556.62 544.59 503.74 339.95 314.65 278.40 260.89 269.93 292.46 296.49 382.66 400.84 411.36 416.36 411.48 429.80 477.27 793.07 831.94 843.13 864.31 890.92 910.45 904.27 780.31 765.36 767.89 780.85 800.60 795.48 746.00 557.68 466.54 423.66 393.50 385.62 366.28 364.83 299.26 281.05 281.40 283.96 285.26 297.17 270.93 174.61 193.84 209.23 196.93 198.29 191.99 222.10 338.98 369.17 372.05 359.12 371.69 380.34 352.51 243.28 245.64 166.20 160.58 146.30 125.24 -62.95 -1393.14 -1570.04 -1630.86 -1714.71 -1986.24 -3808.12 -4158.19 -4925.90 -5029.72 -5029.97 -5029.97 -5029.97 -5029.95 -5019.26 -4940.32 -4929.64 -4929.61 -4929.61 -4929.61 -4929.60 -4926.83 -4906.30 -4903.52 -4903.51 -4903.51 -4903.51 -4903.54 -4913.81 -4989.70 -4999.97 -5000.00 -5000.00 -5000.00 -5000.00 -5000.00 -5000.00
-5090.79 -5090.79 -5090.79 -5090.79 -5090.79 -5090.76 -5079.31 -4994.69 -4983.24 -4983.21 -4983.21 -4983.21 -4983.21 -4981.59 -4969.66 -4968.04 -4968.04 -4968.04 -4968.04 -4967.86 -4894.47 -4329.43 -4107.50 -4255.00 -4078.88 -2551.67 -1952.05 -1612.94 5.19 245.19 289.79 344.21 388.68 410.25 388.80 422.08 437.02 448.18 477.66 478.74 482.08 449.35 334.61 314.41 279.38 274.48 287.00 307.08 318.72 403.91 430.11 444.74 450.48 465.84 459.73 489.52 778.53 813.80 821.88 852.57 902.94 917.92 911.64 775.67 758.53 777.34 778.27 752.62 748.72 700.69 514.16 489.05 426.57 387.32 363.45 352.84 334.91 286.26 290.36 303.92 295.63 291.98 308.03 279.67 192.73 171.68 181.66 199.19 213.37 199.11 222.50 321.49 362.92 349.55 332.25 327.56 337.05 344.87 259.32 263.02 163.19 143.60 133.46 125.41 -51.40 -1442.47 -1638.62 -1709.43 -1772.02 -2301.64 -3914.14 -4222.35 -4929.96 -5025.65 -5025.89 -5025.89 -5025.89 -5025.87 -5016.18 -4944.60 -4934.92 -4934.89 -4934.89 -4934.89 -4934.89 -4931.66 -4907.85 -4904.62 -4904.62 -4904.62 -4904.62 -4904.64 -4914.79 -4989.82 -4999.97 -5000.00 -5000.00 -5000.00 -5000.00 -5000.00 -5000.00
-4991.31 -4991.31 -4991.31 -4991.31 -4991.31 -4991.28 -4982.71 -4919.33 -4910.75 -4910.73 -4910.73 -4910.73 -4910.77 -4928.11 -5056.24 -5073.58 -5073.62 -5073.62 -5073.62 -5073.55 -5046.04 -4652.00 -3357.80 -4452.56 -4771.46 -4431.05 -2970.02 -2178.44 -353.35 -118.24 -85.00 -57.79 -54.99 -48.24 -23.29 57.63 108.54 102.14 120.22 137.72 152.34 191.55 421.23 460.01 468.25 464.29 456.09 472.51 502.00 657.70 680.01 677.20 699.78 707.82 700.60 705.79 770.63 783.39 793.27 829.61 875.48 884.97 873.65 696.06 667.89 677.91 641.65 628.64 630.38 578.15 394.18 345.84 320.01 282.86 262.97 254.10 235.27 191.27 215.09 231.44 229.48 235.96 233.37 225.38 211.09 192.76 201.31 217.99 238.31 233.27 249.00 282.09 317.17 291.62 250.65 248.85 275.85 305.36 305.54 261.78 160.88 138.23 128.39 140.40 -101.52 -1921.62 -2171.20 -2229.97 -2568.88 -4229.23 -4634.91 -4696.34 -4959.97 -4995.63 -4995.72 -4995.72 -4995.72 -4995.72 -4993.40 -4976.25 -4973.93 -4973.92 -4973.92 -4973.92 -4973.91 -4967.40 -4919.30 -4912.79 -4912.77 -4912.77 -4912.77 -4912.80 -4922.08 -4990.69 -4999.98 -5000.00 -5000.00 -5000.00 -5000.00 -5000.00 -5000.00
-4977.84 -4977.84 -4977.84 -4977.84 -4977.84 -4977.82 -4969.63 -4909.13 -4900.94 -4900.92 -4900.92 -4900.92 -4900.97 -4920.88 -5067.96 -5087.86 -5087.91 -5087.91 -5087.91 -5087.86 -5066.60 -4717.53 -3252.39 -3255.09 -4697.02 -4866.19 -4449.29 -2463.68 -414.34 -169.65 -157.73 -147.73 -147.80 -144.68 -118.95 -22.91 13.46 23.83 34.29 59.87 55.93 113.42 423.59 477.50 485.81 488.78 485.09 491.07 504.23 666.83 699.02 711.58 719.70 741.19 717.00 745.79 767.17 775.92 809.94 804.15 825.08 836.38 820.46 633.65 610.28 605.16 589.88 607.68 580.04 543.31 358.91 326.24 300.69 272.53 259.73 248.98 222.67 188.29 216.63 268.85 242.94 260.15 206.26 196.57 203.66 194.62 206.95 227.76 243.05 250.91 274.68 305.16 293.46 262.51 255.03 257.19 305.52 336.27 362.80 203.68 148.41 140.61 141.47 143.15 -127.79 -2030.61 -2287.82 -2433.25 -2913.21 -4519.04 -4732.35 -4760.49 -4964.03 -4991.57 -4991.64 -4991.64 -4991.64 -4991.64 -4990.31 -4980.53 -4979.21 -4979.20 -4979.20 -4979.20 -4979.19 -4972.23 -4920.85 -4913.90 -4913.88 -4913.88 -4913.88 -4913.90 -4923.07 -4990.81 -4999.98 -5000.00 -5000.00 -5000.00 -5000.00 -5000.00 -5000.00
-4977.81 -4977.81 -4977.81 -4977.81 -4977.81 -4977.79 -4969.60 -4909.11 -4900.92 -4900.90 -4900.90 -4900.90 -4900.95 -4920.86 -5067.98 -5087.90 -5087.95 -5087.95 -5087.95 -5087.89 -5067.08 -4889.85 -4502.79 -3263.16 -4675.51 -4891.87 -4686.81 -2880.33 -487.27 -184.25 -175.19 -167.63 -164.32 -161.23 -140.79 -55.62 -32.87 -25.87 -3.99 22.91 47.73 107.83 421.11 457.54 464.28 476.99 485.04 495.50 517.49 681.77 701.57 707.51 698.55 719.27 717.24 733.90 773.40 769.56 790.82 785.82 790.60 800.78 792.04 596.25 574.21 571.29 563.06 565.94 549.41 530.22 351.87 299.41 278.11 268.87 253.00 240.09 224.48 197.56 232.04 301.25 263.36 231.28 186.51 165.54 178.76 181.49 198.53 222.45 239.74 280.47 318.77 334.60 290.67 256.72 242.64 268.48 264.08 269.49 202.90 161.02 136.01 145.06 141.11 120.11 -203.94 -2096.68 -2387.55 -2668.68 -4303.18 -4707.11 -4733.06 -4760.64 -4964.04 -4991.56 -4991.63 -4991.63 -4991.63 -4991.63 -4990.31 -4980.54 -4979.22 -4979.22 -4979.22 -4979.22 -4979.20 -4972.25 -4920.85 -4913.90 -4913.88 -4913.88 -4913.88 -4913.90 -4923.07 -4990.81 -4999.98 -5000.00 -5000.00 -5000.00 -5000.00 -5000.00 -5000.00
-4977.81 -4977.81 -4977.81 -4977.81 -4977.81 -4977.79 -4969.60 -4909.11 -4900.92 -4900.90 -4900.90 -4900.90 -4900.95 -4920.86 -5067.98 -5087.90 -5087.95 -5087.95 -5087.95 -5087.89 -5067.14 -4913.25 -4701.68 -3482.20 -4702.05 -4892.44 -4867.79 -4222.48 -732.82 -215.55 -186.63 -186.57 -180.93 -175.97 -157.38 -71.99 -52.29 -52.56 -31.69 -9.61 15.32 73.11 384.26 429.83 438.33 457.92 476.35 479.24 504.75 667.23 668.27 690.39 702.99 690.99 703.78 724.10 781.56 784.38 781.88 785.50 781.74 799.61 769.69 568.28 541.28 540.47 543.15 525.69 529.81 548.83 350.33 287.58 268.61 269.33 250.35 236.73 233.98 212.13 240.23 270.07 232.77 184.84 156.02 146.29 170.04 180.70 204.26 234.64 288.36 339.14 409.51 373.05 307.24 292.15 290.56 301.77 224.66 190.26 181.11 194.06 143.61 131.66 112.39 39.86 -234.75 -2107.67 -2394.25 -2746.68 -4497.12 -4732.41 -4733.12 -4760.64 -4964.04 -4991.56 -4991.63 -4991.63 -4991.63 -4991.63 -4990.31 -4980.54 -4979.22 -4979.22 -4979.22 -4979.22 -4979.20 -4972.25 -4920.85 -4913.90 -4913.88 -4913.88 -4913.88 -4913.90 -4923.07 -4990.81 -4999.98 -5000.00 -5000.00 -5000.00 -5000.00 -5000.00 -5000.00
-4977.80 -4977.80 -4977.80 -4977.80 -4977.80 -4977.78 -4969.60 -4909.15 -4900.97 -4900.95 -4900.95 -4900.95 -4901.00 -4920.90 -5067.95 -5087.86 -5087.91 -5087.91 -5087.91 -5087.85 -5067.11 -4913.76 -4870.33 -4724.94 -4870.28 -4892.97 -4891.86 -4445.48 -1107.47 -332.80 -237.62 -219.04 -203.40 -190.24 -172.19 -86.69 -64.87 -68.04 -62.94 -55.76 -45.40 6.44 340.77 389.04 403.26 425.17 442.54 463.00 468.44 621.39 663.83 663.05 678.27 681.44 687.78 735.97 784.26 806.00 797.61 783.50 781.58 787.88 747.67 541.42 514.98 505.34 505.14 502.90 519.40 507.85 309.17 267.59 261.78 275.16 250.41 243.30 239.98 221.62 245.00 270.41 200.33 160.37 143.07 136.77 163.81 186.29 225.25 277.31 366.13 481.19 458.77 418.40 324.19 284.85 277.36 195.83 152.75 133.69 137.65 136.69 132.12 115.55 35.54 -16.18 -269.89 -2139.16 -2379.14 -2693.72 -4490.66 -4732.49 -4733.16 -4760.68 -4964.02 -4991.54 -4991.61 -4991.61 -4991.61 -4991.61 -4990.29 -4980.55 -4979.23 -4979.23 -4979.23 -4979.23 -4979.21 -4972.26 -4920.89 -4913.94 -4913.92 -4913.92 -4913.92 -4913.94 -4923.11 -4990.81 -4999.98 -5000.00 -5000.00 -5000.00 -5000.00 -5000.00 -5000.00
-4975.77 -4975.77 -4975.77 -4975.77 -4975.77 -4975.76 -4969.91 -4926.73 -4920.88 -4920.87 -4920.87 -4920.87 -4920.91 -4936.97 -5055.65 -5071.71 -5071.75 -5071.75 -5071.75 -5071.71 -5054.85 -4930.33 -4913.42 -4913.02 -4913.38 -4913.44 -4912.84 -4673.12 -2715.90 -1069.86 -796.44 -576.05 -499.80 -469.20 -423.60 -250.18 -220.73 -216.23 -203.22 -202.81 -194.53 -129.02 281.06 353.42 362.62 380.70 377.71 385.06 408.33 567.35 602.69 616.18 631.71 652.18 645.91 666.49 717.78 734.70 742.60 749.90 711.84 706.43 669.16 497.10 474.81 463.75 464.76 473.68 494.54 455.54 270.01 242.50 243.74 243.01 240.95 243.66 238.67 221.59 233.96 230.59 155.35 134.18 119.80 121.01 144.78 175.28 226.50 325.97 466.03 512.02 392.13 219.71 154.37 154.29 130.44 39.22 -43.44 -62.17 -83.63 -98.21 -108.05 -192.52 -480.30 -584.54 -713.88 -2474.37 -2690.82 -3016.41 -4543.88 -4748.33 -4748.90 -4773.96 -4959.19 -4984.26 -4984.32 -4984.32 -4984.32 -4984.32 -4984.13 -4982.73 -4982.54 -4982.54 -4982.54 -4982.54 -4982.52 -4976.88 -4935.21 -4929.57 -4929.56 -4929.56 -4929.56 -4929.58 -4937.08 -4992.48 -4999.98 -5000.00 -5000.00 -5000.00 -5000.00 -5000.00 -5000.00
-4960.76 -4960.76 -4960.76 -4960.76 -4960.76 -4960.79 -4972.21 -5056.61 -5068.03 -5068.06 -5068.06 -5068.06 -5068.03 -5055.72 -4964.71 -4952.39 -4952.36 -4952.36 -4952.36 -4952.39 -4964.30 -5052.32 -5064.23 -5064.26 -5064.26 -5064.26 -5064.16 -5023.87 -4701.31 -4472.71 -4258.97 -2907.34 -2621.79 -2344.21 -2155.94 -1331.43 -1212.48 -1205.37 -1184.44 -1181.99 -1172.75 -1029.86 -60.29 97.02 111.48 113.69 104.27 113.96 123.85 236.22 259.11 281.22 317.43 362.82 337.63 326.95 329.59 360.21 360.85 355.81 318.96 294.52 289.71 327.87 341.63 332.63 343.20 360.07 352.15 310.71 170.20 149.19 151.19 155.13 162.16 167.20 161.39 126.23 133.00 138.86 64.35 52.96 44.69 43.83 18.35 42.15 88.97 168.32 241.65 289.52 123.49 -995.63 -1164.34 -1096.27 -1344.35 -1399.18 -1413.81 -1460.01 -1707.52 -2001.49 -2136.69 -2352.39 -3707.41 -3899.11 -3963.13 -4543.68 -4620.00 -4660.00 -4840.92 -4865.11 -4865.19 -4872.14 -4923.47 -4930.42 -4930.43 -4930.43 -4930.43 -4930.45 -4938.60 -4998.82 -5006.97 -5006.99 -5006.99 -5006.99 -5007.00 -5011.06 -5041.06 -5045.12 -5045.13 -5045.13 -5045.13 -5045.11 -5040.31 -5004.82 -5000.01 -5000.00 -5000.00 -5000.00 -5000.00 -5000.00 -5000.00
-4958.73 -4958.73 -4958.73 -4958.73 -4958.73 -4958.76 -4972.52 -5074.19 -5087.95 -5087.98 -5087.98 -5087.98 -5087.94 -5071.79 -4952.40 -4936.25 -4936.21 -4936.21 -4936.21 -4936.25 -4952.05 -5068.83 -5084.64 -5084.68 -5084.68 -5084.68 -5084.64 -5068.10 -4945.86 -4928.80 -4904.17 -4721.44 -4498.42 -3058.09 -2471.98 -1494.36 -1355.21 -1347.46 -1336.11 -1328.14 -1313.27 -1161.39 -130.44 53.44 76.26 56.79 45.23 48.26 54.11 166.40 191.15 233.66 252.62 292.36 308.78 295.42 290.79 295.55 290.42 314.03 277.32 239.31 226.50 297.73 304.97 302.34 308.72 331.72 315.01 279.12 152.78 131.14 136.76 151.75 158.55 158.24 149.99 99.52 69.01 56.00 33.75 30.62 26.00 23.04 -9.58 13.72 73.73 104.56 156.42 193.60 59.11 -1151.50 -1290.39 -1506.38 -1579.88 -1606.01 -1678.48 -1988.17 -2546.53 -3728.53 -3881.62 -3897.49 -4076.96 -4111.40 -4174.16 -4614.77 -4854.67 -4880.28 -4880.86 -4880.92 -4880.93 -4885.43 -4918.63 -4923.13 -4923.14 -4923.14 -4923.14 -4923.16 -4932.44 -5001.00 -5010.28 -5010.30 -5010.30 -5010.30 -5010.32 -5015.69 -5055.38 -5060.75 -5060.77 -5060.77 -5060.77 -5060.75 -5054.28 -5006.48 -5000.02 -5000.00 -5000.00 -5000.00 -5000.00 -5000.00 -5000.00
-4958.72 -4958.72 -4958.72 -4958.72 -4958.72 -4958.76 -4972.52 -5074.23 -5088.00 -5088.03 -5088.03 -5088.03 -5087.99 -5071.83 -4952.37 -4936.21 -4936.17 -4936.17 -4936.17 -4936.20 -4952.02 -5068.87 -5084.69 -5084.73 -5084.73 -5084.73 -5084.69 -5068.21 -4946.47 -4929.99 -4929.89 -4929.37 -4903.31 -4524.66 -2939.49 -1583.60 -1402.72 -1378.70 -1361.91 -1328.45 -1320.82 -1173.76 -153.14 9.51 37.51 20.64 14.52 21.44 53.41 170.88 188.38 208.68 237.84 297.54 314.15 305.31 283.88 279.55 280.74 302.55 262.47 227.36 220.55 284.60 297.52 293.52 293.38 318.53 294.01 268.52 148.06 133.41 140.06 155.72 174.53 155.99 161.83 64.55 37.49 29.45 21.20 29.36 17.88 12.87 -20.21 -0.20 39.69 63.72 136.69 170.58 122.67 -1092.27 -1290.92 -1544.98 -1592.92 -1683.41 -2287.17 -3491.78 -3698.87 -2665.46 -2423.52 -2307.72 -2285.17 -2350.44 -2453.61 -3031.73 -4460.99 -4852.20 -4880.89 -4880.96 -4880.97 -4885.46 -4918.62 -4923.11 -4923.12 -4923.12 -4923.12 -4923.15 -4932.43 -5001.01 -5010.29 -5010.31 -5010.31 -5010.31 -5010.32 -5015.70 -5055.42 -5060.79 -5060.81 -5060.81 -5060.81 -5060.79 -5054.32 -5006.49 -5000.02 -5000.00 -5000.00 -5000.00 -5000.00 -5000.00 -5000.00
-4958.72 -4958.72 -4958.72 -4958.72 -4958.72 -4958.76 -4972.52 -5074.23 -5088.00 -5088.03 -5088.03 -5088.03 -5087.99 -5071.83 -4952.37 -4936.21 -4936.17 -4936.17 -4936.17 -4936.20 -4952.02 -5068.87 -5084.69 -5084.73 -5084.73 -5084.73 -5084.69 -5068.21 -4946.47 -4929.99 -4929.95 -4929.95 -4929.82 -4903.02 -4376.84 -1846.64 -1440.37 -1431.97 -1406.91 -1347.47 -1325.15 -1178.53 -150.53 38.71 32.04 4.41 27.79 29.75 70.19 222.28 219.64 259.88 274.94 342.60 335.28 316.44 261.39 277.58 286.96 295.98 237.89 211.47 212.73 294.54 301.88 290.90 285.89 294.78 289.71 269.55 149.77 137.48 144.40 159.17 148.04 121.52 94.50 45.59 22.84 14.02 9.56 9.12 12.61 10.25 -22.74 -7.74 13.72 42.25 85.82 165.76 60.64 -1091.28 -1228.63 -1506.79 -1629.64 -2158.46 -3492.65 -2452.83 -2403.94 -2237.94 -2206.62 -2018.52 -1950.85 -1931.15 -2022.11 -2509.14 -2907.23 -4646.79 -4880.38 -4880.96 -4880.97 -4885.46 -4918.62 -4923.11 -4923.12 -4923.12 -4923.12 -4923.15 -4932.43 -5001.01 -5010.29 -5010.31 -5010.31 -5010.31 -5010.32 -5015.70 -5055.42 -5060.79 -5060.81 -5060.81 -5060.81 -5060.79 -5054.32 -5006.49 -5000.02 -5000.00 -5000.00 -5000.00 -5000.00 -5000.00 -5000.00
-4958.71 -4958.71 -4958.71 -4958.71 -4958.71 -4958.74 -4972.51 -5074.23 -5087.99 -5088.03 -5088.03 -5088.03 -5087.99 -5071.82 -4952.37 -4936.20 -4936.16 -4936.16 -4936.16 -4936.20 -4952.01 -5068.83 -5084.64 -5084.68 -5084.68 -5084.68 -5084.64 -5068.17 -4946.50 -4930.03 -4929.99 -4929.99 -4929.99 -4929.15 -4612.22 -2230.68 -1585.35 -1502.88 -1460.35 -1383.11 -1332.44 -1171.44 -147.82 49.59 21.84 -8.40 -1.10 17.96 72.17 304.20 289.52 276.11 345.46 478.43 352.39 280.08 223.15 244.61 281.33 287.97 242.10 203.41 202.72 285.82 298.83 296.98 287.65 291.91 296.34 283.91 170.55 146.70 147.96 177.66 162.09 139.92 104.80 38.42 17.68 7.37 4.45 3.63 6.82 7.34 -27.66 -17.44 2.56 30.93 67.22 110.47 36.64 -1125.27 -1244.21 -1418.07 -1811.79 -3621.61 -3815.28 -2293.11 -3490.89 -2447.65 -2163.62 -2043.21 -1940.54 -2110.27 -2236.57 -2719.86 -2896.19 -4641.81 -4880.35 -4880.94 -4880.96 -4885.44 -4918.61 -4923.10 -4923.11 -4923.11 -4923.11 -4923.13 -4932.41 -5000.98 -5010.26 -5010.29 -5010.29 -5010.29 -5010.30 -5015.68 -5055.41 -5060.79 -5060.80 -5060.80 -5060.80 -5060.79 -5054.32 -5006.49 -5000.02 -5000.00 -5000.00 -5000.00 -5000.00 -5000.00 -5000.00
-4951.52 -4951.52 -4951.52 -4951.52 -4951.52 -4951.56 -4965.95 -5072.28 -5086.67 -5086.71 -5086.71 -5086.71 -5086.66 -5070.40 -4950.24 -4933.98 -4933.94 -4933.94 -4933.94 -4933.98 -4947.86 -5050.42 -5064.30 -5064.34 -5064.34 -5064.34 -5064.31 -5051.87 -4960.01 -4947.58 -4947.55 -4947.55 -4947.55 -4947.21 -4812.06 -3644.94 -2224.91 -1891.84 -1635.09 -1518.65 -1428.10 -1267.46 -198.04 -40.10 -35.67 -46.18 -34.47 -6.93 62.27 249.44 341.35 346.49 342.04 369.74 336.60 233.54 191.74 183.18 230.76 251.25 219.58 174.36 185.46 280.24 306.52 300.48 292.09 292.95 293.00 281.98 169.61 129.07 122.58 129.37 124.62 111.08 67.52 18.80 8.74 4.08 1.85 0.79 2.42 -2.55 -84.53 -84.05 -65.87 -46.43 -25.14 14.64 -54.95 -1260.74 -1495.07 -1676.74 -2155.11 -3936.88 -3917.79 -2110.67 -2499.99 -2391.87 -2427.62 -2174.57 -2145.16 -2272.48 -2405.35 -2993.29 -3231.01 -4678.29 -4874.82 -4875.31 -4875.32 -4879.96 -4914.28 -4918.92 -4918.93 -4918.93 -4918.93 -4918.95 -4927.63 -4991.75 -5000.43 -5000.45 -5000.45 -5000.45 -5000.47 -5006.86 -5054.08 -5060.47 -5060.49 -5060.49 -5060.49 -5060.47 -5054.03 -5006.45 -5000.02 -5000.00 -5000.00 -5000.00 -5000.00 -5000.00 -5000.00
-4898.46 -4898.46 -4898.46 -4898.46 -4898.46 -4898.51 -4917.50 -5057.88 -5076.88 -5076.92 -5076.92 -5076.92 -5076.88 -5059.92 -4934.56 -4917.60 -4917.56 -4917.56 -4917.56 -4917.56 -4917.18 -4914.43 -4914.06 -4914.06 -4914.06 -4914.06 -4914.10 -4931.47 -5059.83 -5077.20 -5077.24 -5077.24 -5077.24 -5077.14 -5036.41 -4713.05 -4500.66 -4249.55 -2673.03 -2328.72 -2224.37 -2015.19 -504.45 -293.40 -281.80 -277.82 -258.31 -258.55 -186.59 96.45 179.57 162.54 140.20 143.19 88.45 47.19 84.59 124.16 100.95 171.15 154.45 93.86 128.46 253.96 294.90 286.44 281.03 289.30 288.18 271.10 137.29 86.81 78.90 76.39 68.49 64.30 27.17 -5.98 -9.87 -7.83 -11.20 -14.06 -13.30 -62.53 -459.27 -501.26 -486.53 -469.48 -451.75 -424.68 -547.33 -1960.46 -2336.31 -2645.15 -4400.98 -4842.67 -4633.58 -2921.54 -3031.75 -3207.75 -4082.50 -2726.84 -2711.36 -3026.47 -3191.59 -4447.75 -4638.77 -4810.38 -4833.60 -4833.66 -4833.67 -4839.46 -4882.24 -4888.03 -4888.04 -4888.04 -4888.04 -4888.05 -4892.28 -4923.54 -4927.77 -4927.78 -4927.78 -4927.78 -4927.82 -4941.69 -5044.23 -5058.10 -5058.14 -5058.14 -5058.14 -5058.12 -5051.93 -5006.20 -5000.02 -5000.00 -5000.00 -5000.00 -5000.00 -5000.00 -5000.00
-4891.28 -4891.28 -4891.28 -4891.28 -4891.28 -4891.33 -4910.95 -5055.93 -5075.55 -5075.60 -5075.60 -5075.60 -5075.56 -5058.50 -4932.44 -4915.38 -4915.34 -4915.34 -4915.34 -4915.33 -4913.03 -4896.03 -4893.73 -4893.72 -4893.72 -4893.72 -4893.77 -4915.18 -5073.34 -5094.74 -5094.79 -5094.79 -5094.79 -5094.72 -5063.74 -4834.79 -4802.87 -4592.70 -3000.61 -2475.53 -2351.22 -2123.69 -545.48 -334.37 -319.65 -318.47 -314.66 -282.55 -202.01 59.71 146.34 121.27 91.53 58.47 31.68 32.19 90.72 84.22 62.14 129.26 121.97 103.28 111.83 250.01 277.54 272.35 266.27 276.28 273.98 239.73 107.52 82.97 58.03 37.15 31.81 25.16 15.15 -11.58 -15.33 -14.87 -16.84 -20.26 -19.37 -73.24 -509.40 -558.12 -544.97 -523.36 -483.27 -466.01 -583.15 -2075.09 -2496.77 -3115.72 -4750.94 -4965.41 -4773.20 -3513.27 -4559.75 -4580.69 -3478.48 -3265.71 -4511.32 -4722.31 -4732.51 -4816.03 -4827.51 -4827.96 -4828.02 -4828.02 -4828.04 -4833.98 -4877.90 -4883.85 -4883.86 -4883.86 -4883.86 -4883.87 -4887.50 -4914.31 -4917.94 -4917.95 -4917.95 -4917.95 -4917.99 -4932.88 -5042.89 -5057.78 -5057.82 -5057.82 -5057.82 -5057.80 -5051.65 -5006.17 -5000.02 -5000.00 -5000.00 -5000.00 -5000.00 -5000.00 -5000.00
-4891.26 -4891.26 -4891.26 -4891.26 -4891.26 -4891.31 -4910.93 -5055.93 -5075.55 -5075.60 -5075.60 -5075.60 -5075.55 -5058.49 -4932.44 -4915.38 -4915.33 -4915.33 -4915.33 -4915.33 -4913.02 -4895.98 -4893.68 -4893.67 -4893.67 -4893.67 -4893.72 -4915.14 -5073.37 -5094.78 -5094.84 -5094.84 -5094.84 -5094.76 -5063.81 -4835.09 -4804.08 -4778.39 -4378.20 -2752.03 -2427.23 -2130.95 -556.46 -344.86 -324.90 -325.46 -316.41 -267.86 -239.60 29.39 92.32 89.68 78.43 66.16 -8.17 -39.60 32.52 54.11 61.05 49.32 84.50 120.79 108.38 247.04 259.39 257.17 254.44 264.33 256.42 222.23 86.83 74.63 40.57 23.12 23.05 17.80 11.51 -14.87 -19.27 -19.93 -21.27 -22.63 -21.36 -74.92 -511.43 -562.04 -548.31 -517.37 -467.64 -500.77 -699.77 -2169.22 -2703.16 -4514.16 -4940.37 -4966.55 -4943.95 -4795.93 -4922.60 -4920.11 -4752.01 -4747.38 -4919.34 -4942.79 -4930.61 -4840.26 -4828.04 -4828.01 -4828.01 -4828.01 -4828.02 -4833.97 -4877.89 -4883.83 -4883.85 -4883.85 -4883.85 -4883.86 -4887.49 -4914.29 -4917.92 -4917.92 -4917.92 -4917.92 -4917.96 -4932.85 -5042.89 -5057.78 -5057.82 -5057.82 -5057.82 -5057.80 -5051.65 -5006.17 -5000.02 -5000.00 -5000.00 -5000.00 -5000.00 -5000.00 -5000.00
-4891.26 -4891.26 -4891.26 -4891.26 -4891.26 -4891.31 -4910.93 -5055.93 -5075.55 -5075.60 -5075.60 -5075.60 -5075.55 -5058.49 -4932.44 -4915.38 -4915.33 -4915.33 -4915.33 -4915.33 -4913.02 -4895.98 -4893.68 -4893.67 -4893.67 -4893.67 -4893.72 -4915.14 -5073.37 -5094.78 -5094.84 -5094.84 -5094.84 -5094.76 -5063.81 -4835.09 -4804.14 -4803.50 -4599.35 -3079.38 -2726.50 -2215.90 -570.53 -328.61 -343.48 -338.99 -332.11 -312.57 -280.17 -70.28 31.87 73.58 61.35 44.39 -58.91 -84.69 26.65 29.23 58.25 41.56 47.68 115.85 114.49 234.55 249.14 246.42 242.45 243.88 221.53 185.09 57.97 39.06 22.78 19.09 18.45 14.96 8.29 -18.09 -22.78 -23.78 -24.79 -24.83 -22.57 -76.81 -514.10 -560.53 -539.82 -517.61 -526.22 -540.86 -738.91 -2196.17 -2727.50 -4676.19 -4790.51 -4942.98 -4966.61 -4963.82 -4945.85 -4943.37 -4942.94 -4942.93 -4943.36 -4943.39 -4931.10 -4840.32 -4828.04 -4828.01 -4828.01 -4828.01 -4828.02 -4833.97 -4877.89 -4883.83 -4883.85 -4883.85 -4883.85 -4883.86 -4887.49 -4914.29 -4917.92 -4917.92 -4917.92 -4917.92 -4917.96 -4932.85 -5042.89 -5057.78 -5057.82 -5057.82 -5057.82 -5057.80 -5051.65 -5006.17 -5000.02 -5000.00 -5000.00 -5000.00 -5000.00 -5000.00 -5000.00
-4891.28 -4891.28 -4891.28 -4891.28 -4891.28 -4891.33 -4910.95 -5055.90 -5075.51 -5075.56 -5075.56 -5075.56 -5075.52 -5058.46 -4932.43 -4915.37 -4915.33 -4915.33 -4915.33 -4915.33 -4913.03 -4896.03 -4893.73 -4893.73 -4893.73 -4893.73 -4893.78 -4915.19 -5073.38 -5094.79 -5094.84 -5094.84 -5094.84 -5094.76 -5063.82 -4835.16 -4804.22 -4804.08 -4779.91 -4598.96 -4336.68 -2464.22 -640.07 -374.33 -348.36 -349.90 -351.00 -337.51 -288.75 -93.24 -79.20 -10.45 5.43 12.67 -49.83 -92.60 3.89 16.62 25.44 51.89 84.09 122.63 97.37 211.53 235.48 254.17 224.87 202.54 203.07 168.03 43.91 20.59 18.56 18.36 17.19 12.94 5.62 -20.93 -25.78 -26.87 -27.87 -27.57 -23.69 -77.10 -512.75 -555.37 -530.64 -499.81 -536.91 -565.31 -760.62 -2286.59 -2948.97 -4553.59 -3669.07 -4790.95 -4966.01 -4963.94 -4945.41 -4942.91 -4942.90 -4942.90 -4942.90 -4942.87 -4930.62 -4840.15 -4827.91 -4827.88 -4827.88 -4827.88 -4827.89 -4833.85 -4877.91 -4883.87 -4883.89 -4883.89 -4883.89 -4883.89 -4887.52 -4914.34 -4917.97 -4917.98 -4917.98 -4917.98 -4918.01 -4932.90 -5042.89 -5057.78 -5057.81 -5057.81 -5057.81 -5057.80 -5051.64 -5006.17 -5000.02 -5000.00 -5000.00 -5000.00 -5000.00 -5000.00 -5000.00
-4899.88 -4899.88 -4899.88 -4899.88 -4899.88 -4899.92 -4917.17 -5044.60 -5061.85 -5061.89 -5061.89 -5061.89 -5061.85 -5046.21 -4930.64 -4915.00 -4914.96 -4914.96 -4914.96 -4914.96 -4915.17 -4916.76 -4916.98 -4916.98 -4916.98 -4916.98 -4917.03 -4936.09 -5076.94 -5096.00 -5096.05 -5096.05 -5096.05 -5095.98 -5068.13 -4862.32 -4834.47 -4834.40 -4834.34 -4833.25 -4570.01 -2457.29 -921.83 -702.23 -648.60 -608.29 -586.47 -581.28 -541.56 -360.45 -336.34 -299.48 -288.51 -275.09 -331.44 -321.65 -79.92 -39.15 -8.92 47.47 81.51 90.12 43.71 182.95 203.60 238.74 234.07 185.79 183.44 172.92 52.18 30.31 27.19 30.41 25.97 18.95 11.84 -11.97 -16.43 -16.91 -17.34 -16.90 -12.78 -61.82 -469.55 -504.77 -481.06 -455.76 -497.43 -559.37 -967.73 -2649.75 -4408.17 -4801.45 -4678.48 -4830.30 -4853.96 -4841.16 -4746.17 -4733.32 -4733.29 -4733.29 -4733.29 -4733.30 -4737.77 -4770.82 -4775.30 -4775.31 -4775.31 -4775.31 -4775.34 -4788.43 -4885.15 -4898.24 -4898.27 -4898.27 -4898.27 -4898.28 -4902.60 -4934.53 -4938.85 -4938.86 -4938.86 -4938.86 -4938.89 -4951.36 -5043.48 -5055.95 -5055.98 -5055.98 -5055.98 -5055.97 -5050.01 -5005.97 -5000.01 -5000.00 -5000.00 -5000.00 -5000.00 -5000.00 -5000.00
-4963.33 -4962.90 -4963.33 -4963.40 -4963.40 -4963.40 -4963.13 -4961.14 -4960.87 -4960.87 -4960.87 -4960.87 -4960.86 -4955.68 -4917.39 -4912.21 -4912.20 -4912.20 -4912.20 -4912.25 -4931.04 -5069.94 -5088.74 -5088.78 -5088.78 -5088.78 -5088.79 -5090.52 -5103.28 -5105.01 -5105.01 -5105.01 -5105.01 -5105.00 -5100.00 -5063.03 -5058.02 -5058.01 -5058.01 -5057.37 -4797.98 -2874.41 -2557.70 -2506.25 -2442.80 -2393.95 -2353.39 -2333.92 -2294.62 -2055.55 -2013.69 -2004.23 -1997.08 -2010.10 -2030.78 -1859.25 -595.83 -418.44 -402.73 -375.47 -369.90 -363.84 -311.89 -74.54 6.68 17.29 25.48 -14.13 -59.70 -22.79 107.54 110.82 91.56 113.27 87.23 76.29 72.19 71.02 70.39 69.99 69.97 70.76 74.84 51.55 -162.26 -163.12 -145.21 -121.69 -170.64 -438.77 -2337.13 -3645.16 -3994.43 -4023.32 -4023.09 -4023.46 -4023.30 -3933.98 -3273.99 -3184.67 -3184.44 -3184.44 -3184.44 -3184.76 -3312.76 -4258.56 -4386.56 -4386.87 -4386.87 -4386.87 -4387.04 -4452.79 -4938.66 -5004.41 -5004.57 -5004.57 -5004.57 -5004.60 -5014.03 -5083.72 -5093.15 -5093.17 -5093.17 -5093.17 -5093.16 -5087.76 -5047.87 -5042.47 -5042.46 -5042.46 -5042.46 -5042.45 -5037.93 -5004.53 -5000.01 -5000.00 -5000.00 -5000.00 -5000.00 -5000.00 -5000.00
-4944.81 -4771.58 -4944.87 -4971.93 -4972.00 -4971.99 -4969.35 -4949.85 -4947.21 -4947.20 -4947.20 -4947.20 -4947.19 -4943.43 -4915.60 -4911.84 -4911.83 -4911.83 -4911.83 -4911.88 -4933.19 -5090.67 -5111.98 -5112.04 -5112.04 -5112.04 -5112.03 -5111.42 -5106.85 -5106.23 -5106.23 -5106.23 -5106.23 -5106.22 -5104.31 -5090.19 -5088.28 -5088.27 -5088.27 -5087.78 -4889.49 -3408.56 -3061.16 -2809.79 -2733.58 -2645.71 -2601.67 -2587.65 -2538.60 -2288.46 -2247.68 -2258.90 -2263.24 -2269.22 -2267.44 -2068.87 -667.30 -474.64 -463.49 -448.78 -433.98 -393.96 -365.04 -126.10 -78.74 -3.51 26.90 -16.89 -73.09 -50.20 175.86 122.50 98.07 97.24 91.70 84.06 80.05 81.91 81.83 81.76 82.01 83.06 86.89 66.50 -120.65 -122.87 -111.01 -72.92 -146.76 -632.20 -2550.65 -3775.91 -3910.72 -3911.12 -3911.12 -3911.12 -3910.87 -3811.20 -3074.75 -2975.08 -2974.83 -2974.83 -2974.83 -2975.19 -3119.91 -4189.23 -4333.95 -4334.31 -4334.31 -4334.31 -4334.49 -4407.37 -4945.90 -5018.78 -5018.96 -5018.96 -5018.96 -5018.99 -5029.11 -5103.91 -5114.03 -5114.05 -5114.05 -5114.05 -5114.03 -5106.22 -5048.46 -5040.65 -5040.63 -5040.63 -5040.63 -5040.62 -5036.29 -5004.34 -5000.01 -5000.00 -5000.00 -5000.00 -5000.00 -5000.00 -5000.00
-4771.11 -3491.13 -4771.60 -4971.52 -4972.02 -4972.01 -4969.37 -4949.82 -4947.17 -4947.17 -4947.17 -4947.17 -4947.16 -4943.40 -4915.60 -4911.84 -4911.83 -4911.83 -4911.83 -4911.88 -4933.20 -5090.72 -5112.04 -5112.09 -5112.09 -5112.09 -5112.09 -5111.47 -5106.86 -5106.23 -5106.23 -5106.23 -5106.23 -5106.23 -5104.32 -5090.26 -5088.35 -5088.35 -5088.35 -5088.29 -5065.19 -4886.55 -4594.14 -3004.43 -2735.69 -2638.77 -2614.73 -2579.92 -2541.03 -2298.54 -2261.37 -2266.25 -2265.94 -2265.19 -2269.50 -2084.26 -680.37 -483.38 -469.20 -454.49 -440.11 -412.92 -394.49 -157.73 -125.01 -74.97 -13.13 0.18 -37.04 -77.91 118.73 116.92 103.14 96.36 90.73 84.03 79.73 81.83 81.80 81.81 82.29 83.53 86.97 67.14 -112.97 -123.28 -112.41 -91.80 -348.17 -2004.90 -2736.64 -3776.69 -3910.51 -3910.84 -3910.84 -3910.84 -3910.59 -3810.90 -3074.25 -2974.56 -2974.31 -2974.31 -2974.31 -2974.67 -3119.43 -4189.06 -4333.82 -4334.18 -4334.18 -4334.18 -4334.36 -4407.26 -4945.92 -5018.82 -5019.00 -5019.00 -5019.00 -5019.02 -5029.15 -5103.96 -5114.08 -5114.11 -5114.11 -5114.11 -5114.09 -5106.26 -5048.46 -5040.64 -5040.62 -5040.62 -5040.62 -5040.61 -5036.29 -5004.33 -5000.01 -5000.00 -5000.00 -5000.00 -5000.00 -5000.00 -5000.00
-4944.83 -4771.60 -4944.90 -4971.95 -4972.02 -4972.01 -4969.37 -4949.82 -4947.17 -4947.17 -4947.17 -4947.17 -4947.16 -4943.40 -4915.60 -4911.84 -4911.83 -4911.83 -4911.83 -4911.88 -4933.20 -5090.72 -5112.04 -5112.09 -5112.09 -5112.09 -5112.09 -5111.47 -5106.86 -5106.23 -5106.23 -5106.23 -5106.23 -5106.23 -5104.32 -5090.26 -5088.35 -5088.35 -5088.35 -5088.35 -5088.28 -5081.40 -4799.18 -3007.69 -2611.51 -2569.52 -2583.37 -2579.84 -2539.28 -2297.85 -2264.51 -2266.22 -2267.09 -2271.04 -2282.57 -2090.76 -688.21 -486.80 -474.42 -462.28 -439.23 -436.93 -406.25 -175.09 -148.90 -126.11 -33.15 -48.68 -101.85 -104.57 81.94 130.99 112.57 113.47 93.56 84.42 79.37 81.59 81.67 81.75 82.37 84.05 87.34 66.16 -121.71 -142.41 -128.26 -114.27 -216.53 -908.60 -2588.01 -3776.32 -3910.51 -3910.84 -3910.84 -3910.84 -3910.59 -3810.90 -3074.25 -2974.56 -2974.31 -2974.31 -2974.31 -2974.67 -3119.43 -4189.00 -4333.31 -4333.53 -4333.52 -4333.59 -4334.29 -4407.26 -4945.92 -5018.82 -5019.00 -5019.00 -5019.00 -5019.02 -5029.15 -5103.96 -5114.08 -5114.11 -5114.11 -5114.11 -5114.09 -5106.26 -5048.46 -5040.64 -5040.62 -5040.62 -5040.62 -5040.61 -5036.29 -5004.33 -5000.01 -5000.00 -5000.00 -5000.00 -5000.00 -5000.00 -5000.00
-4971.96 -4971.53 -4971.96 -4972.03 -4972.03 -4972.02 -4969.38 -4949.84 -4947.20 -4947.19 -4947.19 -4947.19 -4947.19 -4943.42 -4915.62 -4911.86 -4911.85 -4911.85 -4911.85 -4911.90 -4933.21 -5090.68 -5111.99 -5112.04 -5112.04 -5112.04 -5112.04 -5111.42 -5106.84 -5106.22 -5106.22 -5106.22 -5106.22 -5106.21 -5104.31 -5090.23 -5088.33 -5088.32 -5088.32 -5088.32 -5088.31 -5081.92 -4821.51 -3171.39 -2654.43 -2604.19 -2592.33 -2599.79 -2548.62 -2300.69 -2268.92 -2266.58 -2265.94 -2279.63 -2285.97 -2086.10 -685.17 -485.86 -474.81 -467.25 -456.48 -451.35 -422.65 -188.71 -154.23 -138.24 -118.94 -117.29 -128.07 -120.02 69.04 104.07 97.61 102.84 92.28 84.26 78.50 80.78 81.19 81.37 82.34 84.35 87.43 65.11 -127.79 -138.58 -127.01 -140.99 -161.49 -463.09 -2527.54 -3775.82 -3910.13 -3910.46 -3910.46 -3910.46 -3910.22 -3810.59 -3074.45 -2974.82 -2974.57 -2974.57 -2974.57 -2974.86 -3119.03 -4164.80 -4130.22 -4073.47 -4067.99 -4096.13 -4306.02 -4407.28 -4945.90 -5018.79 -5018.97 -5018.97 -5018.97 -5019.00 -5029.12 -5103.95 -5114.08 -5114.11 -5114.11 -5114.11 -5114.09 -5106.26 -5048.47 -5040.65 -5040.63 -5040.63 -5040.63 -5040.62 -5036.29 -5004.34 -5000.01 -5000.00 -5000.00 -5000.00 -5000.00 -5000.00 -5000.00
-4975.16 -4975.16 -4975.16 -4975.16 -4975.16 -4975.15 -4973.34 -4959.96 -4958.15 -4958.14 -4958.14 -4958.14 -4958.13 -4954.25 -4925.53 -4921.64 -4921.63 -4921.63 -4921.63 -4921.68 -4939.74 -5073.23 -5091.29 -5091.34 -5091.34 -5091.34 -5091.34 -5092.30 -5099.38 -5100.34 -5100.34 -5100.34 -5100.34 -5100.34 -5098.03 -5080.99 -5078.69 -5078.68 -5078.68 -5078.68 -5078.67 -5073.03 -5005.35 -4624.93 -3229.89 -2900.16 -2840.06 -2917.11 -2872.65 -2605.08 -2567.40 -2577.28 -2570.46 -2582.21 -2539.10 -2143.33 -807.67 -626.51 -616.62 -603.27 -590.65 -575.77 -559.40 -238.12 -190.47 -183.38 -188.73 -190.37 -194.19 -167.79 41.50 68.72 70.87 72.17 67.98 61.20 56.69 68.47 70.25 71.06 72.29 74.53 77.70 61.31 -84.50 -93.24 -68.47 -98.32 -104.63 -371.05 -2458.11 -3634.02 -3757.86 -3758.16 -3758.16 -3758.16 -3757.98 -3685.75 -3152.03 -3079.80 -3079.56 -3079.12 -3078.90 -3051.01 -2980.61 -3828.05 -2817.79 -2218.78 -2153.34 -2398.88 -4143.26 -4446.06 -4941.29 -5008.24 -5008.40 -5008.40 -5008.40 -5008.43 -5019.67 -5102.68 -5113.92 -5113.94 -5113.94 -5113.94 -5113.92 -5106.48 -5051.50 -5044.05 -5044.04 -5044.04 -5044.04 -5044.02 -5039.34 -5004.70 -5000.01 -5000.00 -5000.00 -5000.00 -5000.00 -5000.00 -5000.00
-4998.29 -4998.29 -4998.29 -4998.29 -4998.29 -4998.30 -5002.64 -5034.68 -5039.01 -5039.02 -5039.02 -5039.02 -5039.01 -5034.21 -4998.72 -4993.92 -4993.91 -4993.91 -4993.91 -4993.89 -4987.98 -4944.26 -4938.35 -4938.33 -4938.33 -4938.33 -4938.36 -4950.99 -5044.28 -5056.91 -5056.94 -5056.94 -5056.94 -5056.93 -5051.66 -5012.73 -5007.47 -5007.45 -5007.45 -5007.45 -5007.44 -5003.88 -4977.43 -4948.90 -4765.31 -4720.72 -4712.69 -4723.19 -4721.78 -4717.49 -4716.67 -4718.09 -4717.17 -4717.97 -4481.40 -2662.58 -1787.61 -1694.45 -1691.17 -1686.59 -1682.27 -1677.88 -1551.17 -584.39 -452.61 -460.83 -466.62 -469.05 -470.75 -431.05 -140.69 -100.54 -98.01 -91.26 -93.91 -101.39 -96.35 -16.94 -5.09 -3.59 -2.02 0.51 3.99 36.76 256.70 291.41 305.47 291.14 288.29 45.14 -1816.80 -2563.78 -2632.56 -2632.28 -2632.72 -2632.79 -2633.12 -2763.24 -3724.69 -3854.73 -3831.57 -3653.28 -3593.61 -3380.42 -1937.90 -2594.09 -3828.30 -2464.91 -2474.69 -2813.43 -4488.30 -4736.45 -4907.23 -4930.27 -4930.32 -4930.32 -4930.32 -4930.37 -4949.79 -5093.28 -5112.70 -5112.75 -5112.75 -5112.75 -5112.74 -5108.10 -5073.84 -5069.20 -5069.19 -5069.19 -5069.19 -5069.17 -5061.81 -5007.38 -5000.02 -5000.00 -5000.00 -5000.00 -5000.00 -5000.00 -5000.00
-5001.42 -5001.42 -5001.42 -5001.42 -5001.42 -5001.44 -5006.60 -5044.79 -5049.96 -5049.97 -5049.97 -5049.97 -5049.96 -5045.03 -5008.63 -5003.70 -5003.69 -5003.69 -5003.69 -5003.67 -4994.51 -4926.81 -4917.65 -4917.62 -4917.62 -4917.62 -4917.66 -4931.87 -5036.83 -5051.03 -5051.07 -5051.07 -5051.07 -5051.05 -5045.38 -5003.50 -4997.83 -4997.81 -4997.81 -4997.81 -4997.80 -4994.52 -4970.21 -4966.86 -4966.39 -4966.28 -4966.26 -4966.30 -4970.68 -5003.03 -5007.41 -5007.43 -5007.42 -5006.78 -4745.87 -2743.66 -1922.21 -1839.67 -1848.91 -1853.90 -1851.80 -1847.89 -1704.31 -654.76 -508.19 -507.71 -512.18 -516.74 -515.62 -475.38 -174.45 -132.06 -131.19 -126.38 -125.38 -131.50 -123.21 -30.55 -15.17 -13.15 -11.63 -8.44 -5.05 33.90 302.71 342.17 345.53 342.57 341.70 268.75 -482.88 -2249.61 -2451.80 -2273.16 -2452.43 -2480.42 -2480.74 -2609.45 -3563.04 -3683.06 -3508.59 -2182.78 -1721.88 -1762.99 -1830.44 -2313.24 -2723.59 -2782.74 -4287.63 -4532.56 -4732.37 -4776.23 -4902.62 -4919.72 -4919.76 -4919.76 -4919.76 -4919.81 -4940.34 -5092.01 -5112.53 -5112.59 -5112.59 -5112.59 -5112.57 -5108.32 -5076.86 -5072.61 -5072.60 -5072.60 -5072.60 -5072.58 -5064.85 -5007.75 -5000.02 -5000.00 -5000.00 -5000.00 -5000.00 -5000.00 -5000.00
-5001.43 -5001.43 -5001.43 -5001.43 -5001.43 -5001.44 -5006.61 -5044.82 -5049.99 -5050.00 -5050.00 -5050.00 -5049.99 -5045.06 -5008.65 -5003.73 -5003.71 -5003.71 -5003.71 -5003.69 -4994.52 -4926.77 -4917.60 -4917.57 -4917.57 -4917.57 -4917.61 -4931.82 -5036.81 -5051.02 -5051.05 -5051.05 -5051.05 -5051.04 -5045.37 -5003.47 -4997.80 -4997.79 -4997.79 -4997.79 -4997.78 -4994.49 -4970.19 -4966.90 -4966.89 -4966.89 -4966.89 -4966.90 -4971.29 -5003.74 -5008.13 -5008.14 -5008.14 -5007.49 -4745.33 -2735.02 -1923.64 -1861.25 -1880.78 -1880.01 -1868.66 -1861.26 -1716.17 -673.32 -535.91 -526.09 -526.22 -522.01 -511.67 -472.74 -175.19 -135.07 -137.11 -137.27 -136.69 -135.10 -123.86 -28.68 -12.74 -10.86 -8.73 -5.97 -3.12 35.10 303.37 341.77 342.47 342.25 342.00 310.07 -164.69 -2024.12 -2247.01 -948.08 -2272.78 -2479.46 -2450.93 -2187.39 -1750.75 -1615.61 -1607.51 -1366.31 -1141.48 -1944.31 -3135.65 -2577.69 -4250.23 -4522.20 -4704.48 -4570.04 -4733.73 -4776.33 -4902.61 -4919.69 -4919.73 -4919.73 -4919.73 -4919.78 -4940.31 -5092.00 -5112.53 -5112.58 -5112.58 -5112.58 -5112.57 -5108.32 -5076.87 -5072.62 -5072.61 -5072.61 -5072.61 -5072.59 -5064.86 -5007.75 -5000.02 -5000.00 -5000.00 -5000.00 -5000.00 -5000.00 -5000.00
-5001.43 -5001.43 -5001.43 -5001.43 -5001.43 -5001.44 -5006.61 -5044.82 -5049.99 -5050.00 -5050.00 -5050.00 -5049.99 -5045.06 -5008.65 -5003.73 -5003.71 -5003.71 -5003.71 -5003.69 -4994.52 -4926.77 -4917.60 -4917.57 -4917.57 -4917.57 -4917.61 -4931.82 -5036.81 -5051.02 -5051.05 -5051.05 -5051.05 -5051.04 -5045.37 -5003.47 -4997.80 -4997.79 -4997.79 -4997.79 -4997.78 -4994.49 -4970.19 -4966.90 -4966.89 -4966.89 -4966.89 -4966.90 -4971.29 -5003.74 -5008.13 -5008.14 -5008.14 -5007.50 -4748.69 -2761.56 -1940.96 -1874.94 -1935.14 -1938.35 -1918.87 -1884.24 -1723.89 -691.24 -582.90 -543.64 -537.88 -535.02 -525.73 -484.72 -182.29 -137.99 -137.42 -134.63 -133.98 -131.70 -118.59 -22.45 -7.87 -6.28 -4.66 -2.69 -0.38 37.41 305.11 341.92 342.22 341.99 340.71 335.97 215.75 -611.19 -2237.97 -2272.19 -2451.92 -2450.47 -2029.30 -539.67 -1075.33 -1130.65 -1348.95 -1312.28 -1448.81 -1663.24 -1787.01 -2504.28 -4469.21 -4534.58 -4326.35 -3134.33 -4542.83 -4775.86 -4902.61 -4919.69 -4919.73 -4919.73 -4919.73 -4919.78 -4940.31 -5092.00 -5112.53 -5112.58 -5112.58 -5112.58 -5112.57 -5108.32 -5076.87 -5072.62 -5072.61 -5072.61 -5072.61 -5072.59 -5064.86 -5007.75 -5000.02 -5000.00 -5000.00 -5000.00 -5000.00 -5000.00 -5000.00
-5001.45 -5001.45 -5001.45 -5001.45 -5001.45 -5001.46 -5006.63 -5044.81 -5049.98 -5049.99 -5049.99 -5049.99 -5049.98 -5045.06 -5008.67 -5003.74 -5003.73 -5003.73 -5003.73 -5003.71 -4994.54 -4926.82 -4917.65 -4917.63 -4917.63 -4917.63 -4917.66 -4931.86 -5036.80 -5051.00 -5051.04 -5051.04 -5051.04 -5051.02 -5045.35 -5003.45 -4997.78 -4997.76 -4997.76 -4997.76 -4997.75 -4994.47 -4970.18 -4966.89 -4966.88 -4966.88 -4966.88 -4966.90 -4971.28 -5003.68 -5008.06 -5008.07 -5008.07 -5007.56 -4799.91 -3184.73 -2369.70 -2290.80 -2259.50 -2068.97 -2021.10 -1950.87 -1755.33 -713.06 -600.50 -566.26 -556.79 -549.21 -542.72 -499.13 -187.13 -141.01 -133.95 -128.85 -130.78 -130.16 -110.75 -16.62 -3.04 -1.94 -0.78 0.77 2.73 40.82 307.96 343.44 344.02 343.89 338.53 333.18 278.23 -248.14 -2017.33 -2451.16 -2451.01 -2029.64 -379.67 146.74 -327.81 -1075.39 -1365.69 -1116.52 -1631.19 -1626.45 -1577.20 -2436.35 -4062.40 -2906.94 -2900.75 -2829.94 -4523.35 -4775.67 -4902.62 -4919.72 -4919.76 -4919.76 -4919.76 -4919.81 -4940.34 -5091.98 -5112.51 -5112.56 -5112.56 -5112.56 -5112.55 -5108.30 -5076.88 -5072.63 -5072.62 -5072.62 -5072.62 -5072.60 -5064.87 -5007.75 -5000.02 -5000.00 -5000.00 -5000.00 -5000.00 -5000.00 -5000.00
-5009.93 -5009.93 -5009.93 -5009.93 -5009.93 -5009.94 -5013.98 -5043.83 -5047.87 -5047.88 -5047.88 -5047.88 -5047.87 -5043.86 -5014.23 -5010.22 -5010.21 -5010.21 -5010.21 -5010.19 -5002.63 -4946.78 -4939.22 -4939.20 -4939.20 -4939.20 -4939.22 -4950.47 -5033.60 -5044.85 -5044.88 -5044.88 -5044.88 -5044.87 -5038.73 -4993.35 -4987.20 -4987.19 -4987.19 -4987.19 -4987.18 -4984.67 -4966.09 -4963.57 -4963.56 -4963.56 -4963.56 -4963.57 -4965.36 -4978.56 -4980.35 -4980.35 -4980.35 -4980.29 -4955.75 -4702.55 -4137.05 -4040.97 -3698.38 -2397.70 -2208.65 -2220.63 -1803.90 -730.96 -672.50 -621.68 -595.72 -586.82 -570.26 -519.85 -139.52 -75.77 -70.23 -68.21 -73.37 -65.05 -48.58 24.13 34.55 34.83 35.68 36.95 39.51 70.57 266.52 293.12 297.57 300.63 286.89 275.49 204.81 -215.49 -686.50 -2222.28 -2220.90 -610.18 108.94 539.36 -707.97 -1410.89 -1555.72 -1541.90 -1699.20 -1614.93 -1676.55 -2236.60 -2665.44 -2937.43 -4269.65 -4457.36 -4665.43 -4719.31 -4907.17 -4932.58 -4932.64 -4932.64 -4932.64 -4932.69 -4950.70 -5083.81 -5101.83 -5101.87 -5101.87 -5101.87 -5101.87 -5099.24 -5079.85 -5077.22 -5077.22 -5077.22 -5077.22 -5077.19 -5068.98 -5008.24 -5000.02 -5000.00 -5000.00 -5000.00 -5000.00 -5000.00 -5000.00
-5072.58 -5072.58 -5072.58 -5072.58 -5072.58 -5072.57 -5068.28 -5036.55 -5032.26 -5032.25 -5032.25 -5032.25 -5032.26 -5035.01 -5055.36 -5058.11 -5058.12 -5058.12 -5058.12 -5058.13 -5062.44 -5094.26 -5098.57 -5098.58 -5098.58 -5098.58 -5098.55 -5087.99 -5009.99 -4999.43 -4999.40 -4999.40 -4999.40 -4999.38 -4989.76 -4918.70 -4909.08 -4909.05 -4909.05 -4909.05 -4909.06 -4912.25 -4935.84 -4939.03 -4939.04 -4939.04 -4939.04 -4938.99 -4921.59 -4792.96 -4775.55 -4775.51 -4775.51 -4775.51 -4775.29 -4711.34 -4241.56 -3981.94 -2506.43 -2110.47 -2231.89 -3346.99 -2237.93 -888.19 -766.52 -718.90 -700.33 -722.01 -722.83 -600.80 231.02 366.67 370.46 362.33 366.08 377.60 373.38 296.01 285.53 285.08 285.30 287.28 293.65 247.73 -97.93 -142.27 -147.51 -145.00 -156.82 -160.88 -338.28 -1600.49 -1799.23 -2003.60 -2025.44 -1657.45 -893.47 -387.86 -1800.07 -2160.55 -2372.97 -2393.21 -2546.47 -2673.47 -2546.75 -2552.88 -3779.19 -4003.50 -4187.17 -4211.42 -4212.20 -4299.11 -4940.75 -5027.59 -5027.80 -5027.80 -5027.80 -5027.80 -5027.28 -5023.44 -5022.92 -5022.92 -5022.92 -5022.92 -5022.94 -5032.34 -5101.78 -5111.17 -5111.20 -5111.20 -5111.20 -5111.17 -5099.33 -5011.87 -5000.03 -5000.00 -5000.00 -5000.00 -5000.00 -5000.00 -5000.00
-5081.06 -5081.06 -5081.06 -5081.06 -5081.06 -5081.05 -5075.63 -5035.57 -5030.15 -5030.13 -5030.13 -5030.13 -5030.14 -5033.81 -5060.93 -5064.59 -5064.60 -5064.60 -5064.60 -5064.62 -5070.53 -5114.22 -5120.13 -5120.15 -5120.15 -5120.15 -5120.11 -5106.60 -5006.79 -4993.28 -4993.25 -4993.25 -4993.25 -4993.22 -4983.14 -4908.59 -4898.50 -4898.48 -4898.48 -4898.48 -4898.49 -4902.45 -4931.74 -4935.71 -4935.72 -4935.72 -4935.72 -4935.67 -4915.66 -4767.84 -4747.83 -4747.78 -4747.78 -4747.78 -4747.63 -4685.28 -4224.03 -3928.67 -2227.26 -2144.93 -2119.30 -2141.86 -3218.89 -1469.97 -976.20 -796.25 -748.73 -737.58 -738.41 -607.14 277.84 414.11 417.06 425.95 429.83 439.81 435.31 336.06 325.07 324.42 325.77 329.53 330.14 274.06 -150.94 -207.47 -201.80 -208.97 -212.20 -213.10 -401.65 -1752.30 -1940.32 -1914.14 -1845.05 -1711.25 -772.60 -1132.53 -2323.95 -2937.02 -4231.68 -4400.51 -4420.36 -4439.27 -4372.19 -4007.26 -4123.48 -4146.28 -4146.79 -4146.85 -4147.08 -4242.23 -4945.30 -5040.45 -5040.68 -5040.68 -5040.68 -5040.67 -5037.65 -5015.27 -5012.24 -5012.23 -5012.23 -5012.23 -5012.26 -5023.28 -5104.74 -5115.77 -5115.80 -5115.80 -5115.80 -5115.76 -5103.44 -5012.36 -5000.03 -5000.00 -5000.00 -5000.00 -5000.00 -5000.00 -5000.00
-5081.08 -5081.08 -5081.08 -5081.08 -5081.08 -5081.07 -5075.64 -5035.57 -5030.14 -5030.13 -5030.13 -5030.13 -5030.14 -5033.81 -5060.94 -5064.61 -5064.62 -5064.62 -5064.62 -5064.63 -5070.55 -5114.27 -5120.18 -5120.20 -5120.20 -5120.20 -5120.17 -5106.65 -5006.78 -4993.27 -4993.23 -4993.23 -4993.23 -4993.21 -4983.12 -4908.57 -4898.48 -4898.45 -4898.45 -4898.45 -4898.46 -4902.43 -4931.73 -4935.70 -4935.71 -4935.71 -4935.71 -4935.66 -4915.65 -4767.78 -4747.77 -4747.72 -4747.72 -4747.72 -4747.56 -4685.22 -4224.49 -4133.63 -3925.62 -3917.93 -3706.69 -2140.18 -1964.00 -2451.03 -1341.58 -810.57 -755.25 -725.03 -703.93 -586.39 290.48 414.03 414.73 422.87 431.83 439.51 431.36 335.11 325.10 326.60 330.13 333.34 335.88 279.45 -148.58 -197.24 -187.81 -195.71 -202.95 -204.47 -382.81 -1721.00 -1899.15 -1790.85 -1360.51 -1356.92 -1118.14 -2218.65 -4156.70 -4464.52 -4639.96 -4662.90 -4663.01 -4662.92 -4607.86 -4201.37 -4146.77 -4146.69 -4146.69 -4146.69 -4146.92 -4242.09 -4945.31 -5040.48 -5040.71 -5040.71 -5040.71 -5040.71 -5037.67 -5015.25 -5012.21 -5012.21 -5012.21 -5012.21 -5012.23 -5023.26 -5104.75 -5115.78 -5115.81 -5115.81 -5115.81 -5115.78 -5103.45 -5012.36 -5000.03 -5000.00 -5000.00 -5000.00 -5000.00 -5000.00 -5000.00
-5081.08 -5081.08 -5081.08 -5081.08 -5081.08 -5081.07 -5075.64 -5035.57 -5030.14 -5030.13 -5030.13 -5030.13 -5030.14 -5033.81 -5060.94 -5064.61 -5064.62 -5064.62 -5064.62 -5064.63 -5070.55 -5114.27 -5120.18 -5120.20 -5120.20 -5120.20 -5120.17 -5106.65 -5006.78 -4993.27 -4993.23 -4993.23 -4993.23 -4993.21 -4983.12 -4908.57 -4898.48 -4898.45 -4898.45 -4898.45 -4898.46 -4902.43 -4931.73 -4935.70 -4935.71 -4935.71 -4935.71 -4935.66 -4915.65 -4767.78 -4747.77 -4747.72 -4747.72 -4747.72 -4747.56 -4685.22 -4224.56 -4162.15 -4161.48 -4161.39 -4132.53 -3683.03 -1817.90 -1331.90 -2540.37 -1206.77 -736.56 -696.89 -685.40 -571.24 304.09 422.23 423.46 425.99 432.43 438.57 429.35 332.40 321.27 324.77 328.48 336.98 338.42 278.78 -150.69 -197.69 -166.58 -138.52 -168.18 -104.85 -264.61 -1552.25 -1722.23 -1614.12 -1208.02 -1385.42 -1662.17 -3624.02 -4348.31 -4632.46 -4662.89 -4662.94 -4662.93 -4662.76 -4607.73 -4201.25 -4146.75 -4146.69 -4146.69 -4146.69 -4146.92 -4242.09 -4945.31 -5040.48 -5040.71 -5040.71 -5040.71 -5040.71 -5037.67 -5015.25 -5012.21 -5012.21 -5012.21 -5012.21 -5012.23 -5023.26 -5104.75 -5115.78 -5115.81 -5115.81 -5115.81 -5115.78 -5103.45 -5012.36 -5000.03 -5000.00 -5000.00 -5000.00 -5000.00 -5000.00 -5000.00
-5081.03 -5081.03 -5081.03 -5081.03 -5081.03 -5081.02 -5075.60 -5035.56 -5030.14 -5030.13 -5030.13 -5030.13 -5030.14 -5033.81 -5060.92 -5064.59 -5064.59 -5064.59 -5064.59 -5064.61 -5070.52 -5114.22 -5120.13 -5120.14 -5120.14 -5120.14 -5120.11 -5106.60 -5006.78 -4993.27 -4993.24 -4993.24 -4993.24 -4993.22 -4983.13 -4908.58 -4898.49 -4898.47 -4898.47 -4898.47 -4898.48 -4902.44 -4931.75 -4935.72 -4935.73 -4935.73 -4935.73 -4935.68 -4915.67 -4767.80 -4747.79 -4747.74 -4747.74 -4747.74 -4747.58 -4685.20 -4224.28 -4161.90 -4161.74 -4161.74 -4161.08 -3920.12 -2070.42 -1461.44 -2746.47 -2710.69 -1134.66 -714.82 -666.88 -562.32 312.13 427.38 427.02 427.45 431.86 437.33 428.11 331.73 323.47 331.70 340.26 339.97 346.72 284.64 -137.56 -180.78 -107.89 178.51 19.30 186.75 91.82 -1204.11 -1070.03 -1078.22 -1120.55 -1661.58 -1722.10 -1742.62 -2681.58 -4409.89 -4428.14 -4395.89 -4390.78 -4378.10 -4321.60 -3960.89 -4117.84 -4146.29 -4146.86 -4146.92 -4147.16 -4242.31 -4945.34 -5040.49 -5040.73 -5040.73 -5040.73 -5040.72 -5037.68 -5015.25 -5012.21 -5012.20 -5012.20 -5012.20 -5012.23 -5023.25 -5104.70 -5115.73 -5115.76 -5115.76 -5115.76 -5115.72 -5103.40 -5012.35 -5000.03 -5000.00 -5000.00 -5000.00 -5000.00 -5000.00 -5000.00
-5061.34 -5061.34 -5061.34 -5061.34 -5061.34 -5061.33 -5057.96 -5033.05 -5029.68 -5029.67 -5029.67 -5029.67 -5029.68 -5032.34 -5051.99 -5054.64 -5054.65 -5054.65 -5054.65 -5054.66 -5059.27 -5093.35 -5097.96 -5097.98 -5097.98 -5097.98 -5097.95 -5087.06 -5006.58 -4995.69 -4995.66 -4995.66 -4995.66 -4995.64 -4985.89 -4913.82 -4904.07 -4904.05 -4904.05 -4904.05 -4904.06 -4908.21 -4938.85 -4942.99 -4943.00 -4943.00 -4943.00 -4942.96 -4923.10 -4776.42 -4756.57 -4756.52 -4756.52 -4756.52 -4756.33 -4679.14 -4108.78 -4031.59 -4031.40 -4031.40 -4031.33 -4002.32 -3675.63 -2639.03 -1489.92 -2710.66 -2698.38 -1127.85 -693.98 -574.55 160.15 253.15 252.77 254.53 258.91 264.04 245.51 81.10 67.02 70.14 76.86 80.81 81.47 22.83 -345.98 -361.09 -188.81 236.56 319.43 473.11 96.57 -1081.59 -1073.52 -1156.81 -1357.24 -1307.92 -1447.36 -1943.61 -3905.15 -4178.72 -2663.66 -2416.32 -2396.06 -2307.86 -2246.88 -2230.83 -3717.80 -4013.54 -4216.12 -4242.28 -4242.56 -4328.07 -4959.95 -5045.46 -5045.68 -5045.68 -5045.68 -5045.67 -5041.90 -5014.08 -5010.31 -5010.30 -5010.30 -5010.30 -5010.32 -5019.34 -5085.99 -5095.01 -5095.03 -5095.03 -5095.03 -5095.01 -5084.89 -5010.14 -5000.03 -5000.00 -5000.00 -5000.00 -5000.00 -5000.00 -5000.00
-4915.80 -4915.80 -4915.80 -4915.80 -4915.80 -4915.83 -4927.59 -5014.51 -5026.28 -5026.31 -5026.31 -5026.31 -5026.29 -5021.49 -4985.99 -4981.19 -4981.17 -4981.17 -4981.17 -4981.16 -4976.16 -4939.18 -4934.17 -4934.16 -4934.16 -4934.16 -4934.18 -4942.64 -5005.10 -5013.55 -5013.57 -5013.57 -5013.57 -5013.55 -5006.28 -4952.57 -4945.30 -4945.28 -4945.28 -4945.28 -4945.29 -4950.78 -4991.28 -4996.76 -4996.77 -4996.77 -4996.77 -4996.73 -4978.06 -4840.15 -4821.48 -4821.44 -4821.44 -4821.44 -4820.98 -4634.35 -3255.37 -3068.74 -3068.28 -3068.28 -3068.28 -3067.68 -2853.89 -1245.58 -802.01 -1088.63 -2734.45 -2679.87 -918.56 -716.64 -990.46 -1034.91 -1033.29 -1028.91 -1023.66 -1018.25 -1104.76 -1776.56 -1863.11 -1861.05 -1853.78 -1847.31 -1833.69 -1836.48 -1925.07 -1812.86 -1235.71 -1090.46 -852.09 -689.48 -1068.10 -1018.72 -1024.49 -1751.30 -1599.92 -2170.98 -3958.61 -4084.52 -3017.03 -2825.92 -2460.50 -2390.29 -2490.67 -2320.92 -2274.76 -2380.70 -2309.56 -2971.63 -4717.97 -4946.78 -4947.47 -4961.82 -5067.86 -5082.21 -5082.25 -5082.25 -5082.25 -5082.23 -5073.07 -5005.44 -4996.29 -4996.26 -4996.26 -4996.26 -4996.25 -4990.46 -4947.70 -4941.91 -4941.90 -4941.90 -4941.90 -4941.91 -4948.10 -4993.80 -4999.98 -5000.00 -5000.00 -5000.00 -5000.00 -5000.00 -5000.00
-4896.10 -4896.10 -4896.10 -4896.10 -4896.10 -4896.13 -4909.95 -5012.00 -5025.82 -5025.85 -5025.85 -5025.85 -5025.84 -5020.02 -4977.06 -4971.25 -4971.23 -4971.23 -4971.23 -4971.22 -4964.91 -4918.31 -4912.01 -4911.99 -4911.99 -4911.99 -4912.02 -4923.09 -5004.90 -5015.97 -5015.99 -5015.99 -5015.99 -5015.98 -5009.04 -4957.81 -4950.88 -4950.86 -4950.86 -4950.86 -4950.88 -4956.54 -4998.37 -5004.04 -5004.05 -5004.05 -5004.05 -5004.01 -4985.50 -4848.77 -4830.27 -4830.22 -4830.22 -4830.22 -4829.72 -4628.29 -3139.87 -2938.44 -2937.94 -2937.94 -2937.94 -2937.30 -2708.53 -1028.05 -841.47 -886.78 -1668.34 -2771.75 -1166.72 -771.67 -1153.35 -1217.47 -1209.97 -1201.91 -1193.15 -1187.55 -1280.26 -2024.59 -2124.12 -2123.17 -2109.25 -2052.27 -1940.80 -1803.56 -1781.13 -1571.18 -1458.50 -1345.85 -1330.40 -1319.41 -1556.28 -1430.09 -1816.45 -2192.77 -3973.10 -4298.69 -4543.25 -4576.15 -4582.04 -4580.24 -4558.23 -4552.62 -4376.12 -2932.97 -2691.20 -2966.69 -2368.90 -2376.44 -4463.29 -5006.16 -5042.72 -5047.59 -5082.47 -5087.19 -5087.20 -5087.20 -5087.20 -5087.18 -5077.29 -5004.27 -4994.39 -4994.36 -4994.36 -4994.36 -4994.34 -4986.55 -4928.98 -4921.19 -4921.17 -4921.17 -4921.17 -4921.19 -4929.58 -4991.59 -4999.98 -5000.00 -5000.00 -5000.00 -5000.00 -5000.00 -5000.00
-4896.05 -4896.05 -4896.05 -4896.05 -4896.05 -4896.08 -4909.90 -5012.00 -5025.81 -5025.85 -5025.85 -5025.85 -5025.83 -5020.02 -4977.04 -4971.22 -4971.21 -4971.21 -4971.21 -4971.19 -4964.88 -4918.26 -4911.95 -4911.94 -4911.94 -4911.94 -4911.96 -4923.04 -5004.90 -5015.97 -5016.00 -5016.00 -5016.00 -5015.98 -5009.05 -4957.83 -4950.89 -4950.88 -4950.88 -4950.88 -4950.89 -4956.55 -4998.39 -5004.06 -5004.07 -5004.07 -5004.07 -5004.02 -4985.52 -4848.80 -4830.29 -4830.25 -4830.25 -4830.25 -4829.75 -4628.27 -3139.59 -2938.11 -2937.61 -2937.61 -2937.49 -2909.41 -2521.17 -1119.94 -1045.27 -1456.53 -2809.75 -3127.07 -2708.08 -1002.42 -1148.93 -1217.55 -1206.93 -1193.75 -1173.34 -1161.51 -1257.26 -1975.64 -2023.77 -2016.77 -1910.19 -1779.08 -1499.03 -1316.46 -1625.64 -1537.66 -1871.48 -1844.27 -1760.30 -1975.64 -2059.07 -1987.82 -1970.14 -2084.11 -4274.79 -4574.87 -4576.29 -4605.18 -4818.02 -4846.82 -4846.84 -4846.77 -4820.51 -4624.55 -4609.78 -4600.06 -3149.12 -2496.29 -2596.61 -4578.32 -5018.89 -5047.74 -5082.50 -5087.20 -5087.21 -5087.21 -5087.21 -5087.19 -5077.30 -5004.27 -4994.38 -4994.36 -4994.36 -4994.36 -4994.34 -4986.54 -4928.94 -4921.14 -4921.12 -4921.12 -4921.12 -4921.14 -4929.54 -4991.58 -4999.98 -5000.00 -5000.00 -5000.00 -5000.00 -5000.00 -5000.00
-4896.05 -4896.05 -4896.05 -4896.05 -4896.05 -4896.08 -4909.90 -5012.00 -5025.81 -5025.85 -5025.85 -5025.85 -5025.83 -5020.02 -4977.04 -4971.22 -4971.21 -4971.21 -4971.21 -4971.19 -4964.88 -4918.26 -4911.95 -4911.94 -4911.94 -4911.94 -4911.96 -4923.04 -5004.90 -5015.97 -5016.00 -5016.00 -5016.00 -5015.98 -5009.05 -4957.83 -4950.89 -4950.88 -4950.88 -4950.88 -4950.89 -4956.55 -4998.39 -5004.06 -5004.07 -5004.07 -5004.07 -5004.02 -4985.52 -4848.80 -4830.29 -4830.25 -4830.25 -4830.25 -4829.67 -4627.74 -3139.51 -2938.11 -2937.54 -2936.95 -2912.14 -2555.76 -1246.72 -1241.39 -1482.97 -2535.93 -2888.20 -2942.78 -2674.15 -1012.90 -1123.17 -1074.75 -1085.95 -1025.54 -936.90 -864.54 -975.11 -1512.34 -1290.51 -1313.54 -896.28 -1357.72 -1461.92 -1911.87 -2052.65 -2128.05 -2174.22 -2118.82 -2171.51 -2210.25 -2202.51 -2101.13 -2265.25 -2765.85 -4364.31 -4575.77 -4576.37 -4605.25 -4818.55 -4847.01 -4847.49 -4847.56 -4847.49 -4847.06 -4867.72 -4996.05 -4590.66 -2796.87 -2736.80 -3290.18 -4838.97 -5047.30 -5082.50 -5087.20 -5087.21 -5087.21 -5087.21 -5087.19 -5077.30 -5004.27 -4994.38 -4994.36 -4994.36 -4994.36 -4994.34 -4986.54 -4928.94 -4921.14 -4921.12 -4921.12 -4921.12 -4921.14 -4929.54 -4991.58 -4999.98 -5000.00 -5000.00 -5000.00 -5000.00 -5000.00 -5000.00
-4896.10 -4896.10 -4896.10 -4896.10 -4896.10 -4896.13 -4909.94 -5011.97 -5025.78 -5025.81 -5025.81 -5025.81 -5025.80 -5019.98 -4977.03 -4971.21 -4971.20 -4971.20 -4971.20 -4971.18 -4964.88 -4918.30 -4911.99 -4911.98 -4911.98 -4911.98 -4912.01 -4923.08 -5004.92 -5015.99 -5016.02 -5016.02 -5016.02 -5016.00 -5009.07 -4957.82 -4950.88 -4950.87 -4950.87 -4950.87 -4950.88 -4956.54 -4998.36 -5004.02 -5004.03 -5004.03 -5004.03 -5003.99 -4985.48 -4848.73 -4830.22 -4830.17 -4830.17 -4830.10 -4800.56 -4413.06 -3110.22 -2937.64 -2908.08 -2692.35 -2492.44 -1369.99 -2533.54 -2922.43 -2707.68 -872.19 -939.39 -1166.88 -849.98 -718.44 -998.97 -378.51 -416.82 8.46 367.75 289.90 -3.52 -705.62 -1133.47 -1174.84 -1523.69 -1812.42 -1924.32 -2068.03 -2186.36 -2202.37 -2192.84 -2184.98 -2201.14 -2231.54 -2222.94 -2338.33 -4067.35 -4367.58 -4552.14 -4575.94 -4576.44 -4605.24 -4792.24 -4655.51 -4821.60 -4847.51 -4847.58 -4847.63 -4868.36 -5021.53 -5009.89 -4740.93 -4305.59 -3145.49 -4794.48 -5047.15 -5082.47 -5087.17 -5087.18 -5087.18 -5087.18 -5087.16 -5077.27 -5004.24 -4994.36 -4994.34 -4994.34 -4994.34 -4994.32 -4986.52 -4928.94 -4921.15 -4921.13 -4921.13 -4921.13 -4921.15 -4929.55 -4991.58 -4999.98 -5000.00 -5000.00 -5000.00 -5000.00 -5000.00 -5000.00
-4916.14 -4916.14 -4916.14 -4916.14 -4916.14 -4916.17 -4926.15 -4999.90 -5009.89 -5009.91 -5009.91 -5009.91 -5009.90 -5005.48 -4972.84 -4968.42 -4968.41 -4968.41 -4968.41 -4968.40 -4964.16 -4932.80 -4928.56 -4928.55 -4928.55 -4928.55 -4928.58 -4938.81 -5014.40 -5024.63 -5024.66 -5024.66 -5024.66 -5024.64 -5016.39 -4955.46 -4947.22 -4947.20 -4947.20 -4947.20 -4947.21 -4951.78 -4985.54 -4990.11 -4990.12 -4990.12 -4990.12 -4990.07 -4969.93 -4821.11 -4800.96 -4800.91 -4800.91 -4800.30 -4553.25 -2764.91 -2792.71 -2802.41 -2625.44 -1043.37 -917.39 -1344.96 -2914.18 -3112.84 -2852.20 -1047.47 -843.80 -844.19 -649.27 -679.54 -1171.35 -1033.15 -663.74 -358.04 -500.07 -572.71 -556.83 -1116.07 -1370.71 -1865.37 -2048.52 -2045.61 -2041.35 -2029.63 -2183.01 -2174.00 -2177.49 -2320.89 -2370.35 -2616.98 -2752.32 -2660.42 -4388.38 -4628.67 -4606.34 -4456.61 -4605.90 -4629.80 -4468.97 -3413.11 -4662.32 -4853.83 -4854.31 -4854.21 -4843.66 -4797.83 -4971.55 -4551.81 -2954.25 -4530.15 -4997.35 -5033.29 -5069.08 -5073.91 -5073.92 -5073.92 -5073.92 -5073.90 -5064.48 -4994.89 -4985.47 -4985.45 -4985.45 -4985.45 -4985.43 -4979.01 -4931.55 -4925.12 -4925.11 -4925.11 -4925.11 -4925.13 -4933.10 -4992.01 -4999.98 -5000.00 -5000.00 -5000.00 -5000.00 -5000.00 -5000.00
-5064.25 -5064.25 -5064.25 -5064.25 -5064.25 -5064.21 -5045.91 -4910.76 -4892.47 -4892.43 -4892.43 -4892.43 -4892.44 -4898.33 -4941.89 -4947.78 -4947.80 -4947.80 -4947.80 -4947.82 -4958.81 -5039.99 -5050.97 -5051.00 -5051.00 -5051.00 -5051.01 -5055.00 -5084.48 -5088.47 -5088.48 -5088.48 -5088.48 -5088.44 -5070.51 -4938.07 -4920.14 -4920.10 -4920.10 -4920.10 -4920.09 -4916.60 -4890.81 -4887.32 -4887.31 -4887.31 -4887.31 -4887.23 -4855.02 -4617.01 -4584.80 -4584.72 -4584.72 -4584.05 -4314.06 -2327.98 -2093.36 -1929.44 -2361.76 -2235.40 -2570.43 -3894.85 -4049.94 -2779.72 -2459.83 -2210.38 -2149.49 -2063.29 -1937.89 -2115.22 -2482.49 -2436.32 -2291.00 -2013.45 -2214.75 -2269.43 -2270.17 -2293.75 -2287.44 -2341.50 -2288.55 -2292.80 -2278.83 -2283.81 -2487.89 -2729.28 -3004.41 -4516.99 -4724.90 -4758.86 -4780.48 -4786.33 -4995.12 -5023.35 -4825.11 -3531.77 -4621.42 -4624.84 -3612.60 -4542.23 -4877.62 -4904.00 -4903.99 -4872.95 -4440.96 -3119.86 -4477.93 -3136.40 -2624.65 -4636.80 -4920.40 -4927.01 -4970.11 -4975.94 -4975.96 -4975.96 -4975.96 -4975.94 -4969.96 -4925.76 -4919.78 -4919.77 -4919.77 -4919.77 -4919.77 -4923.47 -4950.78 -4954.47 -4954.48 -4954.48 -4954.48 -4954.49 -4959.34 -4995.14 -4999.99 -5000.00 -5000.00 -5000.00 -5000.00 -5000.00 -5000.00
-5084.30 -5084.30 -5084.30 -5084.30 -5084.30 -5084.24 -5062.12 -4898.70 -4876.58 -4876.53 -4876.53 -4876.53 -4876.54 -4883.83 -4937.70 -4944.99 -4945.01 -4945.01 -4945.01 -4945.04 -4958.09 -5054.49 -5067.54 -5067.57 -5067.57 -5067.57 -5067.58 -5070.72 -5093.97 -5097.11 -5097.12 -5097.12 -5097.12 -5097.07 -5077.84 -4935.71 -4916.48 -4916.43 -4916.43 -4916.43 -4916.42 -4911.84 -4877.99 -4873.41 -4873.40 -4873.40 -4873.40 -4873.32 -4839.47 -4589.39 -4555.55 -4555.46 -4555.46 -4555.38 -4522.29 -4116.91 -2850.16 -2688.71 -3995.13 -4157.00 -4030.02 -2870.52 -2489.00 -2419.58 -2388.13 -2375.44 -2373.97 -2356.15 -2278.99 -2472.22 -2727.08 -2680.60 -2564.38 -2398.32 -2313.03 -2338.05 -2385.66 -2321.24 -2168.33 -2205.75 -2363.75 -2527.70 -2663.52 -2604.87 -3261.68 -4606.16 -4812.70 -5018.58 -5046.73 -5046.88 -5049.59 -5049.61 -4878.51 -4857.76 -4611.62 -3044.86 -3092.32 -3173.09 -4308.38 -4690.87 -4887.87 -4910.75 -4910.12 -4661.18 -2839.10 -2924.47 -4643.29 -4474.98 -3194.83 -4678.62 -4906.08 -4912.62 -4956.72 -4962.68 -4962.70 -4962.70 -4962.70 -4962.69 -4957.17 -4916.41 -4910.89 -4910.88 -4910.88 -4910.88 -4910.89 -4915.95 -4953.38 -4958.45 -4958.46 -4958.46 -4958.46 -4958.47 -4962.89 -4995.57 -4999.99 -5000.00 -5000.00 -5000.00 -5000.00 -5000.00 -5000.00
-5084.34 -5084.34 -5084.34 -5084.34 -5084.34 -5084.29 -5062.16 -4898.67 -4876.54 -4876.49 -4876.49 -4876.49 -4876.50 -4883.80 -4937.69 -4944.98 -4945.00 -4945.00 -4945.00 -4945.03 -4958.08 -5054.53 -5067.58 -5067.61 -5067.61 -5067.61 -5067.62 -5070.76 -5093.99 -5097.13 -5097.14 -5097.14 -5097.14 -5097.09 -5077.86 -4935.71 -4916.47 -4916.42 -4916.42 -4916.42 -4916.41 -4911.83 -4877.96 -4873.38 -4873.37 -4873.37 -4873.37 -4873.28 -4839.43 -4589.32 -4555.47 -4555.39 -4555.39 -4555.39 -4555.23 -4544.63 -4279.10 -2808.65 -2619.76 -2466.78 -2454.59 -2287.86 -2241.05 -2370.85 -2378.38 -2372.66 -2368.01 -2376.80 -2421.09 -2465.02 -2653.53 -2695.57 -2600.96 -2528.09 -2517.70 -2515.84 -2500.93 -2348.63 -2415.44 -2679.63 -3036.54 -4498.64 -4710.46 -4708.35 -4837.17 -5023.58 -5022.42 -4865.85 -5022.93 -5019.28 -4820.44 -4690.69 -3581.66 -3455.44 -3200.91 -2907.56 -2866.12 -2876.51 -2994.42 -3461.71 -4742.29 -4910.34 -4883.47 -4487.11 -3187.92 -4474.70 -4877.95 -4879.21 -4708.39 -4879.78 -4906.55 -4912.58 -4956.68 -4962.65 -4962.67 -4962.67 -4962.67 -4962.65 -4957.14 -4916.38 -4910.87 -4910.85 -4910.85 -4910.85 -4910.87 -4915.94 -4953.39 -4958.46 -4958.47 -4958.47 -4958.47 -4958.48 -4962.90 -4995.57 -4999.99 -5000.00 -5000.00 -5000.00 -5000.00 -5000.00 -5000.00
-5084.34 -5084.34 -5084.34 -5084.34 -5084.34 -5084.29 -5062.16 -4898.67 -4876.54 -4876.49 -4876.49 -4876.49 -4876.50 -4883.80 -4937.69 -4944.98 -4945.00 -4945.00 -4945.00 -4945.03 -4958.08 -5054.53 -5067.58 -5067.61 -5067.61 -5067.61 -5067.62 -5070.76 -5093.99 -5097.13 -5097.14 -5097.14 -5097.14 -5097.09 -5077.86 -4935.71 -4916.47 -4916.42 -4916.42 -4916.42 -4916.41 -4911.83 -4877.96 -4873.38 -4873.37 -4873.37 -4873.37 -4873.28 -4839.43 -4589.32 -4555.47 -4555.39 -4555.39 -4555.33 -4531.74 -4371.30 -4245.90 -2683.06 -2284.99 -2190.63 -2208.11 -2215.66 -2224.97 -2344.16 -2335.30 -2309.71 -2250.99 -2223.81 -2408.20 -2506.22 -2858.06 -2827.60 -2410.18 -2414.76 -2554.67 -2564.69 -2585.90 -2717.38 -2992.78 -4514.46 -4760.85 -4959.88 -4986.53 -4993.00 -5040.70 -5047.13 -4865.92 -3704.77 -4841.90 -4640.46 -3103.52 -3326.51 -4676.39 -4857.92 -4827.43 -4813.01 -4809.07 -4793.37 -4670.41 -4714.76 -4888.01 -4910.27 -4712.40 -3255.50 -3288.60 -4713.36 -4906.05 -4906.53 -4906.11 -4906.53 -4906.61 -4912.58 -4956.68 -4962.65 -4962.67 -4962.67 -4962.67 -4962.65 -4957.14 -4916.38 -4910.87 -4910.85 -4910.85 -4910.85 -4910.87 -4915.94 -4953.39 -4958.46 -4958.47 -4958.47 -4958.47 -4958.48 -4962.90 -4995.57 -4999.99 -5000.00 -5000.00 -5000.00 -5000.00 -5000.00 -5000.00
