-5037.60 -5037.60 -5037.60 -5037.60 -5037.60 -5037.57 -5024.80 -4930.47 -4917.70 -4917.67 -4917.67 -4917.67 -4917.67 -4918.97 -4928.52 -4929.81 -4929.81 -4929.81 -4929.81 -4929.84 -4941.00 -5023.47 -5034.63 -5034.66 -5034.66 -5034.66 -5034.63 -5022.49 -4932.74 -4920.59 -4920.56 -4920.56 -4920.56 -4920.56 -4918.74 -4905.32 -4903.50 -4903.50 -4903.50 -4903.50 -4903.51 -4906.46 -4928.32 -4931.28 -4931.29 -4931.29 -4931.29 -4931.31 -4941.25 -5014.64 -5024.57 -5024.60 -5024.60 -5024.60 -5024.58 -5017.55 -4965.61 -4958.58 -4958.56 -4958.56 -4958.56 -4958.57 -4961.49 -4983.08 -4986.00 -4986.01 -4986.01 -4986.01 -4986.04 -4998.28 -5088.71 -5100.95 -5100.98 -5100.98 -5100.98 -5100.92 -5076.66 -4897.40 -4873.13 -4873.07 -4873.07 -4873.07 -4873.10 -4883.34 -4959.04 -4969.29 -4969.31 -4969.31 -4969.31 -4969.35 -4983.42 -5087.43 -5101.50 -5101.54 -5101.54 -5101.54 -5101.54 -5101.29 -5099.47 -5099.22 -5099.22 -5099.22 -5099.22 -5099.21 -5093.87 -5054.40 -5049.05 -5049.04 -5049.04 -5049.04 -5049.01 -5037.67 -4953.86 -4942.52 -4942.49 -4942.49 -4942.49 -4942.49 -4944.51 -4959.38 -4961.39 -4961.40 -4961.40 -4961.40 -4961.42 -4972.09 -5050.94 -5061.62 -5061.64 -5061.64 -5061.64 -5061.63 -5055.06 -5006.58 -5000.02 -5000.00 -5000.00 -5000.00 -5000.00 -5000.00 -5000.00
-5045.13 -5045.13 -5045.13 -5045.13 -5045.13 -5045.10 -5032.07 -4935.79 -4922.77 -4922.73 -4922.73 -4922.73 -4922.73 -4923.14 -4926.13 -4926.54 -4926.54 -4926.54 -4926.54 -4926.57 -4938.65 -5027.87 -5039.95 -5039.98 -5039.98 -5039.98 -5039.95 -5027.05 -4931.72 -4918.82 -4918.79 -4918.79 -4918.79 -4918.79 -4919.31 -4923.15 -4923.67 -4923.67 -4923.67 -4923.67 -4923.67 -4924.06 -4926.93 -4927.32 -4927.32 -4927.32 -4927.32 -4927.35 -4936.21 -5001.70 -5010.56 -5010.58 -5010.58 -5010.58 -5010.57 -5006.13 -4973.30 -4968.86 -4968.85 -4968.85 -4968.85 -4968.86 -4971.07 -4987.39 -4989.60 -4989.60 -4989.60 -4989.60 -4989.63 -5000.41 -5080.06 -5090.84 -5090.87 -5090.87 -5090.87 -5090.81 -5068.27 -4901.67 -4879.13 -4879.07 -4879.07 -4879.07 -4879.08 -4881.92 -4902.95 -4905.80 -4905.80 -4905.80 -4905.80 -4905.85 -4925.05 -5066.89 -5086.08 -5086.13 -5086.13 -5086.13 -5086.13 -5086.64 -5090.36 -5090.86 -5090.86 -5090.86 -5090.86 -5090.85 -5086.83 -5057.15 -5053.14 -5053.13 -5053.13 -5053.13 -5053.10 -5042.93 -4967.78 -4957.61 -4957.58 -4957.58 -4957.58 -4957.58 -4957.68 -4958.42 -4958.53 -4958.53 -4958.53 -4958.53 -4958.55 -4970.13 -5055.65 -5067.23 -5067.26 -5067.26 -5067.26 -5067.24 -5060.08 -5007.18 -5000.02 -5000.00 -5000.00 -5000.00 -5000.00 -5000.00 -5000.00
-5100.76 -5100.76 -5100.76 -5100.76 -5100.76 -5100.73 -5085.76 -4975.14 -4960.17 -4960.14 -4960.14 -4960.14 -4960.12 -4953.97 -4908.53 -4902.38 -4902.36 -4902.36 -4902.36 -4902.41 -4921.24 -5060.39 -5079.22 -5079.27 -5079.27 -5079.27 -5079.22 -5060.74 -4924.17 -4905.69 -4905.64 -4905.64 -4905.64 -4905.69 -4923.47 -5054.91 -5072.69 -5072.74 -5072.74 -5072.74 -5072.69 -5054.09 -4916.66 -4898.06 -4898.02 -4898.02 -4898.02 -4898.02 -4898.98 -4906.05 -4907.01 -4907.01 -4907.01 -4907.01 -4907.05 -4921.72 -5030.15 -5044.83 -5044.86 -5044.86 -5044.86 -5044.85 -5041.80 -5019.24 -5016.18 -5016.17 -5016.17 -5016.17 -5016.17 -5016.17 -5016.14 -5016.13 -5016.13 -5016.13 -5016.13 -5016.11 -5006.23 -4933.27 -4923.39 -4923.37 -4923.37 -4923.37 -4923.24 -4871.41 -4488.48 -4436.65 -4436.52 -4436.52 -4436.52 -4436.67 -4493.70 -4915.11 -4972.14 -4972.29 -4972.29 -4972.29 -4972.30 -4978.35 -5023.03 -5029.07 -5029.09 -5029.09 -5029.09 -5029.10 -5034.87 -5077.52 -5083.29 -5083.31 -5083.31 -5083.31 -5083.30 -5081.79 -5070.61 -5069.10 -5069.09 -5069.09 -5069.09 -5069.06 -5055.03 -4951.38 -4937.36 -4937.32 -4937.32 -4937.32 -4937.37 -4955.61 -5090.45 -5108.70 -5108.74 -5108.74 -5108.74 -5108.72 -5097.14 -5011.60 -5000.03 -5000.00 -5000.00 -5000.00 -5000.00 -5000.00 -5000.00
-5108.29 -5108.29 -5108.29 -5108.29 -5108.29 -5108.25 -5093.02 -4980.47 -4965.24 -4965.20 -4965.20 -4965.20 -4965.18 -4958.14 -4906.15 -4899.11 -4899.09 -4899.09 -4899.09 -4899.14 -4918.89 -5064.79 -5084.54 -5084.59 -5084.59 -5084.59 -5084.54 -5065.30 -4923.15 -4903.91 -4903.86 -4903.86 -4903.86 -4903.91 -4924.04 -5072.74 -5092.86 -5092.91 -5092.91 -5092.91 -5092.86 -5071.69 -4915.27 -4894.10 -4894.05 -4894.05 -4894.05 -4894.05 -4893.94 -4893.11 -4892.99 -4892.99 -4892.99 -4892.99 -4893.04 -4910.30 -5037.84 -5055.11 -5055.15 -5055.15 -5055.15 -5055.14 -5051.37 -5023.55 -5019.78 -5019.77 -5019.77 -5019.77 -5019.77 -5018.30 -5007.49 -5006.02 -5006.02 -5006.02 -5006.02 -5006.00 -4997.84 -4937.54 -4929.38 -4929.36 -4929.36 -4929.36 -4929.21 -4869.99 -4432.39 -4373.16 -4373.02 -4373.02 -4373.02 -4373.17 -4435.32 -4894.57 -4956.72 -4956.88 -4956.88 -4956.88 -4956.90 -4963.69 -5013.91 -5020.71 -5020.73 -5020.73 -5020.73 -5020.74 -5027.84 -5080.28 -5087.37 -5087.39 -5087.39 -5087.39 -5087.39 -5087.05 -5084.53 -5084.18 -5084.18 -5084.18 -5084.18 -5084.14 -5068.21 -4950.43 -4934.49 -4934.45 -4934.45 -4934.45 -4934.50 -4953.65 -5095.16 -5114.31 -5114.36 -5114.36 -5114.36 -5114.33 -5102.15 -5012.20 -5000.03 -5000.00 -5000.00 -5000.00 -5000.00 -5000.00 -5000.00
-5108.31 -5108.31 -5108.31 -5108.31 -5108.31 -5108.27 -5093.04 -4980.48 -4965.25 -4965.21 -4965.21 -4965.21 -4965.19 -4958.15 -4906.14 -4899.10 -4899.08 -4899.08 -4899.08 -4899.13 -4918.88 -5064.80 -5084.55 -5084.60 -5084.60 -5084.60 -5084.55 -5065.31 -4923.15 -4903.91 -4903.86 -4903.86 -4903.86 -4903.91 -4924.04 -5072.78 -5092.91 -5092.96 -5092.96 -5092.96 -5092.91 -5071.73 -4915.27 -4894.09 -4894.04 -4894.04 -4894.04 -4894.04 -4893.92 -4893.07 -4892.96 -4892.96 -4892.96 -4892.96 -4893.00 -4910.27 -5037.86 -5055.13 -5055.17 -5055.17 -5055.17 -5055.17 -5051.40 -5023.56 -5019.79 -5019.78 -5019.78 -5019.78 -5019.78 -5018.31 -5007.46 -5006.00 -5005.99 -5005.99 -5005.99 -5005.97 -4997.82 -4937.55 -4929.40 -4929.38 -4929.38 -4929.38 -4929.23 -4869.99 -4432.25 -4373.00 -4372.86 -4372.79 -4372.32 -4372.39 -4434.66 -4894.46 -4956.69 -4956.84 -4956.84 -4956.84 -4956.86 -4963.66 -5013.89 -5020.69 -5020.71 -5020.71 -5020.71 -5020.72 -5027.82 -5080.28 -5087.38 -5087.40 -5087.40 -5087.40 -5087.40 -5087.06 -5084.56 -5084.22 -5084.22 -5084.22 -5084.22 -5084.18 -5068.24 -4950.43 -4934.48 -4934.44 -4934.44 -4934.44 -4934.49 -4953.65 -5095.17 -5114.33 -5114.37 -5114.37 -5114.37 -5114.34 -5102.17 -5012.21 -5000.03 -5000.00 -5000.00 -5000.00 -5000.00 -5000.00 -5000.00
-5108.31 -5108.31 -5108.31 -5108.31 -5108.31 -5108.27 -5093.04 -4980.48 -4965.25 -4965.21 -4965.21 -4965.21 -4965.19 -4958.15 -4906.14 -4899.10 -4899.08 -4899.08 -4899.08 -4899.13 -4918.88 -5064.80 -5084.55 -5084.60 -5084.60 -5084.60 -5084.55 -5065.31 -4923.15 -4903.91 -4903.86 -4903.86 -4903.86 -4903.91 -4924.04 -5072.78 -5092.91 -5092.96 -5092.96 -5092.96 -5092.91 -5071.73 -4915.27 -4894.09 -4894.04 -4894.04 -4894.04 -4894.04 -4893.92 -4893.07 -4892.96 -4892.96 -4892.96 -4892.96 -4893.00 -4910.27 -5037.86 -5055.13 -5055.17 -5055.17 -5055.17 -5055.17 -5051.40 -5023.56 -5019.79 -5019.78 -5019.78 -5019.78 -5019.78 -5018.31 -5007.46 -5006.00 -5005.99 -5005.99 -5005.99 -5005.97 -4997.82 -4937.55 -4929.40 -4929.38 -4929.38 -4929.38 -4929.23 -4869.99 -4432.25 -4373.00 -4372.79 -4346.96 -4154.65 -4120.82 -4227.01 -4869.99 -4956.63 -4956.84 -4956.84 -4956.84 -4956.86 -4963.66 -5013.89 -5020.69 -5020.71 -5020.71 -5020.71 -5020.72 -5027.82 -5080.28 -5087.38 -5087.40 -5087.40 -5087.40 -5087.40 -5087.06 -5084.56 -5084.22 -5084.22 -5084.22 -5084.22 -5084.18 -5068.24 -4950.43 -4934.48 -4934.44 -4934.44 -4934.44 -4934.49 -4953.65 -5095.17 -5114.33 -5114.37 -5114.37 -5114.37 -5114.34 -5102.17 -5012.21 -5000.03 -5000.00 -5000.00 -5000.00 -5000.00 -5000.00 -5000.00
-5108.29 -5108.29 -5108.29 -5108.29 -5108.29 -5108.26 -5093.03 -4980.49 -4965.26 -4965.22 -4965.22 -4965.22 -4965.21 -4958.17 -4906.19 -4899.16 -4899.14 -4899.14 -4899.14 -4899.19 -4918.93 -5064.78 -5084.52 -5084.57 -5084.57 -5084.57 -5084.52 -5065.29 -4923.16 -4903.93 -4903.88 -4903.88 -4903.88 -4903.93 -4924.06 -5072.78 -5092.91 -5092.96 -5092.96 -5092.96 -5092.91 -5071.73 -4915.28 -4894.10 -4894.05 -4894.05 -4894.05 -4894.05 -4893.94 -4893.12 -4893.01 -4893.01 -4893.01 -4893.01 -4893.05 -4910.31 -5037.87 -5055.13 -5055.18 -5055.18 -5055.18 -5055.17 -5051.40 -5023.56 -5019.80 -5019.79 -5019.79 -5019.79 -5019.78 -5018.31 -5007.46 -5005.99 -5005.98 -5005.98 -5005.98 -5005.96 -4997.81 -4937.58 -4929.43 -4929.41 -4929.41 -4929.41 -4929.26 -4869.97 -4431.88 -4372.59 -4371.83 -4152.83 -2527.63 -2250.68 -2669.44 -4685.52 -4955.98 -4956.72 -4956.72 -4956.72 -4956.74 -4963.55 -5013.90 -5020.71 -5020.73 -5020.73 -5020.73 -5020.75 -5027.84 -5080.28 -5087.38 -5087.39 -5087.39 -5087.39 -5087.39 -5087.05 -5084.54 -5084.20 -5084.20 -5084.20 -5084.20 -5084.16 -5068.22 -4950.43 -4934.49 -4934.45 -4934.45 -4934.45 -4934.50 -4953.65 -5095.17 -5114.32 -5114.37 -5114.37 -5114.37 -5114.34 -5102.17 -5012.21 -5000.03 -5000.00 -5000.00 -5000.00 -5000.00 -5000.00 -5000.00
-5101.09 -5101.09 -5101.09 -5101.09 -5101.09 -5101.05 -5087.11 -4984.04 -4970.09 -4970.06 -4970.06 -4970.06 -4970.05 -4964.85 -4926.46 -4921.27 -4921.25 -4921.25 -4921.25 -4921.30 -4937.50 -5057.28 -5073.49 -5073.53 -5073.53 -5073.53 -5073.49 -5056.34 -4929.65 -4912.50 -4912.46 -4912.46 -4912.46 -4912.51 -4931.61 -5072.74 -5091.84 -5091.89 -5091.89 -5091.89 -5091.84 -5071.24 -4919.02 -4898.42 -4898.37 -4898.37 -4898.37 -4898.37 -4899.94 -4911.53 -4913.10 -4913.10 -4913.10 -4913.10 -4913.14 -4928.32 -5040.46 -5055.64 -5055.67 -5055.67 -5055.67 -5055.67 -5052.20 -5026.60 -5023.14 -5023.13 -5023.13 -5023.13 -5023.13 -5020.89 -5004.35 -5002.12 -5002.11 -5002.11 -5002.11 -5002.10 -4995.75 -4948.86 -4942.51 -4942.49 -4942.49 -4942.49 -4942.30 -4863.83 -4284.01 -4205.40 -4176.07 -3730.22 -1941.15 -1729.71 -2100.38 -4371.76 -4879.67 -4908.23 -4908.30 -4908.30 -4908.33 -4921.36 -5017.61 -5030.64 -5030.67 -5030.67 -5030.67 -5030.69 -5036.41 -5078.68 -5084.40 -5084.42 -5084.42 -5084.42 -5084.41 -5083.64 -5077.96 -5077.19 -5077.19 -5077.19 -5077.19 -5077.15 -5062.09 -4950.79 -4935.73 -4935.69 -4935.69 -4935.69 -4935.74 -4954.74 -5095.12 -5114.12 -5114.17 -5114.17 -5114.17 -5114.14 -5101.99 -5012.18 -5000.03 -5000.00 -5000.00 -5000.00 -5000.00 -5000.00 -5000.00
-5047.86 -5047.86 -5047.86 -5047.86 -5047.86 -5047.85 -5043.37 -5010.28 -5005.80 -5005.79 -5005.79 -5005.79 -5005.81 -5014.21 -5076.25 -5084.65 -5084.67 -5084.67 -5084.67 -5084.65 -5074.77 -5001.83 -4991.96 -4991.94 -4991.94 -4991.94 -4991.93 -4990.22 -4977.58 -4975.87 -4975.86 -4975.86 -4975.86 -4975.89 -4987.40 -5072.45 -5083.96 -5083.99 -5083.99 -5083.99 -5083.95 -5067.58 -4946.65 -4930.29 -4930.25 -4930.25 -4930.25 -4930.28 -4944.26 -5047.56 -5061.54 -5061.57 -5061.57 -5061.57 -5061.57 -5061.33 -5059.59 -5059.36 -5059.36 -5059.36 -5059.36 -5059.35 -5058.13 -5049.07 -5047.85 -5047.84 -5047.84 -5047.84 -5047.82 -5039.91 -4981.44 -4973.52 -4973.50 -4973.50 -4973.50 -4973.52 -4980.51 -5032.18 -5039.17 -5039.19 -5039.19 -5039.19 -5038.64 -4818.44 -3191.29 -2942.78 -2527.79 -891.36 -223.65 -339.89 -666.44 -2392.76 -4315.72 -4549.86 -4550.50 -4550.50 -4550.65 -4609.58 -5045.04 -5103.98 -5104.12 -5104.12 -5104.12 -5104.11 -5099.67 -5066.86 -5062.42 -5062.41 -5062.41 -5062.41 -5062.40 -5058.45 -5029.29 -5025.34 -5025.33 -5025.33 -5025.33 -5025.31 -5016.75 -4953.45 -4944.88 -4944.86 -4944.86 -4944.86 -4944.90 -4962.77 -5094.77 -5112.63 -5112.68 -5112.68 -5112.68 -5112.65 -5100.65 -5012.02 -5000.03 -5000.00 -5000.00 -5000.00 -5000.00 -5000.00 -5000.00
-5040.65 -5040.65 -5040.65 -5040.65 -5040.65 -5040.65 -5037.45 -5013.83 -5010.64 -5010.63 -5010.63 -5010.63 -5010.65 -5020.89 -5096.52 -5106.76 -5106.79 -5106.79 -5106.79 -5106.75 -5093.35 -4994.33 -4980.93 -4980.90 -4980.90 -4980.90 -4980.90 -4981.28 -4984.06 -4984.44 -4984.44 -4984.44 -4984.44 -4984.47 -4994.95 -5072.41 -5082.89 -5082.92 -5082.92 -5082.92 -5082.88 -5067.08 -4950.39 -4934.60 -4934.56 -4934.56 -4934.56 -4934.60 -4950.26 -5065.97 -5081.63 -5081.66 -5081.66 -5081.66 -5081.66 -5079.34 -5062.18 -5059.86 -5059.85 -5059.85 -5059.85 -5059.85 -5058.93 -5052.11 -5051.19 -5051.19 -5051.19 -5051.19 -5051.17 -5042.48 -4978.33 -4969.65 -4969.63 -4969.63 -4969.63 -4969.65 -4978.45 -5043.45 -5052.25 -5052.27 -5052.27 -5052.27 -5051.68 -4812.30 -3042.91 -2570.95 -809.43 -246.06 -125.41 -200.66 -419.24 -2054.04 -4029.71 -4473.63 -4502.01 -4502.08 -4502.24 -4567.39 -5048.76 -5113.90 -5114.06 -5114.06 -5114.06 -5114.05 -5108.23 -5065.26 -5059.44 -5059.43 -5059.43 -5059.43 -5059.42 -5055.04 -5022.70 -5018.33 -5018.32 -5018.32 -5018.32 -5018.30 -5010.61 -4953.81 -4946.12 -4946.10 -4946.10 -4946.10 -4946.15 -4963.86 -5094.72 -5112.43 -5112.47 -5112.47 -5112.47 -5112.44 -5100.47 -5012.00 -5000.03 -5000.00 -5000.00 -5000.00 -5000.00 -5000.00 -5000.00
-5040.64 -5040.64 -5040.64 -5040.64 -5040.64 -5040.63 -5037.43 -5013.84 -5010.65 -5010.64 -5010.64 -5010.64 -5010.67 -5020.91 -5096.58 -5106.82 -5106.84 -5106.84 -5106.84 -5106.81 -5093.40 -4994.31 -4980.90 -4980.87 -4980.87 -4980.87 -4980.87 -4981.25 -4984.08 -4984.46 -4984.46 -4984.46 -4984.46 -4984.49 -4994.97 -5072.41 -5082.89 -5082.91 -5082.91 -5082.91 -5082.87 -5067.08 -4950.40 -4934.61 -4934.57 -4934.57 -4934.57 -4934.61 -4950.27 -5066.01 -5081.68 -5081.71 -5081.71 -5081.71 -5081.71 -5079.38 -5062.19 -5059.86 -5059.85 -5059.85 -5059.85 -5059.85 -5058.93 -5052.12 -5051.20 -5051.20 -5051.20 -5051.20 -5051.17 -5042.49 -4978.33 -4969.64 -4969.62 -4969.62 -4969.62 -4969.64 -4978.45 -5043.48 -5052.28 -5052.30 -5052.30 -5052.30 -5051.71 -4812.28 -3042.48 -2545.09 -617.53 -175.73 40.30 -1.11 -329.79 -1744.32 -2501.97 -4268.52 -4501.38 -4501.96 -4502.12 -4567.28 -5048.76 -5113.93 -5114.09 -5114.09 -5114.09 -5114.07 -5108.25 -5065.25 -5059.43 -5059.42 -5059.42 -5059.42 -5059.41 -5055.03 -5022.69 -5018.31 -5018.30 -5018.30 -5018.30 -5018.28 -5010.59 -4953.81 -4946.12 -4946.11 -4946.11 -4946.11 -4946.15 -4963.86 -5094.72 -5112.43 -5112.47 -5112.47 -5112.47 -5112.44 -5100.47 -5012.00 -5000.03 -5000.00 -5000.00 -5000.00 -5000.00 -5000.00 -5000.00
-5040.64 -5040.64 -5040.64 -5040.64 -5040.64 -5040.63 -5037.43 -5013.84 -5010.65 -5010.64 -5010.64 -5010.64 -5010.67 -5020.91 -5096.58 -5106.82 -5106.84 -5106.84 -5106.84 -5106.81 -5093.40 -4994.31 -4980.90 -4980.87 -4980.87 -4980.87 -4980.87 -4981.25 -4984.08 -4984.46 -4984.46 -4984.46 -4984.46 -4984.49 -4994.97 -5072.41 -5082.89 -5082.91 -5082.91 -5082.91 -5082.87 -5067.08 -4950.40 -4934.61 -4934.57 -4934.57 -4934.57 -4934.61 -4950.27 -5066.01 -5081.68 -5081.71 -5081.71 -5081.71 -5081.71 -5079.38 -5062.19 -5059.86 -5059.85 -5059.85 -5059.85 -5059.85 -5058.93 -5052.12 -5051.20 -5051.20 -5051.20 -5051.20 -5051.17 -5042.49 -4978.33 -4969.64 -4969.62 -4969.62 -4969.62 -4969.64 -4978.45 -5043.48 -5052.28 -5052.30 -5052.30 -5052.30 -5051.71 -4812.28 -3042.42 -2548.58 -626.87 -28.57 71.14 117.90 -324.80 -1701.35 -2289.95 -4239.69 -4501.26 -4501.96 -4502.12 -4567.28 -5048.76 -5113.93 -5114.09 -5114.09 -5114.09 -5114.07 -5108.25 -5065.25 -5059.43 -5059.42 -5059.42 -5059.42 -5059.41 -5055.03 -5022.69 -5018.31 -5018.30 -5018.30 -5018.30 -5018.28 -5010.59 -4953.81 -4946.12 -4946.11 -4946.11 -4946.11 -4946.15 -4963.86 -5094.72 -5112.43 -5112.47 -5112.47 -5112.47 -5112.44 -5100.47 -5012.00 -5000.03 -5000.00 -5000.00 -5000.00 -5000.00 -5000.00 -5000.00
-5040.65 -5040.65 -5040.65 -5040.65 -5040.65 -5040.64 -5037.44 -5013.83 -5010.63 -5010.63 -5010.63 -5010.63 -5010.65 -5020.89 -5096.52 -5106.76 -5106.78 -5106.78 -5106.78 -5106.75 -5093.35 -4994.30 -4980.90 -4980.86 -4980.86 -4980.86 -4980.86 -4981.25 -4984.07 -4984.45 -4984.45 -4984.45 -4984.45 -4984.48 -4994.96 -5072.39 -5082.87 -5082.89 -5082.89 -5082.89 -5082.85 -5067.07 -4950.40 -4934.62 -4934.58 -4934.58 -4934.58 -4934.62 -4950.28 -5066.01 -5081.68 -5081.71 -5081.71 -5081.71 -5081.71 -5079.38 -5062.19 -5059.87 -5059.86 -5059.86 -5059.86 -5059.86 -5058.94 -5052.13 -5051.20 -5051.20 -5051.20 -5051.20 -5051.18 -5042.50 -4978.32 -4969.64 -4969.62 -4969.62 -4969.62 -4969.64 -4978.41 -5043.22 -5051.99 -5052.01 -5052.01 -5052.01 -5051.42 -4811.88 -3013.63 -2328.09 -512.11 -49.06 -73.74 -153.92 -345.80 -1690.90 -2261.82 -4061.82 -4477.03 -4501.67 -4501.89 -4567.07 -5048.69 -5113.87 -5114.03 -5114.03 -5114.03 -5114.02 -5108.20 -5065.22 -5059.41 -5059.39 -5059.39 -5059.39 -5059.38 -5055.01 -5022.67 -5018.29 -5018.28 -5018.28 -5018.28 -5018.26 -5010.58 -4953.81 -4946.13 -4946.11 -4946.11 -4946.11 -4946.15 -4963.86 -5094.68 -5112.39 -5112.43 -5112.43 -5112.43 -5112.40 -5100.44 -5012.00 -5000.03 -5000.00 -5000.00 -5000.00 -5000.00 -5000.00 -5000.00
-5044.87 -5044.87 -5044.87 -5044.87 -5044.87 -5044.86 -5040.56 -5008.81 -5004.51 -5004.50 -5004.50 -5004.50 -5004.52 -5012.99 -5075.56 -5084.03 -5084.05 -5084.05 -5084.05 -5084.02 -5072.77 -4989.63 -4978.38 -4978.35 -4978.35 -4978.35 -4978.36 -4978.40 -4978.73 -4978.78 -4978.78 -4978.78 -4978.78 -4978.80 -4989.01 -5064.47 -5074.68 -5074.71 -5074.71 -5074.71 -5074.67 -5059.94 -4951.15 -4936.42 -4936.39 -4936.39 -4936.39 -4936.42 -4951.92 -5066.44 -5081.94 -5081.98 -5081.98 -5081.98 -5081.97 -5079.95 -5064.98 -5062.96 -5062.95 -5062.95 -5062.95 -5062.95 -5061.95 -5054.52 -5053.51 -5053.51 -5053.51 -5053.51 -5053.49 -5044.38 -4977.04 -4967.93 -4967.90 -4967.90 -4967.90 -4967.90 -4964.41 -4938.63 -4935.15 -4935.14 -4935.14 -4935.14 -4934.50 -4678.13 -2576.82 -730.51 -264.23 -176.66 -256.15 -280.75 -439.16 -1723.96 -1979.14 -2630.48 -4203.08 -4407.94 -4408.63 -4481.29 -5018.24 -5090.90 -5091.08 -5091.08 -5091.08 -5091.07 -5086.52 -5052.89 -5048.34 -5048.33 -5048.33 -5048.33 -5048.32 -5044.41 -5015.54 -5011.63 -5011.62 -5011.62 -5011.62 -5011.60 -5004.69 -4953.58 -4946.67 -4946.65 -4946.65 -4946.65 -4946.69 -4962.71 -5081.07 -5097.09 -5097.13 -5097.13 -5097.13 -5097.10 -5086.76 -5010.36 -5000.03 -5000.00 -5000.00 -5000.00 -5000.00 -5000.00 -5000.00
-5076.10 -5076.10 -5076.10 -5076.10 -5076.10 -5076.07 -5063.62 -4971.69 -4959.25 -4959.22 -4959.22 -4959.22 -4959.21 -4954.62 -4920.69 -4916.10 -4916.08 -4916.08 -4916.08 -4916.10 -4920.75 -4955.15 -4959.81 -4959.82 -4959.82 -4959.82 -4959.82 -4957.37 -4939.30 -4936.86 -4936.85 -4936.85 -4936.85 -4936.87 -4945.11 -5005.95 -5014.19 -5014.21 -5014.21 -5014.21 -5014.19 -5007.33 -4956.63 -4949.77 -4949.75 -4949.75 -4949.75 -4949.79 -4964.07 -5069.59 -5083.88 -5083.91 -5083.91 -5083.91 -5083.91 -5084.11 -5085.59 -5085.79 -5085.79 -5085.79 -5085.79 -5085.79 -5084.17 -5072.20 -5070.58 -5070.58 -5070.58 -5070.58 -5070.55 -5058.27 -4967.56 -4955.28 -4955.25 -4955.25 -4955.25 -4955.02 -4860.94 -4165.84 -4071.77 -4071.53 -4071.53 -4071.53 -4070.59 -3690.74 -838.63 -110.33 -12.18 -17.13 -65.31 -66.80 -158.52 -1103.72 -1236.72 -1571.66 -3463.90 -3718.53 -3719.48 -3847.47 -4793.23 -4921.22 -4921.54 -4921.54 -4921.54 -4921.55 -4926.34 -4961.75 -4966.54 -4966.55 -4966.55 -4966.55 -4966.55 -4966.11 -4962.84 -4962.40 -4962.40 -4962.40 -4962.40 -4962.40 -4961.15 -4951.91 -4950.66 -4950.66 -4950.66 -4950.66 -4950.67 -4954.22 -4980.46 -4984.01 -4984.02 -4984.02 -4984.02 -4984.02 -4985.72 -4998.29 -5000.00 -5000.00 -5000.00 -5000.00 -5000.00 -5000.00 -5000.00
-5080.32 -5080.32 -5080.32 -5080.32 -5080.32 -5080.29 -5066.74 -4966.67 -4953.12 -4953.09 -4953.09 -4953.09 -4953.07 -4946.72 -4899.73 -4893.37 -4893.35 -4893.35 -4893.35 -4893.37 -4900.18 -4950.49 -4957.30 -4957.31 -4957.31 -4957.31 -4957.31 -4954.52 -4933.97 -4931.18 -4931.18 -4931.18 -4931.18 -4931.20 -4939.16 -4998.03 -5006.00 -5006.02 -5006.02 -5006.02 -5006.00 -5000.21 -4957.37 -4951.57 -4951.56 -4951.56 -4951.56 -4951.59 -4965.71 -5070.02 -5084.14 -5084.17 -5084.17 -5084.17 -5084.17 -5084.68 -5088.38 -5088.88 -5088.88 -5088.88 -5088.88 -5088.88 -5087.17 -5074.59 -5072.89 -5072.89 -5072.89 -5072.89 -5072.85 -5060.15 -4966.27 -4953.57 -4953.54 -4953.54 -4953.54 -4953.27 -4846.94 -4061.25 -3954.92 -3954.66 -3954.66 -3954.66 -3953.62 -3536.29 -447.61 7.26 12.05 -1.70 -23.55 -13.69 -117.33 -1014.55 -1134.91 -1430.44 -3364.16 -3625.23 -3626.21 -3761.69 -4762.78 -4898.26 -4898.59 -4898.59 -4898.59 -4898.61 -4904.67 -4949.41 -4955.47 -4955.49 -4955.49 -4955.49 -4955.49 -4955.51 -4955.71 -4955.74 -4955.74 -4955.74 -4955.74 -4955.74 -4955.26 -4951.69 -4951.21 -4951.20 -4951.20 -4951.20 -4951.21 -4953.07 -4966.84 -4968.70 -4968.71 -4968.71 -4968.71 -4968.72 -4972.05 -4996.66 -4999.99 -5000.00 -5000.00 -5000.00 -5000.00 -5000.00 -5000.00
-5080.33 -5080.33 -5080.33 -5080.33 -5080.33 -5080.30 -5066.75 -4966.66 -4953.11 -4953.08 -4953.08 -4953.08 -4953.06 -4946.70 -4899.68 -4893.31 -4893.30 -4893.30 -4893.30 -4893.31 -4900.13 -4950.48 -4957.29 -4957.31 -4957.31 -4957.31 -4957.30 -4954.52 -4933.95 -4931.17 -4931.16 -4931.16 -4931.16 -4931.18 -4939.15 -4998.01 -5005.98 -5006.00 -5006.00 -5006.00 -5005.98 -5000.19 -4957.37 -4951.58 -4951.56 -4951.56 -4951.56 -4951.60 -4965.72 -5070.02 -5084.14 -5084.17 -5084.17 -5084.17 -5084.17 -5084.68 -5088.38 -5088.89 -5088.89 -5088.89 -5088.89 -5088.88 -5087.18 -5074.60 -5072.90 -5072.89 -5072.89 -5072.89 -5072.86 -5060.15 -4966.27 -4953.56 -4953.53 -4953.53 -4953.53 -4953.27 -4846.91 -4060.99 -3954.63 -3954.37 -3954.37 -3954.37 -3953.26 -3534.54 -437.11 30.37 0.64 -13.13 -21.49 -5.08 -114.36 -1016.97 -1147.07 -1420.95 -3362.43 -3624.99 -3625.98 -3761.48 -4762.70 -4898.20 -4898.54 -4898.54 -4898.54 -4898.55 -4904.61 -4949.38 -4955.44 -4955.46 -4955.46 -4955.46 -4955.46 -4955.49 -4955.70 -4955.72 -4955.72 -4955.72 -4955.72 -4955.72 -4955.24 -4951.69 -4951.21 -4951.21 -4951.21 -4951.21 -4951.21 -4953.07 -4966.81 -4968.67 -4968.67 -4968.67 -4968.67 -4968.68 -4972.01 -4996.66 -4999.99 -5000.00 -5000.00 -5000.00 -5000.00 -5000.00 -5000.00
-5080.33 -5080.33 -5080.33 -5080.33 -5080.33 -5080.30 -5066.75 -4966.66 -4953.11 -4953.08 -4953.08 -4953.08 -4953.06 -4946.70 -4899.68 -4893.31 -4893.30 -4893.30 -4893.30 -4893.31 -4900.13 -4950.48 -4957.29 -4957.31 -4957.31 -4957.31 -4957.30 -4954.52 -4933.95 -4931.17 -4931.16 -4931.16 -4931.16 -4931.18 -4939.15 -4998.01 -5005.98 -5006.00 -5006.00 -5006.00 -5005.98 -5000.19 -4957.37 -4951.58 -4951.56 -4951.56 -4951.56 -4951.60 -4965.72 -5070.02 -5084.14 -5084.17 -5084.17 -5084.17 -5084.17 -5084.68 -5088.38 -5088.89 -5088.89 -5088.89 -5088.89 -5088.88 -5087.18 -5074.60 -5072.90 -5072.89 -5072.89 -5072.89 -5072.86 -5060.15 -4966.27 -4953.56 -4953.53 -4953.53 -4953.53 -4953.27 -4846.91 -4060.99 -3954.63 -3954.37 -3954.30 -3953.73 -3924.86 -3331.69 -434.76 0.33 4.74 -6.58 -3.56 22.18 -103.63 -1026.37 -1160.43 -1451.05 -3365.78 -3624.36 -3625.41 -3761.41 -4762.70 -4898.20 -4898.54 -4898.54 -4898.54 -4898.55 -4904.61 -4949.38 -4955.44 -4955.46 -4955.46 -4955.46 -4955.46 -4955.49 -4955.70 -4955.72 -4955.72 -4955.72 -4955.72 -4955.72 -4955.24 -4951.69 -4951.21 -4951.21 -4951.21 -4951.21 -4951.21 -4953.07 -4966.81 -4968.67 -4968.67 -4968.67 -4968.67 -4968.68 -4972.01 -4996.66 -4999.99 -5000.00 -5000.00 -5000.00 -5000.00 -5000.00 -5000.00
-5080.34 -5080.34 -5080.34 -5080.34 -5080.34 -5080.30 -5066.76 -4966.68 -4953.13 -4953.10 -4953.10 -4953.10 -4953.08 -4946.72 -4899.69 -4893.32 -4893.31 -4893.31 -4893.31 -4893.32 -4900.14 -4950.47 -4957.28 -4957.30 -4957.30 -4957.30 -4957.29 -4954.49 -4933.77 -4930.97 -4930.96 -4930.96 -4930.96 -4930.98 -4938.92 -4997.62 -5005.57 -5005.59 -5005.59 -5005.59 -5005.57 -4999.81 -4957.21 -4951.45 -4951.43 -4951.43 -4951.43 -4951.47 -4965.59 -5069.95 -5084.07 -5084.10 -5084.10 -5084.10 -5084.11 -5084.61 -5088.35 -5088.86 -5088.86 -5088.86 -5088.86 -5088.85 -5087.15 -5074.54 -5072.83 -5072.83 -5072.83 -5072.83 -5072.80 -5060.05 -4965.86 -4953.12 -4953.08 -4953.08 -4953.08 -4952.82 -4846.47 -4060.61 -3954.19 -3953.38 -3925.81 -3722.67 -3490.47 -1775.17 -186.23 7.12 -3.61 4.02 17.99 65.83 -86.92 -1014.24 -1159.82 -1415.85 -3130.52 -3364.07 -3393.59 -3733.43 -4762.50 -4898.10 -4898.44 -4898.44 -4898.44 -4898.45 -4904.52 -4949.38 -4955.45 -4955.47 -4955.47 -4955.47 -4955.47 -4955.50 -4955.72 -4955.75 -4955.75 -4955.75 -4955.75 -4955.75 -4955.27 -4951.70 -4951.22 -4951.22 -4951.22 -4951.22 -4951.22 -4953.08 -4966.83 -4968.69 -4968.69 -4968.69 -4968.69 -4968.70 -4972.03 -4996.66 -4999.99 -5000.00 -5000.00 -5000.00 -5000.00 -5000.00 -5000.00
-5081.73 -5081.73 -5081.73 -5081.73 -5081.73 -5081.69 -5069.00 -4975.24 -4962.55 -4962.52 -4962.52 -4962.52 -4962.50 -4955.59 -4904.52 -4897.61 -4897.59 -4897.59 -4897.59 -4897.61 -4903.50 -4947.07 -4952.96 -4952.98 -4952.98 -4952.98 -4952.95 -4941.89 -4860.22 -4849.17 -4849.14 -4849.14 -4849.14 -4849.14 -4848.14 -4840.73 -4839.73 -4839.73 -4839.73 -4839.73 -4839.75 -4846.09 -4892.95 -4899.29 -4899.31 -4899.31 -4899.31 -4899.35 -4916.05 -5039.45 -5056.15 -5056.19 -5056.19 -5056.19 -5056.19 -5058.32 -5074.00 -5076.12 -5076.12 -5076.12 -5076.12 -5076.12 -5073.06 -5050.52 -5047.47 -5047.46 -5047.46 -5047.46 -5047.39 -5018.08 -4801.57 -4772.27 -4772.19 -4772.19 -4772.19 -4771.94 -4668.89 -3907.29 -3777.77 -3583.01 -3338.78 -1833.70 -1610.68 -1193.66 -47.87 128.58 38.71 98.51 73.50 193.15 3.80 -847.75 -972.46 -1013.23 -1220.47 -1268.84 -1511.15 -3386.74 -4709.83 -4857.83 -4858.20 -4858.20 -4858.20 -4858.23 -4869.00 -4948.64 -4959.41 -4959.44 -4959.44 -4959.44 -4959.44 -4960.30 -4966.68 -4967.54 -4967.54 -4967.54 -4967.54 -4967.54 -4966.38 -4957.80 -4956.64 -4956.64 -4956.64 -4956.64 -4956.64 -4958.85 -4975.17 -4977.38 -4977.38 -4977.38 -4977.38 -4977.39 -4979.80 -4997.59 -4999.99 -5000.00 -5000.00 -5000.00 -5000.00 -5000.00 -5000.00
-5091.99 -5091.99 -5091.99 -5091.99 -5091.99 -5091.98 -5085.60 -5038.52 -5032.15 -5032.13 -5032.13 -5032.13 -5032.11 -5021.15 -4940.23 -4929.28 -4929.25 -4929.25 -4929.25 -4929.25 -4928.37 -4921.92 -4921.05 -4921.05 -4921.05 -4921.05 -4920.87 -4848.86 -4316.75 -4244.74 -4244.56 -4244.56 -4244.56 -4244.39 -4177.29 -3681.48 -3614.38 -3614.21 -3614.21 -3614.21 -3614.45 -3710.24 -4418.09 -4513.88 -4514.12 -4514.12 -4514.12 -4514.21 -4549.95 -4814.09 -4849.83 -4849.92 -4849.92 -4849.92 -4849.96 -4864.02 -4967.94 -4982.00 -4982.04 -4982.04 -4982.04 -4982.00 -4969.01 -4873.02 -4860.02 -4859.99 -4859.99 -4859.99 -4859.62 -4707.99 -3587.60 -3435.97 -3435.59 -3435.59 -3435.59 -3435.40 -3356.60 -2748.22 -2282.20 -806.58 -468.54 -203.24 -153.60 -107.09 145.78 186.34 150.34 132.35 200.09 382.65 433.76 301.65 261.63 279.53 345.75 302.14 13.72 -2134.32 -4300.92 -4560.23 -4560.87 -4560.87 -4560.87 -4560.98 -4606.53 -4943.11 -4988.67 -4988.78 -4988.78 -4988.78 -4988.80 -4995.81 -5047.62 -5054.63 -5054.65 -5054.65 -5054.65 -5054.64 -5048.46 -5002.85 -4996.68 -4996.66 -4996.66 -4996.66 -4996.68 -5001.46 -5036.82 -5041.60 -5041.61 -5041.61 -5041.61 -5041.60 -5037.17 -5004.44 -5000.01 -5000.00 -5000.00 -5000.00 -5000.00 -5000.00 -5000.00
-5093.38 -5093.38 -5093.38 -5093.38 -5093.38 -5093.37 -5087.85 -5047.08 -5041.57 -5041.55 -5041.55 -5041.55 -5041.53 -5030.03 -4945.06 -4933.56 -4933.53 -4933.53 -4933.53 -4933.53 -4931.74 -4918.52 -4916.73 -4916.73 -4916.73 -4916.73 -4916.53 -4836.27 -4243.20 -4162.94 -4162.74 -4162.74 -4162.74 -4162.55 -4086.50 -3524.59 -3448.54 -3448.35 -3448.35 -3448.35 -3448.62 -3556.52 -4353.82 -4461.72 -4461.99 -4461.99 -4461.99 -4462.09 -4500.41 -4783.59 -4821.91 -4822.01 -4822.01 -4822.01 -4822.05 -4837.73 -4953.58 -4969.26 -4969.30 -4969.30 -4969.30 -4969.27 -4954.93 -4848.99 -4834.66 -4834.62 -4834.62 -4834.62 -4834.20 -4666.02 -3423.31 -3255.12 -3254.71 -3254.64 -3254.16 -3253.82 -3150.66 -2197.97 -619.35 -106.79 -20.94 25.03 65.12 101.93 231.52 295.95 353.61 251.45 281.08 519.63 614.93 624.46 654.89 681.18 625.28 614.24 331.70 -671.69 -4069.15 -4519.52 -4520.63 -4520.63 -4520.63 -4520.76 -4571.01 -4942.37 -4992.62 -4992.75 -4992.75 -4992.75 -4992.77 -5000.61 -5058.58 -5066.42 -5066.44 -5066.44 -5066.44 -5066.42 -5059.57 -5008.95 -5002.10 -5002.08 -5002.08 -5002.08 -5002.09 -5007.23 -5045.16 -5050.29 -5050.31 -5050.31 -5050.31 -5050.29 -5044.94 -5005.37 -5000.01 -5000.00 -5000.00 -5000.00 -5000.00 -5000.00 -5000.00
-5093.39 -5093.39 -5093.39 -5093.39 -5093.39 -5093.37 -5087.86 -5047.11 -5041.59 -5041.58 -5041.58 -5041.58 -5041.55 -5030.05 -4945.07 -4933.57 -4933.54 -4933.54 -4933.54 -4933.54 -4931.75 -4918.51 -4916.72 -4916.72 -4916.72 -4916.72 -4916.52 -4836.23 -4243.02 -4162.73 -4162.54 -4162.48 -4162.05 -4161.72 -4085.63 -3523.55 -3447.48 -3447.29 -3447.30 -3447.39 -3448.14 -3556.14 -4353.66 -4461.59 -4461.86 -4461.86 -4461.86 -4461.96 -4500.29 -4783.51 -4821.84 -4821.94 -4821.94 -4821.94 -4821.98 -4837.66 -4953.55 -4969.23 -4969.27 -4969.27 -4969.27 -4969.24 -4954.90 -4848.93 -4834.59 -4834.56 -4834.56 -4834.56 -4834.14 -4665.92 -3422.90 -3254.67 -3254.13 -3227.49 -3033.14 -2997.53 -2714.13 -634.15 -106.96 -36.16 -9.12 40.46 65.84 116.81 224.10 252.39 272.69 260.38 275.42 424.14 444.29 659.12 812.32 920.60 698.09 690.28 440.25 -279.34 -4016.33 -4519.22 -4520.53 -4520.53 -4520.53 -4520.66 -4570.93 -4942.37 -4992.63 -4992.76 -4992.76 -4992.76 -4992.78 -5000.62 -5058.60 -5066.45 -5066.47 -5066.47 -5066.47 -5066.45 -5059.60 -5008.96 -5002.11 -5002.09 -5002.09 -5002.09 -5002.11 -5007.24 -5045.18 -5050.31 -5050.33 -5050.33 -5050.33 -5050.31 -5044.96 -5005.37 -5000.01 -5000.00 -5000.00 -5000.00 -5000.00 -5000.00 -5000.00
-5093.39 -5093.39 -5093.39 -5093.39 -5093.39 -5093.37 -5087.86 -5047.11 -5041.59 -5041.58 -5041.58 -5041.58 -5041.55 -5030.05 -4945.07 -4933.57 -4933.54 -4933.54 -4933.54 -4933.54 -4931.75 -4918.51 -4916.72 -4916.72 -4916.72 -4916.72 -4916.52 -4836.23 -4243.02 -4162.73 -4162.48 -4139.65 -3966.32 -3907.81 -3825.07 -3261.12 -3184.55 -3185.14 -3186.48 -3223.15 -3421.01 -3556.01 -4353.66 -4461.59 -4461.86 -4461.86 -4461.86 -4461.96 -4500.29 -4783.51 -4821.84 -4821.94 -4821.94 -4821.94 -4821.98 -4837.66 -4953.55 -4969.23 -4969.27 -4969.27 -4969.27 -4969.24 -4954.90 -4848.93 -4834.59 -4834.56 -4834.56 -4834.56 -4834.14 -4665.92 -3422.84 -3254.09 -3226.40 -2834.93 -1363.23 -1102.50 -953.35 -193.00 -52.97 -31.56 -1.78 31.29 28.46 51.86 187.12 232.04 196.15 200.54 183.43 209.28 254.99 593.79 609.65 595.02 878.40 711.41 482.33 -172.34 -3802.55 -4491.14 -4520.40 -4520.53 -4520.53 -4520.66 -4570.93 -4942.37 -4992.63 -4992.76 -4992.76 -4992.76 -4992.78 -5000.62 -5058.60 -5066.45 -5066.47 -5066.47 -5066.47 -5066.45 -5059.60 -5008.96 -5002.11 -5002.09 -5002.09 -5002.09 -5002.11 -5007.24 -5045.18 -5050.31 -5050.33 -5050.33 -5050.33 -5050.31 -5044.96 -5005.37 -5000.01 -5000.00 -5000.00 -5000.00 -5000.00 -5000.00 -5000.00
-5093.39 -5093.39 -5093.39 -5093.39 -5093.39 -5093.37 -5087.86 -5047.10 -5041.58 -5041.57 -5041.57 -5041.57 -5041.54 -5030.05 -4945.11 -4933.62 -4933.59 -4933.59 -4933.59 -4933.58 -4931.79 -4918.53 -4916.73 -4916.73 -4916.73 -4916.73 -4916.53 -4836.20 -4242.63 -4162.30 -4161.62 -3965.85 -2484.11 -2020.82 -1889.49 -1309.34 -1228.62 -1235.07 -1248.76 -1523.96 -3014.42 -3526.52 -4352.88 -4460.92 -4461.19 -4461.19 -4461.19 -4461.28 -4499.61 -4782.82 -4821.15 -4821.25 -4821.25 -4821.25 -4821.28 -4836.97 -4952.87 -4968.55 -4968.59 -4968.59 -4968.59 -4968.56 -4954.22 -4848.27 -4833.93 -4833.90 -4833.90 -4833.90 -4833.48 -4665.18 -3397.51 -3044.01 -2795.27 -1299.47 -834.75 -784.75 -706.40 -145.36 -50.70 -30.83 -0.25 21.38 7.44 27.19 149.28 171.77 159.85 159.84 160.03 167.53 205.33 436.24 534.83 592.63 847.75 764.09 664.87 128.06 -2250.80 -4083.36 -4491.91 -4519.86 -4519.93 -4520.06 -4570.39 -4942.30 -4992.63 -4992.75 -4992.75 -4992.75 -4992.77 -5000.62 -5058.58 -5066.42 -5066.44 -5066.44 -5066.44 -5066.42 -5059.58 -5008.97 -5002.13 -5002.11 -5002.11 -5002.11 -5002.12 -5007.25 -5045.15 -5050.28 -5050.29 -5050.29 -5050.29 -5050.28 -5044.93 -5005.37 -5000.01 -5000.00 -5000.00 -5000.00 -5000.00 -5000.00 -5000.00
-5094.38 -5094.38 -5094.38 -5094.38 -5094.38 -5094.37 -5088.35 -5043.89 -5037.87 -5037.85 -5037.85 -5037.85 -5037.83 -5028.59 -4960.31 -4951.07 -4951.04 -4951.04 -4951.04 -4951.04 -4947.82 -4924.05 -4920.84 -4920.83 -4920.83 -4920.83 -4920.58 -4821.19 -4086.79 -3987.40 -3986.46 -3731.58 -1841.60 -1506.48 -1374.54 -810.20 -729.77 -735.80 -765.02 -841.70 -1275.03 -2961.29 -4066.51 -4188.48 -4188.78 -4188.78 -4188.78 -4188.87 -4226.46 -4504.16 -4541.74 -4541.83 -4541.83 -4541.83 -4541.87 -4558.20 -4678.85 -4695.18 -4695.22 -4695.22 -4695.22 -4695.19 -4681.63 -4581.46 -4567.90 -4567.87 -4567.87 -4567.87 -4567.36 -4391.22 -2910.97 -1336.09 -925.55 -690.26 -633.87 -659.17 -618.70 -105.73 -14.15 1.44 32.71 40.23 25.41 38.19 140.28 153.95 150.45 153.22 159.13 166.35 195.92 370.75 437.98 491.03 576.60 581.87 619.14 321.23 -1512.55 -2301.60 -4046.10 -4276.89 -4277.53 -4277.72 -4353.65 -4914.69 -4990.62 -4990.80 -4990.80 -4990.80 -4990.82 -4997.66 -5048.21 -5055.06 -5055.07 -5055.07 -5055.07 -5055.06 -5050.06 -5013.10 -5008.10 -5008.09 -5008.09 -5008.09 -5008.09 -5011.12 -5033.48 -5036.51 -5036.52 -5036.52 -5036.52 -5036.51 -5032.62 -5003.90 -5000.01 -5000.00 -5000.00 -5000.00 -5000.00 -5000.00 -5000.00
-5101.72 -5101.72 -5101.72 -5101.72 -5101.72 -5101.69 -5091.97 -5020.15 -5010.43 -5010.40 -5010.40 -5010.40 -5010.42 -5017.83 -5072.60 -5080.02 -5080.03 -5080.03 -5080.03 -5080.00 -5066.28 -4964.89 -4951.17 -4951.13 -4951.13 -4951.13 -4950.54 -4710.31 -2935.27 -2694.98 -2669.30 -2249.35 -452.52 -153.23 -34.61 265.83 317.56 328.33 324.91 261.64 160.09 -261.11 -1723.02 -1917.07 -1918.84 -1919.83 -1919.47 -1919.54 -1981.46 -2417.48 -2476.53 -2477.16 -2477.22 -2477.23 -2477.28 -2498.36 -2654.11 -2675.19 -2675.24 -2675.24 -2675.24 -2675.22 -2667.44 -2609.95 -2602.11 -2601.72 -2602.02 -2601.52 -2572.59 -2159.84 -570.45 77.70 168.00 199.07 233.61 208.34 252.90 195.58 202.45 216.29 229.58 221.84 214.24 212.90 170.37 166.85 166.32 170.46 176.46 184.34 194.82 233.75 266.98 280.44 322.59 399.41 489.62 458.30 282.83 -215.38 -2018.42 -2457.69 -2486.29 -2487.08 -2752.14 -4710.68 -4975.74 -4976.39 -4976.39 -4976.39 -4976.39 -4975.82 -4971.63 -4971.06 -4971.06 -4971.06 -4971.06 -4971.08 -4979.72 -5043.59 -5052.23 -5052.25 -5052.25 -5052.25 -5052.22 -5039.71 -4947.27 -4934.76 -4934.73 -4934.73 -4934.73 -4934.75 -4941.70 -4993.03 -4999.98 -5000.00 -5000.00 -5000.00 -5000.00 -5000.00 -5000.00
-5102.71 -5102.71 -5102.71 -5102.71 -5102.71 -5102.68 -5092.46 -5016.94 -5006.71 -5006.69 -5006.69 -5006.69 -5006.71 -5016.38 -5087.80 -5097.47 -5097.49 -5097.49 -5097.49 -5097.45 -5082.31 -4970.41 -4955.27 -4955.23 -4955.23 -4955.23 -4954.59 -4695.30 -2779.43 -2519.63 -2312.71 -731.82 -96.39 -3.96 131.70 413.04 462.98 476.60 464.29 454.97 402.71 338.96 307.78 301.54 288.69 281.47 285.93 286.42 31.19 -1702.73 -1974.20 -2170.78 -2197.26 -2197.75 -2197.86 -2219.59 -2380.09 -2401.81 -2401.87 -2401.87 -2401.87 -2401.85 -2394.85 -2343.07 -2312.78 -2163.43 -2285.48 -2110.27 -1865.85 -280.51 210.61 296.81 315.58 330.39 330.99 322.01 360.03 290.28 242.94 241.23 243.91 238.51 232.92 224.52 169.67 164.55 167.38 172.95 179.97 187.92 196.99 211.81 256.97 295.07 341.47 378.28 495.90 569.62 428.51 308.33 -227.81 -1808.37 -2215.45 -2244.61 -2535.40 -4683.07 -4973.72 -4974.44 -4974.44 -4974.44 -4974.44 -4972.87 -4961.26 -4959.69 -4959.69 -4959.69 -4959.69 -4959.72 -4970.21 -5047.72 -5058.20 -5058.23 -5058.23 -5058.23 -5058.19 -5043.58 -4935.60 -4920.99 -4920.95 -4920.95 -4920.95 -4920.98 -4929.39 -4991.56 -4999.98 -5000.00 -5000.00 -5000.00 -5000.00 -5000.00 -5000.00
-5102.71 -5102.71 -5102.71 -5102.71 -5102.71 -5102.69 -5092.46 -5016.93 -5006.71 -5006.68 -5006.68 -5006.68 -5006.70 -5016.38 -5087.84 -5097.51 -5097.53 -5097.53 -5097.53 -5097.50 -5082.35 -4970.43 -4955.28 -4955.24 -4955.24 -4955.24 -4954.60 -4695.27 -2779.04 -2519.12 -2280.69 -497.66 -62.53 -10.51 137.76 434.31 484.08 495.77 489.51 472.40 467.82 458.84 595.82 597.22 567.98 567.37 580.25 582.53 521.91 47.64 -298.58 -1745.88 -1999.20 -2173.62 -2196.61 -2218.84 -2379.41 -2401.14 -2401.13 -2400.77 -2401.13 -2401.11 -2393.70 -2341.43 -2138.89 -858.72 -1708.64 -416.65 -128.13 111.57 307.00 355.63 330.73 324.77 329.24 331.05 347.49 366.59 242.39 234.63 233.77 228.45 228.46 221.32 174.08 166.94 167.52 172.55 178.62 185.13 197.54 213.51 263.75 251.99 285.33 324.90 518.06 659.39 594.03 323.77 228.03 -245.05 -1808.28 -2215.48 -2534.73 -4683.00 -4973.72 -4974.44 -4974.44 -4974.44 -4974.43 -4972.86 -4961.24 -4959.67 -4959.66 -4959.66 -4959.66 -4959.69 -4970.18 -5047.73 -5058.22 -5058.25 -5058.25 -5058.25 -5058.21 -5043.59 -4935.58 -4920.96 -4920.92 -4920.92 -4920.92 -4920.94 -4929.36 -4991.56 -4999.98 -5000.00 -5000.00 -5000.00 -5000.00 -5000.00 -5000.00
-5102.71 -5102.71 -5102.71 -5102.71 -5102.71 -5102.69 -5092.46 -5016.93 -5006.71 -5006.68 -5006.68 -5006.68 -5006.70 -5016.38 -5087.84 -5097.51 -5097.53 -5097.53 -5097.53 -5097.50 -5082.35 -4970.43 -4955.28 -4955.24 -4955.24 -4955.24 -4954.60 -4695.27 -2779.04 -2519.14 -2289.24 -562.11 -79.97 -6.10 133.44 433.65 500.85 505.57 505.68 484.29 497.87 518.08 692.49 692.87 665.31 662.55 652.99 644.63 599.13 303.47 169.92 -18.56 -482.64 -1794.95 -1993.62 -2194.09 -2378.71 -2400.45 -2377.81 -2232.54 -2377.77 -2377.68 -2201.59 -2118.48 -1897.65 -398.52 -127.85 58.19 111.74 158.60 316.29 368.98 331.03 322.81 333.10 371.73 376.87 376.97 247.99 226.93 229.26 219.83 223.45 226.36 177.33 178.91 170.22 173.12 179.32 186.22 205.52 227.30 242.25 232.80 254.77 331.26 541.86 557.95 692.37 419.81 325.94 195.07 -240.63 -1806.75 -2506.08 -4682.86 -4973.72 -4974.44 -4974.44 -4974.44 -4974.43 -4972.86 -4961.24 -4959.67 -4959.66 -4959.66 -4959.66 -4959.69 -4970.18 -5047.73 -5058.22 -5058.25 -5058.25 -5058.25 -5058.21 -5043.59 -4935.58 -4920.96 -4920.92 -4920.92 -4920.92 -4920.94 -4929.36 -4991.56 -4999.98 -5000.00 -5000.00 -5000.00 -5000.00 -5000.00 -5000.00
-5102.69 -5102.69 -5102.69 -5102.69 -5102.69 -5102.67 -5092.44 -5016.91 -5006.69 -5006.66 -5006.66 -5006.66 -5006.69 -5016.36 -5087.83 -5097.50 -5097.53 -5097.53 -5097.53 -5097.49 -5082.33 -4970.29 -4955.13 -4955.09 -4955.09 -4955.09 -4954.45 -4695.12 -2778.96 -2519.11 -2302.73 -665.07 -114.79 -6.84 153.15 453.56 490.13 486.95 472.83 483.17 513.11 544.21 708.64 721.41 705.25 699.56 696.73 692.03 628.73 347.13 274.77 266.35 181.50 -196.29 -439.16 -1777.76 -2119.59 -2148.03 -1973.32 -904.46 -1980.25 -1983.40 -719.23 -435.08 -296.17 32.40 102.70 129.79 150.05 173.88 323.35 368.09 368.27 344.10 333.80 374.21 428.43 402.62 262.45 239.51 237.39 227.84 229.59 228.19 183.38 175.70 172.75 175.86 182.12 194.46 205.94 212.39 226.79 232.40 267.16 402.43 494.18 531.89 542.91 481.78 373.30 278.64 231.59 -231.20 -2106.08 -4655.86 -4973.54 -4974.33 -4974.33 -4974.33 -4974.33 -4972.77 -4961.24 -4959.68 -4959.68 -4959.68 -4959.68 -4959.70 -4970.19 -5047.70 -5058.19 -5058.21 -5058.21 -5058.21 -5058.18 -5043.57 -4935.61 -4921.00 -4920.96 -4920.96 -4920.96 -4920.98 -4929.39 -4991.57 -4999.98 -5000.00 -5000.00 -5000.00 -5000.00 -5000.00 -5000.00
-5094.52 -5094.52 -5094.52 -5094.52 -5094.52 -5094.49 -5084.34 -5009.34 -4999.19 -4999.16 -4999.16 -4999.16 -4999.19 -5009.32 -5084.17 -5094.29 -5094.32 -5094.32 -5094.32 -5094.27 -5072.77 -4913.94 -4892.44 -4892.39 -4892.39 -4892.39 -4891.76 -4636.21 -2747.93 -2491.83 -2268.32 -583.11 -65.35 30.00 144.42 423.17 473.36 511.61 494.36 510.81 533.01 568.90 735.79 762.07 738.70 736.97 740.76 720.40 651.48 409.22 323.75 300.46 284.63 251.04 214.63 23.08 -169.18 -237.99 -165.83 -56.78 -217.11 -246.11 -18.49 62.35 82.35 83.92 113.44 135.24 149.56 168.29 315.65 355.57 407.17 400.20 323.58 332.57 452.58 435.43 296.39 257.76 244.77 234.75 229.15 223.07 163.82 170.08 169.15 167.71 174.30 210.37 225.54 227.85 227.06 241.83 249.72 324.18 312.59 367.58 433.43 380.16 364.92 406.81 365.00 224.31 -616.27 -4420.29 -4929.36 -4930.63 -4930.63 -4930.63 -4930.64 -4934.28 -4961.23 -4964.87 -4964.88 -4964.88 -4964.88 -4964.90 -4973.51 -5037.11 -5045.71 -5045.73 -5045.73 -5045.73 -5045.71 -5034.11 -4948.45 -4936.86 -4936.83 -4936.83 -4936.83 -4936.84 -4943.57 -4993.26 -4999.98 -5000.00 -5000.00 -5000.00 -5000.00 -5000.00 -5000.00
-5034.14 -5034.14 -5034.14 -5034.14 -5034.14 -5034.11 -5024.49 -4953.41 -4943.79 -4943.77 -4943.77 -4943.77 -4943.80 -4957.31 -5057.09 -5070.60 -5070.63 -5070.63 -5070.63 -5070.46 -5002.17 -4497.58 -4429.29 -4429.12 -4429.12 -4429.12 -4428.56 -4200.89 -2518.65 -2290.30 -2039.09 -176.01 189.06 248.24 329.66 557.21 590.40 620.58 625.41 658.79 667.72 681.92 833.87 835.78 829.37 805.60 796.58 769.22 715.64 532.07 494.78 479.28 428.31 417.82 413.89 410.78 384.88 375.03 356.11 333.56 370.21 360.32 317.65 103.29 59.76 69.97 81.90 90.47 102.01 135.28 175.82 207.14 250.32 235.94 162.87 154.10 323.25 371.92 307.26 269.79 233.83 212.23 194.62 177.73 93.21 85.31 89.99 95.73 100.29 126.32 175.85 217.11 181.42 171.81 167.90 190.85 221.67 284.92 452.37 481.02 502.75 734.38 483.51 385.56 -287.34 -4093.59 -4606.37 -4607.70 -4607.70 -4607.70 -4607.80 -4649.92 -4961.14 -5003.26 -5003.37 -5003.37 -5003.37 -5003.35 -4998.05 -4958.84 -4953.53 -4953.52 -4953.52 -4953.52 -4953.54 -4964.25 -5043.34 -5054.05 -5054.07 -5054.07 -5054.07 -5054.06 -5048.30 -5005.77 -5000.01 -5000.00 -5000.00 -5000.00 -5000.00 -5000.00 -5000.00
-5025.97 -5025.97 -5025.97 -5025.97 -5025.97 -5025.94 -5016.39 -4945.84 -4936.30 -4936.27 -4936.27 -4936.27 -4936.31 -4950.27 -5053.43 -5067.39 -5067.42 -5067.42 -5067.42 -5067.24 -4992.62 -4441.23 -4366.61 -4366.43 -4366.43 -4366.43 -4365.87 -4141.98 -2487.49 -2236.20 -1803.62 -18.38 276.55 322.19 392.15 596.99 617.00 617.20 644.36 669.87 684.59 709.10 861.54 854.64 828.15 808.86 814.06 801.11 733.01 553.76 525.24 515.99 497.03 487.20 466.32 461.26 445.96 433.11 423.64 415.57 420.03 426.32 374.70 110.90 60.81 77.23 86.00 93.22 103.01 143.96 201.39 236.87 217.63 188.41 153.66 167.77 314.14 322.91 325.25 309.94 270.53 245.32 227.82 186.72 92.40 76.09 82.14 87.97 104.76 116.79 159.99 209.98 163.93 142.43 147.57 171.98 234.23 291.75 446.18 449.37 580.44 829.20 723.74 433.96 -205.53 -3863.05 -4537.67 -4563.93 -4564.00 -4564.00 -4564.11 -4611.44 -4961.13 -5008.46 -5008.58 -5008.58 -5008.58 -5008.56 -5001.37 -4948.24 -4941.06 -4941.04 -4941.04 -4941.04 -4941.07 -4954.79 -5056.19 -5069.91 -5069.94 -5069.94 -5069.94 -5069.92 -5062.48 -5007.46 -5000.02 -5000.00 -5000.00 -5000.00 -5000.00 -5000.00 -5000.00
-5025.95 -5025.95 -5025.95 -5025.95 -5025.95 -5025.92 -5016.37 -4945.83 -4936.28 -4936.25 -4936.25 -4936.25 -4936.29 -4950.25 -5053.42 -5067.38 -5067.42 -5067.42 -5067.42 -5067.23 -4992.59 -4441.09 -4366.46 -4366.27 -4366.27 -4366.27 -4365.72 -4141.71 -2462.39 -1861.39 -322.23 220.44 341.78 357.51 406.49 609.83 640.96 659.91 658.32 662.31 681.51 703.00 847.08 858.28 811.62 817.68 805.54 797.92 736.27 559.95 534.09 526.93 518.23 513.79 508.07 503.16 490.05 459.68 443.90 440.73 438.53 434.94 393.15 108.17 81.66 88.52 103.43 117.18 136.16 148.01 194.31 212.89 174.18 153.84 153.33 146.05 283.08 322.26 246.77 250.81 235.06 233.45 261.10 217.16 140.42 85.57 85.69 88.97 134.72 141.93 149.07 186.77 164.59 133.71 135.28 154.92 212.48 316.91 411.37 410.97 489.69 723.04 774.85 449.62 27.60 -2469.24 -4349.27 -4563.29 -4563.89 -4563.89 -4564.01 -4611.34 -4961.13 -5008.47 -5008.59 -5008.59 -5008.59 -5008.57 -5001.38 -4948.22 -4941.02 -4941.01 -4941.01 -4941.01 -4941.04 -4954.77 -5056.22 -5069.95 -5069.98 -5069.98 -5069.98 -5069.96 -5062.51 -5007.47 -5000.02 -5000.00 -5000.00 -5000.00 -5000.00 -5000.00 -5000.00
-5025.95 -5025.95 -5025.95 -5025.95 -5025.95 -5025.92 -5016.37 -4945.83 -4936.28 -4936.25 -4936.25 -4936.25 -4936.29 -4950.25 -5053.42 -5067.38 -5067.42 -5067.42 -5067.42 -5067.23 -4992.59 -4441.09 -4366.46 -4366.27 -4366.27 -4366.27 -4365.66 -4117.30 -2103.22 -453.37 156.73 304.03 369.63 385.87 420.37 603.89 652.20 672.90 664.32 673.32 684.24 717.10 867.57 844.58 831.52 833.44 822.49 815.49 755.96 567.75 544.30 539.43 531.89 530.55 529.65 527.96 517.48 510.73 503.00 495.10 487.34 476.90 435.46 160.89 118.19 122.93 145.76 158.53 149.74 157.40 166.17 171.09 166.84 150.54 140.75 127.12 210.77 299.39 206.18 195.09 194.40 212.60 280.78 223.44 138.43 94.99 83.94 83.72 103.03 156.60 147.89 160.86 149.88 124.88 122.51 132.12 161.05 230.28 419.10 446.93 526.46 686.20 785.48 780.81 353.89 -2047.99 -4100.75 -4536.18 -4563.82 -4563.89 -4564.01 -4611.34 -4961.13 -5008.47 -5008.59 -5008.59 -5008.59 -5008.57 -5001.38 -4948.22 -4941.02 -4941.01 -4941.01 -4941.01 -4941.04 -4954.77 -5056.22 -5069.95 -5069.98 -5069.98 -5069.98 -5069.96 -5062.51 -5007.47 -5000.02 -5000.00 -5000.00 -5000.00 -5000.00 -5000.00 -5000.00
-5025.94 -5025.94 -5025.94 -5025.94 -5025.94 -5025.92 -5016.37 -4945.85 -4936.31 -4936.28 -4936.28 -4936.28 -4936.32 -4950.28 -5053.41 -5067.37 -5067.40 -5067.40 -5067.40 -5067.22 -4992.54 -4440.78 -4366.11 -4365.92 -4365.92 -4365.92 -4364.79 -3935.04 -710.02 125.16 226.03 293.62 359.25 387.43 412.99 629.85 653.85 677.31 692.99 683.34 700.89 703.87 855.69 863.26 851.93 844.53 841.39 813.37 771.85 583.78 554.01 549.65 546.66 545.77 547.27 543.01 534.73 529.19 524.13 516.60 510.04 499.96 452.52 168.05 132.30 160.47 157.51 169.24 179.90 168.95 163.99 173.71 163.47 164.80 156.61 123.84 186.94 320.18 194.27 164.83 177.08 194.81 237.01 216.45 152.87 115.75 88.74 84.66 88.96 112.43 122.42 121.48 128.28 115.02 113.87 115.83 125.70 167.24 367.95 535.63 582.85 663.19 840.60 583.22 181.15 -1822.76 -2614.06 -4335.70 -4563.21 -4563.77 -4563.89 -4611.25 -4961.15 -5008.50 -5008.62 -5008.62 -5008.62 -5008.60 -5001.40 -4948.22 -4941.02 -4941.00 -4941.00 -4941.00 -4941.04 -4954.77 -5056.22 -5069.95 -5069.99 -5069.99 -5069.99 -5069.97 -5062.52 -5007.47 -5000.02 -5000.00 -5000.00 -5000.00 -5000.00 -5000.00 -5000.00
-5024.09 -5024.09 -5024.09 -5024.09 -5024.09 -5024.07 -5015.98 -4956.21 -4948.12 -4948.10 -4948.10 -4948.10 -4948.13 -4960.17 -5049.17 -5061.21 -5061.24 -5061.24 -5061.24 -5061.02 -4971.87 -4313.08 -4223.92 -4223.70 -4223.64 -4223.14 -4194.13 -3545.83 -241.52 234.14 275.03 327.51 399.01 407.60 429.46 663.12 666.35 674.88 727.47 711.49 696.59 706.17 833.38 840.18 844.50 829.02 847.77 828.49 788.01 608.58 560.82 561.70 561.48 560.69 561.87 557.14 539.68 529.46 523.55 514.96 509.38 501.32 457.66 195.43 163.93 185.07 190.18 175.50 182.62 184.19 159.93 165.60 148.12 142.88 125.62 125.54 243.38 374.50 224.13 149.17 159.53 178.86 186.99 194.69 116.52 106.78 94.45 85.51 84.74 96.45 91.05 91.87 95.79 96.67 99.15 102.24 108.52 139.11 310.85 398.72 464.18 548.36 709.54 628.31 126.28 -1766.82 -2315.78 -4255.08 -4517.29 -4518.00 -4518.14 -4571.72 -4967.66 -5021.25 -5021.38 -5021.38 -5021.38 -5021.36 -5012.74 -4949.01 -4940.39 -4940.37 -4940.37 -4940.37 -4940.40 -4954.50 -5058.65 -5072.75 -5072.79 -5072.79 -5072.79 -5072.77 -5065.02 -5007.77 -5000.02 -5000.00 -5000.00 -5000.00 -5000.00 -5000.00 -5000.00
-5010.43 -5010.43 -5010.43 -5010.43 -5010.43 -5010.43 -5013.09 -5032.74 -5035.39 -5035.40 -5035.40 -5035.40 -5035.40 -5033.30 -5017.84 -5015.75 -5015.75 -5015.75 -5015.75 -5015.26 -4819.08 -3369.52 -3173.34 -3172.73 -3148.67 -2970.73 -2719.45 -1048.29 182.43 345.58 436.16 451.56 496.14 485.35 549.33 744.68 797.25 818.07 818.47 816.64 812.67 803.54 801.57 807.01 807.67 797.83 830.55 817.50 800.70 637.60 586.75 567.52 569.81 575.76 577.33 563.91 476.16 457.63 449.78 444.50 432.53 428.93 410.33 331.28 295.34 308.31 300.82 299.61 288.32 271.23 149.84 124.13 99.31 96.98 70.55 95.26 116.37 178.46 263.26 67.08 49.29 71.01 87.42 79.74 46.65 55.35 73.30 61.82 48.12 50.23 48.56 17.49 14.00 16.46 19.64 25.37 27.58 39.90 94.25 127.74 184.14 254.65 379.65 433.98 -37.62 -1472.90 -1913.42 -3710.80 -4151.83 -4179.73 -4180.05 -4279.67 -5015.80 -5115.43 -5115.68 -5115.68 -5115.68 -5115.63 -5096.47 -4954.88 -4935.72 -4935.67 -4935.67 -4935.67 -4935.72 -4952.51 -5076.62 -5093.41 -5093.46 -5093.46 -5093.46 -5093.43 -5083.48 -5009.97 -5000.02 -5000.00 -5000.00 -5000.00 -5000.00 -5000.00 -5000.00
-5008.58 -5008.58 -5008.58 -5008.58 -5008.58 -5008.59 -5012.70 -5043.09 -5047.21 -5047.22 -5047.22 -5047.22 -5047.21 -5043.20 -5013.61 -5009.60 -5009.59 -5009.59 -5009.59 -5009.07 -4798.41 -3241.82 -3031.10 -3006.69 -2657.02 -1307.35 -920.38 -501.55 256.18 444.42 480.71 484.85 503.03 505.97 550.46 762.00 822.54 846.25 845.94 852.82 830.09 830.28 824.76 805.17 819.37 810.06 829.76 822.34 801.42 664.40 600.10 572.39 567.03 570.94 573.68 565.76 473.47 454.64 450.60 447.35 434.85 435.72 432.57 332.87 314.52 316.70 314.21 306.38 300.37 281.45 152.26 124.37 91.10 76.18 53.70 73.10 76.38 79.33 86.03 31.91 35.64 60.70 90.99 86.35 41.85 34.45 55.90 63.08 49.52 53.73 51.68 17.85 10.51 9.71 13.81 19.19 22.31 27.68 61.38 85.65 108.06 142.70 270.07 364.53 53.10 -1389.86 -1611.33 -2169.27 -3904.57 -4133.46 -4134.29 -4240.15 -5022.32 -5128.17 -5128.44 -5128.44 -5128.44 -5128.39 -5107.80 -4955.68 -4935.09 -4935.04 -4935.04 -4935.04 -4935.08 -4952.24 -5079.05 -5096.21 -5096.25 -5096.25 -5096.25 -5096.23 -5085.98 -5010.27 -5000.03 -5000.00 -5000.00 -5000.00 -5000.00 -5000.00 -5000.00
-5008.57 -5008.57 -5008.57 -5008.57 -5008.57 -5008.58 -5012.70 -5043.12 -5047.24 -5047.25 -5047.25 -5047.25 -5047.24 -5043.23 -5013.60 -5009.59 -5009.58 -5009.58 -5009.58 -5009.05 -4798.36 -3241.50 -3030.26 -2831.89 -1334.47 -822.55 -603.98 -461.87 281.47 448.67 475.96 494.48 500.61 530.77 588.10 788.24 835.38 852.46 850.71 851.02 841.43 843.10 813.09 828.14 831.57 834.48 843.78 832.25 800.82 663.55 619.19 604.13 574.23 580.85 579.42 570.03 485.61 476.41 483.67 477.65 470.57 463.59 450.67 359.69 329.73 319.09 311.01 305.18 300.67 279.77 129.41 103.34 82.42 52.89 34.74 41.67 52.03 44.48 34.78 27.43 35.96 62.11 84.00 87.52 35.22 32.06 46.71 66.59 57.08 58.62 67.31 25.55 16.70 14.69 19.12 25.19 32.25 35.73 66.09 78.29 93.77 141.13 201.22 242.84 127.19 -1379.19 -1623.71 -1961.75 -3875.63 -4133.28 -4134.18 -4240.05 -5022.33 -5128.21 -5128.47 -5128.47 -5128.47 -5128.42 -5107.83 -4955.68 -4935.09 -4935.04 -4935.04 -4935.04 -4935.08 -4952.24 -5079.06 -5096.22 -5096.26 -5096.26 -5096.26 -5096.24 -5085.99 -5010.27 -5000.03 -5000.00 -5000.00 -5000.00 -5000.00 -5000.00 -5000.00
-5008.57 -5008.57 -5008.57 -5008.57 -5008.57 -5008.58 -5012.70 -5043.12 -5047.24 -5047.25 -5047.25 -5047.25 -5047.24 -5043.23 -5013.60 -5009.59 -5009.58 -5009.58 -5009.58 -5009.05 -4798.36 -3241.44 -3006.47 -2624.27 -1054.00 -663.00 -585.49 -455.27 324.74 451.45 474.26 479.40 503.63 534.85 587.49 804.90 837.13 854.55 880.59 883.66 850.42 860.56 843.27 840.49 833.29 860.78 858.48 832.09 802.12 681.06 652.63 630.27 628.47 637.19 627.30 603.72 509.49 495.44 501.21 518.80 507.43 488.02 476.81 375.66 343.31 336.87 319.25 311.97 319.76 291.31 117.31 95.46 81.78 53.35 32.62 34.39 43.15 37.23 28.91 26.51 31.25 51.13 70.79 68.76 37.29 39.04 47.33 65.22 64.88 64.94 76.20 35.86 25.95 24.60 29.28 37.43 40.57 48.61 97.38 100.45 110.83 146.44 173.31 221.84 7.03 -1405.39 -1627.97 -1960.37 -3875.39 -4133.28 -4134.18 -4240.05 -5022.33 -5128.21 -5128.47 -5128.47 -5128.47 -5128.42 -5107.83 -4955.68 -4935.09 -4935.04 -4935.04 -4935.04 -4935.08 -4952.24 -5079.06 -5096.22 -5096.26 -5096.26 -5096.26 -5096.24 -5085.99 -5010.27 -5000.03 -5000.00 -5000.00 -5000.00 -5000.00 -5000.00 -5000.00
-5008.59 -5008.59 -5008.59 -5008.59 -5008.59 -5008.60 -5012.71 -5043.11 -5047.22 -5047.23 -5047.23 -5047.23 -5047.22 -5043.21 -5013.58 -5009.57 -5009.56 -5009.56 -5009.56 -5009.04 -4798.36 -3241.06 -2829.42 -1309.34 -804.98 -622.47 -569.79 -426.28 314.03 445.23 480.29 490.95 500.04 551.43 589.83 816.83 858.74 882.94 884.92 874.30 883.85 858.99 833.27 835.85 868.72 862.52 835.37 812.74 778.41 668.44 668.01 655.79 659.24 659.87 642.39 638.78 540.99 531.46 517.54 552.47 526.88 537.66 520.36 394.96 361.26 356.85 341.44 325.39 340.20 288.23 119.36 89.24 67.80 42.52 31.95 36.42 44.24 33.01 26.78 26.90 31.86 48.96 70.85 57.09 57.00 58.69 49.19 56.84 64.02 74.67 77.95 45.66 38.34 41.19 46.25 55.41 59.30 66.05 112.50 117.04 121.31 153.46 157.15 193.26 1.06 -1337.25 -1632.08 -1971.28 -3876.56 -4133.19 -4134.08 -4239.96 -5022.32 -5128.20 -5128.46 -5128.46 -5128.46 -5128.41 -5107.82 -4955.71 -4935.12 -4935.07 -4935.07 -4935.07 -4935.11 -4952.27 -5079.04 -5096.19 -5096.24 -5096.24 -5096.24 -5096.21 -5085.97 -5010.27 -5000.03 -5000.00 -5000.00 -5000.00 -5000.00 -5000.00 -5000.00
-5015.18 -5015.18 -5015.18 -5015.18 -5015.18 -5015.19 -5018.00 -5038.82 -5041.64 -5041.64 -5041.64 -5041.64 -5041.63 -5037.67 -5008.38 -5004.42 -5004.41 -5004.41 -5004.41 -5003.90 -4799.25 -3262.69 -2664.83 -1043.88 -689.53 -635.75 -588.42 -464.35 302.69 455.58 499.11 508.91 517.71 552.37 625.99 852.45 852.94 866.34 882.04 885.69 885.24 872.95 819.56 834.70 839.60 840.69 809.53 803.42 763.69 681.71 667.37 652.13 654.11 661.38 664.36 625.64 588.79 582.60 571.63 589.86 570.96 595.42 569.82 457.97 414.77 397.19 377.59 357.75 360.98 303.18 134.32 99.13 79.70 59.93 54.89 57.62 64.11 49.81 41.09 41.88 49.22 63.58 82.02 62.15 34.29 42.28 63.64 60.00 72.13 91.28 85.84 68.28 69.02 74.61 82.76 93.93 100.27 87.12 119.35 122.57 131.96 155.28 175.50 266.30 17.36 -1217.77 -1579.07 -1925.49 -3837.47 -4095.09 -4096.00 -4205.62 -5015.58 -5125.20 -5125.47 -5125.47 -5125.47 -5125.42 -5106.51 -4966.73 -4947.81 -4947.76 -4947.76 -4947.76 -4947.80 -4962.59 -5071.89 -5086.69 -5086.72 -5086.72 -5086.72 -5086.70 -5077.47 -5009.25 -5000.02 -5000.00 -5000.00 -5000.00 -5000.00 -5000.00 -5000.00
-5063.87 -5063.87 -5063.87 -5063.87 -5063.87 -5063.86 -5057.09 -5007.13 -5000.36 -5000.35 -5000.35 -5000.35 -5000.34 -4996.71 -4969.95 -4966.32 -4966.31 -4966.31 -4966.31 -4965.92 -4805.85 -3423.63 -1712.52 -1127.75 -1031.18 -985.55 -960.71 -806.27 362.61 564.16 608.80 631.72 656.84 661.18 702.64 838.67 849.08 876.32 906.80 910.97 875.89 852.86 624.05 596.05 587.47 579.03 574.36 576.69 560.74 562.90 553.14 541.85 558.54 564.61 550.37 550.43 786.82 778.55 783.99 802.34 812.13 811.90 777.83 615.62 581.31 551.89 534.41 507.99 498.85 452.96 287.76 273.24 226.16 200.17 196.62 196.06 188.66 148.55 149.06 142.24 144.19 164.62 180.02 159.07 32.07 16.87 34.03 52.28 39.61 56.32 75.62 156.58 178.71 201.44 212.62 224.83 222.75 195.88 179.92 188.10 186.04 203.15 247.13 268.47 91.24 -1028.99 -1302.12 -1609.08 -3550.83 -3813.58 -3814.63 -3951.86 -4965.82 -5103.05 -5103.39 -5103.39 -5103.39 -5103.37 -5096.79 -5048.16 -5041.58 -5041.56 -5041.56 -5041.56 -5041.55 -5038.88 -5019.10 -5016.42 -5016.42 -5016.42 -5016.42 -5016.41 -5014.66 -5001.75 -5000.00 -5000.00 -5000.00 -5000.00 -5000.00 -5000.00 -5000.00
-5070.46 -5070.46 -5070.46 -5070.46 -5070.46 -5070.44 -5062.38 -5002.84 -4994.78 -4994.76 -4994.76 -4994.76 -4994.75 -4991.17 -4964.74 -4961.17 -4961.16 -4961.16 -4961.16 -4960.78 -4806.70 -3447.57 -1602.06 -1137.15 -1074.74 -1038.58 -1021.14 -846.49 374.92 578.71 620.13 644.99 669.53 684.74 707.97 814.13 847.94 870.81 910.17 901.74 894.18 854.00 601.53 554.90 543.69 538.65 527.76 522.87 509.82 545.76 551.37 558.32 531.00 552.87 552.75 553.62 811.60 822.40 850.01 871.36 878.73 870.81 843.94 664.96 636.24 615.71 582.40 549.59 518.71 462.66 302.85 267.55 237.06 222.95 221.77 218.61 208.09 155.01 152.92 153.71 153.54 168.07 186.13 167.76 32.45 30.45 33.64 63.99 46.90 65.50 90.55 183.65 202.18 236.30 268.94 267.62 258.90 234.91 224.92 210.79 197.95 213.64 238.68 226.34 16.08 -1094.50 -1275.26 -1540.22 -3318.13 -3749.23 -3776.49 -3917.52 -4959.09 -5100.05 -5100.40 -5100.40 -5100.40 -5100.38 -5095.47 -5059.18 -5054.27 -5054.26 -5054.26 -5054.26 -5054.24 -5049.20 -5011.95 -5006.91 -5006.90 -5006.90 -5006.90 -5006.90 -5006.16 -5000.74 -5000.00 -5000.00 -5000.00 -5000.00 -5000.00 -5000.00 -5000.00
-5070.48 -5070.48 -5070.48 -5070.48 -5070.48 -5070.46 -5062.40 -5002.83 -4994.76 -4994.74 -4994.74 -4994.74 -4994.73 -4991.16 -4964.73 -4961.15 -4961.15 -4961.15 -4961.15 -4960.71 -4783.96 -3273.23 -1531.63 -1133.51 -1062.79 -1029.16 -1014.57 -835.25 384.33 580.57 601.34 644.79 682.88 716.13 739.23 834.54 876.17 896.97 916.56 910.85 902.94 855.01 599.46 544.77 527.73 527.49 528.26 526.42 514.74 531.91 552.94 552.73 552.67 559.87 544.75 575.30 826.85 855.04 879.72 911.03 929.35 904.78 875.69 696.87 664.26 640.61 601.09 554.31 520.92 473.04 316.72 282.86 242.70 231.93 229.25 221.56 210.80 156.39 151.18 155.83 161.92 191.89 196.54 164.52 23.07 52.46 26.62 37.02 55.76 76.13 109.66 198.30 218.20 258.62 296.12 319.63 317.95 279.67 242.80 186.20 188.72 199.61 169.03 131.91 -13.04 -1097.53 -1274.32 -1364.14 -2074.42 -3580.97 -3775.98 -3917.43 -4959.07 -5100.04 -5100.39 -5100.39 -5100.39 -5100.38 -5095.47 -5059.21 -5054.30 -5054.29 -5054.29 -5054.29 -5054.27 -5049.23 -5011.94 -5006.89 -5006.88 -5006.88 -5006.88 -5006.88 -5006.14 -5000.73 -5000.00 -5000.00 -5000.00 -5000.00 -5000.00 -5000.00 -5000.00
-5070.48 -5070.48 -5070.48 -5070.48 -5070.48 -5070.46 -5062.40 -5002.83 -4994.76 -4994.74 -4994.74 -4994.74 -4994.73 -4991.16 -4964.73 -4961.15 -4961.15 -4961.15 -4961.15 -4960.35 -4638.50 -2228.15 -1613.38 -1188.26 -1063.75 -1028.05 -1012.23 -826.87 404.31 615.02 612.95 648.58 687.29 701.97 726.47 828.29 860.19 879.11 901.46 902.37 902.23 865.91 605.64 555.14 540.66 529.81 529.47 527.67 528.09 543.09 547.39 546.79 556.37 586.69 572.30 609.37 847.27 907.48 950.02 968.58 1042.79 946.08 909.72 741.84 696.78 654.98 621.14 589.73 546.82 489.61 318.55 277.71 251.00 240.67 233.05 224.66 213.39 160.20 156.92 164.13 169.98 199.20 200.17 170.26 20.58 16.98 21.96 44.28 69.43 79.09 124.29 214.74 225.21 257.70 297.60 318.34 318.01 299.29 280.82 195.93 189.41 230.28 188.90 192.66 -42.80 -1116.57 -1275.84 -1495.36 -3311.89 -3749.12 -3776.40 -3917.43 -4959.07 -5100.04 -5100.39 -5100.39 -5100.39 -5100.38 -5095.47 -5059.21 -5054.30 -5054.29 -5054.29 -5054.29 -5054.27 -5049.23 -5011.94 -5006.89 -5006.88 -5006.88 -5006.88 -5006.88 -5006.14 -5000.73 -5000.00 -5000.00 -5000.00 -5000.00 -5000.00 -5000.00 -5000.00
-5070.49 -5070.49 -5070.49 -5070.49 -5070.49 -5070.47 -5062.40 -5002.83 -4994.77 -4994.75 -4994.75 -4994.75 -4994.74 -4991.16 -4964.73 -4961.15 -4961.14 -4961.14 -4961.14 -4960.71 -4784.49 -3480.81 -3083.10 -1482.56 -1091.02 -1019.40 -1013.29 -821.01 413.58 612.49 630.78 656.16 692.01 733.40 760.10 855.98 888.90 905.25 904.90 922.18 930.27 869.67 600.29 568.77 544.12 528.55 526.94 532.76 530.99 545.50 539.71 537.80 555.96 574.22 584.78 616.35 856.23 917.27 940.50 961.50 997.47 921.59 869.25 684.44 649.01 635.02 624.06 592.34 555.02 500.40 317.63 271.86 261.22 252.18 241.20 232.63 218.78 167.25 169.12 164.19 164.83 173.15 185.98 184.78 25.79 9.24 21.56 67.29 83.14 99.31 114.41 229.56 241.58 279.21 319.12 381.94 390.79 247.08 231.94 199.94 140.97 221.66 266.33 235.02 -46.49 -1134.89 -1293.20 -1575.76 -3513.08 -3775.04 -3776.47 -3917.49 -4959.06 -5100.02 -5100.37 -5100.37 -5100.37 -5100.36 -5095.45 -5059.17 -5054.26 -5054.25 -5054.25 -5054.25 -5054.24 -5049.19 -5011.91 -5006.86 -5006.85 -5006.85 -5006.85 -5006.85 -5006.12 -5000.73 -5000.00 -5000.00 -5000.00 -5000.00 -5000.00 -5000.00 -5000.00
-5073.01 -5073.01 -5073.01 -5073.01 -5073.01 -5072.99 -5064.75 -5003.86 -4995.62 -4995.60 -4995.60 -4995.60 -4995.59 -4991.91 -4964.70 -4961.02 -4961.01 -4961.01 -4961.01 -4960.65 -4814.99 -3738.20 -3387.79 -1823.95 -1229.71 -1114.28 -1084.10 -887.60 389.43 594.28 619.55 650.15 672.12 722.37 749.87 804.82 825.76 865.86 891.72 903.97 879.13 829.83 570.41 544.93 529.29 496.03 511.84 504.67 504.19 531.44 529.66 531.02 541.85 545.95 542.44 587.88 865.51 919.13 948.03 938.78 904.78 874.23 838.80 663.14 633.29 621.12 599.16 579.75 552.51 516.82 334.15 291.61 282.63 272.37 258.35 248.39 233.35 180.01 181.82 179.78 177.45 180.59 198.94 192.65 61.72 41.95 37.69 54.27 83.33 129.98 129.65 225.48 275.60 320.87 326.99 321.71 378.48 220.26 206.19 138.17 117.13 179.82 256.90 124.74 -75.34 -1172.59 -1368.98 -1823.59 -3548.21 -3632.65 -3782.26 -3942.54 -4955.46 -5092.54 -5092.88 -5092.88 -5092.88 -5092.86 -5087.12 -5044.72 -5038.98 -5038.97 -5038.97 -5038.97 -5038.96 -5034.38 -5000.56 -4995.98 -4995.97 -4995.97 -4995.97 -4995.97 -4996.40 -4999.57 -5000.00 -5000.00 -5000.00 -5000.00 -5000.00 -5000.00 -5000.00
-5091.67 -5091.67 -5091.67 -5091.67 -5091.67 -5091.65 -5082.09 -5011.48 -5001.92 -5001.90 -5001.90 -5001.90 -5001.88 -4997.43 -4964.49 -4960.03 -4960.02 -4960.02 -4960.02 -4959.81 -4872.07 -4223.68 -4111.05 -3711.60 -2048.02 -1680.43 -1607.69 -1384.64 193.03 438.55 474.91 508.35 513.05 525.86 517.77 578.35 601.81 618.95 640.56 652.82 652.33 607.16 429.65 397.69 386.02 354.08 364.99 364.74 369.15 433.32 446.87 441.94 448.39 461.49 447.76 495.90 849.49 893.41 907.55 900.51 884.12 875.98 865.54 753.73 733.95 723.72 684.15 667.75 644.33 595.69 405.16 360.25 347.98 335.60 319.34 307.52 292.12 241.23 239.11 244.55 248.64 246.18 266.76 259.81 188.60 170.88 157.55 168.97 175.05 195.75 220.35 344.68 421.89 466.63 439.53 373.37 364.40 318.59 268.70 217.36 181.63 209.82 259.90 165.17 -50.25 -1370.38 -1666.24 -1987.30 -3392.79 -2534.85 -3822.30 -4127.58 -4928.85 -5037.23 -5037.50 -5037.50 -5037.50 -5037.47 -5025.60 -4937.94 -4926.07 -4926.04 -4926.04 -4926.04 -4926.04 -4924.93 -4916.68 -4915.56 -4915.56 -4915.56 -4915.56 -4915.58 -4924.57 -4990.99 -4999.98 -5000.00 -5000.00 -5000.00 -5000.00 -5000.00 -5000.00
-5094.20 -5094.20 -5094.20 -5094.20 -5094.20 -5094.17 -5084.44 -5012.51 -5002.77 -5002.75 -5002.75 -5002.75 -5002.74 -4998.17 -4964.46 -4959.90 -4959.89 -4959.89 -4959.89 -4959.69 -4879.78 -4289.32 -4208.85 -4008.53 -2469.85 -1787.52 -1667.83 -1459.17 140.89 401.55 449.97 422.47 428.62 452.64 508.99 575.54 632.86 625.96 601.56 614.79 603.90 558.67 390.91 355.40 336.47 315.44 335.37 339.66 347.46 409.92 418.59 415.91 402.86 439.10 450.25 489.16 843.68 865.44 870.94 874.39 898.53 924.80 922.65 841.56 770.31 741.32 731.98 708.79 680.80 616.98 427.42 387.38 372.11 356.38 337.92 324.87 308.66 254.14 252.21 256.73 263.86 261.88 263.28 277.97 193.24 191.33 180.24 180.64 204.93 202.15 228.99 364.64 434.31 452.77 427.16 378.66 354.40 313.27 250.03 219.60 192.91 204.38 169.22 144.72 -50.63 -1411.51 -1676.77 -1733.20 -1949.48 -2053.32 -3807.68 -4152.58 -4925.25 -5029.74 -5030.00 -5030.00 -5030.00 -5029.97 -5017.28 -4923.49 -4910.79 -4910.76 -4910.76 -4910.76 -4910.76 -4910.11 -4905.33 -4904.68 -4904.68 -4904.68 -4904.68 -4904.70 -4914.85 -4989.83 -4999.97 -5000.00 -5000.00 -5000.00 -5000.00 -5000.00 -5000.00
-5094.20 -5094.20 -5094.20 -5094.20 -5094.20 -5094.18 -5084.44 -5012.51 -5002.77 -5002.75 -5002.75 -5002.75 -5002.74 -4998.18 -4964.46 -4959.90 -4959.89 -4959.89 -4959.89 -4959.69 -4879.80 -4289.48 -4209.53 -4185.21 -3773.31 -1986.28 -1709.16 -1481.82 114.75 377.87 387.99 428.89 468.76 526.95 611.26 638.29 661.37 640.42 589.38 560.87 571.90 553.40 381.70 332.33 311.46 309.11 319.89 332.10 342.24 399.82 405.63 397.57 389.46 424.71 420.29 487.63 816.21 860.70 887.64 898.39 920.30 959.71 965.13 876.10 839.52 789.96 793.73 770.81 751.89 667.69 482.64 415.76 390.10 367.56 352.63 337.23 322.99 266.89 276.10 266.66 268.17 269.87 264.60 273.14 190.87 196.83 189.89 185.76 192.15 200.48 237.74 352.39 392.40 402.93 406.09 414.70 365.37 317.04 226.80 222.70 224.72 176.13 187.15 136.41 -54.47 -1421.61 -1618.29 -1626.08 -1689.95 -1987.80 -3803.30 -4152.63 -4925.24 -5029.72 -5029.98 -5029.98 -5029.98 -5029.95 -5017.26 -4923.45 -4910.76 -4910.72 -4910.72 -4910.72 -4910.72 -4910.08 -4905.30 -4904.65 -4904.65 -4904.65 -4904.65 -4904.68 -4914.83 -4989.82 -4999.97 -5000.00 -5000.00 -5000.00 -5000.00 -5000.00 -5000.00
-5094.20 -5094.20 -5094.20 -5094.20 -5094.20 -5094.18 -5084.44 -5012.51 -5002.77 -5002.75 -5002.75 -5002.75 -5002.74 -4998.18 -4964.46 -4959.90 -4959.89 -4959.89 -4959.89 -4959.69 -4879.80 -4289.48 -4209.59 -4208.74 -3967.98 -2167.79 -1742.60 -1492.31 102.20 357.97 392.65 516.97 551.18 671.77 639.25 664.58 637.93 565.38 537.76 535.53 559.93 526.84 362.07 330.02 334.58 314.23 302.34 321.28 330.41 381.74 392.63 404.64 396.95 391.06 415.74 482.86 817.92 855.40 899.21 903.43 932.98 943.45 965.81 851.79 837.57 821.86 807.47 820.46 827.69 784.61 542.29 449.71 413.22 385.11 366.39 351.96 346.45 284.00 276.13 276.03 275.76 279.22 276.27 262.00 190.16 197.37 205.49 197.34 197.42 195.77 226.70 340.13 386.34 391.94 391.34 423.04 375.35 377.68 233.36 200.81 178.07 164.38 154.36 125.93 -63.87 -1400.71 -1595.66 -1635.19 -1704.34 -2025.35 -3808.24 -4152.64 -4925.24 -5029.72 -5029.98 -5029.98 -5029.98 -5029.95 -5017.26 -4923.45 -4910.76 -4910.72 -4910.72 -4910.72 -4910.72 -4910.08 -4905.30 -4904.65 -4904.65 -4904.65 -4904.65 -4904.68 -4914.83 -4989.82 -4999.97 -5000.00 -5000.00 -5000.00 -5000.00 -5000.00 -5000.00
-5094.17 -5094.17 -5094.17 -5094.17 -5094.17 -5094.15 -5084.41 -5012.48 -5002.75 -5002.72 -5002.72 -5002.72 -5002.71 -4998.16 -4964.49 -4959.94 -4959.93 -4959.93 -4959.93 -4959.73 -4879.85 -4289.59 -4209.35 -4208.96 -3984.79 -2289.46 -1773.44 -1505.78 86.46 330.79 382.37 477.81 529.09 578.25 554.98 534.48 547.52 552.81 563.36 544.21 532.18 494.20 351.60 329.18 292.94 275.43 284.46 306.98 308.87 379.19 395.22 405.74 410.74 405.86 424.18 472.26 792.54 832.01 843.21 864.39 891.00 910.53 905.23 787.82 773.76 776.29 789.25 809.01 803.89 754.09 563.40 471.94 429.06 398.90 391.02 371.68 370.24 304.73 286.53 286.88 289.44 290.74 302.66 276.81 183.38 203.00 218.39 206.10 207.45 201.15 231.38 349.18 379.49 382.36 369.44 382.00 390.65 360.63 235.18 235.34 155.89 150.27 135.99 114.94 -71.52 -1388.85 -1564.01 -1624.82 -1708.67 -1980.20 -3802.08 -4152.79 -4925.25 -5029.71 -5029.97 -5029.97 -5029.97 -5029.94 -5017.25 -4923.46 -4910.77 -4910.74 -4910.74 -4910.74 -4910.74 -4910.09 -4905.30 -4904.65 -4904.65 -4904.65 -4904.65 -4904.68 -4914.83 -4989.82 -4999.97 -5000.00 -5000.00 -5000.00 -5000.00 -5000.00 -5000.00
-5080.97 -5080.97 -5080.97 -5080.97 -5080.97 -5080.95 -5071.48 -5001.46 -4991.99 -4991.97 -4991.97 -4991.97 -4991.96 -4990.08 -4976.17 -4974.29 -4974.29 -4974.29 -4974.29 -4974.10 -4900.37 -4332.75 -4110.47 -4257.97 -4081.85 -2554.64 -1955.02 -1614.57 13.45 254.79 299.40 353.82 398.29 419.85 396.13 412.65 425.33 436.48 465.96 467.04 470.39 440.25 344.63 327.01 292.00 287.09 299.61 319.69 329.51 401.22 425.60 440.22 445.96 461.32 455.22 485.48 777.99 813.73 821.81 852.51 902.88 917.85 912.36 782.15 765.79 784.60 785.53 759.88 755.97 707.67 519.06 493.66 431.18 391.93 368.07 357.45 339.50 290.63 294.70 308.25 299.96 296.31 312.37 284.44 200.68 180.07 190.05 207.58 221.76 207.50 231.00 330.86 372.41 359.04 341.74 337.05 346.54 352.36 252.04 253.74 153.91 134.32 124.18 116.13 -59.20 -1439.37 -1634.04 -1704.85 -1767.43 -2297.06 -3909.56 -4218.14 -4928.45 -5024.51 -5024.75 -5024.75 -5024.75 -5024.72 -5013.31 -4929.03 -4917.62 -4917.59 -4917.59 -4917.59 -4917.59 -4916.29 -4906.70 -4905.40 -4905.40 -4905.40 -4905.40 -4905.42 -4915.49 -4989.90 -4999.98 -5000.00 -5000.00 -5000.00 -5000.00 -5000.00 -5000.00
-4983.46 -4983.46 -4983.46 -4983.46 -4983.46 -4983.44 -4975.88 -4920.05 -4912.50 -4912.48 -4912.48 -4912.48 -4912.52 -4930.40 -5062.49 -5080.36 -5080.41 -5080.41 -5080.41 -5080.34 -5051.95 -4651.52 -3356.46 -4451.22 -4770.12 -4429.71 -2968.68 -2178.12 -360.57 -126.48 -93.24 -66.03 -63.24 -56.48 -31.34 51.01 102.11 95.71 113.79 131.29 145.91 185.63 419.13 458.43 466.67 462.71 454.51 470.93 500.98 660.80 683.66 680.86 703.43 711.47 704.26 708.94 770.01 782.27 792.15 828.48 874.36 883.84 872.52 694.87 666.70 676.72 640.45 627.44 629.18 576.96 393.02 344.68 318.86 281.71 261.82 252.94 233.81 187.49 210.99 227.34 225.38 231.87 229.27 222.00 213.01 195.41 203.95 220.63 240.96 235.92 251.72 285.39 320.55 295.00 254.02 252.23 279.22 308.19 304.40 260.10 159.20 136.55 126.71 138.72 -103.68 -1927.34 -2177.39 -2236.17 -2575.08 -4235.43 -4641.10 -4700.86 -4952.09 -4986.08 -4986.17 -4986.17 -4986.17 -4986.16 -4984.25 -4970.12 -4968.20 -4968.20 -4968.20 -4968.20 -4968.18 -4962.09 -4917.03 -4910.93 -4910.92 -4910.92 -4910.92 -4910.94 -4920.43 -4990.49 -4999.98 -5000.00 -5000.00 -5000.00 -5000.00 -5000.00 -5000.00
-4970.26 -4970.26 -4970.26 -4970.26 -4970.26 -4970.24 -4962.95 -4909.03 -4901.74 -4901.72 -4901.72 -4901.72 -4901.77 -4922.32 -5074.17 -5094.72 -5094.77 -5094.77 -5094.77 -5094.71 -5072.52 -4716.55 -3250.47 -3253.17 -4695.09 -4864.26 -4447.37 -2463.10 -423.65 -180.30 -168.39 -158.39 -158.46 -155.34 -129.08 -29.15 7.74 18.11 28.57 54.15 50.21 107.94 419.85 474.00 482.31 485.28 481.60 487.57 501.62 670.71 703.78 716.34 724.46 745.96 721.76 749.91 766.55 774.66 808.68 802.88 823.81 835.11 819.08 631.43 607.94 602.82 587.54 605.33 577.70 541.01 356.93 324.31 298.75 270.60 257.80 247.05 220.39 183.41 211.39 263.61 237.70 254.91 201.03 192.09 204.77 196.49 208.82 229.63 244.92 252.77 276.62 307.64 296.01 265.06 257.58 259.74 308.07 338.48 362.50 203.03 147.76 139.96 140.82 142.49 -129.19 -2037.53 -2295.48 -2440.91 -2920.86 -4526.70 -4740.00 -4766.19 -4955.29 -4980.88 -4980.95 -4980.95 -4980.95 -4980.94 -4980.32 -4975.68 -4975.05 -4975.05 -4975.05 -4975.05 -4975.03 -4968.28 -4918.43 -4911.68 -4911.67 -4911.67 -4911.67 -4911.69 -4921.09 -4990.57 -4999.98 -5000.00 -5000.00 -5000.00 -5000.00 -5000.00 -5000.00
-4970.23 -4970.23 -4970.23 -4970.23 -4970.23 -4970.21 -4962.91 -4909.01 -4901.71 -4901.69 -4901.69 -4901.69 -4901.74 -4922.30 -5074.20 -5094.75 -5094.80 -5094.80 -5094.80 -5094.75 -5073.00 -4888.86 -4500.86 -3261.24 -4673.58 -4889.94 -4684.89 -2879.75 -496.59 -194.91 -185.85 -178.30 -174.99 -171.89 -150.92 -61.86 -38.59 -31.59 -9.71 17.19 42.01 102.35 417.37 454.03 460.78 473.48 481.53 492.00 514.87 685.65 706.34 712.27 703.32 724.04 722.00 738.02 772.78 768.30 789.55 784.56 789.33 799.52 790.66 594.02 571.86 568.95 560.72 563.59 547.07 527.91 349.89 297.48 276.17 266.93 251.07 238.16 222.19 192.67 226.80 296.01 258.12 226.04 181.27 161.06 179.87 183.36 200.40 224.31 241.61 282.33 320.71 337.07 293.22 259.26 245.18 271.03 266.62 271.70 202.60 160.37 135.37 144.41 140.46 119.46 -205.33 -2103.59 -2395.21 -2676.34 -4310.85 -4714.78 -4740.71 -4766.35 -4955.30 -4980.87 -4980.93 -4980.93 -4980.93 -4980.93 -4980.31 -4975.69 -4975.07 -4975.07 -4975.07 -4975.07 -4975.05 -4968.30 -4918.43 -4911.69 -4911.67 -4911.67 -4911.67 -4911.69 -4921.09 -4990.57 -4999.98 -5000.00 -5000.00 -5000.00 -5000.00 -5000.00 -5000.00
-4970.23 -4970.23 -4970.23 -4970.23 -4970.23 -4970.21 -4962.91 -4909.01 -4901.71 -4901.69 -4901.69 -4901.69 -4901.74 -4922.30 -5074.20 -5094.75 -5094.80 -5094.80 -5094.80 -5094.75 -5073.06 -4912.26 -4699.75 -3480.27 -4700.13 -4890.51 -4865.86 -4221.89 -742.14 -226.21 -197.29 -197.24 -191.59 -186.63 -167.51 -78.24 -58.01 -58.28 -37.41 -15.32 9.60 67.63 380.52 426.33 434.83 454.41 472.84 475.73 502.13 671.11 673.03 695.15 707.75 695.75 708.54 728.22 780.94 783.12 780.61 784.23 780.47 798.34 768.31 566.05 538.94 538.12 540.80 523.35 527.46 546.53 348.35 285.65 266.67 267.40 248.42 234.79 231.70 207.24 234.99 264.83 227.53 179.60 150.78 141.81 171.15 182.56 206.13 236.51 290.22 341.01 411.45 375.53 309.79 294.70 293.11 304.32 227.20 192.47 180.80 193.41 142.96 131.01 111.75 39.21 -236.15 -2114.58 -2401.91 -2754.35 -4504.78 -4740.07 -4740.78 -4766.35 -4955.30 -4980.87 -4980.93 -4980.93 -4980.93 -4980.93 -4980.31 -4975.69 -4975.07 -4975.07 -4975.07 -4975.07 -4975.05 -4968.30 -4918.43 -4911.69 -4911.67 -4911.67 -4911.67 -4911.69 -4921.09 -4990.57 -4999.98 -5000.00 -5000.00 -5000.00 -5000.00 -5000.00 -5000.00
-4970.23 -4970.23 -4970.23 -4970.23 -4970.23 -4970.21 -4962.92 -4909.05 -4901.76 -4901.74 -4901.74 -4901.74 -4901.80 -4922.34 -5074.16 -5094.71 -5094.76 -5094.76 -5094.76 -5094.71 -5073.03 -4912.78 -4868.41 -4723.02 -4868.35 -4891.04 -4889.94 -4444.89 -1116.79 -343.46 -248.28 -229.71 -214.06 -200.90 -182.33 -92.93 -70.59 -73.75 -68.66 -61.47 -51.11 0.96 337.03 385.54 399.76 421.67 439.04 459.50 465.82 625.27 668.59 667.81 683.03 686.21 692.54 740.09 783.64 804.74 796.34 782.24 780.32 786.61 746.29 539.19 512.64 502.99 502.79 500.55 517.05 505.55 307.19 265.65 259.84 273.22 248.47 241.36 237.69 216.73 239.77 265.17 195.09 155.13 137.83 132.29 164.92 188.15 227.12 279.17 367.99 483.05 460.71 420.88 326.73 287.40 279.91 198.38 155.29 135.90 137.34 136.04 131.47 114.90 34.89 -16.83 -271.28 -2146.07 -2386.80 -2701.38 -4498.32 -4740.15 -4740.81 -4766.38 -4955.29 -4980.86 -4980.92 -4980.92 -4980.92 -4980.92 -4980.30 -4975.70 -4975.07 -4975.07 -4975.07 -4975.07 -4975.06 -4968.31 -4918.47 -4911.73 -4911.71 -4911.71 -4911.71 -4911.73 -4921.13 -4990.58 -4999.98 -5000.00 -5000.00 -5000.00 -5000.00 -5000.00 -5000.00
-4969.42 -4969.42 -4969.42 -4969.42 -4969.42 -4969.41 -4964.41 -4927.46 -4922.46 -4922.45 -4922.45 -4922.45 -4922.49 -4939.02 -5061.13 -5077.65 -5077.69 -5077.69 -5077.69 -5077.65 -5060.01 -4929.64 -4911.94 -4911.54 -4911.90 -4911.96 -4911.37 -4672.87 -2724.73 -1079.91 -806.50 -586.11 -509.86 -479.25 -433.10 -255.53 -225.53 -221.03 -208.02 -207.60 -199.33 -133.55 278.40 351.02 360.22 378.30 375.31 382.66 406.66 571.03 607.09 620.59 636.12 656.59 650.31 670.26 716.89 733.18 741.07 748.37 710.32 704.91 667.47 494.18 471.72 460.66 461.67 470.59 491.45 452.46 266.97 239.46 240.70 239.97 237.91 240.62 235.58 218.09 230.39 227.02 151.79 130.61 116.24 118.03 146.06 177.14 228.36 327.84 467.89 513.89 394.09 222.39 157.14 157.06 133.22 41.99 -40.67 -59.78 -83.99 -98.95 -108.79 -193.26 -481.03 -585.28 -715.27 -2480.56 -2697.65 -3023.24 -4550.71 -4755.16 -4755.73 -4779.19 -4952.57 -4976.03 -4976.09 -4976.09 -4976.09 -4976.09 -4976.31 -4977.92 -4978.14 -4978.14 -4978.14 -4978.14 -4978.12 -4972.88 -4934.17 -4928.93 -4928.91 -4928.91 -4928.91 -4928.93 -4936.50 -4992.41 -4999.98 -5000.00 -5000.00 -5000.00 -5000.00 -5000.00 -5000.00
-4963.46 -4963.46 -4963.46 -4963.46 -4963.46 -4963.49 -4975.41 -5063.50 -5075.42 -5075.45 -5075.45 -5075.45 -5075.42 -5062.23 -4964.79 -4951.60 -4951.57 -4951.57 -4951.57 -4951.60 -4963.79 -5053.85 -5066.04 -5066.07 -5066.07 -5066.07 -5065.97 -5026.08 -4706.49 -4478.30 -4264.56 -2912.93 -2627.38 -2349.80 -2160.71 -1330.23 -1210.46 -1203.35 -1182.42 -1179.97 -1170.73 -1027.44 -54.95 102.75 117.22 119.43 110.01 119.69 129.16 238.42 260.88 282.99 319.21 364.59 339.40 328.17 326.74 356.80 357.44 352.40 315.54 291.11 285.74 319.84 333.05 324.05 334.62 351.49 343.57 301.85 159.29 138.01 140.00 143.95 150.98 156.02 152.34 132.89 141.79 147.66 73.14 61.76 53.48 51.88 20.93 43.99 90.80 170.15 243.48 291.35 125.61 -991.48 -1159.91 -1091.84 -1339.92 -1394.75 -1409.38 -1456.20 -1708.31 -2002.89 -2138.10 -2353.80 -3708.82 -3900.52 -3964.47 -4544.48 -4620.73 -4660.73 -4841.65 -4865.84 -4865.92 -4873.85 -4932.43 -4940.35 -4940.37 -4940.37 -4940.37 -4940.39 -4946.82 -4994.33 -5000.77 -5000.78 -5000.78 -5000.78 -5000.80 -5006.68 -5050.13 -5056.01 -5056.03 -5056.03 -5056.03 -5056.01 -5050.05 -5005.98 -5000.01 -5000.00 -5000.00 -5000.00 -5000.00 -5000.00 -5000.00
-4962.65 -4962.65 -4962.65 -4962.65 -4962.65 -4962.69 -4976.90 -5081.91 -5096.12 -5096.16 -5096.16 -5096.16 -5096.11 -5078.90 -4951.75 -4934.55 -4934.50 -4934.50 -4934.50 -4934.54 -4950.77 -5070.66 -5086.89 -5086.93 -5086.93 -5086.93 -5086.89 -5070.64 -4950.55 -4933.78 -4909.15 -4726.43 -4503.40 -3063.07 -2476.12 -1492.26 -1352.27 -1344.52 -1333.17 -1325.20 -1310.33 -1158.03 -124.02 60.28 83.10 63.63 52.07 55.09 60.37 168.40 192.57 235.07 254.04 293.78 310.20 296.30 287.66 291.89 286.75 310.36 273.65 235.64 222.23 289.01 295.65 293.02 299.39 322.39 305.69 269.48 140.81 118.86 124.48 139.47 146.27 145.96 140.13 107.56 79.47 66.47 44.22 41.08 36.47 32.59 -6.82 15.56 75.57 106.39 158.25 195.44 61.25 -1147.15 -1285.73 -1501.73 -1575.23 -1601.36 -1673.83 -1984.17 -2547.38 -3730.03 -3883.12 -3898.99 -4078.46 -4112.90 -4175.49 -4614.84 -4854.57 -4880.18 -4880.76 -4880.82 -4880.84 -4886.66 -4929.70 -4935.52 -4935.54 -4935.54 -4935.54 -4935.56 -4942.83 -4996.56 -5003.83 -5003.85 -5003.85 -5003.85 -5003.86 -5011.25 -5065.83 -5073.21 -5073.23 -5073.23 -5073.23 -5073.21 -5065.42 -5007.81 -5000.02 -5000.00 -5000.00 -5000.00 -5000.00 -5000.00 -5000.00
-4962.65 -4962.65 -4962.65 -4962.65 -4962.65 -4962.69 -4976.91 -5081.95 -5096.17 -5096.21 -5096.21 -5096.21 -5096.16 -5078.95 -4951.72 -4934.50 -4934.46 -4934.46 -4934.46 -4934.50 -4950.74 -5070.70 -5086.94 -5086.98 -5086.98 -5086.98 -5086.94 -5070.75 -4951.16 -4934.97 -4934.87 -4934.36 -4908.29 -4529.64 -2943.63 -1581.50 -1399.78 -1375.75 -1358.96 -1325.51 -1317.88 -1170.40 -146.71 16.35 44.35 27.48 21.36 28.28 59.67 172.87 189.80 210.10 239.26 298.96 315.57 306.18 280.76 275.88 277.07 298.88 258.80 223.69 216.28 275.88 288.20 284.19 284.06 309.20 284.68 258.87 136.08 121.12 127.78 143.43 162.24 143.71 151.97 72.60 47.95 39.92 31.67 39.83 28.35 22.42 -17.46 1.63 41.52 65.55 138.52 172.41 124.81 -1087.92 -1286.26 -1540.33 -1588.26 -1678.75 -2282.52 -3487.79 -3699.71 -2666.96 -2425.02 -2309.22 -2286.68 -2351.94 -2454.94 -3031.80 -4460.89 -4852.10 -4880.79 -4880.86 -4880.87 -4886.69 -4929.69 -4935.51 -4935.53 -4935.53 -4935.53 -4935.55 -4942.82 -4996.56 -5003.84 -5003.85 -5003.85 -5003.85 -5003.87 -5011.26 -5065.87 -5073.26 -5073.28 -5073.28 -5073.28 -5073.26 -5065.46 -5007.82 -5000.02 -5000.00 -5000.00 -5000.00 -5000.00 -5000.00 -5000.00
-4962.65 -4962.65 -4962.65 -4962.65 -4962.65 -4962.69 -4976.91 -5081.95 -5096.17 -5096.21 -5096.21 -5096.21 -5096.16 -5078.95 -4951.72 -4934.50 -4934.46 -4934.46 -4934.46 -4934.50 -4950.74 -5070.70 -5086.94 -5086.98 -5086.98 -5086.98 -5086.94 -5070.75 -4951.16 -4934.97 -4934.93 -4934.93 -4934.81 -4908.00 -4380.98 -1844.54 -1437.43 -1429.02 -1403.97 -1344.53 -1322.20 -1175.17 -144.10 45.55 38.88 11.25 34.63 36.59 76.45 224.27 221.06 261.30 276.35 344.02 336.70 317.31 258.26 273.91 283.29 292.31 234.22 207.80 208.46 285.82 292.56 281.57 276.56 285.45 280.38 259.91 137.79 125.19 132.11 146.88 135.75 109.24 84.64 53.64 33.30 24.49 20.03 19.59 23.08 19.80 -19.98 -5.90 15.55 44.09 87.65 167.59 62.77 -1086.93 -1223.97 -1502.13 -1624.99 -2153.80 -3488.00 -2448.83 -2404.78 -2239.44 -2208.12 -2020.02 -1952.35 -1932.65 -2023.43 -2509.21 -2907.13 -4646.69 -4880.28 -4880.86 -4880.87 -4886.69 -4929.69 -4935.51 -4935.53 -4935.53 -4935.53 -4935.55 -4942.82 -4996.56 -5003.84 -5003.85 -5003.85 -5003.85 -5003.87 -5011.26 -5065.87 -5073.26 -5073.28 -5073.28 -5073.28 -5073.26 -5065.46 -5007.82 -5000.02 -5000.00 -5000.00 -5000.00 -5000.00 -5000.00 -5000.00
-4962.63 -4962.63 -4962.63 -4962.63 -4962.63 -4962.67 -4976.89 -5081.95 -5096.17 -5096.20 -5096.20 -5096.20 -5096.16 -5078.94 -4951.72 -4934.50 -4934.46 -4934.46 -4934.46 -4934.50 -4950.73 -5070.66 -5086.89 -5086.93 -5086.93 -5086.93 -5086.89 -5070.71 -4951.19 -4935.02 -4934.98 -4934.98 -4934.98 -4934.13 -4616.35 -2228.58 -1582.41 -1499.94 -1457.41 -1380.16 -1329.49 -1168.09 -141.40 56.43 28.68 -1.57 5.74 24.80 78.43 306.19 290.94 277.53 346.88 479.84 353.80 280.96 220.02 240.94 277.65 284.30 238.42 199.74 198.45 277.10 289.51 287.65 278.33 282.58 287.02 274.27 158.58 134.41 135.67 165.37 149.80 127.64 94.94 46.46 28.14 17.84 14.92 14.10 17.28 16.88 -24.90 -15.60 4.40 32.77 69.05 112.30 38.78 -1120.92 -1239.55 -1413.41 -1807.14 -3616.95 -3810.63 -2289.12 -3491.74 -2449.15 -2165.12 -2044.71 -1942.04 -2111.77 -2237.90 -2719.94 -2896.09 -4641.71 -4880.25 -4880.85 -4880.86 -4886.68 -4929.68 -4935.50 -4935.51 -4935.51 -4935.51 -4935.53 -4942.80 -4996.54 -5003.81 -5003.83 -5003.83 -5003.83 -5003.85 -5011.24 -5065.86 -5073.25 -5073.27 -5073.27 -5073.27 -5073.25 -5065.45 -5007.82 -5000.02 -5000.00 -5000.00 -5000.00 -5000.00 -5000.00 -5000.00
-4955.17 -4955.17 -4955.17 -4955.17 -4955.17 -4955.20 -4969.99 -5079.28 -5094.07 -5094.11 -5094.11 -5094.11 -5094.07 -5076.89 -4949.95 -4932.77 -4932.73 -4932.73 -4932.73 -4932.77 -4947.07 -5052.79 -5067.09 -5067.13 -5067.13 -5067.13 -5067.10 -5054.97 -4965.36 -4953.23 -4953.20 -4953.20 -4953.20 -4952.86 -4816.82 -3643.11 -2222.19 -1889.11 -1632.37 -1515.92 -1425.38 -1264.41 -192.59 -34.33 -29.89 -40.40 -28.69 -1.16 67.63 251.68 343.17 348.30 343.85 371.55 338.41 234.60 187.29 177.98 225.56 246.05 214.38 169.17 179.90 272.01 297.93 291.89 283.50 284.36 284.41 273.14 158.97 118.18 111.69 118.48 113.73 100.19 58.82 26.23 18.36 13.70 11.47 10.41 12.04 6.23 -81.94 -82.30 -64.12 -44.68 -23.40 16.39 -52.94 -1256.74 -1490.81 -1672.48 -2150.85 -3932.62 -3913.53 -2107.05 -2501.11 -2393.63 -2429.38 -2176.33 -2146.92 -2274.24 -2406.96 -2993.77 -3231.34 -4678.62 -4875.16 -4875.64 -4875.66 -4881.43 -4924.08 -4929.86 -4929.87 -4929.87 -4929.87 -4929.89 -4936.81 -4987.93 -4994.85 -4994.87 -4994.87 -4994.87 -4994.89 -5003.07 -5063.53 -5071.71 -5071.73 -5071.73 -5071.73 -5071.71 -5064.07 -5007.65 -5000.02 -5000.00 -5000.00 -5000.00 -5000.00 -5000.00 -5000.00
-4900.00 -4900.00 -4900.00 -4900.00 -4900.00 -4900.04 -4919.06 -5059.58 -5078.60 -5078.64 -5078.64 -5078.64 -5078.60 -5061.71 -4936.92 -4920.03 -4919.99 -4919.99 -4919.99 -4919.99 -4920.08 -4920.74 -4920.83 -4920.83 -4920.83 -4920.83 -4920.87 -4938.65 -5070.02 -5087.80 -5087.84 -5087.84 -5087.84 -5087.74 -5045.77 -4713.20 -4499.55 -4248.45 -2671.92 -2327.61 -2223.26 -2014.42 -506.16 -295.45 -283.85 -279.87 -260.36 -260.60 -187.91 100.45 184.30 167.27 144.93 147.92 93.17 49.65 70.39 107.70 84.49 154.69 137.99 77.40 113.42 249.37 291.72 283.26 277.85 286.13 285.00 268.20 136.43 86.23 78.33 75.82 67.92 63.73 27.01 -3.04 -6.50 -4.47 -7.84 -10.69 -9.93 -59.41 -457.92 -500.14 -485.42 -468.36 -450.63 -423.56 -546.18 -1959.12 -2334.94 -2643.78 -4399.61 -4841.30 -4632.21 -2920.71 -3034.89 -3211.42 -4086.18 -2730.51 -2715.04 -3030.15 -3195.25 -4451.31 -4642.32 -4813.92 -4837.14 -4837.20 -4837.21 -4842.64 -4882.73 -4888.16 -4888.17 -4888.17 -4888.17 -4888.18 -4892.49 -4924.33 -4928.63 -4928.64 -4928.64 -4928.64 -4928.68 -4942.70 -5046.27 -5060.29 -5060.32 -5060.32 -5060.32 -5060.31 -5053.89 -5006.44 -5000.02 -5000.00 -5000.00 -5000.00 -5000.00 -5000.00 -5000.00
-4892.53 -4892.53 -4892.53 -4892.53 -4892.53 -4892.58 -4912.17 -5056.91 -5076.50 -5076.55 -5076.55 -5076.55 -5076.51 -5059.66 -4935.16 -4918.31 -4918.27 -4918.27 -4918.27 -4918.26 -4916.43 -4902.87 -4901.03 -4901.03 -4901.03 -4901.03 -4901.08 -4922.91 -5084.18 -5106.01 -5106.06 -5106.06 -5106.06 -5105.98 -5073.71 -4835.20 -4801.99 -4591.81 -2999.72 -2474.64 -2350.33 -2123.23 -548.16 -337.47 -322.76 -321.57 -317.77 -285.66 -204.24 63.95 151.46 126.39 96.65 63.59 36.79 34.85 75.21 66.24 44.16 111.28 103.98 85.30 95.50 245.90 275.10 269.90 263.83 273.84 271.54 237.63 107.99 83.79 58.85 37.97 32.64 25.98 16.15 -9.24 -12.82 -12.36 -14.33 -17.74 -16.86 -70.89 -508.21 -557.09 -543.93 -522.33 -482.24 -464.98 -582.13 -2074.10 -2495.79 -3114.74 -4749.96 -4964.43 -4772.22 -3512.81 -4563.16 -4584.62 -3482.42 -3269.64 -4515.26 -4726.25 -4736.45 -4820.01 -4831.49 -4831.94 -4832.00 -4832.00 -4832.01 -4837.39 -4877.14 -4882.52 -4882.53 -4882.53 -4882.53 -4882.54 -4886.49 -4915.72 -4919.67 -4919.68 -4919.68 -4919.68 -4919.72 -4934.53 -5043.94 -5058.74 -5058.78 -5058.78 -5058.78 -5058.77 -5052.51 -5006.27 -5000.02 -5000.00 -5000.00 -5000.00 -5000.00 -5000.00 -5000.00
-4892.51 -4892.51 -4892.51 -4892.51 -4892.51 -4892.56 -4912.15 -5056.91 -5076.50 -5076.55 -5076.55 -5076.55 -5076.50 -5059.65 -4935.15 -4918.30 -4918.26 -4918.26 -4918.26 -4918.26 -4916.42 -4902.82 -4900.98 -4900.98 -4900.98 -4900.98 -4901.03 -4922.87 -5084.22 -5106.05 -5106.11 -5106.11 -5106.11 -5106.03 -5073.78 -4835.51 -4803.20 -4777.50 -4377.31 -2751.14 -2426.34 -2130.49 -559.14 -347.97 -328.01 -328.57 -319.52 -270.97 -241.83 33.63 97.43 94.80 83.55 71.28 -3.06 -36.94 17.00 36.13 43.07 31.33 66.51 102.80 92.06 242.94 256.94 254.73 252.00 261.88 253.97 220.13 87.31 75.46 41.39 23.95 23.87 18.62 12.52 -12.54 -16.75 -17.42 -18.75 -20.12 -18.85 -72.57 -510.24 -561.01 -547.28 -516.33 -466.61 -499.74 -698.74 -2168.23 -2702.18 -4513.18 -4939.39 -4965.57 -4942.97 -4795.47 -4926.02 -4924.05 -4755.95 -4751.31 -4923.28 -4946.72 -4934.55 -4844.24 -4832.02 -4831.99 -4831.99 -4831.99 -4832.00 -4837.38 -4877.12 -4882.50 -4882.52 -4882.52 -4882.52 -4882.53 -4886.48 -4915.70 -4919.65 -4919.66 -4919.66 -4919.66 -4919.70 -4934.51 -5043.93 -5058.74 -5058.78 -5058.78 -5058.78 -5058.76 -5052.51 -5006.27 -5000.02 -5000.00 -5000.00 -5000.00 -5000.00 -5000.00 -5000.00
-4892.51 -4892.51 -4892.51 -4892.51 -4892.51 -4892.56 -4912.15 -5056.91 -5076.50 -5076.55 -5076.55 -5076.55 -5076.50 -5059.65 -4935.15 -4918.30 -4918.26 -4918.26 -4918.26 -4918.26 -4916.42 -4902.82 -4900.98 -4900.98 -4900.98 -4900.98 -4901.03 -4922.87 -5084.22 -5106.05 -5106.11 -5106.11 -5106.11 -5106.03 -5073.78 -4835.51 -4803.26 -4802.61 -4598.46 -3078.49 -2725.62 -2215.44 -573.21 -331.72 -346.59 -342.10 -335.22 -315.68 -282.40 -66.04 36.99 78.70 66.47 49.51 -53.80 -82.04 11.13 11.25 40.26 23.57 29.70 97.86 98.16 230.45 246.69 243.97 240.01 241.43 219.09 183.00 58.45 39.88 23.61 19.91 19.28 15.79 9.30 -15.76 -20.26 -21.27 -22.28 -22.32 -20.06 -74.46 -512.91 -559.50 -538.79 -516.58 -525.18 -539.82 -737.89 -2195.18 -2726.52 -4675.21 -4789.52 -4941.99 -4965.63 -4963.37 -4949.26 -4947.30 -4946.88 -4946.87 -4947.30 -4947.33 -4935.04 -4844.30 -4832.02 -4831.99 -4831.99 -4831.99 -4832.00 -4837.38 -4877.12 -4882.50 -4882.52 -4882.52 -4882.52 -4882.53 -4886.48 -4915.70 -4919.65 -4919.66 -4919.66 -4919.66 -4919.70 -4934.51 -5043.93 -5058.74 -5058.78 -5058.78 -5058.78 -5058.76 -5052.51 -5006.27 -5000.02 -5000.00 -5000.00 -5000.00 -5000.00 -5000.00 -5000.00
-4892.53 -4892.53 -4892.53 -4892.53 -4892.53 -4892.58 -4912.16 -5056.88 -5076.46 -5076.51 -5076.51 -5076.51 -5076.47 -5059.62 -4935.15 -4918.30 -4918.26 -4918.26 -4918.26 -4918.26 -4916.42 -4902.87 -4901.04 -4901.03 -4901.03 -4901.03 -4901.08 -4922.92 -5084.22 -5106.06 -5106.11 -5106.11 -5106.11 -5106.03 -5073.79 -4835.57 -4803.33 -4803.19 -4779.02 -4598.07 -4335.79 -2463.76 -642.76 -377.45 -351.48 -353.01 -354.12 -340.62 -290.99 -89.00 -74.09 -5.34 10.55 17.79 -44.72 -89.94 -11.62 -1.35 7.46 33.91 66.11 104.66 81.05 207.43 233.03 251.73 222.43 200.10 200.63 165.94 44.39 21.42 19.38 19.19 18.01 13.77 6.63 -18.60 -23.26 -24.36 -25.35 -25.05 -21.18 -74.74 -511.56 -554.34 -529.61 -498.78 -535.87 -564.28 -759.59 -2285.60 -2947.99 -4552.61 -3668.09 -4789.97 -4965.03 -4963.48 -4948.82 -4946.84 -4946.84 -4946.84 -4946.84 -4946.80 -4934.57 -4844.12 -4831.88 -4831.85 -4831.85 -4831.85 -4831.87 -4837.26 -4877.14 -4882.54 -4882.55 -4882.55 -4882.55 -4882.56 -4886.51 -4915.75 -4919.70 -4919.71 -4919.71 -4919.71 -4919.75 -4934.55 -5043.93 -5058.74 -5058.77 -5058.77 -5058.77 -5058.76 -5052.50 -5006.27 -5000.02 -5000.00 -5000.00 -5000.00 -5000.00 -5000.00 -5000.00
-4900.71 -4900.71 -4900.71 -4900.71 -4900.71 -4900.75 -4917.99 -5045.38 -5062.62 -5062.67 -5062.67 -5062.67 -5062.63 -5047.17 -4932.98 -4917.53 -4917.49 -4917.49 -4917.49 -4917.49 -4918.00 -4921.77 -4922.28 -4922.28 -4922.28 -4922.28 -4922.33 -4941.94 -5086.80 -5106.41 -5106.46 -5106.46 -5106.46 -5106.38 -5077.36 -4862.87 -4833.84 -4833.77 -4833.71 -4832.61 -4569.38 -2457.31 -926.61 -707.65 -654.02 -613.71 -591.90 -586.70 -545.98 -357.44 -332.32 -295.46 -284.48 -271.07 -327.42 -319.59 -92.41 -53.60 -23.38 33.01 67.05 75.67 30.63 180.10 202.13 237.27 232.60 184.33 181.98 171.74 53.11 31.53 28.40 31.63 27.19 20.17 13.20 -9.50 -13.81 -14.30 -14.73 -14.28 -10.17 -59.26 -467.39 -502.66 -478.95 -453.66 -495.32 -557.27 -965.74 -2648.65 -4407.18 -4800.47 -4677.50 -4829.32 -4852.98 -4840.64 -4749.02 -4736.63 -4736.60 -4736.60 -4736.60 -4736.61 -4741.09 -4774.19 -4778.67 -4778.68 -4778.68 -4778.68 -4778.71 -4791.21 -4883.59 -4896.09 -4896.12 -4896.12 -4896.12 -4896.13 -4900.84 -4935.63 -4940.34 -4940.35 -4940.35 -4940.35 -4940.38 -4952.74 -5044.11 -5056.48 -5056.51 -5056.51 -5056.51 -5056.49 -5050.48 -5006.03 -5000.01 -5000.00 -5000.00 -5000.00 -5000.00 -5000.00 -5000.00
-4961.09 -4960.66 -4961.09 -4961.16 -4961.16 -4961.16 -4961.08 -4960.45 -4960.36 -4960.36 -4960.36 -4960.36 -4960.35 -4955.18 -4916.99 -4911.82 -4911.80 -4911.80 -4911.80 -4911.85 -4929.68 -5061.45 -5079.28 -5079.33 -5079.33 -5079.33 -5079.34 -5082.50 -5105.84 -5109.00 -5109.01 -5109.01 -5109.01 -5108.99 -5103.70 -5064.57 -5059.28 -5059.27 -5059.27 -5058.62 -4799.24 -2877.93 -2577.93 -2528.74 -2465.29 -2416.45 -2375.89 -2356.41 -2315.15 -2061.56 -2017.74 -2008.27 -2001.12 -2014.14 -2034.82 -1861.63 -585.96 -406.91 -391.20 -363.94 -358.37 -352.31 -300.98 -68.18 12.41 23.02 31.21 -8.39 -53.97 -17.23 111.83 114.94 95.68 117.39 91.35 80.41 76.22 74.46 73.74 73.34 73.32 74.12 78.19 55.62 -152.96 -153.11 -135.19 -111.67 -160.63 -428.75 -2328.08 -3643.23 -3993.46 -4022.35 -4022.11 -4022.49 -4022.33 -3932.97 -3272.70 -3183.34 -3183.12 -3183.12 -3183.12 -3183.44 -3311.46 -4257.43 -4385.46 -4385.78 -4385.78 -4385.78 -4385.94 -4450.94 -4931.25 -4996.26 -4996.42 -4996.42 -4996.42 -4996.44 -5006.71 -5082.55 -5092.81 -5092.84 -5092.84 -5092.84 -5092.82 -5087.18 -5045.44 -5039.80 -5039.78 -5039.78 -5039.78 -5039.77 -5035.54 -5004.25 -5000.01 -5000.00 -5000.00 -5000.00 -5000.00 -5000.00 -5000.00
-4942.15 -4768.93 -4942.22 -4969.28 -4969.34 -4969.34 -4966.91 -4948.95 -4946.52 -4946.52 -4946.52 -4946.52 -4946.51 -4942.73 -4914.82 -4911.04 -4911.03 -4911.03 -4911.03 -4911.08 -4931.26 -5080.36 -5100.53 -5100.58 -5100.58 -5100.58 -5100.59 -5101.52 -5108.42 -5109.35 -5109.35 -5109.35 -5109.35 -5109.35 -5107.26 -5091.87 -5089.79 -5089.78 -5089.78 -5089.29 -4891.01 -3412.55 -3083.48 -2834.59 -2758.39 -2670.52 -2626.47 -2612.45 -2561.31 -2295.68 -2252.82 -2264.03 -2268.37 -2274.35 -2272.56 -2071.84 -654.40 -459.60 -448.44 -433.73 -418.93 -378.91 -350.88 -118.50 -72.03 3.20 33.60 -10.18 -66.39 -43.72 180.60 127.01 102.58 101.75 96.21 88.57 84.45 85.48 85.28 85.21 85.46 86.51 90.35 70.77 -110.38 -111.79 -99.92 -61.83 -135.67 -621.12 -2540.64 -3773.86 -3909.75 -3910.15 -3910.15 -3910.15 -3909.90 -3810.13 -3072.90 -2973.13 -2972.88 -2972.88 -2972.88 -2973.24 -3117.98 -4187.50 -4332.24 -4332.60 -4332.60 -4332.60 -4332.78 -4404.89 -4937.70 -5009.81 -5009.99 -5009.99 -5009.99 -5010.02 -5021.04 -5102.43 -5113.45 -5113.48 -5113.48 -5113.48 -5113.46 -5105.37 -5045.62 -5037.54 -5037.52 -5037.52 -5037.52 -5037.51 -5033.52 -5004.00 -5000.01 -5000.00 -5000.00 -5000.00 -5000.00 -5000.00 -5000.00
-4768.45 -3488.47 -4768.95 -4968.87 -4969.36 -4969.36 -4966.92 -4948.92 -4946.49 -4946.48 -4946.48 -4946.48 -4946.47 -4942.70 -4914.81 -4911.04 -4911.03 -4911.03 -4911.03 -4911.08 -4931.27 -5080.40 -5100.59 -5100.64 -5100.64 -5100.64 -5100.64 -5101.57 -5108.42 -5109.35 -5109.35 -5109.35 -5109.35 -5109.35 -5107.27 -5091.94 -5089.86 -5089.86 -5089.86 -5089.80 -5066.71 -4890.55 -4616.46 -3029.24 -2760.50 -2663.58 -2639.54 -2604.73 -2563.74 -2305.77 -2266.50 -2271.38 -2271.07 -2270.32 -2274.63 -2087.24 -667.46 -468.33 -454.14 -439.44 -425.05 -397.86 -380.32 -150.13 -118.30 -68.26 -6.42 6.88 -30.33 -71.43 123.47 121.43 107.66 100.87 95.24 88.54 84.12 85.39 85.25 85.26 85.74 86.98 90.42 71.41 -102.70 -112.19 -101.32 -80.71 -337.08 -1993.81 -2726.63 -3774.64 -3909.54 -3909.87 -3909.87 -3909.87 -3909.62 -3809.83 -3072.40 -2972.61 -2972.36 -2972.36 -2972.36 -2972.72 -3117.50 -4187.33 -4332.11 -4332.47 -4332.47 -4332.47 -4332.65 -4404.77 -4937.72 -5009.85 -5010.03 -5010.03 -5010.03 -5010.05 -5021.07 -5102.48 -5113.50 -5113.53 -5113.53 -5113.53 -5113.51 -5105.42 -5045.63 -5037.53 -5037.51 -5037.51 -5037.51 -5037.50 -5033.51 -5004.00 -5000.01 -5000.00 -5000.00 -5000.00 -5000.00 -5000.00 -5000.00
-4942.17 -4768.95 -4942.24 -4969.30 -4969.36 -4969.36 -4966.92 -4948.92 -4946.49 -4946.48 -4946.48 -4946.48 -4946.47 -4942.70 -4914.81 -4911.04 -4911.03 -4911.03 -4911.03 -4911.08 -4931.27 -5080.40 -5100.59 -5100.64 -5100.64 -5100.64 -5100.64 -5101.57 -5108.42 -5109.35 -5109.35 -5109.35 -5109.35 -5109.35 -5107.27 -5091.94 -5089.86 -5089.86 -5089.86 -5089.86 -5089.79 -5085.40 -4821.50 -3032.50 -2636.32 -2594.33 -2608.18 -2604.65 -2561.99 -2305.08 -2269.64 -2271.35 -2272.22 -2276.17 -2287.70 -2093.74 -675.30 -471.74 -459.37 -447.22 -424.17 -421.87 -392.08 -167.49 -142.18 -119.40 -26.45 -41.97 -95.14 -98.10 86.68 135.51 117.08 117.98 98.07 88.93 83.77 85.15 85.12 85.21 85.82 87.50 90.80 70.43 -111.44 -131.32 -117.17 -103.18 -205.44 -897.52 -2578.00 -3774.27 -3909.54 -3909.87 -3909.87 -3909.87 -3909.62 -3809.83 -3072.40 -2972.61 -2972.36 -2972.36 -2972.36 -2972.72 -3117.50 -4187.27 -4331.61 -4331.82 -4331.81 -4331.88 -4332.58 -4404.77 -4937.72 -5009.85 -5010.03 -5010.03 -5010.03 -5010.05 -5021.07 -5102.48 -5113.50 -5113.53 -5113.53 -5113.53 -5113.51 -5105.42 -5045.63 -5037.53 -5037.51 -5037.51 -5037.51 -5037.50 -5033.51 -5004.00 -5000.01 -5000.00 -5000.00 -5000.00 -5000.00 -5000.00 -5000.00
-4969.30 -4968.87 -4969.30 -4969.37 -4969.37 -4969.36 -4966.93 -4948.95 -4946.51 -4946.51 -4946.51 -4946.51 -4946.50 -4942.72 -4914.84 -4911.06 -4911.06 -4911.06 -4911.06 -4911.11 -4931.28 -5080.36 -5100.54 -5100.59 -5100.59 -5100.59 -5100.59 -5101.52 -5108.40 -5109.33 -5109.34 -5109.34 -5109.34 -5109.33 -5107.25 -5091.91 -5089.83 -5089.83 -5089.83 -5089.83 -5089.82 -5085.91 -4843.83 -3196.18 -2679.23 -2628.99 -2617.13 -2624.59 -2571.32 -2307.91 -2274.05 -2271.71 -2271.07 -2284.76 -2291.09 -2089.08 -672.27 -470.81 -459.76 -452.19 -441.42 -436.30 -408.48 -181.11 -147.52 -131.54 -112.23 -110.59 -121.37 -113.55 73.78 108.58 102.12 107.35 96.79 88.76 82.90 84.35 84.64 84.82 85.80 87.80 90.89 69.38 -117.52 -127.50 -115.92 -129.91 -150.41 -452.00 -2517.54 -3773.77 -3909.16 -3909.49 -3909.49 -3909.49 -3909.24 -3809.51 -3072.60 -2972.87 -2972.62 -2972.62 -2972.62 -2972.91 -3117.10 -4163.07 -4128.51 -4071.76 -4066.28 -4094.42 -4304.30 -4404.80 -4937.71 -5009.82 -5010.00 -5010.00 -5010.00 -5010.03 -5021.05 -5102.48 -5113.50 -5113.53 -5113.53 -5113.53 -5113.51 -5105.42 -5045.64 -5037.55 -5037.53 -5037.53 -5037.53 -5037.52 -5033.52 -5004.00 -5000.01 -5000.00 -5000.00 -5000.00 -5000.00 -5000.00 -5000.00
