-10002.13 -10002.13 -10002.13 -10002.13 -10002.13 -10002.13 -10002.00 -10001.03 -10000.90 -10000.90 -10000.90 -10000.90 -10000.89 -9998.93 -9984.44 -9982.47 -9982.47 -9982.47 -9982.47 -9982.47 -9983.74 -9993.09 -9994.36 -9994.36 -9994.36 -9994.36 -9994.36 -9993.20 -9984.64 -9983.48 -9983.48 -9983.48 -9983.48 -9983.48 -9983.38 -9982.61 -9982.51 -9982.51 -9982.51 -9982.51 -9982.51 -9986.15 -10013.03 -10016.67 -10016.68 -10016.68 -10016.68 -10016.67 -10015.18 -10004.15 -10002.66 -10002.66 -10002.66 -10002.66 -10002.66 -10003.83 -10012.48 -10013.65 -10013.65 -10013.65 -10013.65 -10013.64 -10011.22 -9993.27 -9990.84 -9990.83 -9990.83 -9990.83 -9990.83 -9991.89 -9999.71 -10000.77 -10000.77 -10000.77 -10000.77 -10000.17 -9759.71 -7982.93 -7742.47 -7741.88 -7741.74 -7740.60 -7682.89 -6505.30 -776.06 85.36 94.16 71.52 77.56 129.09 -108.09 -1846.86 -2100.54 -2681.74 -6511.21 -7028.36 -7030.56 -7348.37 -9689.31 -10006.10 -10006.89 -10006.89 -10006.89 -10006.88 -10004.35 -9985.59 -9983.06 -9983.05 -9983.05 -9983.05 -9983.05 -9984.45 -9994.79 -9996.19 -9996.19 -9996.19 -9996.19 -9996.19 -9997.25 -10005.06 -10006.12 -10006.12 -10006.12 -10006.12 -10006.12 -10007.20 -10015.13 -10016.20 -10016.20 -10016.20 -10016.20 -10014.88 -9480.90 -5535.30 -5001.32 -5000.00 -5000.00 -5000.00 -5000.00 -5000.00 -5000.00
-10002.13 -10002.13 -10002.13 -10002.13 -10002.13 -10002.13 -10002.00 -10001.03 -10000.90 -10000.90 -10000.90 -10000.90 -10000.89 -9998.93 -9984.44 -9982.48 -9982.47 -9982.47 -9982.47 -9982.48 -9983.74 -9993.09 -9994.36 -9994.36 -9994.36 -9994.36 -9994.36 -9993.15 -9984.21 -9983.00 -9983.00 -9983.00 -9983.00 -9983.00 -9982.85 -9981.79 -9981.64 -9981.64 -9981.64 -9981.64 -9981.65 -9985.35 -10012.63 -10016.33 -10016.33 -10016.33 -10016.33 -10016.33 -10014.87 -10004.08 -10002.62 -10002.62 -10002.62 -10002.62 -10002.62 -10003.80 -10012.47 -10013.64 -10013.64 -10013.64 -10013.64 -10013.64 -10011.19 -9993.14 -9990.70 -9990.69 -9990.69 -9990.69 -9990.70 -9991.67 -9998.83 -9999.80 -9999.80 -9999.80 -9999.80 -9999.21 -9758.77 -7982.17 -7741.60 -7739.91 -7684.77 -7278.49 -6814.10 -3392.26 -279.05 98.92 77.44 92.69 120.64 216.34 -74.72 -1822.70 -2099.44 -2611.46 -6040.80 -6507.89 -6567.04 -7292.50 -9688.91 -10005.88 -10006.66 -10006.66 -10006.66 -10006.66 -10004.15 -9985.58 -9983.06 -9983.06 -9983.06 -9983.06 -9983.06 -9984.46 -9994.79 -9996.19 -9996.20 -9996.20 -9996.20 -9996.20 -9997.26 -10005.06 -10006.11 -10006.11 -10006.11 -10006.11 -10006.12 -10007.19 -10015.13 -10016.20 -10016.21 -10016.21 -10016.21 -10014.88 -9480.90 -5535.30 -5001.32 -5000.00 -5000.00 -5000.00 -5000.00 -5000.00 -5000.00
-10002.08 -10002.08 -10002.08 -10002.08 -10002.08 -10002.08 -10002.04 -10001.72 -10001.67 -10001.67 -10001.67 -10001.67 -10001.67 -9999.86 -9986.49 -9984.68 -9984.68 -9984.68 -9984.68 -9984.68 -9985.63 -9992.65 -9993.60 -9993.60 -9993.60 -9993.60 -9993.55 -9971.65 -9809.82 -9787.92 -9787.86 -9787.86 -9787.86 -9787.82 -9771.47 -9650.63 -9634.28 -9634.24 -9634.24 -9634.24 -9634.30 -9660.31 -9852.48 -9878.49 -9878.55 -9878.55 -9878.55 -9878.58 -9890.26 -9976.58 -9988.26 -9988.29 -9988.29 -9988.29 -9988.29 -9990.64 -10008.01 -10010.36 -10010.36 -10010.36 -10010.36 -10010.34 -10002.29 -9942.83 -9934.78 -9934.76 -9934.76 -9934.76 -9934.67 -9899.95 -9643.38 -9608.66 -9608.57 -9608.57 -9608.57 -9608.00 -9377.41 -7673.31 -7389.80 -7000.21 -6511.75 -3501.58 -3055.58 -2231.61 -14.47 328.37 148.59 268.21 218.17 457.50 89.73 -1532.61 -1771.11 -1852.61 -2267.09 -2363.84 -2848.56 -6639.47 -9579.29 -9915.03 -9915.86 -9915.86 -9915.86 -9915.88 -9923.25 -9977.69 -9985.06 -9985.08 -9985.08 -9985.08 -9985.09 -9986.51 -9997.00 -9998.42 -9998.42 -9998.42 -9998.42 -9998.42 -9999.02 -10003.39 -10003.98 -10003.98 -10003.98 -10003.98 -10003.99 -10005.30 -10014.99 -10016.30 -10016.30 -10016.30 -10016.30 -10014.98 -9480.99 -5535.31 -5001.32 -5000.00 -5000.00 -5000.00 -5000.00 -5000.00 -5000.00
-10001.74 -10001.74 -10001.74 -10001.74 -10001.74 -10001.74 -10002.35 -10006.80 -10007.40 -10007.41 -10007.41 -10007.41 -10007.40 -10006.72 -10001.66 -10000.97 -10000.97 -10000.97 -10000.97 -10000.97 -9999.59 -9989.41 -9988.04 -9988.03 -9988.03 -9988.03 -9987.60 -9812.81 -8521.23 -8346.43 -8346.00 -8346.00 -8346.00 -8345.66 -8209.54 -7203.70 -7067.57 -7067.24 -7067.24 -7067.24 -7067.71 -7258.60 -8669.11 -8860.01 -8860.48 -8860.48 -8860.48 -8860.75 -8969.53 -9773.34 -9882.13 -9882.40 -9882.40 -9882.40 -9882.42 -9893.46 -9975.05 -9986.09 -9986.12 -9986.12 -9986.12 -9985.99 -9936.53 -9571.04 -9521.57 -9521.45 -9521.45 -9521.45 -9520.71 -9222.26 -7016.94 -6718.48 -6717.74 -6717.74 -6717.74 -6717.35 -6559.26 -5338.82 -4406.29 -1455.05 -778.96 -248.36 -149.14 -75.96 283.10 344.37 272.34 236.35 371.84 736.92 824.17 449.31 354.28 390.06 522.49 435.28 -141.55 -4432.76 -8729.88 -9243.61 -9244.88 -9244.88 -9244.88 -9245.08 -9325.47 -9919.47 -9999.85 -10000.05 -10000.05 -10000.05 -10000.06 -10001.63 -10013.28 -10014.86 -10014.86 -10014.86 -10014.86 -10014.86 -10012.02 -9991.08 -9988.24 -9988.24 -9988.24 -9988.24 -9988.24 -9991.31 -10013.94 -10017.00 -10017.01 -10017.01 -10017.01 -10015.69 -9481.62 -5535.39 -5001.32 -5000.00 -5000.00 -5000.00 -5000.00 -5000.00 -5000.00
-10001.70 -10001.70 -10001.70 -10001.70 -10001.70 -10001.70 -10002.39 -10007.49 -10008.18 -10008.18 -10008.18 -10008.18 -10008.18 -10007.65 -10003.71 -10003.18 -10003.18 -10003.18 -10003.18 -10003.17 -10001.48 -9988.98 -9987.28 -9987.28 -9987.28 -9987.28 -9986.80 -9791.31 -8346.84 -8151.35 -8150.87 -8150.87 -8150.87 -8150.49 -7998.15 -6872.54 -6720.21 -6719.83 -6719.83 -6719.83 -6720.36 -6933.57 -8508.96 -8722.17 -8722.70 -8722.70 -8722.70 -8723.00 -8844.92 -9745.84 -9867.76 -9868.06 -9868.06 -9868.06 -9868.09 -9880.31 -9970.59 -9982.81 -9982.84 -9982.84 -9982.84 -9982.70 -9927.63 -9520.72 -9465.65 -9465.52 -9465.52 -9465.52 -9464.69 -9130.54 -6661.49 -6327.34 -6326.51 -6326.38 -6325.42 -6324.74 -6121.18 -4236.12 -1081.63 -56.50 115.19 207.13 287.27 339.72 442.45 550.14 665.40 461.07 520.35 997.39 1169.51 1052.03 1094.41 1146.95 1035.15 1013.08 448.01 -1547.84 -8262.07 -9151.87 -9154.08 -9154.08 -9154.08 -9154.30 -9244.57 -9911.59 -10001.86 -10002.08 -10002.08 -10002.08 -10002.08 -10003.68 -10015.49 -10017.09 -10017.09 -10017.09 -10017.09 -10017.08 -10013.78 -9989.41 -9986.11 -9986.10 -9986.10 -9986.10 -9986.11 -9989.41 -10013.80 -10017.10 -10017.11 -10017.11 -10017.11 -10015.78 -9481.71 -5535.40 -5001.32 -5000.00 -5000.00 -5000.00 -5000.00 -5000.00 -5000.00
-10001.70 -10001.70 -10001.70 -10001.70 -10001.70 -10001.70 -10002.39 -10007.49 -10008.18 -10008.18 -10008.18 -10008.18 -10008.18 -10007.65 -10003.71 -10003.18 -10003.18 -10003.18 -10003.18 -10003.18 -10001.48 -9988.98 -9987.28 -9987.28 -9987.28 -9987.28 -9986.79 -9791.25 -8346.41 -8150.87 -8150.38 -8150.27 -8149.41 -8148.75 -7996.34 -6870.42 -6718.04 -6717.67 -6717.68 -6717.86 -6719.37 -6932.76 -8508.56 -8721.83 -8722.36 -8722.36 -8722.36 -8722.66 -8844.62 -9745.77 -9867.73 -9868.03 -9868.03 -9868.03 -9868.06 -9880.28 -9970.58 -9982.80 -9982.83 -9982.83 -9982.83 -9982.69 -9927.61 -9520.60 -9465.51 -9465.38 -9465.38 -9465.38 -9464.55 -9130.31 -6660.61 -6326.37 -6325.28 -6272.01 -5883.32 -5812.10 -5248.05 -1108.47 -56.83 84.75 138.83 237.99 288.70 369.46 427.57 462.98 503.52 478.90 508.99 806.38 828.20 1121.25 1409.16 1625.67 1180.66 1165.03 665.00 -763.25 -8156.42 -9151.25 -9153.85 -9153.85 -9153.85 -9154.08 -9244.37 -9911.57 -10001.86 -10002.09 -10002.09 -10002.09 -10002.09 -10003.69 -10015.49 -10017.09 -10017.10 -10017.10 -10017.10 -10017.09 -10013.79 -9989.41 -9986.11 -9986.10 -9986.10 -9986.10 -9986.11 -9989.41 -10013.80 -10017.10 -10017.11 -10017.11 -10017.11 -10015.78 -9481.71 -5535.40 -5001.32 -5000.00 -5000.00 -5000.00 -5000.00 -5000.00 -5000.00
-10001.70 -10001.70 -10001.70 -10001.70 -10001.70 -10001.70 -10002.39 -10007.49 -10008.18 -10008.18 -10008.18 -10008.18 -10008.18 -10007.65 -10003.71 -10003.18 -10003.18 -10003.18 -10003.18 -10003.18 -10001.48 -9988.98 -9987.28 -9987.28 -9987.28 -9987.28 -9986.79 -9791.25 -8346.41 -8150.87 -8150.27 -8104.62 -7757.94 -7640.93 -7475.22 -6345.57 -6192.18 -6193.36 -6196.05 -6269.38 -6665.10 -6932.49 -8508.56 -8721.83 -8722.36 -8722.36 -8722.36 -8722.66 -8844.62 -9745.77 -9867.73 -9868.03 -9868.03 -9868.03 -9868.06 -9880.28 -9970.58 -9982.80 -9982.83 -9982.83 -9982.83 -9982.69 -9927.61 -9520.60 -9465.51 -9465.38 -9465.38 -9465.38 -9464.55 -9130.31 -6660.49 -6325.20 -6269.84 -5486.89 -2543.48 -2022.03 -1726.49 -226.16 51.14 93.95 153.50 219.65 213.94 239.56 353.61 422.27 350.44 359.23 325.02 376.66 449.60 990.59 1003.82 974.52 1541.27 1207.29 749.16 -549.24 -7728.85 -9095.10 -9153.58 -9153.85 -9153.85 -9154.08 -9244.37 -9911.57 -10001.86 -10002.09 -10002.09 -10002.09 -10002.09 -10003.69 -10015.49 -10017.09 -10017.10 -10017.10 -10017.10 -10017.09 -10013.79 -9989.41 -9986.11 -9986.10 -9986.10 -9986.10 -9986.11 -9989.41 -10013.80 -10017.10 -10017.11 -10017.11 -10017.11 -10015.78 -9481.71 -5535.40 -5001.32 -5000.00 -5000.00 -5000.00 -5000.00 -5000.00 -5000.00
-10001.69 -10001.69 -10001.69 -10001.69 -10001.69 -10001.69 -10002.38 -10007.49 -10008.18 -10008.18 -10008.18 -10008.18 -10008.18 -10007.65 -10003.72 -10003.18 -10003.18 -10003.18 -10003.18 -10003.18 -10001.49 -9988.98 -9987.29 -9987.28 -9987.28 -9987.28 -9986.80 -9791.16 -8345.63 -8149.99 -8148.54 -7757.01 -4793.53 -3866.95 -3604.04 -2442.00 -2280.33 -2293.22 -2320.60 -2871.01 -5851.92 -6873.53 -8507.05 -8720.53 -8721.06 -8721.06 -8721.06 -8721.36 -8843.30 -9744.33 -9866.27 -9866.57 -9866.57 -9866.57 -9866.60 -9878.83 -9969.17 -9981.40 -9981.43 -9981.43 -9981.43 -9981.29 -9926.23 -9519.34 -9464.27 -9464.13 -9464.13 -9464.13 -9463.30 -9128.91 -6609.92 -5905.14 -5407.67 -2416.06 -1486.62 -1386.64 -1232.68 -130.93 55.64 95.38 156.53 199.79 171.87 190.18 277.96 301.78 277.87 277.85 278.24 293.19 350.30 675.54 854.25 969.80 1480.04 1312.71 1114.31 51.61 -4625.34 -8279.53 -9096.61 -9152.51 -9152.65 -9152.87 -9243.30 -9911.44 -10001.86 -10002.08 -10002.08 -10002.08 -10002.09 -10003.68 -10015.49 -10017.09 -10017.09 -10017.09 -10017.09 -10017.08 -10013.78 -9989.41 -9986.11 -9986.10 -9986.10 -9986.10 -9986.11 -9989.41 -10013.79 -10017.09 -10017.10 -10017.10 -10017.10 -10015.78 -9481.70 -5535.40 -5001.32 -5000.00 -5000.00 -5000.00 -5000.00 -5000.00 -5000.00
-9999.72 -9999.72 -9999.72 -9999.72 -9999.72 -9999.72 -10000.49 -10006.15 -10006.91 -10006.91 -10006.91 -10006.91 -10006.91 -10006.56 -10003.98 -10003.63 -10003.63 -10003.63 -10003.63 -10003.63 -10002.04 -9990.31 -9988.72 -9988.72 -9988.72 -9988.72 -9988.14 -9754.81 -8030.67 -7797.33 -7795.37 -7285.61 -3505.64 -2835.41 -2571.62 -1443.60 -1282.83 -1294.90 -1353.33 -1506.70 -2373.36 -5745.36 -7951.97 -8195.38 -8195.99 -8196.00 -8195.99 -8196.28 -8311.41 -9162.03 -9277.15 -9277.44 -9277.44 -9277.44 -9277.47 -9292.37 -9402.44 -9417.33 -9417.37 -9417.37 -9417.37 -9417.25 -9368.75 -9010.36 -8961.86 -8961.73 -8961.73 -8961.73 -8960.73 -8611.74 -5675.57 -2529.09 -1708.03 -1237.45 -1124.66 -1175.27 -1094.39 -68.89 114.21 145.39 207.93 222.98 193.28 200.51 269.26 278.27 271.22 276.77 288.58 302.99 345.07 568.70 686.12 792.16 963.31 973.85 1048.42 460.92 -3145.06 -4714.82 -8203.80 -8665.38 -8666.66 -8667.01 -8809.03 -9858.37 -10000.38 -10000.73 -10000.73 -10000.73 -10000.74 -10002.26 -10013.51 -10015.04 -10015.04 -10015.04 -10015.04 -10015.03 -10012.16 -9990.93 -9988.06 -9988.05 -9988.05 -9988.05 -9988.06 -9990.95 -10012.32 -10015.21 -10015.22 -10015.22 -10015.22 -10013.90 -9480.02 -5535.20 -5001.32 -5000.00 -5000.00 -5000.00 -5000.00 -5000.00 -5000.00
-9985.14 -9985.14 -9985.14 -9985.14 -9985.14 -9985.14 -9986.46 -9996.22 -9997.55 -9997.55 -9997.55 -9997.55 -9997.55 -9998.55 -10005.94 -10006.94 -10006.95 -10006.95 -10006.95 -10006.94 -10006.14 -10000.17 -9999.36 -9999.36 -9999.36 -9999.36 -9998.09 -9486.15 -5703.45 -5191.40 -5139.95 -4300.06 -706.41 -107.81 126.92 709.35 810.31 831.84 825.00 698.46 495.31 -361.92 -3395.51 -3798.47 -3802.04 -3804.02 -3803.32 -3803.45 -3927.87 -4804.24 -4922.92 -4924.19 -4924.32 -4924.32 -4924.40 -4959.02 -5214.81 -5249.43 -5249.51 -5249.51 -5249.51 -5249.51 -5249.51 -5249.49 -5249.37 -5248.63 -5249.24 -5248.23 -5190.40 -4376.16 -1280.59 4.43 185.01 247.16 316.23 265.74 374.68 406.50 440.06 467.79 494.36 478.89 463.69 463.67 398.15 393.76 392.70 400.98 413.00 428.73 443.20 473.07 533.04 559.93 644.23 797.88 978.27 904.79 473.70 -533.55 -4139.66 -5018.21 -5075.41 -5076.98 -5600.19 -9466.24 -9989.45 -9990.75 -9990.75 -9990.75 -9990.75 -9991.72 -9998.91 -9999.88 -9999.88 -9999.88 -9999.88 -9999.88 -10000.16 -10002.16 -10002.43 -10002.43 -10002.43 -10002.43 -10002.43 -10002.31 -10001.43 -10001.31 -10001.31 -10001.31 -10001.31 -9999.99 -9467.59 -5533.71 -5001.32 -5000.00 -5000.00 -5000.00 -5000.00 -5000.00 -5000.00
-9983.16 -9983.16 -9983.16 -9983.16 -9983.16 -9983.17 -9984.56 -9994.88 -9996.28 -9996.28 -9996.28 -9996.28 -9996.29 -9997.47 -10006.21 -10007.39 -10007.39 -10007.39 -10007.39 -10007.39 -10006.69 -10001.50 -10000.80 -10000.79 -10000.79 -10000.79 -9999.43 -9449.80 -5388.50 -4837.84 -4423.91 -1262.14 8.71 193.56 462.07 1003.89 1100.94 1128.17 1103.55 1084.91 980.36 835.91 648.41 619.01 593.26 578.83 587.74 588.73 83.02 -3349.78 -3887.98 -4281.14 -4334.08 -4335.07 -4335.28 -4372.57 -4648.07 -4685.36 -4685.45 -4685.45 -4685.45 -4685.47 -4692.03 -4740.40 -4700.37 -4401.72 -4645.83 -4295.40 -3806.60 -648.26 242.80 402.86 440.37 469.99 471.19 453.29 551.84 578.67 506.51 503.15 508.51 497.69 486.53 475.23 406.06 401.29 406.98 418.12 432.14 448.04 461.11 453.33 538.57 614.76 707.57 781.18 1016.39 1150.40 768.85 515.05 -557.27 -3718.37 -4532.55 -4590.84 -5165.92 -9413.17 -9987.97 -9989.40 -9989.40 -9989.40 -9989.40 -9990.30 -9996.93 -9997.83 -9997.83 -9997.83 -9997.83 -9997.83 -9998.53 -10003.68 -10004.38 -10004.38 -10004.38 -10004.38 -10004.38 -10003.85 -9999.95 -9999.43 -9999.42 -9999.42 -9999.42 -9998.10 -9465.91 -5533.51 -5001.32 -5000.00 -5000.00 -5000.00 -5000.00 -5000.00 -5000.00
-9983.16 -9983.16 -9983.16 -9983.16 -9983.16 -9983.16 -9984.56 -9994.88 -9996.28 -9996.28 -9996.28 -9996.28 -9996.28 -9997.47 -10006.21 -10007.39 -10007.39 -10007.39 -10007.39 -10007.39 -10006.69 -10001.50 -10000.80 -10000.80 -10000.80 -10000.80 -9999.44 -9449.71 -5387.72 -4836.81 -4359.88 -793.81 76.44 180.48 474.19 1046.43 1143.14 1166.52 1154.00 1119.78 1110.57 1075.67 1224.45 1210.31 1151.79 1150.58 1176.33 1180.90 1064.41 151.03 -536.66 -3431.24 -3937.89 -4286.73 -4332.70 -4370.99 -4646.67 -4683.96 -4683.94 -4683.22 -4683.94 -4683.96 -4689.70 -4737.17 -4352.66 -1792.38 -3492.22 -908.24 -331.24 135.83 435.49 520.41 470.58 458.66 467.60 471.27 526.67 731.25 505.36 489.90 488.18 477.54 477.57 468.79 414.89 406.11 407.28 417.34 429.49 442.49 462.25 456.78 552.20 528.68 595.34 674.49 1060.78 1329.99 1099.91 545.94 354.43 -591.73 -3718.21 -4532.57 -5164.57 -9413.04 -9987.97 -9989.40 -9989.40 -9989.40 -9989.40 -9990.30 -9996.93 -9997.83 -9997.83 -9997.83 -9997.83 -9997.83 -9998.53 -10003.68 -10004.38 -10004.38 -10004.38 -10004.38 -10004.38 -10003.85 -9999.95 -9999.42 -9999.42 -9999.42 -9999.42 -9998.10 -9465.91 -5533.51 -5001.32 -5000.00 -5000.00 -5000.00 -5000.00 -5000.00 -5000.00
-9983.16 -9983.16 -9983.16 -9983.16 -9983.16 -9983.16 -9984.56 -9994.88 -9996.28 -9996.28 -9996.28 -9996.28 -9996.28 -9997.47 -10006.21 -10007.39 -10007.39 -10007.39 -10007.39 -10007.39 -10006.69 -10001.50 -10000.80 -10000.80 -10000.80 -10000.80 -9999.44 -9449.71 -5387.72 -4836.85 -4376.98 -922.71 41.56 189.29 465.55 1045.10 1176.68 1186.12 1186.33 1143.56 1170.68 1194.16 1417.80 1401.60 1346.44 1340.92 1321.80 1305.10 1218.85 662.68 400.35 23.38 -904.78 -3529.39 -3926.72 -4321.50 -4645.27 -4682.60 -4637.29 -4346.76 -4637.22 -4637.08 -4305.48 -4291.26 -3870.19 -871.98 -330.64 41.44 148.52 229.90 454.06 547.11 471.18 454.73 475.31 552.63 585.43 752.01 516.56 474.50 479.17 460.30 467.56 478.87 421.40 430.04 412.68 418.48 430.88 444.66 478.21 484.37 509.20 490.30 534.22 687.21 1108.39 1127.11 1296.58 738.02 550.24 288.51 -582.90 -3715.12 -5107.28 -9412.77 -9987.97 -9989.40 -9989.40 -9989.40 -9989.40 -9990.30 -9996.93 -9997.83 -9997.83 -9997.83 -9997.83 -9997.83 -9998.53 -10003.68 -10004.38 -10004.38 -10004.38 -10004.38 -10004.38 -10003.85 -9999.95 -9999.42 -9999.42 -9999.42 -9999.42 -9998.10 -9465.91 -5533.51 -5001.32 -5000.00 -5000.00 -5000.00 -5000.00 -5000.00 -5000.00
-9983.16 -9983.16 -9983.16 -9983.16 -9983.16 -9983.16 -9984.56 -9994.88 -9996.27 -9996.27 -9996.27 -9996.27 -9996.28 -9997.46 -10006.21 -10007.39 -10007.39 -10007.39 -10007.39 -10007.39 -10006.65 -10001.22 -10000.49 -10000.49 -10000.49 -10000.49 -9999.12 -9449.41 -5387.59 -4836.81 -4403.99 -1128.66 -28.11 187.79 504.94 1084.89 1155.21 1148.84 1120.61 1141.27 1201.11 1246.39 1450.10 1458.70 1426.35 1414.96 1409.30 1399.91 1278.07 749.98 610.00 593.17 423.48 -332.11 -817.84 -3488.88 -4127.12 -4177.84 -3828.41 -1690.69 -3842.28 -3848.63 -1340.84 -924.47 -667.20 -10.12 130.50 184.66 225.16 260.47 468.24 545.37 545.71 497.38 476.77 557.65 688.59 803.29 545.47 499.65 495.40 476.30 479.81 482.51 433.54 423.67 417.78 424.00 436.53 461.20 479.09 454.56 478.29 489.51 559.03 829.57 1013.02 1075.01 997.64 861.92 644.94 455.62 361.51 -564.06 -4307.29 -9358.72 -9987.56 -9989.12 -9989.12 -9989.12 -9989.12 -9990.05 -9996.90 -9997.83 -9997.83 -9997.83 -9997.83 -9997.83 -9998.53 -10003.68 -10004.38 -10004.38 -10004.38 -10004.38 -10004.38 -10003.85 -9999.95 -9999.42 -9999.42 -9999.42 -9999.42 -9998.10 -9465.91 -5533.51 -5001.32 -5000.00 -5000.00 -5000.00 -5000.00 -5000.00 -5000.00
-9984.38 -9984.38 -9984.38 -9984.38 -9984.38 -9984.38 -9985.47 -9993.51 -9994.59 -9994.60 -9994.60 -9994.60 -9994.60 -9995.82 -10004.86 -10006.09 -10006.09 -10006.09 -10006.09 -10006.06 -9992.03 -9888.36 -9874.33 -9874.30 -9874.30 -9874.30 -9872.96 -9332.04 -5335.14 -4793.12 -4346.03 -975.61 59.93 250.61 476.36 1011.00 1108.28 1184.78 1150.28 1183.18 1227.54 1284.23 1506.65 1544.13 1497.35 1493.90 1501.47 1460.75 1325.82 862.69 694.67 648.09 616.43 549.25 476.44 96.84 -261.83 -395.94 -251.61 -33.52 -354.19 -412.22 27.56 75.03 99.59 102.68 161.73 205.33 233.94 260.29 472.94 541.68 644.84 630.91 477.66 495.68 754.73 860.96 601.89 524.69 498.71 478.66 467.49 463.84 408.23 429.28 427.44 424.55 437.75 509.86 533.91 492.05 484.18 513.70 529.49 678.42 655.18 749.88 768.55 646.72 616.20 699.97 616.35 335.01 -1335.69 -8866.38 -9874.06 -9876.56 -9876.56 -9876.56 -9876.59 -9889.54 -9985.18 -9998.13 -9998.16 -9998.16 -9998.16 -9998.16 -9998.59 -10001.77 -10002.20 -10002.21 -10002.21 -10002.21 -10002.20 -10001.83 -9999.03 -9998.65 -9998.65 -9998.65 -9998.65 -9997.33 -9465.22 -5533.43 -5001.32 -5000.00 -5000.00 -5000.00 -5000.00 -5000.00 -5000.00
-9993.35 -9993.35 -9993.35 -9993.35 -9993.35 -9993.35 -9992.16 -9983.38 -9982.20 -9982.19 -9982.19 -9982.19 -9982.20 -9983.72 -9994.95 -9996.47 -9996.47 -9996.47 -9996.47 -9996.19 -9883.93 -9054.43 -8942.17 -8941.89 -8941.89 -8941.89 -8940.71 -8464.72 -4947.62 -4470.26 -3967.81 -241.64 488.51 606.86 764.61 1182.14 1243.44 1303.78 1313.45 1380.20 1398.07 1425.14 1719.38 1721.88 1709.05 1661.53 1643.48 1588.72 1470.77 1023.79 938.40 907.38 805.44 784.46 776.55 754.26 583.75 547.98 510.11 465.00 538.30 518.58 455.49 191.22 126.40 146.88 170.73 187.88 210.95 275.51 341.80 402.43 488.78 460.04 313.90 296.33 627.86 675.18 539.10 464.13 392.22 349.02 313.88 310.86 369.22 384.19 393.63 405.12 414.22 466.25 549.98 519.14 432.42 413.15 405.33 451.24 512.80 610.39 731.60 759.98 803.37 1266.63 764.89 569.08 -737.03 -8056.43 -9042.31 -9044.87 -9044.87 -9044.87 -9045.12 -9146.86 -9898.61 -10000.35 -10000.60 -10000.60 -10000.60 -10000.60 -9999.06 -9987.69 -9986.16 -9986.15 -9986.15 -9986.15 -9986.15 -9986.88 -9992.25 -9992.98 -9992.98 -9992.98 -9992.98 -9991.67 -9460.16 -5532.82 -5001.32 -5000.00 -5000.00 -5000.00 -5000.00 -5000.00 -5000.00
-9994.56 -9994.56 -9994.56 -9994.56 -9994.56 -9994.56 -9993.07 -9982.01 -9980.52 -9980.51 -9980.51 -9980.51 -9980.52 -9982.08 -9993.61 -9995.17 -9995.17 -9995.17 -9995.17 -9994.86 -9869.30 -8941.57 -8816.02 -8815.70 -8815.70 -8815.70 -8814.55 -8347.35 -4894.92 -4372.92 -3507.71 62.77 652.62 743.89 878.46 1248.58 1283.26 1283.65 1337.96 1388.98 1418.43 1468.00 1776.96 1763.71 1710.72 1672.15 1682.55 1656.62 1507.76 1055.73 986.03 967.50 929.57 909.90 868.10 839.26 670.39 625.96 606.98 590.85 599.76 612.42 536.52 211.07 138.24 171.17 188.70 203.14 222.71 303.85 413.03 483.22 444.75 386.31 316.80 345.00 627.48 569.21 563.63 532.99 454.17 403.76 368.84 320.43 381.44 382.60 394.78 406.44 440.03 464.04 533.88 511.45 402.77 359.74 370.01 418.84 543.25 627.55 709.10 684.72 946.77 1444.30 1233.37 653.92 -581.43 -7574.14 -8879.77 -8932.19 -8932.31 -8932.31 -8932.60 -9046.35 -9886.90 -10000.65 -10000.93 -10000.93 -10000.93 -10000.93 -9999.12 -9985.79 -9983.98 -9983.98 -9983.98 -9983.98 -9983.98 -9984.86 -9991.34 -9992.21 -9992.22 -9992.22 -9992.22 -9990.90 -9459.47 -5532.74 -5001.32 -5000.00 -5000.00 -5000.00 -5000.00 -5000.00 -5000.00
-9994.57 -9994.57 -9994.57 -9994.57 -9994.57 -9994.56 -9993.07 -9982.01 -9980.51 -9980.51 -9980.51 -9980.51 -9980.51 -9982.07 -9993.60 -9995.16 -9995.17 -9995.17 -9995.17 -9994.86 -9869.27 -8941.29 -8815.70 -8815.39 -8815.39 -8815.39 -8814.23 -8346.82 -4844.74 -3623.32 -544.96 540.38 783.05 814.50 907.12 1274.24 1331.14 1369.02 1365.85 1373.82 1412.22 1455.77 1748.04 1770.99 1677.67 1689.80 1665.52 1650.25 1514.29 1068.06 1003.69 989.35 971.93 963.05 951.57 923.04 758.46 679.02 647.40 641.07 636.67 629.56 573.33 205.63 179.97 193.77 223.58 251.09 289.05 311.98 398.92 435.31 357.90 317.22 316.21 301.62 565.41 567.90 406.65 414.71 383.20 379.98 435.37 381.28 477.51 401.60 401.92 408.48 499.99 514.36 512.09 465.04 404.11 342.32 345.44 384.72 499.77 677.87 639.45 607.87 765.24 1231.94 1335.57 685.22 -115.19 -4786.47 -8502.91 -8930.85 -8932.04 -8932.04 -8932.32 -9046.10 -9886.87 -10000.65 -10000.93 -10000.93 -10000.93 -10000.93 -9999.12 -9985.78 -9983.98 -9983.97 -9983.97 -9983.97 -9983.98 -9984.85 -9991.33 -9992.21 -9992.21 -9992.21 -9992.21 -9990.90 -9459.47 -5532.74 -5001.32 -5000.00 -5000.00 -5000.00 -5000.00 -5000.00 -5000.00
-9994.57 -9994.57 -9994.57 -9994.57 -9994.57 -9994.56 -9993.07 -9982.01 -9980.51 -9980.51 -9980.51 -9980.51 -9980.51 -9982.07 -9993.60 -9995.16 -9995.17 -9995.17 -9995.17 -9994.86 -9869.27 -8941.29 -8815.70 -8815.39 -8815.39 -8815.39 -8814.11 -8297.98 -4126.41 -807.29 412.96 707.56 838.75 871.22 934.87 1262.36 1353.61 1395.00 1377.84 1395.84 1417.68 1483.97 1789.03 1743.60 1717.48 1721.32 1699.42 1685.38 1553.67 1083.67 1024.11 1014.34 999.25 996.58 994.74 972.62 813.33 781.12 765.61 749.80 734.28 713.47 657.96 311.06 253.04 262.59 308.25 333.79 316.21 330.76 342.65 351.72 343.22 310.62 291.05 263.75 420.79 522.16 325.47 303.26 301.87 338.28 474.73 393.84 473.53 420.44 398.43 397.98 436.60 543.71 509.72 413.22 374.69 324.64 319.91 339.12 396.92 504.61 654.91 679.79 838.79 1158.26 1356.83 1347.60 537.38 -3943.98 -8005.87 -8876.62 -8931.90 -8932.04 -8932.32 -9046.10 -9886.87 -10000.65 -10000.93 -10000.93 -10000.93 -10000.93 -9999.12 -9985.78 -9983.98 -9983.97 -9983.97 -9983.97 -9983.98 -9984.85 -9991.33 -9992.21 -9992.21 -9992.21 -9992.21 -9990.90 -9459.47 -5532.74 -5001.32 -5000.00 -5000.00 -5000.00 -5000.00 -5000.00 -5000.00
-9994.57 -9994.57 -9994.57 -9994.57 -9994.57 -9994.57 -9993.07 -9982.01 -9980.52 -9980.51 -9980.51 -9980.51 -9980.52 -9982.08 -9993.60 -9995.16 -9995.17 -9995.17 -9995.17 -9994.86 -9869.19 -8940.62 -8814.96 -8814.64 -8814.64 -8814.64 -8812.33 -7933.43 -1339.99 349.79 551.58 686.75 818.01 874.37 920.12 1314.25 1356.89 1403.80 1435.15 1415.86 1450.95 1457.47 1765.19 1780.88 1758.23 1743.43 1737.14 1681.07 1585.38 1115.69 1043.51 1034.74 1028.76 1026.99 1029.93 1002.72 847.94 818.16 807.99 792.93 779.81 759.72 692.20 325.37 281.24 337.63 331.72 355.18 376.50 353.84 338.27 356.95 336.46 339.13 322.75 257.18 373.12 563.76 301.67 242.78 267.28 302.73 387.21 379.88 502.37 461.94 407.99 399.84 408.43 455.33 458.74 334.49 331.51 304.96 302.66 306.59 326.25 378.56 552.69 857.29 951.65 1112.33 1467.14 952.49 191.97 -3493.57 -5032.55 -8475.72 -8930.74 -8931.87 -8932.15 -9045.96 -9886.85 -10000.65 -10000.94 -10000.94 -10000.94 -10000.93 -9999.13 -9985.79 -9983.99 -9983.98 -9983.98 -9983.98 -9983.98 -9984.86 -9991.33 -9992.21 -9992.21 -9992.21 -9992.21 -9990.90 -9459.47 -5532.74 -5001.32 -5000.00 -5000.00 -5000.00 -5000.00 -5000.00 -5000.00
-9996.01 -9996.01 -9996.01 -9996.01 -9996.01 -9996.00 -9994.52 -9983.56 -9982.08 -9982.07 -9982.07 -9982.07 -9982.08 -9983.48 -9993.87 -9995.28 -9995.28 -9995.28 -9995.28 -9994.89 -9837.10 -8671.18 -8513.39 -8513.00 -8512.88 -8511.86 -8453.82 -7138.87 -394.67 575.01 656.84 761.80 904.79 921.97 958.30 1371.13 1370.21 1387.25 1492.44 1460.47 1430.67 1448.58 1693.71 1706.04 1714.68 1683.72 1721.22 1682.63 1590.82 1151.78 1045.43 1047.16 1046.70 1045.13 1047.45 1026.04 902.76 870.35 858.52 841.32 830.17 814.10 747.45 375.72 333.39 375.72 385.94 356.57 370.81 373.78 324.04 335.21 300.25 289.78 255.26 255.07 482.24 681.52 372.26 222.33 243.04 281.72 298.05 344.75 419.72 431.55 406.98 389.09 387.55 410.94 386.21 284.99 278.90 280.62 285.58 291.76 304.26 336.89 469.40 616.60 747.44 915.80 1238.15 1075.79 109.12 -3400.88 -4461.42 -8339.92 -8864.35 -8865.78 -8866.08 -8987.04 -9880.85 -10001.81 -10002.11 -10002.11 -10002.11 -10002.11 -10000.43 -9988.00 -9986.32 -9986.32 -9986.32 -9986.32 -9986.32 -9986.91 -9991.32 -9991.91 -9991.92 -9991.92 -9991.92 -9990.60 -9459.20 -5532.71 -5001.32 -5000.00 -5000.00 -5000.00 -5000.00 -5000.00 -5000.00
-10006.61 -10006.61 -10006.61 -10006.61 -10006.61 -10006.61 -10005.23 -9994.99 -9993.61 -9993.60 -9993.60 -9993.60 -9993.61 -9993.87 -9995.87 -9996.14 -9996.14 -9996.14 -9996.14 -9995.16 -9600.01 -6680.26 -6285.11 -6283.90 -6235.76 -5879.88 -5377.30 -2024.45 514.77 851.59 1032.78 1063.57 1152.74 1131.09 1236.78 1462.87 1545.74 1587.32 1588.12 1584.45 1576.49 1543.58 1431.52 1427.75 1429.04 1409.35 1474.80 1448.70 1417.63 1110.00 1010.81 972.37 976.95 988.84 992.07 1003.13 1107.56 1108.39 1092.79 1082.23 1058.28 1051.02 985.10 614.76 514.15 540.02 525.03 522.61 500.05 470.12 258.72 211.55 161.92 157.27 104.41 153.84 200.44 356.95 530.91 138.57 102.99 146.43 179.27 176.87 206.40 236.76 272.68 249.73 222.33 226.55 228.81 208.02 206.64 211.58 217.94 229.39 233.78 246.20 264.65 319.42 432.19 573.21 823.20 931.85 -20.05 -2954.89 -3844.63 -7439.41 -8321.48 -8377.28 -8377.85 -8551.72 -9836.50 -10010.38 -10010.81 -10010.81 -10010.81 -10010.81 -10010.04 -10004.34 -10003.57 -10003.57 -10003.57 -10003.57 -10003.57 -10002.09 -9991.19 -9989.72 -9989.71 -9989.71 -9989.71 -9988.40 -9457.24 -5532.48 -5001.32 -5000.00 -5000.00 -5000.00 -5000.00 -5000.00 -5000.00
-10008.05 -10008.05 -10008.05 -10008.05 -10008.05 -10008.05 -10006.68 -9996.54 -9995.17 -9995.16 -9995.16 -9995.16 -9995.17 -9995.28 -9996.14 -9996.25 -9996.25 -9996.25 -9996.25 -9995.20 -9567.93 -6410.81 -5983.43 -5934.60 -5235.25 -2535.92 -1761.95 -914.82 670.60 1056.53 1129.15 1137.41 1173.79 1179.60 1244.28 1487.86 1584.64 1632.00 1631.38 1645.14 1599.65 1583.58 1451.02 1395.39 1423.75 1405.13 1444.53 1429.70 1392.19 1150.10 1025.80 970.40 959.68 967.51 973.09 1001.89 1147.09 1154.06 1146.10 1139.60 1114.60 1116.25 1074.54 613.51 541.40 545.67 540.69 525.04 513.03 480.04 257.47 206.52 140.00 110.15 65.20 104.01 116.69 167.81 187.34 79.10 86.57 136.70 197.30 198.48 186.84 182.50 225.44 239.80 212.68 221.12 225.26 218.47 212.01 210.43 218.64 229.40 235.62 236.34 229.83 268.37 313.18 382.45 637.18 826.07 188.28 -2808.00 -3265.89 -4381.81 -7852.40 -8310.19 -8311.77 -8492.81 -9830.50 -10011.54 -10011.99 -10011.99 -10011.99 -10011.98 -10011.34 -10006.55 -10005.91 -10005.91 -10005.91 -10005.91 -10005.90 -10004.15 -9991.17 -9989.42 -9989.41 -9989.41 -9989.41 -9988.10 -9456.97 -5532.44 -5001.32 -5000.00 -5000.00 -5000.00 -5000.00 -5000.00 -5000.00
-10008.05 -10008.05 -10008.05 -10008.05 -10008.05 -10008.05 -10006.68 -9996.54 -9995.17 -9995.17 -9995.17 -9995.17 -9995.17 -9995.28 -9996.14 -9996.25 -9996.26 -9996.26 -9996.26 -9995.20 -9567.85 -6410.15 -5981.70 -5584.96 -2590.11 -1566.28 -1129.12 -835.43 721.19 1065.06 1119.66 1156.69 1168.97 1229.23 1319.58 1540.31 1610.29 1644.38 1640.89 1641.50 1622.29 1609.17 1427.60 1441.26 1448.08 1453.91 1472.50 1449.45 1390.92 1148.36 1063.96 1033.85 974.06 987.29 984.55 1010.41 1171.49 1197.74 1212.36 1200.33 1186.17 1172.12 1110.86 667.14 571.79 550.43 534.27 522.62 513.61 476.65 211.75 164.44 122.62 63.57 27.27 41.14 67.99 98.15 84.87 70.17 87.24 139.55 183.34 200.86 173.56 177.70 207.01 246.78 227.75 230.87 256.49 233.89 224.43 220.43 229.29 241.43 255.52 252.49 239.34 253.73 284.67 379.39 499.56 582.76 336.52 -2786.72 -3290.71 -3966.83 -7794.59 -8309.88 -8311.61 -8492.66 -9830.48 -10011.54 -10011.99 -10011.99 -10011.99 -10011.99 -10011.34 -10006.56 -10005.91 -10005.91 -10005.91 -10005.91 -10005.91 -10004.15 -9991.17 -9989.42 -9989.41 -9989.41 -9989.41 -9988.10 -9456.97 -5532.44 -5001.32 -5000.00 -5000.00 -5000.00 -5000.00 -5000.00 -5000.00
-10008.05 -10008.05 -10008.05 -10008.05 -10008.05 -10008.05 -10006.68 -9996.54 -9995.17 -9995.17 -9995.17 -9995.17 -9995.17 -9995.28 -9996.14 -9996.25 -9996.26 -9996.26 -9996.26 -9995.20 -9567.85 -6410.03 -5934.13 -5169.72 -2029.18 -1247.17 -1092.14 -822.22 807.72 1070.61 1116.27 1126.55 1175.00 1237.37 1318.37 1573.63 1613.79 1648.58 1700.65 1706.78 1640.27 1644.10 1487.96 1465.95 1451.52 1506.50 1501.90 1449.14 1393.52 1183.37 1130.84 1086.14 1082.54 1099.97 1080.30 1077.78 1219.25 1235.79 1247.45 1282.63 1259.89 1220.98 1163.14 699.08 598.96 586.00 550.75 536.19 551.79 499.73 187.54 148.70 121.34 64.49 23.03 26.58 50.22 83.64 73.13 68.33 77.82 117.58 156.92 163.33 177.69 191.66 208.26 244.04 243.37 243.50 274.27 254.50 242.92 240.25 249.61 265.91 272.17 278.24 301.92 298.06 318.78 390.01 443.74 540.78 96.20 -2839.13 -3299.22 -3964.07 -7794.10 -8309.88 -8311.61 -8492.66 -9830.48 -10011.54 -10011.99 -10011.99 -10011.99 -10011.99 -10011.34 -10006.56 -10005.91 -10005.91 -10005.91 -10005.91 -10005.91 -10004.15 -9991.17 -9989.42 -9989.41 -9989.41 -9989.41 -9988.10 -9456.97 -5532.44 -5001.32 -5000.00 -5000.00 -5000.00 -5000.00 -5000.00 -5000.00
-10008.06 -10008.06 -10008.06 -10008.06 -10008.06 -10008.05 -10006.68 -9996.54 -9995.17 -9995.17 -9995.17 -9995.17 -9995.17 -9995.28 -9996.14 -9996.26 -9996.26 -9996.26 -9996.26 -9995.20 -9567.88 -6409.31 -5580.09 -2539.91 -1531.19 -1166.18 -1060.78 -764.30 786.27 1058.15 1128.28 1149.60 1167.78 1270.50 1323.00 1597.50 1657.02 1705.35 1709.32 1688.08 1707.13 1640.98 1468.08 1456.80 1522.50 1510.10 1455.79 1410.55 1346.20 1158.21 1161.68 1137.24 1144.13 1145.39 1110.55 1147.97 1282.20 1307.76 1280.04 1349.90 1298.71 1320.19 1250.19 737.73 634.92 626.02 595.20 563.10 592.73 493.62 191.62 136.20 93.35 42.79 21.64 30.60 52.36 75.13 68.79 69.06 78.97 113.16 156.99 139.93 217.12 230.97 211.98 227.28 241.65 262.96 277.77 274.05 267.64 273.38 283.50 301.82 309.58 313.07 332.12 331.21 339.72 404.02 411.40 483.58 84.23 -2702.87 -3307.47 -3985.91 -7796.46 -8309.72 -8311.44 -8492.51 -9830.46 -10011.54 -10011.99 -10011.99 -10011.99 -10011.98 -10011.34 -10006.55 -10005.91 -10005.90 -10005.90 -10005.90 -10005.90 -10004.14 -9991.17 -9989.42 -9989.41 -9989.41 -9989.41 -9988.09 -9456.97 -5532.44 -5001.32 -5000.00 -5000.00 -5000.00 -5000.00 -5000.00 -5000.00
-10009.22 -10009.22 -10009.22 -10009.22 -10009.22 -10009.22 -10007.71 -9996.56 -9995.05 -9995.04 -9995.04 -9995.04 -9995.04 -9995.36 -9997.69 -9998.00 -9998.00 -9998.00 -9998.00 -9996.98 -9582.73 -6473.00 -5272.34 -2030.42 -1321.72 -1214.16 -1119.48 -861.20 747.74 1063.65 1150.73 1170.33 1187.94 1257.21 1382.08 1669.74 1648.36 1675.09 1706.50 1713.80 1712.87 1676.38 1481.69 1500.08 1509.85 1512.02 1449.70 1437.48 1360.50 1214.67 1188.44 1157.98 1161.94 1176.48 1182.53 1143.67 1355.01 1381.21 1359.36 1395.82 1358.03 1406.88 1326.65 888.39 772.95 737.72 698.53 658.86 665.31 549.48 210.02 139.40 100.55 61.00 50.92 56.40 74.38 82.76 70.33 71.91 86.59 115.31 152.23 126.20 171.79 201.48 244.24 236.95 261.22 299.53 294.26 300.54 307.63 318.81 335.11 357.46 370.12 335.13 335.47 333.22 351.98 398.62 439.07 620.63 107.90 -2472.13 -3209.59 -3902.46 -7726.43 -8241.67 -8243.42 -8431.60 -9822.12 -10010.30 -10010.77 -10010.77 -10010.77 -10010.77 -10009.96 -10004.01 -10003.21 -10003.21 -10003.21 -10003.21 -10003.20 -10001.66 -9990.28 -9988.74 -9988.74 -9988.74 -9988.74 -9987.42 -9456.37 -5532.37 -5001.32 -5000.00 -5000.00 -5000.00 -5000.00 -5000.00 -5000.00
-10017.83 -10017.83 -10017.83 -10017.83 -10017.83 -10017.82 -10015.30 -9996.64 -9994.11 -9994.11 -9994.11 -9994.11 -9994.11 -9995.90 -10009.09 -10010.87 -10010.88 -10010.88 -10010.88 -10010.09 -9692.39 -6945.85 -3526.06 -2356.52 -2163.38 -2072.12 -2022.41 -1698.50 750.44 1168.59 1257.90 1303.74 1353.99 1362.64 1437.46 1649.61 1662.30 1716.77 1777.73 1786.08 1715.96 1691.55 1393.94 1359.58 1342.48 1325.60 1316.27 1320.89 1277.65 1198.16 1167.30 1144.68 1178.06 1190.21 1161.72 1155.65 1582.76 1560.05 1570.90 1607.59 1627.19 1626.77 1576.69 1385.74 1335.18 1276.37 1241.42 1188.58 1170.20 1040.73 431.78 365.04 270.79 218.81 211.71 210.58 192.54 88.34 86.11 72.45 76.36 117.22 148.11 143.86 168.06 175.31 209.72 246.23 220.88 254.26 279.02 338.52 368.93 414.35 436.71 461.13 456.98 404.27 380.04 397.44 393.34 427.56 515.50 558.15 189.54 -2155.40 -2715.80 -3329.78 -7213.27 -7738.77 -7740.79 -7981.54 -9760.43 -10001.18 -10001.78 -10001.78 -10001.78 -10001.77 -9999.80 -9985.24 -9983.27 -9983.26 -9983.26 -9983.26 -9983.26 -9983.32 -9983.72 -9983.78 -9983.78 -9983.78 -9983.78 -9982.47 -9451.94 -5531.84 -5001.32 -5000.00 -5000.00 -5000.00 -5000.00 -5000.00 -5000.00
-10018.99 -10018.99 -10018.99 -10018.99 -10018.99 -10018.99 -10016.33 -9996.65 -9993.99 -9993.98 -9993.98 -9993.98 -9993.98 -9995.97 -10010.63 -10012.62 -10012.62 -10012.62 -10012.62 -10011.87 -9707.13 -7014.17 -3326.57 -2396.76 -2271.95 -2199.63 -2164.71 -1799.69 759.21 1182.49 1265.37 1315.09 1364.18 1394.58 1434.86 1601.52 1662.96 1708.68 1787.41 1770.55 1755.50 1701.32 1389.93 1322.86 1300.52 1290.43 1268.65 1258.84 1219.54 1193.79 1191.82 1205.69 1151.05 1194.78 1194.51 1184.01 1609.53 1618.89 1674.10 1716.78 1731.52 1715.75 1686.45 1509.05 1476.04 1435.05 1368.42 1302.79 1240.93 1086.07 450.45 337.07 275.98 247.77 245.41 239.09 213.68 75.28 66.74 68.30 67.96 97.03 133.25 137.39 168.91 205.80 212.30 272.99 238.81 275.97 309.57 373.90 394.47 462.68 527.95 525.31 507.88 462.26 459.68 433.77 408.10 439.48 489.58 464.86 30.30 -2294.65 -2670.23 -3200.18 -6756.01 -7618.21 -7672.64 -7920.63 -9752.08 -9999.94 -10000.56 -10000.56 -10000.56 -10000.55 -9998.42 -9982.69 -9980.57 -9980.56 -9980.56 -9980.56 -9980.56 -9980.83 -9982.84 -9983.11 -9983.11 -9983.11 -9983.11 -9981.79 -9451.34 -5531.77 -5001.31 -5000.00 -5000.00 -5000.00 -5000.00 -5000.00 -5000.00
-10019.00 -10019.00 -10019.00 -10019.00 -10019.00 -10018.99 -10016.33 -9996.65 -9993.99 -9993.98 -9993.98 -9993.98 -9993.98 -9995.97 -10010.64 -10012.62 -10012.63 -10012.63 -10012.63 -10011.76 -9661.69 -6665.54 -3185.76 -2389.53 -2248.11 -2180.83 -2151.63 -1777.27 777.98 1186.18 1227.77 1314.65 1390.84 1457.32 1497.34 1642.34 1719.43 1761.02 1800.20 1788.78 1773.02 1703.36 1385.89 1302.72 1268.71 1268.23 1269.76 1266.05 1229.47 1166.17 1195.03 1194.56 1194.44 1208.85 1178.58 1227.42 1639.98 1684.11 1733.43 1796.06 1832.69 1783.61 1749.89 1572.93 1532.16 1484.92 1405.88 1312.33 1245.43 1106.89 478.16 367.65 287.23 265.69 260.33 244.94 219.06 77.97 63.20 72.48 84.65 144.60 154.00 130.86 150.16 249.84 198.26 219.07 256.54 297.24 347.80 403.16 426.45 507.27 582.27 629.29 625.93 551.73 495.42 384.57 389.63 411.41 350.25 275.96 -27.97 -2300.74 -2668.38 -2848.05 -4268.60 -7281.72 -7671.64 -7920.48 -9752.06 -9999.94 -10000.56 -10000.56 -10000.56 -10000.55 -9998.42 -9982.69 -9980.56 -9980.55 -9980.55 -9980.55 -9980.55 -9980.83 -9982.83 -9983.11 -9983.11 -9983.11 -9983.11 -9981.79 -9451.34 -5531.77 -5001.31 -5000.00 -5000.00 -5000.00 -5000.00 -5000.00 -5000.00
-10019.00 -10019.00 -10019.00 -10019.00 -10019.00 -10018.99 -10016.33 -9996.65 -9993.99 -9993.98 -9993.98 -9993.98 -9993.98 -9995.97 -10010.64 -10012.62 -10012.63 -10012.63 -10012.63 -10011.04 -9370.76 -4575.38 -3349.26 -2499.04 -2250.01 -2178.62 -2146.93 -1760.52 817.95 1255.07 1250.97 1322.24 1399.66 1429.01 1471.84 1629.85 1687.46 1725.30 1770.00 1771.82 1771.60 1725.16 1398.25 1323.46 1294.57 1272.87 1272.18 1268.55 1256.18 1188.53 1183.92 1182.70 1201.84 1262.49 1233.68 1295.56 1680.81 1789.00 1874.03 1911.16 2059.58 1866.21 1817.95 1662.87 1597.20 1513.66 1445.98 1383.16 1297.24 1140.02 481.82 357.36 303.83 283.17 267.92 251.13 224.24 85.59 74.67 89.08 100.78 159.21 161.25 142.34 145.18 178.88 188.94 233.58 283.87 303.15 377.07 436.04 440.47 505.42 585.23 626.70 626.04 590.96 571.46 404.04 391.01 472.74 389.99 397.48 -87.49 -2338.83 -2671.41 -3110.48 -6743.55 -7618.01 -7672.47 -7920.48 -9752.06 -9999.94 -10000.56 -10000.56 -10000.56 -10000.55 -9998.42 -9982.69 -9980.56 -9980.55 -9980.55 -9980.55 -9980.55 -9980.83 -9982.83 -9983.11 -9983.11 -9983.11 -9983.11 -9981.79 -9451.34 -5531.77 -5001.31 -5000.00 -5000.00 -5000.00 -5000.00 -5000.00 -5000.00
-10018.99 -10018.99 -10018.99 -10018.99 -10018.99 -10018.99 -10016.33 -9996.65 -9993.99 -9993.98 -9993.98 -9993.98 -9993.99 -9995.97 -10010.63 -10012.62 -10012.62 -10012.62 -10012.62 -10011.76 -9662.75 -7080.72 -6288.71 -3087.65 -2304.57 -2161.32 -2149.06 -1748.79 836.46 1250.00 1286.62 1337.38 1409.08 1491.83 1539.07 1685.23 1744.91 1777.59 1776.90 1811.45 1827.70 1732.70 1387.55 1350.71 1301.47 1270.34 1267.12 1278.73 1261.97 1193.37 1168.60 1164.73 1201.06 1237.58 1258.67 1309.56 1698.70 1808.52 1854.96 1896.94 1968.89 1817.18 1736.97 1548.04 1501.63 1473.70 1451.78 1388.35 1313.59 1161.58 480.05 345.74 324.36 306.27 284.32 267.16 235.09 99.74 99.10 89.23 90.51 107.15 132.91 171.40 155.54 163.34 188.06 279.53 311.23 343.53 357.24 465.62 473.16 548.38 628.21 753.85 771.54 486.50 473.65 412.01 294.08 455.47 544.79 482.14 -94.92 -2375.41 -2706.06 -3271.21 -7145.86 -7669.78 -7672.56 -7920.55 -9752.07 -9999.94 -10000.56 -10000.56 -10000.56 -10000.55 -9998.42 -9982.69 -9980.57 -9980.56 -9980.56 -9980.56 -9980.56 -9980.83 -9982.84 -9983.11 -9983.12 -9983.12 -9983.12 -9981.80 -9451.34 -5531.77 -5001.31 -5000.00 -5000.00 -5000.00 -5000.00 -5000.00 -5000.00
-10017.81 -10017.81 -10017.81 -10017.81 -10017.81 -10017.81 -10015.40 -9997.60 -9995.19 -9995.19 -9995.19 -9995.19 -9995.19 -9996.89 -10009.44 -10011.14 -10011.15 -10011.15 -10011.15 -10010.43 -9722.88 -7597.08 -6900.02 -3772.35 -2583.86 -2353.00 -2292.61 -1884.64 780.03 1204.70 1255.28 1316.47 1360.42 1460.92 1511.30 1587.14 1624.41 1704.61 1756.33 1780.83 1731.21 1657.79 1324.93 1299.14 1267.94 1201.40 1233.03 1218.65 1206.13 1175.19 1160.06 1162.75 1184.40 1192.62 1185.55 1260.86 1701.11 1792.80 1850.57 1832.05 1764.05 1703.02 1657.31 1491.75 1457.18 1432.91 1388.99 1350.17 1295.59 1186.49 542.37 419.57 401.52 380.99 352.94 333.01 296.45 141.93 139.08 134.98 130.33 136.59 173.40 197.19 204.16 201.00 192.56 225.72 283.85 377.11 360.38 433.29 517.47 607.96 620.21 609.65 723.20 409.72 403.42 270.33 228.26 353.63 507.80 243.46 -165.84 -2427.85 -2829.76 -3738.99 -7188.24 -7357.11 -7656.26 -7947.42 -9756.03 -10000.78 -10001.38 -10001.38 -10001.38 -10001.38 -9999.42 -9984.94 -9982.98 -9982.98 -9982.98 -9982.98 -9982.98 -9983.33 -9985.92 -9986.27 -9986.27 -9986.27 -9986.27 -9984.96 -9454.17 -5532.11 -5001.32 -5000.00 -5000.00 -5000.00 -5000.00 -5000.00 -5000.00
-10009.08 -10009.08 -10009.08 -10009.08 -10009.08 -10009.08 -10008.55 -10004.62 -10004.09 -10004.09 -10004.09 -10004.09 -10004.09 -10003.68 -10000.66 -10000.25 -10000.25 -10000.25 -10000.25 -9999.83 -9830.57 -8579.78 -8360.74 -7561.86 -4234.69 -3499.51 -3354.02 -2898.42 327.13 827.68 900.43 967.29 976.70 1002.33 993.08 1165.48 1219.34 1253.63 1296.86 1321.39 1320.44 1247.65 1022.32 975.95 952.66 888.77 910.58 910.09 919.51 1052.24 1079.93 1070.07 1082.98 1109.17 1081.61 1137.93 1549.79 1597.65 1625.84 1611.76 1578.99 1562.77 1572.12 1571.81 1562.47 1542.09 1462.96 1430.16 1383.32 1285.53 900.81 810.49 785.96 761.20 728.67 704.99 652.16 387.58 361.32 372.15 380.32 375.39 416.56 405.76 286.12 253.76 227.11 249.94 262.11 303.48 339.78 493.13 634.65 724.10 669.90 537.59 519.66 435.39 389.96 294.64 223.19 279.56 379.73 190.34 -213.44 -2653.73 -3218.38 -3860.44 -6671.41 -4955.54 -7530.45 -8145.99 -9785.23 -10006.95 -10007.49 -10007.49 -10007.49 -10007.49 -10006.78 -10001.54 -10000.83 -10000.82 -10000.82 -10000.82 -10000.83 -10001.76 -10008.68 -10009.61 -10009.61 -10009.61 -10009.61 -10008.29 -9475.01 -5534.60 -5001.32 -5000.00 -5000.00 -5000.00 -5000.00 -5000.00 -5000.00
-10007.90 -10007.90 -10007.90 -10007.90 -10007.90 -10007.90 -10007.62 -10005.58 -10005.30 -10005.30 -10005.30 -10005.30 -10005.30 -10004.60 -9999.47 -9998.78 -9998.78 -9998.78 -9998.78 -9998.40 -9845.13 -8712.65 -8558.27 -8157.64 -5080.28 -3715.63 -3476.21 -3050.13 214.72 744.80 841.66 786.66 798.96 847.03 968.21 1164.09 1287.23 1273.46 1224.65 1251.11 1229.38 1155.43 941.98 887.48 849.66 807.60 847.47 856.05 873.88 1015.36 1034.95 1029.59 1003.49 1075.98 1098.17 1132.72 1522.02 1522.27 1533.16 1540.07 1588.35 1640.96 1667.58 1733.78 1622.20 1564.31 1545.61 1499.24 1443.26 1320.17 974.62 899.09 868.55 837.10 800.17 774.02 717.45 430.09 402.09 411.07 425.33 421.38 424.17 452.12 272.16 266.91 244.73 245.52 294.11 288.52 329.72 508.89 635.76 672.66 621.43 524.43 475.93 401.62 333.87 280.96 227.59 250.54 180.21 131.30 -227.45 -2713.02 -3211.57 -3324.37 -3756.92 -3964.60 -7473.34 -8172.76 -9789.18 -10007.78 -10008.32 -10008.32 -10008.32 -10008.32 -10007.78 -10003.78 -10003.24 -10003.24 -10003.24 -10003.24 -10003.24 -10004.26 -10011.76 -10012.77 -10012.77 -10012.77 -10012.77 -10011.45 -9477.84 -5534.94 -5001.32 -5000.00 -5000.00 -5000.00 -5000.00 -5000.00 -5000.00
-10007.90 -10007.90 -10007.90 -10007.90 -10007.90 -10007.90 -10007.62 -10005.58 -10005.30 -10005.30 -10005.30 -10005.30 -10005.30 -10004.60 -9999.47 -9998.77 -9998.77 -9998.77 -9998.77 -9998.39 -9845.17 -8712.98 -8559.64 -8511.00 -7687.20 -4113.14 -3558.87 -3095.44 162.43 697.41 717.67 799.47 879.22 995.63 1172.75 1289.61 1344.28 1302.38 1200.32 1143.28 1165.40 1144.92 923.55 841.33 799.64 794.94 816.50 840.92 863.44 995.19 1009.04 992.93 976.72 1047.22 1038.27 1129.68 1467.05 1512.74 1566.51 1588.01 1631.85 1710.74 1752.49 1802.84 1760.58 1661.55 1669.08 1623.24 1585.41 1421.58 1085.13 955.93 904.63 859.54 829.67 798.82 746.21 455.63 449.91 430.96 433.98 437.38 426.84 442.50 267.35 277.84 263.96 255.70 268.48 285.10 347.16 484.33 551.88 572.91 579.24 596.45 497.81 409.09 287.37 287.13 291.17 193.99 216.04 114.63 -235.16 -2733.16 -3094.56 -3110.05 -3237.80 -3833.48 -7464.52 -8172.81 -9789.19 -10007.78 -10008.32 -10008.32 -10008.32 -10008.32 -10007.78 -10003.79 -10003.25 -10003.25 -10003.25 -10003.25 -10003.25 -10004.26 -10011.76 -10012.78 -10012.78 -10012.78 -10012.78 -10011.46 -9477.84 -5534.94 -5001.32 -5000.00 -5000.00 -5000.00 -5000.00 -5000.00 -5000.00
-10007.90 -10007.90 -10007.90 -10007.90 -10007.90 -10007.90 -10007.62 -10005.58 -10005.30 -10005.30 -10005.30 -10005.30 -10005.30 -10004.60 -9999.47 -9998.77 -9998.77 -9998.77 -9998.77 -9998.39 -9845.17 -8712.98 -8559.75 -8558.07 -8076.55 -4476.17 -3625.76 -3116.43 137.32 657.62 726.99 975.64 1044.07 1285.27 1228.72 1342.18 1297.40 1152.30 1097.07 1092.62 1141.44 1091.80 884.29 836.72 845.88 805.18 781.40 819.27 839.78 959.04 983.05 1007.07 991.70 979.91 1029.17 1120.13 1470.46 1502.14 1589.65 1598.11 1657.20 1678.22 1753.85 1754.21 1756.70 1725.34 1696.57 1722.54 1737.02 1655.42 1204.44 1023.83 950.85 894.64 857.19 828.27 793.12 489.84 449.97 449.70 449.17 456.09 450.18 420.21 265.93 278.93 295.16 278.86 279.02 275.68 325.08 459.81 539.77 550.93 549.72 613.14 517.78 530.38 300.49 243.35 197.87 170.50 150.45 93.68 -253.95 -2691.37 -3049.30 -3128.28 -3266.58 -3908.59 -7474.39 -8172.83 -9789.19 -10007.78 -10008.32 -10008.32 -10008.32 -10008.32 -10007.78 -10003.79 -10003.25 -10003.25 -10003.25 -10003.25 -10003.25 -10004.26 -10011.76 -10012.78 -10012.78 -10012.78 -10012.78 -10011.46 -9477.84 -5534.94 -5001.32 -5000.00 -5000.00 -5000.00 -5000.00 -5000.00 -5000.00
-10007.89 -10007.89 -10007.89 -10007.89 -10007.89 -10007.89 -10007.62 -10005.58 -10005.30 -10005.30 -10005.30 -10005.30 -10005.30 -10004.61 -9999.47 -9998.78 -9998.77 -9998.77 -9998.77 -9998.39 -9845.21 -8713.20 -8559.28 -8558.52 -8110.18 -4719.52 -3687.47 -3143.37 105.85 603.28 706.44 897.33 999.90 1098.23 1060.19 1081.99 1116.56 1127.17 1148.27 1109.97 1085.96 1026.50 863.29 834.95 762.51 727.48 745.55 790.61 796.63 953.88 988.18 1009.23 1019.22 1009.46 1046.00 1098.88 1419.70 1455.38 1477.67 1520.02 1573.24 1612.38 1632.69 1626.22 1629.01 1634.15 1660.07 1699.58 1689.34 1594.31 1246.64 1068.27 982.52 922.20 906.45 867.70 840.70 531.33 470.79 471.42 476.55 479.14 502.98 449.85 252.40 290.19 320.97 296.39 299.10 286.46 334.47 477.97 526.13 531.85 506.01 531.13 548.45 496.35 304.11 312.38 153.50 142.26 113.71 71.68 -269.26 -2667.67 -2986.02 -3107.56 -3275.26 -3818.32 -7462.11 -8173.16 -9789.23 -10007.78 -10008.32 -10008.32 -10008.32 -10008.32 -10007.78 -10003.79 -10003.25 -10003.25 -10003.25 -10003.25 -10003.25 -10004.27 -10011.76 -10012.77 -10012.78 -10012.78 -10012.78 -10011.45 -9477.84 -5534.94 -5001.32 -5000.00 -5000.00 -5000.00 -5000.00 -5000.00 -5000.00
-10005.68 -10005.68 -10005.68 -10005.68 -10005.68 -10005.68 -10005.78 -10006.47 -10006.56 -10006.56 -10006.56 -10006.56 -10006.56 -10005.82 -10000.38 -9999.64 -9999.64 -9999.64 -9999.64 -9999.30 -9862.09 -8802.70 -8368.41 -8663.42 -8311.18 -5256.76 -4057.50 -3366.77 -38.13 454.38 543.62 652.46 741.40 784.55 745.02 836.51 869.77 892.08 951.04 953.20 959.93 912.89 819.50 797.51 727.51 717.70 742.74 782.90 806.05 975.46 1027.75 1056.99 1068.47 1099.20 1086.89 1106.72 1391.04 1421.84 1437.90 1499.29 1600.03 1630.05 1646.82 1591.48 1586.50 1624.21 1626.06 1574.76 1566.96 1477.32 1151.61 1107.79 982.84 904.34 856.62 835.32 776.68 510.97 496.37 523.43 506.85 499.55 531.66 474.26 295.28 252.50 272.45 307.51 335.88 307.33 344.38 470.46 543.61 516.84 482.24 472.85 491.84 507.48 336.33 343.72 144.07 104.88 84.60 68.59 -250.90 -2780.77 -3138.92 -3280.46 -3405.63 -4464.87 -7689.91 -8316.17 -9804.09 -10005.31 -10005.81 -10005.81 -10005.81 -10005.81 -10005.69 -10004.78 -10004.65 -10004.65 -10004.65 -10004.65 -10004.65 -10005.36 -10010.61 -10011.32 -10011.32 -10011.32 -10011.32 -10010.00 -9476.54 -5534.78 -5001.32 -5000.00 -5000.00 -5000.00 -5000.00 -5000.00 -5000.00
-9989.35 -9989.35 -9989.35 -9989.35 -9989.35 -9989.36 -9992.18 -10013.04 -10015.86 -10015.87 -10015.87 -10015.87 -10015.87 -10014.82 -10007.05 -10006.00 -10006.00 -10006.00 -10006.00 -10005.96 -9986.79 -9463.74 -6911.20 -9100.82 -9738.62 -9057.79 -6135.70 -4536.88 -771.05 -285.16 -218.64 -164.22 -158.64 -145.12 -91.28 99.71 205.47 192.68 228.84 263.84 293.06 361.60 748.03 815.73 832.18 824.24 807.86 840.72 913.73 1328.65 1387.28 1381.69 1426.84 1442.92 1428.44 1416.15 1378.41 1381.28 1400.98 1473.65 1565.40 1584.38 1566.22 1243.98 1192.10 1212.15 1139.63 1113.60 1117.15 1037.47 852.61 780.70 729.11 654.81 615.04 597.25 546.62 362.69 397.34 430.00 426.09 439.06 433.87 416.90 381.14 343.52 360.61 393.96 434.62 424.56 464.65 594.73 673.53 622.46 540.51 536.92 590.85 623.59 429.84 316.04 114.18 68.87 49.19 73.27 -386.13 -3845.74 -4320.44 -4437.94 -5115.76 -8436.45 -9247.81 -9372.58 -9913.87 -9987.11 -9987.29 -9987.29 -9987.29 -9987.30 -9990.25 -10012.05 -10015.00 -10015.01 -10015.01 -10015.01 -10015.01 -10013.47 -10002.10 -10000.56 -10000.56 -10000.56 -10000.56 -9999.24 -9466.93 -5533.63 -5001.32 -5000.00 -5000.00 -5000.00 -5000.00 -5000.00 -5000.00
-9987.14 -9987.14 -9987.14 -9987.14 -9987.14 -9987.15 -9990.34 -10013.93 -10017.12 -10017.13 -10017.13 -10017.13 -10017.13 -10016.04 -10007.96 -10006.86 -10006.86 -10006.86 -10006.86 -10006.86 -10003.77 -9596.96 -6706.11 -6711.61 -9595.46 -9933.79 -9099.96 -5112.66 -895.16 -389.70 -365.83 -345.82 -345.96 -339.72 -284.23 -62.44 14.32 35.06 55.98 107.14 99.24 200.52 719.63 813.76 830.33 836.28 828.91 840.89 883.15 1326.01 1406.31 1431.48 1447.70 1490.70 1442.25 1479.50 1371.93 1369.08 1437.08 1425.48 1467.34 1489.94 1459.20 1093.69 1048.04 1037.79 1007.23 1042.82 987.62 941.43 774.08 736.01 684.97 628.67 603.06 581.53 517.26 362.37 407.38 511.81 459.98 494.40 386.62 366.24 372.94 353.85 378.51 420.11 450.70 466.44 525.12 668.35 656.09 594.21 579.25 583.58 680.16 711.84 544.50 196.42 85.82 70.22 71.92 75.34 -443.41 -4078.16 -4569.45 -4860.24 -5820.16 -9031.83 -9458.45 -9515.54 -9928.72 -9984.64 -9984.78 -9984.78 -9984.78 -9984.79 -9988.16 -10013.04 -10016.41 -10016.41 -10016.41 -10016.41 -10016.41 -10014.57 -10000.95 -9999.11 -9999.10 -9999.10 -9999.10 -9997.78 -9465.62 -5533.48 -5001.32 -5000.00 -5000.00 -5000.00 -5000.00 -5000.00 -5000.00
-9987.14 -9987.14 -9987.14 -9987.14 -9987.14 -9987.14 -9990.34 -10013.93 -10017.13 -10017.13 -10017.13 -10017.13 -10017.13 -10016.04 -10007.96 -10006.87 -10006.86 -10006.86 -10006.86 -10006.86 -10004.67 -9941.60 -9206.91 -6727.76 -9552.45 -9985.16 -9575.02 -5945.97 -1041.04 -418.90 -400.74 -385.64 -379.01 -372.81 -327.91 -127.86 -78.34 -64.34 -20.57 33.22 82.83 189.32 714.58 773.74 787.19 812.60 828.70 849.66 909.57 1355.83 1411.37 1423.27 1405.37 1446.81 1442.69 1455.67 1384.39 1356.37 1398.83 1388.84 1398.39 1418.76 1402.37 1018.82 975.82 969.99 953.52 959.28 926.29 915.17 759.99 682.34 639.80 621.32 589.59 563.74 520.87 380.93 438.23 576.61 500.84 436.68 347.14 304.18 323.15 327.61 361.68 409.51 444.10 525.57 613.32 727.29 650.58 582.70 554.54 606.24 597.35 578.34 224.70 111.09 61.01 79.10 71.20 29.25 -595.71 -4210.33 -4768.95 -5331.14 -8600.15 -9408.01 -9459.90 -9515.90 -9928.76 -9984.64 -9984.78 -9984.78 -9984.78 -9984.78 -9988.15 -10013.04 -10016.41 -10016.42 -10016.42 -10016.42 -10016.41 -10014.57 -10000.95 -9999.10 -9999.10 -9999.10 -9999.10 -9997.78 -9465.62 -5533.48 -5001.32 -5000.00 -5000.00 -5000.00 -5000.00 -5000.00 -5000.00
-9987.14 -9987.14 -9987.14 -9987.14 -9987.14 -9987.14 -9990.34 -10013.93 -10017.13 -10017.13 -10017.13 -10017.13 -10017.13 -10016.04 -10007.96 -10006.87 -10006.86 -10006.86 -10006.86 -10006.86 -10004.78 -9988.40 -9604.69 -7165.83 -9605.54 -9986.31 -9936.96 -8630.27 -1532.13 -481.50 -423.62 -423.51 -412.23 -402.29 -361.09 -160.61 -117.19 -117.72 -75.98 -31.81 18.00 119.89 640.89 718.33 735.29 774.46 811.32 817.14 884.10 1326.75 1344.76 1389.04 1414.24 1390.23 1415.77 1436.07 1400.71 1386.01 1380.95 1388.19 1380.67 1416.42 1357.66 962.88 909.96 908.34 913.70 878.78 887.08 952.40 756.91 658.68 620.80 622.25 584.29 557.01 539.87 410.06 454.60 514.26 439.66 343.79 286.16 265.68 305.71 326.01 373.13 433.90 541.33 642.93 794.80 804.20 683.72 653.58 650.38 672.81 518.51 419.88 181.11 177.17 76.20 52.31 13.77 -131.24 -657.34 -4232.30 -4782.34 -5487.15 -8988.02 -9458.60 -9460.02 -9515.90 -9928.76 -9984.64 -9984.78 -9984.78 -9984.78 -9984.78 -9988.15 -10013.04 -10016.41 -10016.42 -10016.42 -10016.42 -10016.41 -10014.57 -10000.95 -9999.10 -9999.10 -9999.10 -9999.10 -9997.78 -9465.62 -5533.48 -5001.32 -5000.00 -5000.00 -5000.00 -5000.00 -5000.00 -5000.00
-9987.14 -9987.14 -9987.14 -9987.14 -9987.14 -9987.15 -9990.34 -10013.93 -10017.12 -10017.13 -10017.13 -10017.13 -10017.13 -10016.03 -10007.96 -10006.87 -10006.87 -10006.87 -10006.87 -10006.86 -10004.79 -9989.35 -9941.89 -9651.21 -9941.88 -9987.27 -9985.01 -9076.17 -2281.44 -716.02 -525.62 -488.48 -457.19 -430.86 -390.75 -190.05 -142.40 -148.72 -138.53 -124.15 -103.47 -13.49 553.93 636.78 665.18 709.00 743.74 784.70 811.50 1235.09 1335.89 1334.37 1364.81 1371.16 1383.79 1459.83 1406.14 1429.29 1412.45 1384.24 1380.40 1393.00 1313.65 909.16 857.37 838.08 837.68 833.20 866.27 870.43 674.56 618.67 607.12 633.88 584.37 570.13 551.83 429.03 464.16 514.95 374.78 294.87 260.26 246.66 293.32 337.27 415.19 519.30 696.93 927.09 893.39 894.85 717.55 638.91 623.92 460.87 374.63 306.69 94.19 62.44 53.22 20.09 -139.94 -243.32 -727.61 -4295.33 -4752.17 -5381.28 -8975.15 -9458.82 -9460.15 -9516.01 -9928.78 -9984.64 -9984.78 -9984.78 -9984.78 -9984.79 -9988.16 -10013.04 -10016.41 -10016.41 -10016.41 -10016.41 -10016.41 -10014.57 -10000.95 -9999.10 -9999.10 -9999.10 -9999.10 -9997.78 -9465.62 -5533.48 -5001.32 -5000.00 -5000.00 -5000.00 -5000.00 -5000.00 -5000.00
-9989.32 -9989.32 -9989.32 -9989.32 -9989.32 -9989.33 -9992.11 -10012.66 -10015.44 -10015.44 -10015.44 -10015.44 -10015.44 -10014.64 -10008.72 -10007.91 -10007.91 -10007.91 -10007.91 -10007.91 -10005.74 -9989.71 -9987.43 -9986.71 -9987.43 -9987.54 -9986.33 -9495.98 -5500.98 -2197.99 -1651.13 -1210.35 -1057.85 -996.64 -902.66 -535.22 -473.54 -464.54 -438.51 -437.69 -421.16 -300.32 444.55 579.08 597.48 633.62 627.65 642.38 703.94 1132.91 1218.59 1245.63 1276.69 1317.62 1305.03 1326.92 1287.13 1301.70 1317.45 1332.05 1255.94 1245.12 1170.11 822.45 777.40 755.28 757.29 775.13 816.93 765.01 586.67 557.72 560.26 558.80 554.70 560.08 539.83 429.70 444.15 437.39 286.91 244.57 215.82 220.01 280.63 343.41 445.84 644.80 924.91 1016.91 782.62 478.36 353.18 353.03 305.33 122.88 -42.51 -107.06 -350.18 -406.44 -426.19 -595.11 -1170.67 -1379.10 -1616.95 -4983.91 -5395.97 -6047.09 -9102.03 -9510.93 -9512.07 -9562.72 -9937.01 -9987.66 -9987.79 -9987.79 -9987.79 -9987.80 -9990.69 -10012.09 -10014.99 -10014.99 -10014.99 -10014.99 -10014.99 -10013.40 -10001.61 -10000.01 -10000.01 -10000.01 -10000.01 -9998.69 -9466.43 -5533.57 -5001.32 -5000.00 -5000.00 -5000.00 -5000.00 -5000.00 -5000.00
-10005.45 -10005.45 -10005.45 -10005.45 -10005.45 -10005.45 -10005.19 -10003.25 -10002.99 -10002.99 -10002.99 -10002.99 -10002.99 -10004.34 -10014.29 -10015.64 -10015.64 -10015.64 -10015.64 -10015.63 -10012.77 -9991.59 -9988.73 -9988.72 -9988.72 -9988.72 -9988.59 -9935.27 -9491.62 -9061.69 -8634.27 -5931.01 -5359.92 -4804.78 -4434.53 -2832.15 -2600.55 -2586.35 -2544.49 -2539.59 -2521.07 -2219.52 -163.90 166.48 195.45 199.87 181.03 200.41 228.47 514.28 568.31 612.55 684.98 775.75 725.34 692.61 613.89 663.75 665.01 654.92 581.21 532.31 510.68 498.35 513.87 495.84 516.97 550.72 534.92 469.35 316.28 291.58 295.62 303.51 317.57 327.64 315.86 244.24 257.62 269.34 120.30 97.54 81.05 101.62 215.30 285.20 378.88 537.58 684.24 779.89 411.71 -2093.56 -2467.11 -2331.05 -2827.21 -2936.89 -2966.15 -3065.44 -3611.31 -4206.12 -4476.55 -4907.94 -7617.99 -8001.38 -8125.39 -9256.70 -9405.32 -9485.31 -9847.16 -9895.54 -9895.69 -9907.86 -9997.80 -10009.97 -10010.00 -10010.00 -10010.00 -10010.00 -10009.42 -10005.10 -10004.51 -10004.51 -10004.51 -10004.51 -10004.51 -10004.74 -10006.48 -10006.71 -10006.71 -10006.71 -10006.71 -10005.39 -9472.42 -5534.29 -5001.32 -5000.00 -5000.00 -5000.00 -5000.00 -5000.00 -5000.00
-10007.63 -10007.63 -10007.63 -10007.63 -10007.63 -10007.63 -10006.96 -10001.98 -10001.30 -10001.30 -10001.30 -10001.30 -10001.31 -10002.94 -10015.04 -10016.68 -10016.69 -10016.69 -10016.69 -10016.68 -10013.72 -9991.85 -9988.89 -9988.88 -9988.88 -9988.88 -9988.88 -9988.24 -9983.41 -9981.72 -9932.54 -9567.08 -9121.04 -6240.39 -5075.72 -3176.19 -2905.43 -2889.95 -2867.25 -2851.31 -2821.53 -2498.48 -294.15 92.88 138.57 99.63 76.51 82.58 101.64 380.54 437.38 522.41 560.35 639.82 672.64 635.62 550.22 549.46 539.16 586.38 512.96 436.92 397.74 440.00 440.93 435.63 448.38 494.38 461.02 405.37 271.87 244.72 256.00 285.98 299.58 298.97 283.65 191.55 131.72 105.71 61.20 54.93 45.77 64.91 184.83 256.50 376.58 438.23 541.95 616.22 305.46 -2424.41 -2743.95 -3176.05 -3323.05 -3375.31 -3520.26 -4143.78 -5291.14 -7659.29 -7965.47 -7997.22 -8356.15 -8425.04 -8548.80 -9417.05 -9895.10 -9946.31 -9947.47 -9947.59 -9947.61 -9954.57 -10006.03 -10012.99 -10013.01 -10013.01 -10013.01 -10013.01 -10011.95 -10004.15 -10003.09 -10003.09 -10003.09 -10003.09 -10003.09 -10003.57 -10007.14 -10007.62 -10007.62 -10007.62 -10007.62 -10006.30 -9473.23 -5534.39 -5001.32 -5000.00 -5000.00 -5000.00 -5000.00 -5000.00 -5000.00
-10007.64 -10007.64 -10007.64 -10007.64 -10007.64 -10007.64 -10006.96 -10001.97 -10001.30 -10001.30 -10001.30 -10001.30 -10001.30 -10002.94 -10015.05 -10016.68 -10016.69 -10016.69 -10016.69 -10016.68 -10013.72 -9991.85 -9988.89 -9988.88 -9988.88 -9988.88 -9988.88 -9988.37 -9984.63 -9984.12 -9984.00 -9982.97 -9930.84 -9173.55 -6010.76 -3354.72 -3000.50 -2952.47 -2918.90 -2851.98 -2836.68 -2523.26 -339.52 5.05 61.10 27.36 15.12 28.99 100.28 389.50 431.85 472.47 530.80 650.20 683.39 655.40 536.45 517.49 519.83 563.46 483.30 413.06 385.87 413.76 426.03 417.99 417.72 468.01 419.01 384.16 262.40 249.24 262.58 293.90 331.52 294.43 307.31 121.61 68.68 52.61 36.11 52.42 29.53 44.57 163.63 228.72 308.56 356.62 502.55 570.23 432.64 -2305.99 -2745.08 -3253.31 -3349.18 -3530.16 -4737.69 -7151.06 -7595.81 -5533.15 -5049.27 -4817.67 -4772.58 -4903.10 -5107.70 -6251.01 -9107.79 -9890.21 -9947.58 -9947.72 -9947.74 -9954.69 -10006.05 -10013.00 -10013.02 -10013.02 -10013.02 -10013.01 -10011.96 -10004.15 -10003.09 -10003.09 -10003.09 -10003.09 -10003.09 -10003.57 -10007.14 -10007.62 -10007.62 -10007.62 -10007.62 -10006.30 -9473.23 -5534.39 -5001.32 -5000.00 -5000.00 -5000.00 -5000.00 -5000.00 -5000.00
-10007.64 -10007.64 -10007.64 -10007.64 -10007.64 -10007.64 -10006.96 -10001.97 -10001.30 -10001.30 -10001.30 -10001.30 -10001.30 -10002.94 -10015.05 -10016.68 -10016.69 -10016.69 -10016.69 -10016.68 -10013.72 -9991.85 -9988.89 -9988.88 -9988.88 -9988.88 -9988.88 -9988.37 -9984.63 -9984.12 -9984.12 -9984.12 -9983.86 -9930.28 -8885.46 -3880.80 -3075.80 -3059.02 -3008.90 -2890.03 -2845.33 -2532.81 -334.31 63.45 50.17 -5.09 41.67 45.60 133.82 492.30 494.38 574.88 604.99 740.32 725.65 677.66 491.46 513.54 532.28 550.32 434.15 381.28 370.22 433.63 434.75 412.75 402.74 420.51 410.42 386.23 265.82 257.38 271.25 300.79 278.54 225.50 172.66 83.69 39.37 21.74 12.82 11.95 18.99 39.34 158.58 213.65 256.62 313.69 400.81 560.60 308.57 -2304.02 -2620.49 -3176.92 -3422.62 -4480.25 -7148.66 -5073.14 -5005.95 -4678.09 -4615.47 -4239.28 -4103.94 -4064.52 -4244.69 -5205.84 -6000.27 -9479.39 -9946.56 -9947.72 -9947.74 -9954.69 -10006.05 -10013.00 -10013.02 -10013.02 -10013.02 -10013.01 -10011.96 -10004.15 -10003.09 -10003.09 -10003.09 -10003.09 -10003.09 -10003.57 -10007.14 -10007.62 -10007.62 -10007.62 -10007.62 -10006.30 -9473.23 -5534.39 -5001.32 -5000.00 -5000.00 -5000.00 -5000.00 -5000.00 -5000.00
-10007.62 -10007.62 -10007.62 -10007.62 -10007.62 -10007.61 -10006.94 -10001.98 -10001.30 -10001.30 -10001.30 -10001.30 -10001.31 -10002.94 -10015.05 -10016.68 -10016.69 -10016.69 -10016.69 -10016.68 -10013.72 -9991.85 -9988.89 -9988.89 -9988.89 -9988.89 -9988.88 -9988.38 -9984.63 -9984.12 -9984.12 -9984.12 -9984.12 -9982.44 -9356.13 -4648.85 -3365.74 -3200.83 -3115.77 -2961.28 -2859.89 -2518.63 -328.95 85.16 29.71 -30.78 -16.17 21.96 137.74 656.11 634.11 607.31 746.00 1011.94 759.83 604.93 414.98 447.61 521.02 534.31 442.56 365.15 350.22 416.19 428.65 424.91 406.25 414.77 423.68 414.94 307.38 275.80 278.36 337.76 306.62 262.28 193.25 69.35 29.06 8.45 2.60 0.97 7.40 33.50 148.66 194.16 234.22 290.96 363.54 449.93 260.50 -2371.98 -2651.63 -2999.45 -3786.90 -7406.53 -7793.89 -4753.69 -7179.83 -5097.48 -4529.44 -4288.61 -4083.28 -4422.72 -4673.57 -5627.20 -5978.09 -9469.32 -9946.42 -9947.60 -9947.62 -9954.58 -10006.03 -10012.99 -10013.01 -10013.01 -10013.01 -10013.00 -10011.95 -10004.15 -10003.09 -10003.09 -10003.09 -10003.09 -10003.09 -10003.57 -10007.13 -10007.62 -10007.62 -10007.62 -10007.62 -10006.30 -9473.23 -5534.39 -5001.32 -5000.00 -5000.00 -5000.00 -5000.00 -5000.00 -5000.00
-9997.85 -9997.85 -9997.85 -9997.85 -9997.85 -9997.86 -9998.39 -10002.34 -10002.87 -10002.87 -10002.87 -10002.87 -10002.88 -10004.37 -10015.35 -10016.84 -10016.85 -10016.85 -10016.85 -10016.84 -10014.16 -9994.36 -9991.68 -9991.67 -9991.67 -9991.67 -9991.67 -9990.94 -9985.55 -9984.82 -9984.82 -9984.82 -9984.82 -9984.18 -9724.38 -7467.78 -4638.24 -3972.12 -3458.63 -3225.74 -3044.61 -2707.24 -449.53 -117.56 -108.65 -129.68 -106.25 -51.16 95.91 534.25 726.73 737.03 728.13 783.53 717.22 502.10 351.98 325.86 420.99 461.97 398.63 308.17 316.51 403.76 442.48 430.36 413.58 415.30 415.44 409.30 302.04 236.87 223.91 237.49 227.99 200.92 115.51 30.55 12.14 2.80 -1.65 -3.77 -0.47 10.83 3.76 25.95 62.35 101.24 143.80 223.28 47.10 -2637.79 -3143.45 -3506.89 -4463.63 -8027.16 -7989.00 -4378.49 -5184.82 -4972.33 -5043.84 -4537.74 -4478.91 -4733.55 -4994.94 -6138.72 -6609.81 -9504.37 -9897.43 -9898.41 -9898.44 -9910.28 -9997.78 -10009.62 -10009.65 -10009.65 -10009.65 -10009.65 -10009.02 -10004.36 -10003.73 -10003.72 -10003.72 -10003.72 -10003.73 -10004.03 -10006.27 -10006.57 -10006.57 -10006.57 -10006.57 -10005.25 -9472.30 -5534.27 -5001.32 -5000.00 -5000.00 -5000.00 -5000.00 -5000.00 -5000.00
-9925.73 -9925.73 -9925.73 -9925.73 -9925.73 -9925.75 -9935.20 -10005.02 -10014.47 -10014.49 -10014.49 -10014.49 -10014.49 -10014.87 -10017.63 -10018.00 -10018.00 -10018.00 -10018.00 -10018.00 -10017.39 -10012.85 -10012.24 -10012.24 -10012.24 -10012.24 -10012.23 -10009.86 -9992.38 -9990.01 -9990.01 -9990.01 -9990.01 -9989.89 -9940.80 -9533.21 -9140.77 -8638.65 -5485.59 -4796.97 -4588.29 -4177.41 -1211.18 -796.55 -773.37 -765.42 -726.40 -726.83 -564.56 137.01 321.60 287.58 242.90 248.88 139.39 57.42 136.33 216.03 169.61 310.02 276.61 155.39 208.65 341.82 407.74 390.78 379.96 396.51 394.30 374.36 211.86 125.13 109.35 104.33 88.53 80.16 11.23 -15.68 -18.11 -14.03 -20.76 -26.48 -24.98 -130.49 -976.02 -1067.03 -1037.61 -1003.49 -968.04 -913.89 -1160.85 -3999.40 -4752.76 -5370.45 -8882.10 -9765.48 -9347.31 -5924.08 -6150.75 -6503.59 -8253.11 -5541.78 -5510.82 -6140.99 -6447.75 -8786.64 -9145.23 -9488.38 -9534.82 -9534.94 -9535.05 -9582.95 -9936.86 -9984.75 -9984.87 -9984.87 -9984.87 -9984.88 -9987.39 -10005.91 -10008.42 -10008.43 -10008.43 -10008.43 -10008.42 -10007.41 -9999.87 -9998.85 -9998.85 -9998.85 -9998.85 -9997.53 -9465.40 -5533.45 -5001.32 -5000.00 -5000.00 -5000.00 -5000.00 -5000.00 -5000.00
-9915.97 -9915.97 -9915.97 -9915.97 -9915.97 -9915.99 -9926.65 -10005.38 -10016.04 -10016.06 -10016.06 -10016.06 -10016.06 -10016.29 -10017.94 -10018.16 -10018.16 -10018.16 -10018.16 -10018.16 -10017.82 -10015.35 -10015.02 -10015.02 -10015.02 -10015.02 -10015.01 -10012.42 -9993.30 -9990.72 -9990.71 -9990.71 -9990.71 -9990.64 -9964.01 -9767.10 -9738.58 -9318.33 -6134.13 -5083.99 -4835.39 -4390.99 -1313.38 -901.82 -872.42 -870.05 -862.43 -798.17 -617.44 51.18 244.09 193.99 134.51 68.40 14.81 17.69 148.42 137.26 93.11 227.36 212.76 175.35 176.22 332.64 371.48 361.05 348.89 368.92 364.35 309.84 148.86 113.77 63.93 22.16 11.49 -1.80 -16.00 -26.41 -28.10 -27.17 -31.11 -37.93 -36.20 -154.81 -1107.44 -1215.76 -1189.47 -1146.26 -1066.08 -1031.56 -1262.72 -4223.53 -5063.78 -6301.68 -9572.11 -10001.05 -9616.63 -7097.23 -9193.55 -9235.88 -7031.46 -6605.92 -9097.15 -9519.06 -9513.40 -9487.89 -9484.79 -9485.63 -9485.74 -9485.74 -9485.88 -9538.65 -9928.61 -9981.39 -9981.52 -9981.52 -9981.52 -9981.53 -9984.46 -10006.12 -10009.06 -10009.06 -10009.06 -10009.06 -10009.06 -10007.86 -9999.01 -9997.81 -9997.81 -9997.81 -9997.81 -9996.49 -9464.47 -5533.34 -5001.32 -5000.00 -5000.00 -5000.00 -5000.00 -5000.00 -5000.00
-9915.94 -9915.94 -9915.94 -9915.94 -9915.94 -9915.97 -9926.63 -10005.38 -10016.04 -10016.07 -10016.07 -10016.07 -10016.07 -10016.29 -10017.94 -10018.16 -10018.16 -10018.16 -10018.16 -10018.16 -10017.83 -10015.36 -10015.03 -10015.03 -10015.03 -10015.03 -10015.02 -10012.43 -9993.31 -9990.72 -9990.71 -9990.71 -9990.71 -9990.65 -9964.07 -9767.68 -9740.98 -9689.69 -8889.30 -5636.96 -4987.39 -4405.50 -1335.39 -922.86 -882.98 -884.09 -866.00 -768.84 -692.67 -9.49 136.01 130.80 108.29 83.75 -64.91 -125.91 32.02 77.06 90.94 67.47 137.83 210.37 169.33 326.71 335.16 330.69 325.23 345.00 329.21 274.83 107.48 97.08 28.99 -5.90 -6.05 -16.53 -23.28 -33.00 -35.97 -37.28 -39.95 -42.68 -40.16 -158.18 -1111.58 -1223.67 -1196.24 -1134.36 -1034.91 -1101.16 -1496.02 -4411.78 -5476.53 -9098.53 -9950.94 -10003.30 -9958.10 -9662.52 -9919.22 -9914.69 -9578.50 -9569.22 -9913.16 -9959.97 -9909.56 -9536.27 -9485.75 -9485.62 -9485.62 -9485.62 -9485.75 -9538.54 -9928.59 -9981.38 -9981.51 -9981.51 -9981.51 -9981.52 -9984.45 -10006.12 -10009.06 -10009.07 -10009.07 -10009.07 -10009.06 -10007.86 -9999.00 -9997.81 -9997.80 -9997.80 -9997.80 -9996.48 -9464.46 -5533.34 -5001.32 -5000.00 -5000.00 -5000.00 -5000.00 -5000.00 -5000.00
-9915.94 -9915.94 -9915.94 -9915.94 -9915.94 -9915.97 -9926.63 -10005.38 -10016.04 -10016.07 -10016.07 -10016.07 -10016.07 -10016.29 -10017.94 -10018.16 -10018.16 -10018.16 -10018.16 -10018.16 -10017.83 -10015.36 -10015.03 -10015.03 -10015.03 -10015.03 -10015.02 -10012.43 -9993.31 -9990.72 -9990.71 -9990.71 -9990.71 -9990.65 -9964.07 -9767.68 -9741.10 -9739.90 -9331.61 -6291.66 -5585.94 -4575.40 -1363.53 -890.37 -920.12 -911.16 -897.40 -858.26 -773.82 -208.83 15.12 98.58 74.13 40.21 -166.39 -216.10 20.27 27.29 85.33 51.95 64.20 200.48 181.53 301.72 314.66 309.18 301.25 304.10 259.44 200.56 49.77 25.94 -6.58 -13.97 -15.24 -22.21 -29.72 -39.45 -42.99 -44.98 -47.00 -47.08 -42.59 -161.95 -1116.91 -1220.66 -1179.27 -1134.84 -1152.06 -1181.33 -1574.31 -4465.68 -5525.20 -9422.59 -9651.21 -9956.15 -10003.42 -9998.31 -9965.71 -9961.20 -9960.36 -9960.34 -9961.19 -9961.18 -9910.54 -9536.39 -9485.75 -9485.62 -9485.62 -9485.62 -9485.75 -9538.54 -9928.59 -9981.38 -9981.51 -9981.51 -9981.51 -9981.52 -9984.45 -10006.12 -10009.06 -10009.07 -10009.07 -10009.07 -10009.06 -10007.86 -9999.00 -9997.81 -9997.80 -9997.80 -9997.80 -9996.48 -9464.46 -5533.34 -5001.32 -5000.00 -5000.00 -5000.00 -5000.00 -5000.00 -5000.00
-9915.96 -9915.96 -9915.96 -9915.96 -9915.96 -9915.99 -9926.65 -10005.39 -10016.04 -10016.07 -10016.07 -10016.07 -10016.07 -10016.29 -10017.93 -10018.15 -10018.15 -10018.15 -10018.15 -10018.15 -10017.82 -10015.36 -10015.02 -10015.02 -10015.02 -10015.02 -10015.01 -10012.43 -9993.31 -9990.72 -9990.72 -9990.72 -9990.72 -9990.65 -9964.08 -9767.74 -9741.17 -9740.99 -9692.65 -9330.75 -8806.21 -5071.97 -1502.53 -981.73 -929.82 -932.89 -935.10 -908.06 -790.90 -254.70 -206.97 -69.43 -37.66 -23.18 -148.17 -231.86 -25.18 2.13 19.77 72.68 137.08 214.12 147.37 255.77 287.44 324.80 266.20 221.53 222.62 166.53 21.62 -11.03 -15.08 -15.47 -17.82 -26.28 -35.10 -45.18 -49.04 -51.22 -53.21 -52.61 -44.88 -162.57 -1114.20 -1210.32 -1160.89 -1099.23 -1173.42 -1230.22 -1617.71 -4646.53 -5968.16 -9177.40 -7408.36 -9652.11 -10002.23 -9998.53 -9964.77 -9960.21 -9960.19 -9960.19 -9960.19 -9960.07 -9909.53 -9536.10 -9485.56 -9485.44 -9485.44 -9485.44 -9485.57 -9538.38 -9928.58 -9981.38 -9981.51 -9981.51 -9981.51 -9981.52 -9984.45 -10006.13 -10009.06 -10009.07 -10009.07 -10009.07 -10009.07 -10007.87 -9999.01 -9997.81 -9997.80 -9997.80 -9997.80 -9996.49 -9464.47 -5533.34 -5001.32 -5000.00 -5000.00 -5000.00 -5000.00 -5000.00 -5000.00
-9924.64 -9924.64 -9924.64 -9924.64 -9924.64 -9924.67 -9934.45 -10006.69 -10016.47 -10016.50 -10016.50 -10016.50 -10016.49 -10016.44 -10015.99 -10015.93 -10015.93 -10015.93 -10015.93 -10015.93 -10015.63 -10013.35 -10013.04 -10013.04 -10013.04 -10013.04 -10013.03 -10010.85 -9994.74 -9992.56 -9992.56 -9992.56 -9992.56 -9992.50 -9968.75 -9793.25 -9769.50 -9769.44 -9769.32 -9767.13 -9240.69 -5026.07 -2035.13 -1606.75 -1499.52 -1418.90 -1375.27 -1364.84 -1266.91 -768.09 -701.38 -627.62 -605.66 -578.84 -691.52 -669.40 -167.23 -83.14 -22.69 90.09 158.17 175.36 68.00 239.14 265.91 336.15 326.80 230.26 225.57 212.23 27.68 -8.35 -14.58 -8.13 -17.01 -31.03 -39.98 -48.51 -52.14 -53.11 -53.96 -53.07 -44.87 -150.51 -1021.92 -1099.93 -1052.53 -1001.93 -1085.26 -1209.15 -2024.10 -5375.22 -8890.29 -9676.86 -9430.91 -9734.55 -9781.86 -9753.16 -9540.20 -9511.38 -9511.30 -9511.30 -9511.30 -9511.28 -9500.58 -9421.54 -9410.85 -9410.82 -9410.82 -9410.82 -9410.97 -9471.90 -9922.14 -9983.07 -9983.23 -9983.23 -9983.23 -9983.23 -9986.10 -10007.29 -10010.16 -10010.17 -10010.17 -10010.17 -10010.17 -10008.93 -9999.76 -9998.52 -9998.51 -9998.51 -9998.51 -9997.19 -9465.10 -5533.41 -5001.32 -5000.00 -5000.00 -5000.00 -5000.00 -5000.00 -5000.00
-9988.64 -9987.78 -9988.64 -9988.78 -9988.78 -9988.78 -9992.07 -10016.35 -10019.64 -10019.64 -10019.64 -10019.64 -10019.64 -10017.50 -10001.68 -9999.54 -9999.53 -9999.53 -9999.53 -9999.53 -9999.41 -9998.51 -9998.38 -9998.38 -9998.38 -9998.38 -9998.39 -9999.21 -10005.32 -10006.15 -10006.15 -10006.15 -10006.15 -10006.14 -10003.23 -9981.73 -9978.81 -9978.81 -9978.81 -9977.52 -9458.78 -5623.58 -5078.39 -4987.43 -4860.55 -4762.87 -4681.74 -4642.78 -4554.26 -4002.84 -3909.21 -3890.27 -3875.97 -3902.00 -3943.35 -3592.73 -1010.06 -647.73 -616.29 -561.77 -550.63 -538.52 -436.60 23.54 184.00 205.21 221.58 142.38 51.13 86.26 61.02 28.89 -9.73 33.69 -18.40 -40.26 -47.15 -39.69 -39.63 -40.42 -40.46 -38.87 -30.68 -60.44 -363.84 -348.74 -312.88 -265.83 -363.74 -900.01 -4705.18 -7383.50 -8090.47 -8148.27 -8147.80 -8148.55 -8148.15 -7940.12 -6402.98 -6194.95 -6194.43 -6194.43 -6194.43 -6195.13 -6478.83 -8575.07 -8858.76 -8859.47 -8859.47 -8859.47 -8859.77 -8980.74 -9874.60 -9995.57 -9995.87 -9995.87 -9995.87 -9995.88 -9998.27 -10015.92 -10018.31 -10018.31 -10018.31 -10018.31 -10018.31 -10016.76 -10005.30 -10003.75 -10003.75 -10003.75 -10003.75 -10002.43 -9469.77 -5533.97 -5001.32 -5000.00 -5000.00 -5000.00 -5000.00 -5000.00 -5000.00
-9943.07 -9596.62 -9943.21 -9997.32 -9997.45 -9997.46 -9999.87 -10017.66 -10020.06 -10020.07 -10020.07 -10020.07 -10020.06 -10017.64 -9999.74 -9997.32 -9997.31 -9997.31 -9997.31 -9997.31 -9997.21 -9996.50 -9996.40 -9996.40 -9996.40 -9996.40 -9996.40 -9997.64 -10006.75 -10007.99 -10007.99 -10007.99 -10007.99 -10007.99 -10007.90 -10007.23 -10007.14 -10007.14 -10007.14 -10006.16 -9609.61 -6659.83 -6054.38 -5563.75 -5411.36 -5235.61 -5147.52 -5119.46 -5012.62 -4447.62 -4357.32 -4379.73 -4388.41 -4400.38 -4396.78 -3991.41 -1127.42 -733.87 -711.56 -682.14 -652.54 -572.49 -514.93 -39.07 55.36 205.83 266.64 179.07 66.55 67.37 187.17 35.48 -13.49 -15.15 -26.23 -41.50 -48.74 -39.18 -38.55 -38.69 -38.19 -36.09 -28.38 -49.05 -274.72 -259.06 -235.27 -159.10 -306.79 -1277.69 -5124.39 -7647.35 -7926.79 -7927.61 -7927.61 -7927.61 -7927.04 -7694.75 -5978.40 -5746.12 -5745.54 -5745.54 -5745.54 -5746.34 -6069.88 -8460.51 -8784.05 -8784.85 -8784.85 -8784.85 -8785.17 -8914.27 -9868.17 -9997.27 -9997.59 -9997.59 -9997.59 -9997.59 -9999.91 -10017.08 -10019.41 -10019.41 -10019.41 -10019.41 -10019.41 -10017.82 -10006.05 -10004.46 -10004.45 -10004.45 -10004.45 -10003.13 -9470.41 -5534.05 -5001.32 -5000.00 -5000.00 -5000.00 -5000.00 -5000.00 -5000.00
-9595.65 -7035.70 -9596.64 -9996.48 -9997.48 -9997.48 -9999.89 -10017.66 -10020.07 -10020.07 -10020.07 -10020.07 -10020.07 -10017.64 -9999.74 -9997.31 -9997.31 -9997.31 -9997.31 -9997.31 -9997.21 -9996.49 -9996.40 -9996.40 -9996.40 -9996.40 -9996.40 -9997.63 -10006.76 -10007.99 -10008.00 -10008.00 -10008.00 -10008.00 -10007.91 -10007.30 -10007.21 -10007.21 -10007.21 -10007.10 -9960.93 -9615.74 -9120.26 -5952.95 -5415.49 -5221.65 -5173.58 -5103.93 -5017.39 -4467.73 -4384.63 -4394.38 -4393.75 -4392.26 -4400.87 -4022.14 -1153.50 -751.29 -722.90 -693.50 -664.73 -610.34 -573.76 -102.24 -37.06 63.01 186.69 213.30 138.76 12.04 72.89 24.28 -3.38 -16.95 -28.20 -41.61 -49.42 -39.40 -38.67 -38.65 -37.69 -35.20 -28.28 -47.80 -259.36 -259.84 -238.06 -196.84 -709.58 -4023.06 -5496.35 -7648.93 -7926.38 -7927.06 -7927.06 -7927.06 -7926.49 -7694.15 -5977.35 -5745.00 -5744.43 -5744.43 -5744.43 -5745.23 -6068.87 -8460.23 -8783.86 -8784.66 -8784.66 -8784.66 -8784.98 -8914.10 -9868.15 -9997.27 -9997.59 -9997.59 -9997.59 -9997.60 -9999.92 -10017.09 -10019.41 -10019.42 -10019.42 -10019.42 -10019.41 -10017.82 -10006.05 -10004.46 -10004.46 -10004.46 -10004.46 -10003.14 -9470.41 -5534.05 -5001.32 -5000.00 -5000.00 -5000.00 -5000.00 -5000.00 -5000.00
-9943.10 -9596.64 -9943.23 -9997.34 -9997.48 -9997.48 -9999.89 -10017.66 -10020.07 -10020.07 -10020.07 -10020.07 -10020.07 -10017.64 -9999.74 -9997.31 -9997.31 -9997.31 -9997.31 -9997.31 -9997.21 -9996.49 -9996.40 -9996.40 -9996.40 -9996.40 -9996.40 -9997.63 -10006.76 -10007.99 -10008.00 -10008.00 -10008.00 -10008.00 -10007.91 -10007.30 -10007.21 -10007.21 -10007.21 -10007.21 -10007.10 -10005.45 -9530.35 -5959.47 -5167.13 -5083.15 -5110.86 -5103.77 -5013.90 -4466.36 -4390.91 -4394.31 -4396.05 -4403.96 -4427.01 -4035.14 -1169.18 -758.12 -733.36 -709.07 -662.96 -658.36 -597.27 -136.95 -84.84 -39.27 146.64 115.60 9.15 -41.29 -0.69 52.43 15.47 17.28 -22.54 -40.82 -50.14 -39.87 -38.93 -38.75 -37.52 -34.17 -27.53 -49.77 -276.84 -298.11 -269.75 -241.78 -446.30 -1830.47 -5199.10 -7648.19 -7926.38 -7927.06 -7927.06 -7927.06 -7926.49 -7694.15 -5977.35 -5745.00 -5744.43 -5744.43 -5744.43 -5745.23 -6068.86 -8460.11 -8782.85 -8783.37 -8783.35 -8783.49 -8784.84 -8914.10 -9868.15 -9997.27 -9997.59 -9997.59 -9997.59 -9997.60 -9999.92 -10017.09 -10019.41 -10019.42 -10019.42 -10019.42 -10019.41 -10017.82 -10006.05 -10004.46 -10004.46 -10004.46 -10004.46 -10003.14 -9470.41 -5534.05 -5001.32 -5000.00 -5000.00 -5000.00 -5000.00 -5000.00 -5000.00
-9997.34 -9996.48 -9997.34 -9997.47 -9997.47 -9997.48 -9999.88 -10017.66 -10020.06 -10020.07 -10020.07 -10020.07 -10020.06 -10017.64 -9999.73 -9997.31 -9997.30 -9997.30 -9997.30 -9997.30 -9997.20 -9996.49 -9996.40 -9996.40 -9996.40 -9996.40 -9996.40 -9997.63 -10006.76 -10007.99 -10007.99 -10007.99 -10007.99 -10007.99 -10007.91 -10007.29 -10007.21 -10007.21 -10007.21 -10007.21 -10007.21 -10006.52 -9575.05 -6286.89 -5253.01 -5152.53 -5128.81 -5143.71 -5032.62 -4472.06 -4399.77 -4395.07 -4393.79 -4421.17 -4433.83 -4025.87 -1163.21 -756.37 -734.24 -719.12 -697.58 -687.33 -630.18 -164.26 -95.57 -63.59 -24.98 -21.70 -43.37 -72.23 -26.41 -1.31 -14.35 -3.88 -25.01 -41.05 -51.77 -41.42 -39.83 -39.47 -37.52 -33.51 -27.29 -51.81 -289.00 -290.47 -267.28 -295.25 -336.24 -939.46 -5078.17 -7647.13 -7925.56 -7926.24 -7926.24 -7926.24 -7925.67 -7693.48 -5977.83 -5745.64 -5745.06 -5745.06 -5745.06 -5745.73 -6068.17 -8411.73 -8376.67 -8263.25 -8252.31 -8308.58 -8728.31 -8914.16 -9868.17 -9997.27 -9997.59 -9997.59 -9997.59 -9997.59 -9999.91 -10017.08 -10019.41 -10019.41 -10019.41 -10019.41 -10019.41 -10017.82 -10006.05 -10004.46 -10004.46 -10004.46 -10004.46 -10003.14 -9470.41 -5534.05 -5001.32 -5000.00 -5000.00 -5000.00 -5000.00 -5000.00 -5000.00
-9996.22 -9996.22 -9996.22 -9996.22 -9996.22 -9996.23 -9998.52 -10015.47 -10017.76 -10017.76 -10017.76 -10017.76 -10017.76 -10015.39 -9997.90 -9995.54 -9995.53 -9995.53 -9995.53 -9995.53 -9995.61 -9996.20 -9996.28 -9996.28 -9996.28 -9996.28 -9996.29 -9997.49 -10006.39 -10007.60 -10007.60 -10007.60 -10007.60 -10007.60 -10007.28 -10004.94 -10004.62 -10004.62 -10004.62 -10004.62 -10004.62 -10005.01 -9955.97 -9206.82 -6416.77 -5757.31 -5637.10 -5791.19 -5693.44 -5093.21 -5009.05 -5028.77 -5015.14 -5038.65 -4952.40 -4156.01 -1448.83 -1081.67 -1061.89 -1035.18 -1009.93 -980.17 -945.83 -291.40 -194.50 -180.31 -191.01 -194.30 -202.03 -186.92 -46.88 -30.14 -25.92 -23.33 -31.71 -45.28 -55.55 -41.25 -38.93 -37.32 -34.85 -30.37 -24.00 -39.96 -207.31 -207.96 -158.37 -218.08 -230.70 -763.56 -4943.84 -7341.18 -7595.01 -7595.63 -7595.63 -7595.63 -7595.21 -7425.59 -6172.22 -6002.60 -6002.06 -6001.18 -6000.75 -5945.04 -5833.49 -7744.56 -5753.29 -4555.35 -4424.47 -4915.55 -8404.27 -8995.13 -9876.58 -9995.71 -9996.01 -9996.01 -9996.01 -9996.02 -9998.33 -10015.45 -10017.77 -10017.78 -10017.78 -10017.78 -10017.77 -10016.44 -10006.64 -10005.31 -10005.31 -10005.31 -10005.31 -10003.99 -9471.17 -5534.14 -5001.32 -5000.00 -5000.00 -5000.00 -5000.00 -5000.00 -5000.00
-9986.96 -9986.96 -9986.96 -9986.96 -9986.96 -9986.96 -9988.43 -9999.28 -10000.75 -10000.75 -10000.75 -10000.75 -10000.75 -9998.80 -9984.41 -9982.46 -9982.45 -9982.45 -9982.45 -9982.46 -9983.84 -9994.08 -9995.46 -9995.47 -9995.47 -9995.47 -9995.47 -9996.45 -10003.71 -10004.69 -10004.69 -10004.69 -10004.69 -10004.69 -10002.64 -9987.54 -9985.49 -9985.49 -9985.49 -9985.49 -9985.49 -9987.02 -9998.04 -9949.64 -9582.47 -9493.28 -9477.24 -9498.20 -9486.16 -9409.41 -9398.55 -9401.36 -9399.51 -9401.12 -8928.04 -5310.48 -3709.00 -3542.76 -3536.26 -3527.09 -3518.45 -3509.64 -3240.79 -1193.21 -914.22 -930.63 -942.21 -947.05 -950.42 -854.95 -155.60 -59.25 -54.15 -40.66 -45.96 -60.95 -67.16 -28.77 -21.36 -18.39 -15.27 -10.19 -3.27 54.77 439.06 500.96 529.05 500.40 494.70 8.45 -3694.70 -5035.49 -5152.31 -5151.71 -5152.59 -5152.73 -5153.46 -5445.98 -7607.44 -7899.80 -7853.54 -7496.98 -7377.63 -6951.23 -4059.62 -5323.41 -7785.26 -5058.47 -5078.02 -5755.51 -9105.24 -9601.01 -9938.70 -9984.25 -9984.36 -9984.36 -9984.36 -9984.37 -9986.64 -10003.41 -10005.68 -10005.68 -10005.68 -10005.68 -10005.69 -10006.31 -10010.95 -10011.58 -10011.58 -10011.58 -10011.58 -10010.26 -9476.77 -5534.81 -5001.32 -5000.00 -5000.00 -5000.00 -5000.00 -5000.00 -5000.00
-9985.71 -9985.71 -9985.71 -9985.71 -9985.71 -9985.71 -9987.07 -9997.09 -9998.45 -9998.45 -9998.45 -9998.45 -9998.45 -9996.56 -9982.58 -9980.69 -9980.68 -9980.68 -9980.68 -9980.69 -9982.25 -9993.79 -9995.35 -9995.36 -9995.36 -9995.36 -9995.36 -9996.31 -10003.35 -10004.30 -10004.30 -10004.30 -10004.30 -10004.29 -10002.02 -9985.18 -9982.91 -9982.90 -9982.90 -9982.90 -9982.90 -9984.57 -9996.84 -9998.38 -9997.48 -9997.26 -9997.22 -9997.27 -9996.74 -9992.87 -9992.34 -9992.35 -9992.34 -9991.06 -9469.29 -5488.33 -4018.83 -3877.21 -3895.75 -3905.74 -3901.53 -3893.66 -3589.20 -1362.27 -1051.83 -1050.82 -1059.75 -1068.88 -1066.58 -962.78 -188.53 -80.43 -78.62 -69.00 -66.99 -79.29 -81.04 -31.18 -18.76 -14.75 -11.72 -5.34 1.41 68.49 526.20 594.31 601.00 595.08 593.33 447.50 -1031.38 -4384.79 -4764.80 -4407.46 -4766.00 -4821.98 -4822.72 -5120.19 -7323.37 -7603.46 -7254.62 -4603.00 -3681.20 -3763.38 -3886.86 -4768.04 -5577.32 -5695.58 -8705.36 -9195.23 -9594.86 -9683.99 -9947.11 -9982.70 -9982.79 -9982.79 -9982.79 -9982.79 -9985.06 -10001.78 -10004.04 -10004.05 -10004.05 -10004.05 -10004.05 -10004.94 -10011.53 -10012.42 -10012.43 -10012.43 -10012.43 -10011.10 -9477.53 -5534.90 -5001.32 -5000.00 -5000.00 -5000.00 -5000.00 -5000.00 -5000.00
-9985.70 -9985.70 -9985.70 -9985.70 -9985.70 -9985.71 -9987.06 -9997.09 -9998.44 -9998.45 -9998.45 -9998.45 -9998.44 -9996.55 -9982.58 -9980.68 -9980.68 -9980.68 -9980.68 -9980.68 -9982.25 -9993.79 -9995.35 -9995.36 -9995.36 -9995.36 -9995.36 -9996.31 -10003.35 -10004.30 -10004.30 -10004.30 -10004.30 -10004.29 -10002.02 -9985.18 -9982.90 -9982.89 -9982.89 -9982.89 -9982.90 -9984.56 -9996.84 -9998.50 -9998.51 -9998.51 -9998.51 -9998.51 -9998.01 -9994.31 -9993.81 -9993.81 -9993.81 -9992.51 -9468.24 -5471.10 -4021.79 -3920.49 -3959.60 -3958.06 -3935.37 -3920.53 -3613.04 -1399.46 -1107.33 -1087.65 -1087.91 -1079.48 -1058.76 -957.54 -189.93 -86.33 -90.35 -90.68 -89.51 -86.38 -82.23 -27.37 -13.83 -10.11 -5.86 -0.34 5.34 70.96 527.50 593.48 594.85 594.41 593.91 530.11 -395.02 -3933.76 -4355.15 -1757.23 -4406.64 -4819.99 -4763.04 -4276.02 -3698.88 -3468.67 -3452.57 -2970.17 -2520.51 -4126.14 -6497.39 -5296.96 -8630.60 -9174.51 -9539.09 -9270.20 -9597.59 -9684.19 -9947.13 -9982.70 -9982.79 -9982.79 -9982.79 -9982.79 -9985.05 -10001.77 -10004.04 -10004.04 -10004.04 -10004.04 -10004.05 -10004.94 -10011.53 -10012.43 -10012.43 -10012.43 -10012.43 -10011.11 -9477.53 -5534.90 -5001.32 -5000.00 -5000.00 -5000.00 -5000.00 -5000.00 -5000.00
-9985.70 -9985.70 -9985.70 -9985.70 -9985.70 -9985.71 -9987.06 -9997.09 -9998.44 -9998.45 -9998.45 -9998.45 -9998.44 -9996.55 -9982.58 -9980.68 -9980.68 -9980.68 -9980.68 -9980.68 -9982.25 -9993.79 -9995.35 -9995.36 -9995.36 -9995.36 -9995.36 -9996.31 -10003.35 -10004.30 -10004.30 -10004.30 -10004.30 -10004.29 -10002.02 -9985.18 -9982.90 -9982.89 -9982.89 -9982.89 -9982.90 -9984.56 -9996.84 -9998.50 -9998.51 -9998.51 -9998.51 -9998.51 -9998.01 -9994.31 -9993.81 -9993.81 -9993.81 -9992.53 -9474.95 -5524.18 -4056.44 -3947.86 -4068.32 -4074.74 -4035.79 -3966.48 -3628.48 -1435.29 -1201.30 -1122.76 -1111.23 -1105.50 -1086.88 -981.50 -204.13 -92.17 -90.98 -85.40 -84.10 -79.58 -71.71 -14.91 -4.10 -0.96 2.28 6.23 10.82 75.57 530.99 593.78 594.35 593.90 591.33 581.92 365.85 -1107.89 -4337.07 -4405.45 -4764.90 -4762.02 -3919.77 -980.58 -2348.04 -2498.75 -2935.46 -2862.11 -3135.17 -3564.01 -3800.10 -5150.14 -9068.57 -9199.28 -8782.81 -6398.77 -9215.77 -9683.25 -9947.13 -9982.70 -9982.79 -9982.79 -9982.79 -9982.79 -9985.05 -10001.77 -10004.04 -10004.04 -10004.04 -10004.04 -10004.05 -10004.94 -10011.53 -10012.43 -10012.43 -10012.43 -10012.43 -10011.11 -9477.53 -5534.90 -5001.32 -5000.00 -5000.00 -5000.00 -5000.00 -5000.00 -5000.00
-9985.71 -9985.71 -9985.71 -9985.71 -9985.71 -9985.72 -9987.07 -9997.09 -9998.44 -9998.44 -9998.44 -9998.44 -9998.44 -9996.55 -9982.58 -9980.69 -9980.69 -9980.69 -9980.69 -9980.69 -9982.26 -9993.79 -9995.35 -9995.36 -9995.36 -9995.36 -9995.36 -9996.31 -10003.34 -10004.29 -10004.30 -10004.30 -10004.30 -10004.29 -10002.01 -9985.18 -9982.90 -9982.90 -9982.90 -9982.90 -9982.90 -9984.57 -9996.85 -9998.51 -9998.51 -9998.51 -9998.51 -9998.51 -9998.00 -9994.24 -9993.74 -9993.73 -9993.73 -9992.71 -9577.46 -6370.57 -4913.91 -4779.58 -4717.04 -4335.97 -4240.24 -4099.74 -3691.34 -1478.91 -1236.47 -1167.94 -1149.01 -1133.85 -1120.81 -1010.30 -213.89 -98.32 -84.14 -73.93 -77.80 -76.60 -56.10 -3.25 5.59 7.73 10.06 13.16 17.04 82.40 536.66 596.80 597.94 597.67 586.94 576.32 490.78 -381.82 -3895.82 -4763.43 -4763.13 -3920.37 -620.54 392.21 -852.98 -2388.19 -2968.91 -2470.56 -3499.90 -3490.40 -3380.46 -5014.29 -8254.96 -5944.02 -5931.64 -5790.01 -9176.85 -9682.89 -9947.10 -9982.70 -9982.79 -9982.79 -9982.79 -9982.79 -9985.05 -10001.77 -10004.04 -10004.04 -10004.04 -10004.04 -10004.04 -10004.94 -10011.54 -10012.43 -10012.43 -10012.43 -10012.43 -10011.11 -9477.53 -5534.90 -5001.32 -5000.00 -5000.00 -5000.00 -5000.00 -5000.00 -5000.00
-9989.47 -9989.47 -9989.47 -9989.47 -9989.47 -9989.47 -9990.32 -9996.54 -9997.38 -9997.39 -9997.39 -9997.39 -9997.38 -9996.03 -9986.08 -9984.73 -9984.72 -9984.72 -9984.72 -9984.73 -9985.87 -9994.36 -9995.51 -9995.51 -9995.51 -9995.51 -9995.51 -9996.29 -10002.07 -10002.85 -10002.85 -10002.85 -10002.85 -10002.85 -10000.96 -9987.00 -9985.12 -9985.11 -9985.11 -9985.11 -9985.11 -9986.79 -9999.13 -10000.80 -10000.81 -10000.81 -10000.81 -10000.80 -9996.80 -9967.27 -9963.28 -9963.27 -9963.27 -9963.14 -9914.12 -9428.20 -8448.61 -8276.93 -7591.81 -4990.45 -4612.34 -4636.27 -3784.10 -1499.94 -1364.32 -1262.63 -1210.71 -1192.89 -1159.74 -1041.56 -152.71 -7.86 3.27 7.30 -3.02 13.60 33.10 79.20 86.60 87.12 88.82 91.36 96.46 146.03 445.33 486.00 494.87 500.98 473.51 450.76 333.63 -328.05 -1245.86 -4317.36 -4314.60 -1093.16 344.99 1168.32 -1603.55 -3046.89 -3336.65 -3309.02 -3623.60 -3455.05 -3569.12 -4621.50 -5470.01 -6013.97 -8678.41 -9053.84 -9469.97 -9575.46 -9934.46 -9983.03 -9983.15 -9983.15 -9983.15 -9983.16 -9985.32 -10001.30 -10003.46 -10003.47 -10003.47 -10003.47 -10003.47 -10004.49 -10012.02 -10013.04 -10013.04 -10013.04 -10013.04 -10011.72 -9478.08 -5534.97 -5001.32 -5000.00 -5000.00 -5000.00 -5000.00 -5000.00 -5000.00
-10017.24 -10017.24 -10017.24 -10017.24 -10017.24 -10017.23 -10014.29 -9992.52 -9989.57 -9989.56 -9989.56 -9989.56 -9989.57 -9992.23 -10011.86 -10014.52 -10014.53 -10014.53 -10014.53 -10014.52 -10012.62 -9998.57 -9996.66 -9996.66 -9996.66 -9996.66 -9996.66 -9996.18 -9992.65 -9992.17 -9992.17 -9992.17 -9992.17 -9992.17 -9993.16 -10000.46 -10001.45 -10001.45 -10001.45 -10001.45 -10001.45 -10003.19 -10016.02 -10017.75 -10017.76 -10017.76 -10017.76 -10017.68 -9987.92 -9767.97 -9738.20 -9738.13 -9738.13 -9738.13 -9737.69 -9608.29 -8657.63 -8136.89 -5185.86 -4393.94 -4636.79 -6866.91 -4619.71 -1705.36 -1432.94 -1337.61 -1300.49 -1343.84 -1345.55 -1128.34 336.85 581.30 588.80 572.54 580.06 603.14 617.35 629.99 631.70 630.84 631.30 635.24 647.93 530.95 -346.04 -459.83 -470.38 -465.37 -489.01 -497.07 -828.87 -3183.25 -3557.72 -3966.41 -4010.09 -3274.11 -1746.20 -753.60 -3715.67 -4455.26 -4880.15 -4920.64 -5227.16 -5481.17 -5235.31 -5303.57 -7763.78 -8212.42 -8579.75 -8628.24 -8629.74 -8774.27 -9841.11 -9985.50 -9985.85 -9985.85 -9985.85 -9985.86 -9987.28 -9997.81 -9999.23 -9999.24 -9999.24 -9999.24 -9999.24 -10001.19 -10015.62 -10017.57 -10017.58 -10017.58 -10017.58 -10016.26 -9482.13 -5535.45 -5001.32 -5000.00 -5000.00 -5000.00 -5000.00 -5000.00 -5000.00
-10021.00 -10021.00 -10021.00 -10021.00 -10021.00 -10020.99 -10017.53 -9991.97 -9988.51 -9988.50 -9988.50 -9988.50 -9988.51 -9991.71 -10015.35 -10018.55 -10018.56 -10018.56 -10018.56 -10018.56 -10016.24 -9999.14 -9996.82 -9996.81 -9996.81 -9996.81 -9996.81 -9996.16 -9991.37 -9990.72 -9990.72 -9990.72 -9990.72 -9990.73 -9992.10 -10002.28 -10003.66 -10003.66 -10003.66 -10003.66 -10003.67 -10005.41 -10018.30 -10020.05 -10020.05 -10020.05 -10020.05 -10019.97 -9986.71 -9740.99 -9707.74 -9707.66 -9707.66 -9707.66 -9707.34 -9578.17 -8622.57 -8027.37 -4624.55 -4459.87 -4408.63 -4453.66 -6577.24 -2854.16 -1836.13 -1476.16 -1381.12 -1358.83 -1360.57 -1130.86 396.45 636.16 641.98 659.75 667.50 687.54 706.07 711.06 716.61 715.38 718.08 725.59 726.74 587.76 -460.50 -600.41 -589.12 -603.47 -609.92 -611.68 -965.93 -3498.41 -3851.59 -3799.18 -3660.99 -3393.40 -1516.14 -2252.08 -4753.68 -5995.89 -8585.27 -8922.92 -8962.62 -9000.47 -8876.16 -8219.03 -8461.32 -8506.94 -8507.96 -8508.08 -8508.47 -8665.82 -9828.48 -9985.83 -9986.22 -9986.22 -9986.22 -9986.22 -9987.55 -9997.33 -9998.66 -9998.66 -9998.66 -9998.66 -9998.67 -10000.75 -10016.11 -10018.19 -10018.19 -10018.19 -10018.19 -10016.87 -9482.68 -5535.51 -5001.32 -5000.00 -5000.00 -5000.00 -5000.00 -5000.00 -5000.00
-10021.01 -10021.01 -10021.01 -10021.01 -10021.01 -10021.00 -10017.54 -9991.97 -9988.51 -9988.50 -9988.50 -9988.50 -9988.51 -9991.71 -10015.36 -10018.56 -10018.57 -10018.57 -10018.57 -10018.57 -10016.25 -9999.14 -9996.82 -9996.81 -9996.81 -9996.81 -9996.81 -9996.16 -9991.37 -9990.72 -9990.72 -9990.72 -9990.72 -9990.72 -9992.10 -10002.29 -10003.66 -10003.67 -10003.67 -10003.67 -10003.67 -10005.42 -10018.31 -10020.05 -10020.06 -10020.06 -10020.06 -10019.97 -9986.71 -9740.93 -9707.66 -9707.58 -9707.58 -9707.58 -9707.26 -9578.09 -8623.49 -8437.28 -8021.25 -8005.87 -7583.39 -4450.30 -4067.45 -4816.24 -2566.85 -1504.76 -1394.12 -1333.68 -1291.56 -1089.33 421.64 635.89 637.20 653.50 671.41 686.84 698.08 709.15 716.67 719.74 726.81 733.22 738.24 598.55 -455.81 -579.97 -561.16 -576.96 -591.45 -594.43 -928.27 -3435.84 -3769.29 -3552.62 -2691.95 -2684.78 -2207.26 -4424.35 -8419.16 -9050.87 -9401.78 -9447.67 -9447.88 -9447.73 -9347.47 -8607.27 -8507.91 -8507.78 -8507.78 -8507.78 -8508.17 -8665.55 -9828.45 -9985.83 -9986.22 -9986.22 -9986.22 -9986.22 -9987.55 -9997.33 -9998.66 -9998.66 -9998.66 -9998.66 -9998.67 -10000.75 -10016.11 -10018.19 -10018.19 -10018.19 -10018.19 -10016.87 -9482.68 -5535.51 -5001.32 -5000.00 -5000.00 -5000.00 -5000.00 -5000.00 -5000.00
-10021.01 -10021.01 -10021.01 -10021.01 -10021.01 -10021.00 -10017.54 -9991.97 -9988.51 -9988.50 -9988.50 -9988.50 -9988.51 -9991.71 -10015.36 -10018.56 -10018.57 -10018.57 -10018.57 -10018.57 -10016.25 -9999.14 -9996.82 -9996.81 -9996.81 -9996.81 -9996.81 -9996.16 -9991.37 -9990.72 -9990.72 -9990.72 -9990.72 -9990.72 -9992.10 -10002.29 -10003.66 -10003.67 -10003.67 -10003.67 -10003.67 -10005.42 -10018.31 -10020.05 -10020.06 -10020.06 -10020.06 -10019.97 -9986.71 -9740.93 -9707.66 -9707.58 -9707.58 -9707.58 -9707.26 -9578.09 -8623.63 -8494.32 -8492.97 -8492.79 -8435.08 -7535.98 -3775.24 -2577.98 -4964.44 -2297.17 -1356.73 -1277.40 -1254.49 -1059.03 448.87 652.30 654.67 659.72 672.61 684.96 694.06 703.72 709.02 716.09 723.52 740.52 743.33 597.21 -460.03 -580.86 -518.72 -462.59 -521.91 -395.20 -691.87 -3098.34 -3415.44 -3199.16 -2386.96 -2741.77 -3295.30 -7235.09 -8802.39 -9386.75 -9447.66 -9447.76 -9447.74 -9447.43 -9347.22 -8607.04 -8507.89 -8507.78 -8507.78 -8507.78 -8508.17 -8665.55 -9828.45 -9985.83 -9986.22 -9986.22 -9986.22 -9986.22 -9987.55 -9997.33 -9998.66 -9998.66 -9998.66 -9998.66 -9998.67 -10000.75 -10016.11 -10018.19 -10018.19 -10018.19 -10018.19 -10016.87 -9482.68 -5535.51 -5001.32 -5000.00 -5000.00 -5000.00 -5000.00 -5000.00 -5000.00
-10021.00 -10021.00 -10021.00 -10021.00 -10021.00 -10020.99 -10017.53 -9991.97 -9988.52 -9988.51 -9988.51 -9988.51 -9988.52 -9991.71 -10015.36 -10018.56 -10018.56 -10018.56 -10018.56 -10018.56 -10016.24 -9999.13 -9996.82 -9996.81 -9996.81 -9996.81 -9996.81 -9996.16 -9991.37 -9990.73 -9990.73 -9990.73 -9990.73 -9990.73 -9992.11 -10002.28 -10003.66 -10003.66 -10003.66 -10003.66 -10003.67 -10005.41 -10018.30 -10020.04 -10020.05 -10020.05 -10020.05 -10019.97 -9986.70 -9740.89 -9707.62 -9707.54 -9707.54 -9707.54 -9707.22 -9577.98 -8623.06 -8493.82 -8493.50 -8493.50 -8492.17 -8010.19 -4280.30 -2837.05 -5376.62 -5304.98 -2152.94 -1313.25 -1217.45 -1041.17 465.01 662.67 661.88 662.73 671.55 682.57 691.66 702.40 713.43 729.95 747.07 746.50 759.93 608.93 -433.73 -546.99 -401.29 171.52 -146.90 188.05 21.04 -2402.05 -2111.06 -2127.37 -2212.03 -3294.09 -3415.17 -3472.26 -5468.86 -8941.54 -8978.09 -8913.57 -8903.37 -8878.01 -8774.87 -8126.22 -8449.96 -8506.89 -8508.03 -8508.16 -8508.55 -8665.89 -9828.49 -9985.83 -9986.22 -9986.22 -9986.22 -9986.22 -9987.55 -9997.33 -9998.65 -9998.66 -9998.66 -9998.66 -9998.66 -10000.74 -10016.11 -10018.19 -10018.19 -10018.19 -10018.19 -10016.87 -9482.68 -5535.51 -5001.32 -5000.00 -5000.00 -5000.00 -5000.00 -5000.00 -5000.00
-10017.05 -10017.05 -10017.05 -10017.05 -10017.05 -10017.04 -10014.26 -9993.66 -9990.87 -9990.87 -9990.87 -9990.87 -9990.87 -9993.47 -10012.70 -10015.30 -10015.30 -10015.30 -10015.30 -10015.30 -10013.13 -9997.09 -9994.92 -9994.92 -9994.92 -9994.92 -9994.92 -9994.76 -9993.58 -9993.43 -9993.42 -9993.42 -9993.42 -9993.43 -9994.40 -10001.59 -10002.56 -10002.56 -10002.56 -10002.56 -10002.57 -10004.01 -10014.67 -10016.11 -10016.11 -10016.11 -10016.11 -10016.03 -9981.40 -9725.52 -9690.89 -9690.80 -9690.80 -9690.80 -9690.42 -9535.58 -8391.46 -8236.62 -8236.24 -8236.24 -8236.10 -8178.01 -7493.32 -5188.77 -2859.25 -5300.65 -5276.09 -2135.03 -1267.37 -1058.26 191.38 347.64 346.80 350.31 359.08 369.40 356.55 206.68 202.74 209.04 222.47 230.37 231.64 89.44 -832.19 -887.31 -542.82 307.93 473.66 781.08 48.42 -2157.00 -2120.44 -2286.96 -2687.82 -2589.18 -2868.09 -3873.22 -7889.65 -8449.43 -5419.34 -4924.65 -4884.13 -4707.76 -4594.98 -4630.78 -7613.91 -8205.41 -8610.56 -8662.89 -8663.37 -8804.17 -9844.55 -9985.35 -9985.70 -9985.70 -9985.70 -9985.71 -9986.94 -9996.09 -9997.33 -9997.33 -9997.33 -9997.33 -9997.34 -9999.50 -10015.47 -10017.63 -10017.64 -10017.64 -10017.64 -10016.31 -9482.18 -5535.46 -5001.32 -5000.00 -5000.00 -5000.00 -5000.00 -5000.00 -5000.00
-9987.88 -9987.88 -9987.88 -9987.88 -9987.88 -9987.88 -9990.06 -10006.12 -10008.29 -10008.30 -10008.30 -10008.30 -10008.29 -10006.47 -9993.05 -9991.23 -9991.23 -9991.23 -9991.23 -9991.23 -9990.13 -9982.02 -9980.92 -9980.92 -9980.92 -9980.92 -9980.93 -9984.38 -10009.91 -10013.36 -10013.37 -10013.37 -10013.37 -10013.37 -10011.35 -9996.44 -9994.43 -9994.42 -9994.42 -9994.42 -9994.42 -9993.63 -9987.83 -9987.05 -9987.04 -9987.04 -9987.04 -9986.93 -9942.23 -9611.95 -9567.26 -9567.15 -9567.15 -9567.15 -9566.29 -9222.26 -6680.19 -6336.16 -6335.31 -6335.31 -6335.31 -6334.02 -5869.08 -2376.41 -1451.92 -2025.05 -5316.70 -5207.53 -1684.93 -1287.90 -1885.83 -1981.54 -1978.32 -1969.56 -1959.04 -1948.23 -2121.60 -3467.77 -3641.22 -3637.10 -3622.55 -3609.60 -3582.39 -3598.64 -3854.61 -3640.85 -2486.57 -2196.08 -1719.33 -1394.10 -2148.80 -2031.16 -2040.14 -3493.76 -3190.99 -4333.10 -7908.33 -8147.45 -5918.70 -5523.79 -4792.92 -4652.50 -4853.25 -4513.76 -4425.76 -4669.52 -4531.54 -5855.69 -9348.36 -9805.99 -9807.34 -9825.93 -9963.24 -9981.83 -9981.87 -9981.87 -9981.87 -9981.87 -9982.48 -9986.93 -9987.53 -9987.53 -9987.53 -9987.53 -9987.54 -9990.31 -10010.75 -10013.52 -10013.53 -10013.53 -10013.53 -10012.20 -9478.51 -5535.02 -5001.32 -5000.00 -5000.00 -5000.00 -5000.00 -5000.00 -5000.00
