-9971.09 -9971.09 -9971.09 -9971.09 -9971.09 -9971.10 -9974.03 -9995.73 -9998.66 -9998.67 -9998.67 -9998.67 -9998.66 -9997.00 -9984.74 -9983.08 -9983.08 -9983.08 -9983.08 -9983.08 -9984.88 -9998.19 -10000.00 -10000.00 -10000.00 -10000.00 -10000.00 -9998.07 -9983.83 -9981.91 -9981.90 -9981.90 -9981.90 -9981.91 -9983.83 -9998.06 -9999.99 -9999.99 -9999.99 -9999.99 -9999.99 -9997.80 -9981.66 -9979.48 -9979.47 -9979.47 -9979.47 -9979.47 -9979.17 -9976.96 -9976.67 -9976.66 -9976.66 -9976.66 -9976.67 -9976.83 -9978.07 -9978.23 -9978.23 -9978.23 -9978.23 -9978.23 -9977.69 -9973.65 -9973.10 -9973.10 -9973.10 -9973.10 -9973.10 -9973.47 -9976.20 -9976.57 -9976.57 -9976.57 -9976.57 -9976.57 -9975.91 -9971.04 -9970.38 -9970.38 -9970.38 -9970.38 -9970.02 -9826.17 -8763.27 -8619.42 -8617.85 -8179.84 -4929.44 -4375.59 -5230.24 -9389.01 -9947.08 -9948.60 -9948.60 -9948.60 -9948.60 -9951.02 -9968.85 -9971.27 -9971.27 -9971.27 -9971.27 -9971.28 -9974.34 -9996.93 -9999.99 -10000.00 -10000.00 -10000.00 -9999.99 -9999.72 -9997.66 -9997.38 -9997.38 -9997.38 -9997.38 -9997.38 -9997.62 -9999.37 -9999.61 -9999.61 -9999.61 -9999.61 -9999.61 -9999.65 -9999.96 -10000.00 -10000.00 -10000.00 -10000.00 -9998.68 -9466.43 -5533.57 -5001.32 -5000.00 -5000.00 -5000.00 -5000.00 -5000.00 -5000.00
-9971.24 -9971.24 -9971.24 -9971.24 -9971.24 -9971.25 -9974.01 -9994.45 -9997.22 -9997.23 -9997.23 -9997.23 -9997.22 -9995.91 -9986.20 -9984.88 -9984.88 -9984.88 -9984.88 -9984.88 -9986.49 -9998.39 -10000.00 -10000.00 -10000.00 -10000.00 -10000.00 -9997.98 -9983.08 -9981.07 -9981.06 -9981.06 -9981.06 -9981.07 -9982.79 -9995.55 -9997.27 -9997.28 -9997.28 -9997.28 -9997.27 -9995.61 -9983.32 -9981.66 -9981.66 -9981.66 -9981.66 -9981.66 -9981.25 -9978.25 -9977.85 -9977.85 -9977.85 -9977.85 -9977.85 -9977.83 -9977.70 -9977.68 -9977.68 -9977.68 -9977.68 -9977.68 -9977.49 -9976.15 -9975.96 -9975.96 -9975.96 -9975.96 -9975.96 -9976.05 -9976.70 -9976.79 -9976.79 -9976.79 -9976.79 -9976.79 -9975.19 -9963.38 -9961.78 -9961.78 -9961.78 -9961.78 -9961.33 -9782.69 -8462.71 -8283.79 -8225.09 -7333.39 -3755.24 -3332.40 -4088.30 -8738.62 -9769.01 -9826.16 -9826.30 -9826.30 -9826.34 -9841.81 -9956.12 -9971.59 -9971.63 -9971.63 -9971.63 -9971.63 -9974.46 -9995.34 -9998.17 -9998.18 -9998.18 -9998.18 -9998.17 -9997.81 -9995.16 -9994.80 -9994.80 -9994.80 -9994.80 -9994.80 -9995.17 -9997.96 -9998.33 -9998.34 -9998.34 -9998.34 -9998.34 -9998.51 -9999.76 -9999.93 -9999.93 -9999.93 -9999.93 -9998.61 -9466.37 -5533.57 -5001.32 -5000.00 -5000.00 -5000.00 -5000.00 -5000.00 -5000.00
-9972.34 -9972.34 -9972.34 -9972.34 -9972.34 -9972.34 -9973.86 -9985.04 -9986.56 -9986.56 -9986.56 -9986.56 -9986.56 -9987.80 -9996.95 -9998.19 -9998.19 -9998.19 -9998.19 -9998.19 -9998.39 -9999.81 -10000.00 -10000.00 -10000.00 -10000.00 -9999.99 -9997.32 -9977.54 -9974.86 -9974.85 -9974.85 -9974.85 -9974.85 -9975.11 -9976.97 -9977.22 -9977.22 -9977.22 -9977.22 -9977.23 -9979.42 -9995.61 -9997.80 -9997.81 -9997.81 -9997.81 -9997.81 -9996.61 -9987.79 -9986.60 -9986.59 -9986.59 -9986.59 -9986.59 -9985.20 -9974.95 -9973.56 -9973.55 -9973.55 -9973.55 -9973.56 -9976.07 -9994.61 -9997.12 -9997.13 -9997.13 -9997.13 -9997.12 -9995.14 -9980.45 -9978.47 -9978.46 -9978.46 -9978.46 -9978.44 -9969.90 -9906.78 -9898.24 -9898.22 -9898.22 -9898.22 -9897.14 -9461.42 -6241.69 -5749.34 -4919.37 -1646.51 -311.10 -543.56 -1192.18 -4611.66 -8453.08 -8921.35 -8922.64 -8922.64 -8922.92 -9034.86 -9862.01 -9973.96 -9974.23 -9974.23 -9974.23 -9974.24 -9975.35 -9983.61 -9984.72 -9984.73 -9984.73 -9984.73 -9984.73 -9983.76 -9976.64 -9975.67 -9975.67 -9975.67 -9975.67 -9975.68 -9977.08 -9987.49 -9988.89 -9988.90 -9988.90 -9988.90 -9988.90 -9990.02 -9998.31 -9999.43 -9999.43 -9999.43 -9999.43 -9998.11 -9465.92 -5533.51 -5001.32 -5000.00 -5000.00 -5000.00 -5000.00 -5000.00 -5000.00
-9972.49 -9972.49 -9972.49 -9972.49 -9972.49 -9972.49 -9973.84 -9983.77 -9985.11 -9985.12 -9985.12 -9985.12 -9985.12 -9986.71 -9998.41 -9999.99 -10000.00 -10000.00 -10000.00 -10000.00 -10000.00 -10000.00 -10000.00 -10000.00 -10000.00 -10000.00 -9999.99 -9997.23 -9976.79 -9974.02 -9974.01 -9974.01 -9974.01 -9974.01 -9974.07 -9974.46 -9974.51 -9974.51 -9974.51 -9974.51 -9974.52 -9977.23 -9997.27 -9999.99 -9999.99 -9999.99 -9999.99 -9999.99 -9998.69 -9989.08 -9987.78 -9987.78 -9987.78 -9987.78 -9987.77 -9986.20 -9974.57 -9973.00 -9973.00 -9973.00 -9973.00 -9973.00 -9975.88 -9997.11 -9999.99 -9999.99 -9999.99 -9999.99 -9999.99 -9997.72 -9980.96 -9978.69 -9978.69 -9978.69 -9978.69 -9978.66 -9969.18 -9899.13 -9889.64 -9889.62 -9889.62 -9889.62 -9888.46 -9417.94 -5940.11 -5004.44 -1481.40 -354.68 -113.37 -263.85 -693.96 -3911.35 -7855.62 -8743.44 -8800.21 -8800.35 -8800.66 -8925.65 -9849.28 -9974.28 -9974.59 -9974.59 -9974.59 -9974.59 -9975.47 -9982.02 -9982.91 -9982.91 -9982.91 -9982.91 -9982.91 -9981.86 -9974.13 -9973.09 -9973.08 -9973.08 -9973.08 -9973.09 -9974.64 -9986.07 -9987.62 -9987.62 -9987.62 -9987.62 -9987.62 -9988.87 -9998.11 -9999.36 -9999.37 -9999.37 -9999.37 -9998.05 -9465.86 -5533.51 -5001.32 -5000.00 -5000.00 -5000.00 -5000.00 -5000.00 -5000.00
-9972.49 -9972.49 -9972.49 -9972.49 -9972.49 -9972.49 -9973.84 -9983.77 -9985.11 -9985.11 -9985.11 -9985.11 -9985.12 -9986.70 -9998.41 -10000.00 -10000.00 -10000.00 -10000.00 -10000.00 -10000.00 -10000.00 -10000.00 -10000.00 -10000.00 -10000.00 -9999.99 -9997.23 -9976.78 -9974.02 -9974.01 -9974.01 -9974.01 -9974.01 -9974.06 -9974.45 -9974.50 -9974.50 -9974.50 -9974.50 -9974.51 -9977.22 -9997.28 -9999.99 -10000.00 -10000.00 -10000.00 -10000.00 -9998.70 -9989.08 -9987.78 -9987.78 -9987.78 -9987.78 -9987.78 -9986.20 -9974.57 -9973.00 -9973.00 -9973.00 -9973.00 -9973.00 -9975.88 -9997.12 -9999.99 -10000.00 -10000.00 -10000.00 -9999.99 -9997.73 -9980.96 -9978.69 -9978.69 -9978.69 -9978.69 -9978.66 -9969.18 -9899.11 -9889.62 -9889.60 -9889.60 -9889.60 -9888.43 -9417.83 -5939.24 -4952.72 -1097.60 -214.01 218.04 135.24 -515.04 -3291.84 -4800.07 -8333.17 -8798.89 -8800.04 -8800.35 -8925.38 -9849.25 -9974.28 -9974.59 -9974.59 -9974.59 -9974.59 -9975.47 -9982.02 -9982.90 -9982.90 -9982.90 -9982.90 -9982.90 -9981.85 -9974.13 -9973.08 -9973.08 -9973.08 -9973.08 -9973.08 -9974.63 -9986.07 -9987.61 -9987.62 -9987.62 -9987.62 -9987.62 -9988.87 -9998.11 -9999.36 -9999.37 -9999.37 -9999.37 -9998.05 -9465.86 -5533.51 -5001.32 -5000.00 -5000.00 -5000.00 -5000.00 -5000.00 -5000.00
-9972.49 -9972.49 -9972.49 -9972.49 -9972.49 -9972.49 -9973.84 -9983.77 -9985.11 -9985.11 -9985.11 -9985.11 -9985.12 -9986.70 -9998.41 -10000.00 -10000.00 -10000.00 -10000.00 -10000.00 -10000.00 -10000.00 -10000.00 -10000.00 -10000.00 -10000.00 -9999.99 -9997.23 -9976.78 -9974.02 -9974.01 -9974.01 -9974.01 -9974.01 -9974.06 -9974.45 -9974.50 -9974.50 -9974.50 -9974.50 -9974.51 -9977.22 -9997.28 -9999.99 -10000.00 -10000.00 -10000.00 -10000.00 -9998.70 -9989.08 -9987.78 -9987.78 -9987.78 -9987.78 -9987.78 -9986.20 -9974.57 -9973.00 -9973.00 -9973.00 -9973.00 -9973.00 -9975.88 -9997.12 -9999.99 -10000.00 -10000.00 -10000.00 -9999.99 -9997.73 -9980.96 -9978.69 -9978.69 -9978.69 -9978.69 -9978.66 -9969.18 -9899.11 -9889.62 -9889.60 -9889.60 -9889.60 -9888.43 -9417.83 -5939.12 -4959.70 -1116.29 80.32 279.73 373.27 -505.07 -3205.91 -4376.04 -8275.51 -8798.63 -8800.04 -8800.35 -8925.38 -9849.25 -9974.28 -9974.59 -9974.59 -9974.59 -9974.59 -9975.47 -9982.02 -9982.90 -9982.90 -9982.90 -9982.90 -9982.90 -9981.85 -9974.13 -9973.08 -9973.08 -9973.08 -9973.08 -9973.08 -9974.63 -9986.07 -9987.61 -9987.62 -9987.62 -9987.62 -9987.62 -9988.87 -9998.11 -9999.36 -9999.37 -9999.37 -9999.37 -9998.05 -9465.86 -5533.51 -5001.32 -5000.00 -5000.00 -5000.00 -5000.00 -5000.00 -5000.00
-9972.49 -9972.49 -9972.49 -9972.49 -9972.49 -9972.49 -9973.84 -9983.77 -9985.11 -9985.12 -9985.12 -9985.12 -9985.12 -9986.70 -9998.41 -9999.99 -9999.99 -9999.99 -9999.99 -9999.99 -9999.99 -9999.99 -9999.99 -9999.99 -9999.99 -9999.99 -9999.99 -9997.22 -9976.78 -9974.02 -9974.01 -9974.01 -9974.01 -9974.01 -9974.06 -9974.45 -9974.50 -9974.50 -9974.50 -9974.50 -9974.51 -9977.22 -9997.28 -9999.99 -10000.00 -10000.00 -10000.00 -10000.00 -9998.70 -9989.08 -9987.78 -9987.78 -9987.78 -9987.78 -9987.77 -9986.20 -9974.58 -9973.01 -9973.00 -9973.00 -9973.00 -9973.01 -9975.88 -9997.11 -9999.99 -9999.99 -9999.99 -9999.99 -9999.99 -9997.72 -9980.96 -9978.69 -9978.69 -9978.69 -9978.69 -9978.66 -9969.12 -9898.60 -9889.05 -9889.03 -9889.03 -9889.03 -9887.86 -9417.04 -5881.55 -4518.71 -886.78 39.32 -10.04 -170.39 -547.06 -3185.01 -4319.78 -7919.75 -8750.18 -8799.45 -8799.88 -8924.97 -9849.20 -9974.28 -9974.59 -9974.59 -9974.59 -9974.60 -9975.48 -9982.01 -9982.90 -9982.90 -9982.90 -9982.90 -9982.90 -9981.85 -9974.13 -9973.08 -9973.08 -9973.08 -9973.08 -9973.08 -9974.63 -9986.07 -9987.62 -9987.62 -9987.62 -9987.62 -9987.62 -9988.87 -9998.11 -9999.36 -9999.37 -9999.37 -9999.37 -9998.05 -9465.86 -5533.51 -5001.32 -5000.00 -5000.00 -5000.00 -5000.00 -5000.00 -5000.00
-9973.65 -9973.65 -9973.65 -9973.65 -9973.65 -9973.66 -9974.91 -9984.15 -9985.40 -9985.41 -9985.41 -9985.41 -9985.41 -9986.66 -9995.90 -9997.15 -9997.15 -9997.15 -9997.15 -9997.15 -9997.23 -9997.79 -9997.87 -9997.87 -9997.87 -9997.87 -9997.86 -9995.30 -9976.34 -9973.78 -9973.77 -9973.77 -9973.77 -9973.77 -9973.82 -9974.21 -9974.26 -9974.26 -9974.26 -9974.26 -9974.26 -9977.00 -9997.25 -9999.99 -10000.00 -10000.00 -10000.00 -10000.00 -9998.64 -9988.65 -9987.30 -9987.30 -9987.30 -9987.30 -9987.29 -9986.08 -9977.10 -9975.88 -9975.88 -9975.88 -9975.88 -9975.88 -9978.13 -9994.73 -9996.97 -9996.98 -9996.98 -9996.98 -9996.98 -9995.10 -9981.28 -9979.41 -9979.40 -9979.40 -9979.40 -9979.32 -9945.24 -9693.44 -9659.36 -9659.28 -9659.28 -9659.28 -9658.03 -9153.43 -5010.95 -1326.47 -393.94 -218.79 -377.77 -426.95 -736.09 -3248.95 -3751.64 -5054.29 -8199.50 -8609.22 -8610.59 -8756.12 -9831.40 -9976.93 -9977.29 -9977.29 -9977.29 -9977.29 -9977.74 -9981.09 -9981.54 -9981.54 -9981.54 -9981.54 -9981.54 -9980.76 -9975.01 -9974.23 -9974.23 -9974.23 -9974.23 -9974.23 -9975.76 -9987.09 -9988.62 -9988.62 -9988.62 -9988.62 -9988.62 -9989.78 -9998.28 -9999.43 -9999.43 -9999.43 -9999.43 -9998.11 -9465.92 -5533.51 -5001.32 -5000.00 -5000.00 -5000.00 -5000.00 -5000.00 -5000.00
-9982.24 -9982.24 -9982.24 -9982.24 -9982.24 -9982.24 -9982.81 -9986.98 -9987.55 -9987.55 -9987.55 -9987.55 -9987.55 -9986.33 -9977.36 -9976.14 -9976.14 -9976.14 -9976.14 -9976.14 -9976.78 -9981.50 -9982.14 -9982.14 -9982.14 -9982.14 -9982.14 -9981.06 -9973.10 -9972.02 -9972.02 -9972.02 -9972.02 -9972.02 -9972.06 -9972.40 -9972.45 -9972.45 -9972.45 -9972.45 -9972.45 -9975.39 -9997.06 -9999.99 -10000.00 -10000.00 -10000.00 -10000.00 -9998.27 -9985.48 -9983.75 -9983.74 -9983.74 -9983.74 -9983.75 -9985.17 -9995.69 -9997.11 -9997.12 -9997.12 -9997.12 -9997.11 -9994.73 -9977.11 -9974.72 -9974.72 -9974.72 -9974.72 -9974.72 -9975.78 -9983.62 -9984.68 -9984.68 -9984.68 -9984.68 -9984.15 -9768.79 -8177.53 -7962.17 -7961.64 -7961.64 -7961.64 -7959.77 -7207.37 -1557.00 -107.70 88.58 78.68 -17.67 -20.63 -191.90 -1992.49 -2246.34 -2916.18 -6700.66 -7209.92 -7211.91 -7508.49 -9699.89 -9996.47 -9997.20 -9997.20 -9997.20 -9997.20 -9994.46 -9974.27 -9971.54 -9971.53 -9971.53 -9971.53 -9971.53 -9972.72 -9981.52 -9982.71 -9982.71 -9982.71 -9982.71 -9982.71 -9984.13 -9994.61 -9996.03 -9996.03 -9996.03 -9996.03 -9996.03 -9996.45 -9999.52 -9999.93 -9999.93 -9999.93 -9999.93 -9998.61 -9466.37 -5533.57 -5001.32 -5000.00 -5000.00 -5000.00 -5000.00 -5000.00 -5000.00
-9983.40 -9983.40 -9983.40 -9983.40 -9983.40 -9983.40 -9983.88 -9987.37 -9987.84 -9987.84 -9987.84 -9987.84 -9987.84 -9986.29 -9974.85 -9973.30 -9973.30 -9973.30 -9973.30 -9973.30 -9974.01 -9979.29 -9980.01 -9980.01 -9980.01 -9980.01 -9980.01 -9979.13 -9972.66 -9971.78 -9971.78 -9971.78 -9971.78 -9971.78 -9971.82 -9972.16 -9972.20 -9972.20 -9972.20 -9972.20 -9972.21 -9975.17 -9997.03 -9999.99 -10000.00 -10000.00 -10000.00 -10000.00 -9998.21 -9985.05 -9983.27 -9983.26 -9983.26 -9983.26 -9983.27 -9985.05 -9998.21 -9999.99 -9999.99 -9999.99 -9999.99 -9999.99 -9996.97 -9974.72 -9971.71 -9971.71 -9971.71 -9971.71 -9971.71 -9973.17 -9983.94 -9985.39 -9985.40 -9985.40 -9985.40 -9984.80 -9744.92 -7972.37 -7732.48 -7731.89 -7731.89 -7731.89 -7729.84 -6902.35 -778.01 124.57 134.11 106.63 62.91 82.68 -111.85 -1811.98 -2039.93 -2630.96 -6498.40 -7020.54 -7022.62 -7339.64 -9682.10 -9999.11 -9999.90 -9999.90 -9999.90 -9999.89 -9996.73 -9973.35 -9970.18 -9970.17 -9970.17 -9970.17 -9970.18 -9971.63 -9982.40 -9983.85 -9983.86 -9983.86 -9983.86 -9983.86 -9985.26 -9995.63 -9997.03 -9997.03 -9997.03 -9997.03 -9997.03 -9997.35 -9999.68 -10000.00 -10000.00 -10000.00 -10000.00 -9998.68 -9466.43 -5533.57 -5001.32 -5000.00 -5000.00 -5000.00 -5000.00 -5000.00 -5000.00
-9983.40 -9983.40 -9983.40 -9983.40 -9983.40 -9983.41 -9983.88 -9987.37 -9987.84 -9987.84 -9987.84 -9987.84 -9987.84 -9986.29 -9974.84 -9973.30 -9973.29 -9973.29 -9973.29 -9973.29 -9974.01 -9979.29 -9980.00 -9980.01 -9980.01 -9980.01 -9980.00 -9979.13 -9972.66 -9971.78 -9971.78 -9971.78 -9971.78 -9971.78 -9971.82 -9972.15 -9972.20 -9972.20 -9972.20 -9972.20 -9972.21 -9975.17 -9997.03 -9999.99 -10000.00 -10000.00 -10000.00 -10000.00 -9998.21 -9985.05 -9983.27 -9983.26 -9983.26 -9983.26 -9983.27 -9985.05 -9998.21 -10000.00 -10000.00 -10000.00 -10000.00 -9999.99 -9996.98 -9974.72 -9971.71 -9971.70 -9971.70 -9971.70 -9971.70 -9973.16 -9983.94 -9985.40 -9985.40 -9985.40 -9985.40 -9984.81 -9744.86 -7971.86 -7731.91 -7731.32 -7731.32 -7731.32 -7729.12 -6898.86 -757.01 170.77 111.30 83.75 67.04 99.89 -105.91 -1816.82 -2064.25 -2611.98 -6494.93 -7020.07 -7022.15 -7339.22 -9682.05 -9999.12 -9999.91 -9999.91 -9999.91 -9999.90 -9996.73 -9973.34 -9970.18 -9970.17 -9970.17 -9970.17 -9970.17 -9971.63 -9982.40 -9983.86 -9983.86 -9983.86 -9983.86 -9983.86 -9985.27 -9995.63 -9997.03 -9997.04 -9997.04 -9997.04 -9997.04 -9997.35 -9999.68 -10000.00 -10000.00 -10000.00 -10000.00 -9998.68 -9466.43 -5533.57 -5001.32 -5000.00 -5000.00 -5000.00 -5000.00 -5000.00 -5000.00
-9983.40 -9983.40 -9983.40 -9983.40 -9983.40 -9983.41 -9983.88 -9987.37 -9987.84 -9987.84 -9987.84 -9987.84 -9987.84 -9986.29 -9974.84 -9973.30 -9973.29 -9973.29 -9973.29 -9973.29 -9974.01 -9979.29 -9980.00 -9980.01 -9980.01 -9980.01 -9980.00 -9979.13 -9972.66 -9971.78 -9971.78 -9971.78 -9971.78 -9971.78 -9971.82 -9972.15 -9972.20 -9972.20 -9972.20 -9972.20 -9972.21 -9975.17 -9997.03 -9999.99 -10000.00 -10000.00 -10000.00 -10000.00 -9998.21 -9985.05 -9983.27 -9983.26 -9983.26 -9983.26 -9983.27 -9985.05 -9998.21 -10000.00 -10000.00 -10000.00 -10000.00 -9999.99 -9996.98 -9974.72 -9971.71 -9971.70 -9971.70 -9971.70 -9971.70 -9973.16 -9983.94 -9985.40 -9985.40 -9985.40 -9985.40 -9984.81 -9744.86 -7971.86 -7731.91 -7731.32 -7731.18 -7730.04 -7672.32 -6493.17 -752.31 110.69 119.49 96.85 102.89 154.42 -84.45 -1835.62 -2090.98 -2672.18 -6501.65 -7018.80 -7021.01 -7339.09 -9682.05 -9999.12 -9999.91 -9999.91 -9999.91 -9999.90 -9996.73 -9973.34 -9970.18 -9970.17 -9970.17 -9970.17 -9970.17 -9971.63 -9982.40 -9983.86 -9983.86 -9983.86 -9983.86 -9983.86 -9985.27 -9995.63 -9997.03 -9997.04 -9997.04 -9997.04 -9997.04 -9997.35 -9999.68 -10000.00 -10000.00 -10000.00 -10000.00 -9998.68 -9466.43 -5533.57 -5001.32 -5000.00 -5000.00 -5000.00 -5000.00 -5000.00 -5000.00
-9983.41 -9983.41 -9983.41 -9983.41 -9983.41 -9983.41 -9983.88 -9987.37 -9987.84 -9987.84 -9987.84 -9987.84 -9987.84 -9986.29 -9974.85 -9973.30 -9973.30 -9973.30 -9973.30 -9973.30 -9974.01 -9979.29 -9980.00 -9980.00 -9980.00 -9980.00 -9980.00 -9979.07 -9972.22 -9971.30 -9971.29 -9971.29 -9971.29 -9971.29 -9971.30 -9971.33 -9971.34 -9971.34 -9971.34 -9971.34 -9971.34 -9974.36 -9996.64 -9999.65 -9999.66 -9999.66 -9999.66 -9999.66 -9997.91 -9984.98 -9983.23 -9983.23 -9983.23 -9983.23 -9983.23 -9985.02 -9998.20 -9999.99 -9999.99 -9999.99 -9999.99 -9999.98 -9996.96 -9974.59 -9971.57 -9971.56 -9971.56 -9971.56 -9971.56 -9972.93 -9983.06 -9984.43 -9984.43 -9984.43 -9984.43 -9983.83 -9743.91 -7971.09 -7731.04 -7729.35 -7674.21 -7267.93 -6803.54 -3380.12 -255.29 124.24 102.76 118.02 145.97 241.66 -51.07 -1811.45 -2089.87 -2601.90 -6031.24 -6498.33 -6557.48 -7283.22 -9681.65 -9998.89 -9999.68 -9999.68 -9999.68 -9999.67 -9996.53 -9973.32 -9970.18 -9970.17 -9970.17 -9970.17 -9970.18 -9971.64 -9982.40 -9983.86 -9983.86 -9983.86 -9983.86 -9983.87 -9985.27 -9995.62 -9997.03 -9997.03 -9997.03 -9997.03 -9997.03 -9997.35 -9999.68 -10000.00 -10000.00 -10000.00 -10000.00 -9998.68 -9466.43 -5533.57 -5001.32 -5000.00 -5000.00 -5000.00 -5000.00 -5000.00 -5000.00
-9984.31 -9984.31 -9984.31 -9984.31 -9984.31 -9984.32 -9984.74 -9987.91 -9988.34 -9988.34 -9988.34 -9988.34 -9988.34 -9986.97 -9976.83 -9975.46 -9975.46 -9975.46 -9975.46 -9975.46 -9975.85 -9978.77 -9979.16 -9979.16 -9979.16 -9979.16 -9979.11 -9957.52 -9798.02 -9776.44 -9776.38 -9776.38 -9776.38 -9776.34 -9759.99 -9639.16 -9622.80 -9622.76 -9622.76 -9622.76 -9622.83 -9648.37 -9837.10 -9862.64 -9862.70 -9862.70 -9862.70 -9862.73 -9874.12 -9958.28 -9969.67 -9969.70 -9969.70 -9969.70 -9969.71 -9972.59 -9993.91 -9996.80 -9996.81 -9996.81 -9996.81 -9996.79 -9988.20 -9924.78 -9916.20 -9916.18 -9916.18 -9916.18 -9916.09 -9881.68 -9627.41 -9593.00 -9592.91 -9592.91 -9592.91 -9592.34 -9362.21 -7661.45 -7378.38 -6988.80 -6500.34 -3490.17 -3044.17 -2218.86 8.16 352.34 172.56 292.18 242.14 481.47 112.26 -1520.64 -1760.57 -1842.07 -2256.55 -2353.30 -2838.02 -6629.28 -9571.61 -9907.69 -9908.52 -9908.52 -9908.52 -9908.54 -9915.30 -9965.25 -9972.01 -9972.03 -9972.03 -9972.03 -9972.03 -9973.48 -9984.14 -9985.58 -9985.58 -9985.58 -9985.58 -9985.58 -9986.51 -9993.32 -9994.24 -9994.25 -9994.25 -9994.25 -9994.25 -9994.86 -9999.39 -10000.00 -10000.00 -10000.00 -10000.00 -9998.68 -9466.43 -5533.57 -5001.32 -5000.00 -5000.00 -5000.00 -5000.00 -5000.00 -5000.00
-9991.02 -9991.02 -9991.02 -9991.02 -9991.02 -9991.02 -9991.13 -9991.93 -9992.04 -9992.04 -9992.04 -9992.04 -9992.04 -9991.97 -9991.47 -9991.41 -9991.41 -9991.41 -9991.41 -9991.40 -9989.44 -9974.92 -9972.96 -9972.95 -9972.95 -9972.95 -9972.52 -9798.28 -8510.85 -8336.61 -8336.18 -8336.18 -8336.18 -8335.84 -8198.62 -7184.70 -7047.48 -7047.14 -7047.14 -7047.14 -7047.61 -7239.61 -8658.25 -8850.24 -8850.72 -8850.72 -8850.72 -8850.98 -8959.46 -9761.01 -9869.48 -9869.75 -9869.75 -9869.75 -9869.78 -9880.80 -9962.22 -9973.24 -9973.27 -9973.27 -9973.27 -9973.15 -9923.51 -9556.71 -9507.06 -9506.94 -9506.94 -9506.94 -9506.20 -9207.40 -6999.53 -6700.73 -6699.99 -6699.99 -6699.99 -6699.59 -6541.51 -5321.13 -4388.61 -1437.37 -761.28 -230.68 -131.45 -58.68 297.43 358.30 286.26 250.27 385.76 750.84 838.50 466.67 372.05 407.83 540.26 453.05 -123.78 -4415.83 -8719.10 -9233.67 -9234.94 -9234.94 -9234.94 -9235.14 -9315.06 -9905.62 -9985.54 -9985.74 -9985.74 -9985.74 -9985.74 -9987.08 -9996.94 -9998.27 -9998.28 -9998.28 -9998.28 -9998.27 -9995.65 -9976.31 -9973.69 -9973.68 -9973.68 -9973.68 -9973.69 -9976.49 -9997.19 -9999.99 -10000.00 -10000.00 -10000.00 -9998.68 -9466.43 -5533.57 -5001.32 -5000.00 -5000.00 -5000.00 -5000.00 -5000.00 -5000.00
-9991.93 -9991.93 -9991.93 -9991.93 -9991.93 -9991.93 -9991.99 -9992.48 -9992.54 -9992.54 -9992.54 -9992.54 -9992.54 -9992.65 -9993.46 -9993.57 -9993.57 -9993.57 -9993.57 -9993.56 -9991.28 -9974.40 -9972.12 -9972.11 -9972.11 -9972.11 -9971.63 -9776.73 -8336.64 -8141.75 -8141.27 -8141.27 -8141.27 -8140.89 -7987.31 -6852.52 -6698.94 -6698.56 -6698.56 -6698.56 -6699.10 -6913.61 -8498.71 -8713.23 -8713.76 -8713.76 -8713.76 -8714.06 -8835.68 -9734.31 -9855.92 -9856.22 -9856.22 -9856.22 -9856.25 -9868.37 -9957.93 -9970.05 -9970.08 -9970.08 -9970.08 -9969.95 -9914.75 -9506.89 -9451.69 -9451.56 -9451.56 -9451.56 -9450.73 -9116.14 -6643.88 -6309.30 -6308.47 -6308.34 -6307.38 -6306.70 -6103.08 -4217.64 -1063.09 -37.97 133.72 225.66 305.80 357.61 455.65 562.71 677.97 473.64 532.91 1009.96 1182.73 1070.12 1113.16 1165.70 1053.90 1031.82 466.76 -1529.99 -8250.87 -9141.57 -9143.78 -9143.78 -9143.78 -9144.00 -9233.83 -9897.55 -9987.37 -9987.59 -9987.59 -9987.59 -9987.60 -9988.92 -9998.67 -9999.99 -10000.00 -10000.00 -10000.00 -9999.99 -9996.89 -9974.00 -9970.90 -9970.90 -9970.90 -9970.90 -9970.90 -9974.00 -9996.89 -9999.99 -10000.00 -10000.00 -10000.00 -9998.68 -9466.43 -5533.57 -5001.32 -5000.00 -5000.00 -5000.00 -5000.00 -5000.00 -5000.00
-9991.93 -9991.93 -9991.93 -9991.93 -9991.93 -9991.93 -9991.99 -9992.48 -9992.54 -9992.54 -9992.54 -9992.54 -9992.54 -9992.65 -9993.46 -9993.57 -9993.57 -9993.57 -9993.57 -9993.57 -9991.28 -9974.40 -9972.11 -9972.11 -9972.11 -9972.11 -9971.63 -9776.68 -8336.21 -8141.27 -8140.78 -8140.67 -8139.81 -8139.14 -7985.49 -6850.40 -6696.78 -6696.40 -6696.41 -6696.59 -6698.10 -6912.81 -8498.31 -8712.89 -8713.42 -8713.42 -8713.42 -8713.72 -8835.37 -9734.24 -9855.89 -9856.19 -9856.19 -9856.19 -9856.22 -9868.34 -9957.92 -9970.05 -9970.08 -9970.08 -9970.08 -9969.94 -9914.73 -9506.77 -9451.56 -9451.42 -9451.42 -9451.42 -9450.59 -9115.92 -6643.00 -6308.33 -6307.24 -6253.97 -5865.27 -5794.06 -5229.95 -1089.98 -38.30 103.29 157.37 256.52 307.24 387.35 440.77 475.54 516.08 491.46 521.55 818.94 841.42 1139.34 1427.91 1644.42 1199.41 1183.78 683.75 -745.40 -8145.21 -9140.95 -9143.55 -9143.55 -9143.55 -9143.78 -9233.63 -9897.53 -9987.37 -9987.60 -9987.60 -9987.60 -9987.60 -9988.92 -9998.68 -10000.00 -10000.00 -10000.00 -10000.00 -9999.99 -9996.89 -9974.00 -9970.90 -9970.89 -9970.89 -9970.89 -9970.90 -9974.00 -9996.89 -9999.99 -10000.00 -10000.00 -10000.00 -9998.68 -9466.43 -5533.57 -5001.32 -5000.00 -5000.00 -5000.00 -5000.00 -5000.00 -5000.00
-9991.93 -9991.93 -9991.93 -9991.93 -9991.93 -9991.93 -9991.99 -9992.48 -9992.54 -9992.54 -9992.54 -9992.54 -9992.54 -9992.65 -9993.46 -9993.57 -9993.57 -9993.57 -9993.57 -9993.57 -9991.28 -9974.40 -9972.11 -9972.11 -9972.11 -9972.11 -9971.63 -9776.68 -8336.21 -8141.27 -8140.67 -8095.02 -7748.35 -7631.33 -7464.38 -6325.54 -6170.92 -6172.09 -6174.78 -6248.11 -6643.83 -6912.54 -8498.31 -8712.89 -8713.42 -8713.42 -8713.42 -8713.72 -8835.37 -9734.24 -9855.89 -9856.19 -9856.19 -9856.19 -9856.22 -9868.34 -9957.92 -9970.05 -9970.08 -9970.08 -9970.08 -9969.94 -9914.73 -9506.77 -9451.56 -9451.42 -9451.42 -9451.42 -9450.59 -9115.92 -6642.88 -6307.16 -6251.79 -5468.84 -2525.44 -2003.99 -1708.39 -207.68 69.67 112.48 172.03 238.19 232.47 257.46 366.81 434.84 363.00 371.80 337.58 389.22 462.83 1008.68 1022.57 993.27 1560.02 1226.04 767.91 -531.39 -7717.65 -9084.80 -9143.28 -9143.55 -9143.55 -9143.78 -9233.63 -9897.53 -9987.37 -9987.60 -9987.60 -9987.60 -9987.60 -9988.92 -9998.68 -10000.00 -10000.00 -10000.00 -10000.00 -9999.99 -9996.89 -9974.00 -9970.90 -9970.89 -9970.89 -9970.89 -9970.90 -9974.00 -9996.89 -9999.99 -10000.00 -10000.00 -10000.00 -9998.68 -9466.43 -5533.57 -5001.32 -5000.00 -5000.00 -5000.00 -5000.00 -5000.00 -5000.00
-9991.92 -9991.92 -9991.92 -9991.92 -9991.92 -9991.92 -9991.99 -9992.48 -9992.54 -9992.54 -9992.54 -9992.54 -9992.54 -9992.65 -9993.46 -9993.57 -9993.57 -9993.57 -9993.57 -9993.57 -9991.28 -9974.40 -9972.12 -9972.11 -9972.11 -9972.11 -9971.63 -9776.59 -8335.43 -8140.39 -8138.94 -7747.41 -4783.93 -3857.35 -3593.20 -2421.97 -2259.07 -2271.95 -2299.34 -2849.74 -5830.66 -6853.58 -8496.80 -8711.59 -8712.12 -8712.12 -8712.12 -8712.42 -8834.05 -9732.80 -9854.43 -9854.73 -9854.73 -9854.73 -9854.76 -9866.89 -9956.52 -9968.65 -9968.68 -9968.68 -9968.68 -9968.54 -9913.35 -9505.51 -9450.31 -9450.17 -9450.17 -9450.17 -9449.34 -9114.52 -6592.32 -5887.10 -5389.63 -2398.02 -1468.58 -1368.60 -1214.58 -112.45 74.17 113.91 175.06 218.32 190.40 208.08 291.15 314.34 290.43 290.42 290.80 305.76 363.52 693.63 873.00 988.54 1498.79 1331.46 1133.06 69.46 -4614.14 -8269.23 -9086.31 -9142.21 -9142.35 -9142.57 -9232.55 -9897.39 -9987.37 -9987.59 -9987.59 -9987.59 -9987.60 -9988.92 -9998.67 -9999.99 -10000.00 -10000.00 -10000.00 -9999.99 -9996.89 -9974.00 -9970.90 -9970.90 -9970.90 -9970.90 -9970.90 -9974.00 -9996.89 -9999.99 -10000.00 -10000.00 -10000.00 -9998.68 -9466.42 -5533.57 -5001.32 -5000.00 -5000.00 -5000.00 -5000.00 -5000.00 -5000.00
-9989.75 -9989.75 -9989.75 -9989.75 -9989.75 -9989.75 -9989.92 -9991.14 -9991.30 -9991.30 -9991.30 -9991.30 -9991.30 -9991.59 -9993.71 -9993.99 -9993.99 -9993.99 -9993.99 -9993.99 -9991.82 -9975.76 -9973.59 -9973.59 -9973.59 -9973.59 -9973.01 -9740.27 -8020.57 -7787.83 -7785.87 -7276.11 -3496.14 -2825.91 -2561.01 -1424.77 -1262.89 -1274.96 -1333.39 -1486.76 -2353.42 -5726.55 -7941.49 -8186.03 -8186.64 -8186.64 -8186.64 -8186.92 -8301.75 -9150.10 -9264.91 -9265.19 -9265.19 -9265.19 -9265.23 -9280.09 -9389.86 -9404.72 -9404.76 -9404.76 -9404.76 -9404.64 -9355.97 -8996.36 -8947.70 -8947.58 -8947.58 -8947.58 -8946.57 -8597.23 -5658.44 -2511.61 -1690.54 -1219.96 -1107.17 -1157.78 -1076.86 -51.05 132.09 163.27 225.81 240.86 211.16 217.82 282.38 290.82 283.77 289.32 301.13 315.54 358.23 586.32 704.34 810.38 981.54 992.08 1066.64 478.37 -3133.25 -4703.78 -8192.76 -8654.35 -8655.63 -8655.98 -8797.59 -9843.94 -9985.55 -9985.90 -9985.90 -9985.90 -9985.90 -9987.21 -9996.85 -9998.15 -9998.15 -9998.15 -9998.15 -9998.15 -9995.46 -9975.63 -9972.95 -9972.94 -9972.94 -9972.94 -9972.95 -9975.65 -9995.62 -9998.32 -9998.33 -9998.33 -9998.33 -9997.01 -9464.93 -5533.39 -5001.32 -5000.00 -5000.00 -5000.00 -5000.00 -5000.00 -5000.00
-9973.71 -9973.71 -9973.71 -9973.71 -9973.71 -9973.71 -9974.61 -9981.24 -9982.14 -9982.14 -9982.14 -9982.14 -9982.15 -9983.74 -9995.50 -9997.10 -9997.10 -9997.10 -9997.10 -9997.10 -9995.75 -9985.83 -9984.49 -9984.48 -9984.48 -9984.48 -9983.22 -9471.93 -5694.03 -5182.63 -5131.18 -4291.28 -697.63 -99.04 135.84 719.33 820.44 841.97 835.13 708.59 505.44 -351.55 -3383.33 -3786.04 -3789.62 -3791.59 -3790.89 -3791.02 -3915.14 -4789.29 -4907.67 -4908.93 -4909.06 -4909.06 -4909.15 -4944.16 -5202.82 -5237.83 -5237.92 -5237.92 -5237.92 -5237.92 -5237.48 -5234.28 -5233.73 -5232.99 -5233.60 -5232.59 -5174.76 -4360.76 -1266.95 17.83 198.41 260.56 329.63 279.14 388.04 419.61 453.13 480.87 507.44 491.96 476.76 476.67 410.69 406.23 405.17 413.45 425.47 441.20 455.87 487.20 547.37 574.26 658.56 812.21 992.60 919.35 489.93 -517.10 -4123.21 -5001.75 -5058.95 -5060.52 -5583.64 -9448.98 -9972.10 -9973.40 -9973.40 -9973.40 -9973.40 -9974.59 -9983.36 -9984.55 -9984.55 -9984.55 -9984.55 -9984.55 -9984.93 -9987.68 -9988.05 -9988.06 -9988.06 -9988.06 -9988.05 -9987.84 -9986.23 -9986.02 -9986.02 -9986.02 -9986.02 -9984.70 -9453.94 -5532.08 -5001.32 -5000.00 -5000.00 -5000.00 -5000.00 -5000.00 -5000.00
-9971.54 -9971.54 -9971.54 -9971.54 -9971.54 -9971.54 -9972.54 -9979.90 -9980.90 -9980.90 -9980.90 -9980.90 -9980.91 -9982.68 -9995.75 -9997.52 -9997.52 -9997.52 -9997.52 -9997.52 -9996.29 -9987.19 -9985.96 -9985.96 -9985.96 -9985.96 -9984.60 -9435.62 -5379.17 -4829.16 -4415.24 -1253.46 17.38 202.24 470.76 1012.68 1109.74 1136.97 1112.35 1093.71 989.16 845.14 660.82 631.85 606.11 591.67 600.59 601.57 96.16 -3334.42 -3872.32 -4265.47 -4318.42 -4319.41 -4319.62 -4357.35 -4636.17 -4673.90 -4674.00 -4674.00 -4674.00 -4674.01 -4680.11 -4725.02 -4684.53 -4385.88 -4629.98 -4279.56 -3790.75 -632.73 255.97 415.71 453.21 482.84 484.04 466.14 564.64 591.14 518.93 515.57 520.93 510.12 498.95 487.65 418.51 413.75 419.44 430.58 444.60 460.50 473.71 466.99 552.37 628.56 721.38 794.98 1030.19 1164.56 785.67 532.24 -540.08 -3701.18 -4515.36 -4573.65 -5148.68 -9395.53 -9970.28 -9971.70 -9971.70 -9971.70 -9971.71 -9972.88 -9981.54 -9982.71 -9982.71 -9982.71 -9982.71 -9982.72 -9983.50 -9989.31 -9990.10 -9990.10 -9990.10 -9990.10 -9990.10 -9989.49 -9984.96 -9984.35 -9984.35 -9984.35 -9984.35 -9983.03 -9452.45 -5531.90 -5001.32 -5000.00 -5000.00 -5000.00 -5000.00 -5000.00 -5000.00
-9971.53 -9971.53 -9971.53 -9971.53 -9971.53 -9971.53 -9972.53 -9979.90 -9980.90 -9980.90 -9980.90 -9980.90 -9980.90 -9982.67 -9995.75 -9997.52 -9997.52 -9997.52 -9997.52 -9997.52 -9996.29 -9987.19 -9985.96 -9985.96 -9985.96 -9985.96 -9984.60 -9435.53 -5378.39 -4828.13 -4351.21 -785.14 85.12 189.15 482.88 1055.22 1151.94 1175.32 1162.79 1128.58 1119.37 1084.90 1236.86 1223.16 1164.63 1163.43 1189.17 1193.75 1077.56 166.39 -521.00 -3415.58 -3922.23 -4271.07 -4317.04 -4355.78 -4634.77 -4672.51 -4672.49 -4671.77 -4672.49 -4672.50 -4677.77 -4721.80 -4336.81 -1776.53 -3476.37 -892.39 -315.39 151.35 448.66 533.26 483.43 471.50 480.44 484.11 539.47 743.72 517.78 502.32 500.60 489.97 489.99 481.22 427.35 418.57 419.74 429.79 441.95 454.95 474.85 470.44 566.01 542.48 609.14 688.29 1074.59 1344.15 1116.74 563.13 371.62 -574.54 -3701.01 -4515.38 -5147.32 -9395.40 -9970.28 -9971.70 -9971.70 -9971.70 -9971.70 -9972.87 -9981.53 -9982.71 -9982.71 -9982.71 -9982.71 -9982.71 -9983.50 -9989.32 -9990.10 -9990.11 -9990.11 -9990.11 -9990.10 -9989.49 -9984.96 -9984.35 -9984.35 -9984.35 -9984.35 -9983.03 -9452.44 -5531.90 -5001.32 -5000.00 -5000.00 -5000.00 -5000.00 -5000.00 -5000.00
-9971.53 -9971.53 -9971.53 -9971.53 -9971.53 -9971.53 -9972.53 -9979.90 -9980.90 -9980.90 -9980.90 -9980.90 -9980.90 -9982.67 -9995.75 -9997.52 -9997.52 -9997.52 -9997.52 -9997.52 -9996.29 -9987.19 -9985.96 -9985.96 -9985.96 -9985.96 -9984.60 -9435.53 -5378.39 -4828.18 -4368.30 -914.04 50.23 197.96 474.23 1053.89 1185.47 1194.92 1195.13 1152.36 1179.47 1203.39 1430.21 1414.45 1359.29 1353.77 1334.65 1317.95 1232.00 678.05 416.01 39.04 -889.11 -3513.73 -3911.05 -4306.28 -4633.36 -4671.14 -4625.84 -4335.31 -4625.76 -4625.62 -4293.55 -4275.89 -3854.35 -856.14 -314.79 57.28 164.36 245.42 467.23 559.96 484.03 467.58 488.16 565.48 598.23 764.48 528.98 486.92 491.59 472.72 479.98 491.29 433.86 442.50 425.14 430.93 443.34 457.12 490.81 498.03 523.00 504.10 548.03 701.02 1122.19 1141.27 1313.41 755.21 567.43 305.70 -565.71 -3697.93 -5090.03 -9395.13 -9970.27 -9971.70 -9971.70 -9971.70 -9971.70 -9972.87 -9981.53 -9982.71 -9982.71 -9982.71 -9982.71 -9982.71 -9983.50 -9989.32 -9990.10 -9990.11 -9990.11 -9990.11 -9990.10 -9989.49 -9984.96 -9984.35 -9984.35 -9984.35 -9984.35 -9983.03 -9452.44 -5531.90 -5001.32 -5000.00 -5000.00 -5000.00 -5000.00 -5000.00 -5000.00
-9971.53 -9971.53 -9971.53 -9971.53 -9971.53 -9971.54 -9972.53 -9979.90 -9980.90 -9980.90 -9980.90 -9980.90 -9980.90 -9982.67 -9995.75 -9997.52 -9997.52 -9997.52 -9997.52 -9997.52 -9996.25 -9986.92 -9985.65 -9985.65 -9985.65 -9985.65 -9984.29 -9435.24 -5378.26 -4828.14 -4395.31 -1119.98 -19.43 196.46 513.63 1093.67 1164.00 1157.64 1129.41 1150.07 1209.91 1255.62 1462.52 1471.54 1439.19 1427.81 1422.14 1412.76 1291.22 765.34 625.66 608.84 439.14 -316.45 -802.18 -3473.67 -4115.22 -4166.39 -3816.96 -1679.23 -3830.82 -3837.17 -1328.92 -909.09 -651.35 5.73 146.34 200.51 241.01 276.00 481.41 558.22 558.56 510.22 489.62 570.49 701.39 815.76 557.89 512.07 507.82 488.72 492.24 494.94 445.99 436.13 430.24 436.46 448.99 473.66 491.69 468.22 492.09 503.31 572.83 843.37 1026.83 1089.17 1014.47 879.11 662.13 472.81 378.71 -546.86 -4290.05 -9341.08 -9969.87 -9971.42 -9971.42 -9971.42 -9971.43 -9972.63 -9981.51 -9982.71 -9982.71 -9982.71 -9982.71 -9982.71 -9983.50 -9989.31 -9990.10 -9990.10 -9990.10 -9990.10 -9990.10 -9989.49 -9984.96 -9984.34 -9984.34 -9984.34 -9984.34 -9983.03 -9452.44 -5531.90 -5001.32 -5000.00 -5000.00 -5000.00 -5000.00 -5000.00 -5000.00
-9972.78 -9972.78 -9972.78 -9972.78 -9972.78 -9972.79 -9973.53 -9979.05 -9979.80 -9979.80 -9979.80 -9979.80 -9979.81 -9981.58 -9994.70 -9996.47 -9996.48 -9996.48 -9996.48 -9996.44 -9981.90 -9874.44 -9859.89 -9859.86 -9859.86 -9859.86 -9858.52 -9318.20 -5325.80 -4784.38 -4337.29 -966.87 68.67 259.35 485.12 1019.94 1117.23 1193.74 1159.24 1192.14 1236.50 1293.62 1519.17 1557.08 1510.29 1506.84 1514.42 1473.70 1338.99 877.54 709.74 663.17 631.51 564.33 491.52 111.53 -249.96 -384.45 -240.12 -22.03 -342.70 -400.73 39.55 90.70 115.75 118.85 177.89 221.49 250.10 276.12 486.25 554.65 657.81 643.87 490.63 508.65 767.63 873.37 614.23 537.03 511.05 491.00 479.82 476.17 420.50 441.55 439.70 436.82 450.01 522.12 546.30 505.45 497.73 527.24 543.03 691.96 668.73 763.77 785.04 663.57 633.04 716.81 633.19 351.85 -1318.82 -8849.33 -9856.99 -9859.49 -9859.49 -9859.49 -9859.52 -9872.76 -9970.56 -9983.79 -9983.83 -9983.83 -9983.83 -9983.83 -9984.29 -9987.71 -9988.17 -9988.18 -9988.18 -9988.18 -9988.17 -9987.67 -9983.95 -9983.45 -9983.45 -9983.45 -9983.45 -9982.13 -9451.64 -5531.81 -5001.31 -5000.00 -5000.00 -5000.00 -5000.00 -5000.00 -5000.00
-9982.03 -9982.03 -9982.03 -9982.03 -9982.03 -9982.03 -9980.93 -9972.82 -9971.72 -9971.72 -9971.72 -9971.72 -9971.72 -9973.54 -9986.96 -9988.78 -9988.78 -9988.78 -9988.78 -9988.50 -9875.83 -9043.31 -8930.64 -8930.36 -8930.36 -8930.36 -8929.19 -8453.44 -4938.16 -4461.04 -3958.59 -232.42 497.73 616.08 773.92 1192.19 1253.59 1313.92 1323.60 1390.35 1408.22 1435.67 1732.70 1735.58 1722.76 1675.23 1657.18 1602.42 1484.15 1034.86 949.15 918.13 816.19 795.21 787.30 765.12 595.36 559.70 521.83 476.72 550.02 530.30 467.94 209.03 144.94 165.42 189.27 206.42 229.49 293.55 356.17 416.29 502.65 473.90 327.76 310.19 641.49 687.14 550.83 475.86 403.95 360.74 325.61 322.49 380.12 394.99 404.43 415.92 425.03 477.06 560.87 530.67 444.03 424.77 416.94 462.86 524.42 622.29 745.59 774.25 817.64 1280.90 779.15 583.35 -722.96 -8043.76 -9029.82 -9032.39 -9032.39 -9032.39 -9032.64 -9134.80 -9889.66 -9991.82 -9992.08 -9992.08 -9992.08 -9992.07 -9990.14 -9975.88 -9973.95 -9973.95 -9973.95 -9973.95 -9973.95 -9974.25 -9976.53 -9976.84 -9976.84 -9976.84 -9976.84 -9975.52 -9445.74 -5531.10 -5001.31 -5000.00 -5000.00 -5000.00 -5000.00 -5000.00 -5000.00
-9983.28 -9983.28 -9983.28 -9983.28 -9983.28 -9983.28 -9981.93 -9971.98 -9970.63 -9970.62 -9970.62 -9970.62 -9970.63 -9972.45 -9985.91 -9987.73 -9987.74 -9987.74 -9987.74 -9987.43 -9861.48 -8930.83 -8804.88 -8804.57 -8804.57 -8804.57 -8803.41 -8336.41 -4885.44 -4363.63 -3498.43 72.05 661.90 753.17 887.85 1258.78 1293.57 1293.95 1348.27 1399.29 1428.74 1478.68 1790.39 1777.51 1724.52 1685.95 1696.35 1670.42 1521.17 1066.28 996.19 977.66 939.74 920.07 878.26 849.59 681.97 637.71 618.73 602.60 611.52 624.17 549.03 229.17 157.10 190.03 207.56 222.00 241.57 322.20 427.53 497.20 458.73 400.30 330.78 358.98 641.21 581.11 575.28 544.63 465.81 415.40 380.48 331.96 392.15 393.21 405.38 417.05 450.64 474.65 544.56 522.72 414.13 371.10 381.36 430.19 554.61 639.18 722.74 698.63 960.68 1458.21 1247.29 667.84 -567.73 -7562.06 -8867.91 -8920.33 -8920.45 -8920.45 -8920.74 -9034.93 -9878.72 -9992.91 -9993.19 -9993.19 -9993.19 -9993.19 -9990.93 -9974.28 -9972.03 -9972.02 -9972.02 -9972.02 -9972.02 -9972.44 -9975.52 -9975.94 -9975.94 -9975.94 -9975.94 -9974.63 -9444.94 -5531.01 -5001.31 -5000.00 -5000.00 -5000.00 -5000.00 -5000.00 -5000.00
-9983.28 -9983.28 -9983.28 -9983.28 -9983.28 -9983.28 -9981.93 -9971.97 -9970.63 -9970.62 -9970.62 -9970.62 -9970.63 -9972.45 -9985.91 -9987.73 -9987.74 -9987.74 -9987.74 -9987.42 -9861.44 -8930.55 -8804.57 -8804.26 -8804.26 -8804.26 -8803.10 -8335.88 -4835.26 -3614.04 -535.68 549.66 792.33 823.78 916.51 1284.44 1341.45 1379.33 1376.16 1384.13 1422.53 1466.45 1761.47 1784.79 1691.47 1703.61 1679.33 1664.05 1527.70 1078.62 1013.86 999.51 982.10 973.21 961.73 933.37 770.05 690.77 659.16 652.82 648.43 641.31 585.84 223.74 198.83 212.64 242.44 269.96 307.91 330.32 413.42 449.30 371.88 331.21 330.19 315.60 579.14 579.79 418.29 426.35 394.85 391.62 447.01 392.81 488.22 412.21 412.52 419.08 510.59 524.97 522.77 476.31 415.47 353.67 356.80 396.08 511.13 689.50 653.09 621.79 779.16 1245.86 1349.49 699.13 -101.49 -4774.39 -8491.05 -8918.99 -8920.17 -8920.17 -8920.46 -9034.68 -9878.69 -9992.91 -9993.20 -9993.20 -9993.20 -9993.19 -9990.94 -9974.28 -9972.02 -9972.02 -9972.02 -9972.02 -9972.02 -9972.43 -9975.52 -9975.94 -9975.94 -9975.94 -9975.94 -9974.63 -9444.93 -5531.01 -5001.31 -5000.00 -5000.00 -5000.00 -5000.00 -5000.00 -5000.00
-9983.28 -9983.28 -9983.28 -9983.28 -9983.28 -9983.28 -9981.93 -9971.97 -9970.63 -9970.62 -9970.62 -9970.62 -9970.63 -9972.45 -9985.91 -9987.73 -9987.74 -9987.74 -9987.74 -9987.42 -9861.44 -8930.55 -8804.57 -8804.26 -8804.26 -8804.26 -8802.98 -8287.04 -4116.93 -798.01 422.24 716.85 848.03 880.50 944.27 1272.56 1363.92 1405.31 1388.15 1406.15 1427.99 1494.65 1802.46 1757.41 1731.28 1735.13 1713.23 1699.18 1567.09 1094.22 1034.28 1024.50 1009.42 1006.75 1004.90 982.96 824.91 792.87 777.36 761.56 746.03 725.23 670.47 329.17 271.90 281.45 327.11 352.65 335.07 349.11 357.15 365.70 357.20 324.60 305.03 277.73 434.52 534.05 337.11 314.91 313.52 349.92 486.37 405.38 484.24 431.04 409.03 408.58 447.21 554.31 520.41 424.49 386.05 336.00 331.27 350.48 408.28 516.24 668.56 693.71 852.71 1172.18 1370.74 1361.51 551.08 -3931.90 -7994.01 -8864.76 -8920.04 -8920.17 -8920.46 -9034.68 -9878.69 -9992.91 -9993.20 -9993.20 -9993.20 -9993.19 -9990.94 -9974.28 -9972.02 -9972.02 -9972.02 -9972.02 -9972.02 -9972.43 -9975.52 -9975.94 -9975.94 -9975.94 -9975.94 -9974.63 -9444.93 -5531.01 -5001.31 -5000.00 -5000.00 -5000.00 -5000.00 -5000.00 -5000.00
-9983.29 -9983.29 -9983.29 -9983.29 -9983.29 -9983.28 -9981.94 -9971.98 -9970.63 -9970.63 -9970.63 -9970.63 -9970.63 -9972.45 -9985.91 -9987.73 -9987.73 -9987.73 -9987.73 -9987.42 -9861.36 -8929.89 -8803.82 -8803.51 -8803.51 -8803.51 -8801.20 -7922.49 -1330.51 359.08 560.86 696.03 827.29 883.65 929.51 1324.44 1367.20 1414.11 1445.45 1426.17 1461.26 1468.15 1778.62 1794.68 1772.03 1757.24 1750.94 1694.87 1598.79 1126.24 1053.67 1044.90 1038.93 1037.15 1040.09 1013.05 859.53 829.91 819.74 804.68 791.56 771.48 704.71 343.48 300.10 356.50 350.58 374.04 395.36 372.18 352.77 370.93 350.44 353.11 336.73 271.16 386.86 575.65 313.32 254.42 278.92 314.38 398.86 391.41 513.09 472.55 418.59 410.45 419.04 465.94 469.43 345.77 342.87 316.31 314.01 317.94 337.61 390.19 566.34 871.21 965.57 1126.25 1481.06 966.40 205.67 -3481.49 -5020.69 -8463.86 -8918.88 -8920.01 -8920.29 -9034.54 -9878.67 -9992.91 -9993.20 -9993.20 -9993.20 -9993.19 -9990.94 -9974.28 -9972.03 -9972.02 -9972.02 -9972.02 -9972.02 -9972.44 -9975.52 -9975.94 -9975.94 -9975.94 -9975.94 -9974.63 -9444.93 -5531.01 -5001.31 -5000.00 -5000.00 -5000.00 -5000.00 -5000.00 -5000.00
-9984.70 -9984.70 -9984.70 -9984.70 -9984.70 -9984.70 -9983.39 -9973.70 -9972.39 -9972.39 -9972.39 -9972.39 -9972.39 -9973.96 -9985.53 -9987.10 -9987.10 -9987.10 -9987.10 -9986.71 -9828.58 -8660.11 -8501.97 -8501.58 -8501.46 -8500.45 -8442.40 -7127.59 -384.37 585.16 667.00 771.96 914.95 932.13 968.44 1381.09 1380.14 1397.19 1502.38 1470.41 1440.61 1458.94 1707.18 1719.94 1728.57 1697.62 1735.12 1696.52 1604.29 1162.11 1055.33 1057.06 1056.61 1055.04 1057.36 1036.27 915.38 883.30 871.47 854.27 843.12 827.06 761.02 393.78 352.05 394.39 404.60 375.24 389.48 391.97 338.68 349.37 314.42 303.95 269.42 269.24 496.17 693.70 384.21 234.27 254.98 293.66 309.99 356.56 430.63 442.33 417.76 399.88 398.33 421.73 397.06 296.35 290.33 292.04 297.01 303.19 315.68 348.60 483.23 630.71 761.56 929.92 1252.27 1089.91 123.02 -3388.64 -4449.40 -8327.91 -8852.33 -8853.76 -8854.06 -8975.43 -9872.25 -9993.62 -9993.92 -9993.92 -9993.92 -9993.92 -9991.83 -9976.43 -9974.35 -9974.34 -9974.34 -9974.34 -9974.34 -9974.57 -9976.22 -9976.44 -9976.44 -9976.44 -9976.44 -9975.13 -9445.38 -5531.06 -5001.31 -5000.00 -5000.00 -5000.00 -5000.00 -5000.00 -5000.00
-9995.15 -9995.15 -9995.15 -9995.15 -9995.15 -9995.15 -9994.11 -9986.44 -9985.40 -9985.40 -9985.40 -9985.40 -9985.40 -9985.08 -9982.76 -9982.45 -9982.45 -9982.45 -9982.45 -9981.47 -9586.34 -6666.72 -6271.59 -6270.38 -6222.24 -5866.37 -5363.78 -2010.60 531.04 868.19 1049.39 1080.17 1169.34 1147.70 1252.38 1471.07 1552.94 1594.52 1595.32 1591.65 1583.69 1551.57 1445.32 1442.34 1443.64 1423.95 1489.40 1463.29 1431.52 1118.71 1018.82 980.38 984.96 996.85 1000.09 1012.61 1127.89 1130.18 1114.59 1104.03 1080.08 1072.82 1006.41 632.48 531.38 557.26 542.26 539.84 517.29 487.16 274.40 227.05 177.42 172.76 119.91 169.33 215.79 371.22 545.03 152.69 117.11 160.55 193.39 190.78 218.74 248.88 284.80 261.85 234.45 238.67 240.92 220.01 218.61 223.54 229.90 241.35 245.75 258.55 279.85 335.01 447.78 588.80 838.79 947.44 -4.72 -2941.46 -3831.45 -7426.24 -8308.31 -8364.10 -8364.67 -8538.72 -9824.79 -9998.84 -9999.27 -9999.27 -9999.27 -9999.27 -9998.44 -9992.31 -9991.48 -9991.48 -9991.48 -9991.48 -9991.48 -9990.27 -9981.36 -9980.16 -9980.16 -9980.16 -9980.16 -9978.84 -9448.70 -5531.46 -5001.31 -5000.00 -5000.00 -5000.00 -5000.00 -5000.00 -5000.00
-9996.57 -9996.57 -9996.57 -9996.57 -9996.57 -9996.56 -9995.56 -9988.16 -9987.16 -9987.16 -9987.16 -9987.16 -9987.16 -9986.59 -9982.39 -9981.82 -9981.82 -9981.82 -9981.82 -9980.76 -9553.56 -6396.94 -5969.63 -5920.80 -5221.45 -2522.12 -1748.15 -900.63 687.68 1074.01 1146.63 1154.89 1191.27 1197.07 1260.63 1495.83 1591.48 1638.83 1638.20 1651.97 1606.48 1591.25 1464.87 1410.08 1438.44 1419.82 1459.22 1444.39 1406.14 1158.59 1033.56 978.15 967.44 975.26 980.84 1011.27 1168.46 1177.06 1169.09 1162.60 1137.60 1139.25 1096.90 631.19 558.44 562.71 557.73 542.08 530.06 496.94 273.29 222.20 155.68 125.83 80.87 119.69 132.24 182.37 201.76 93.52 100.99 151.12 211.72 212.67 199.37 194.80 237.74 252.10 224.98 233.43 237.53 230.53 224.04 222.47 230.68 241.44 247.66 248.78 245.22 284.16 328.96 398.24 652.97 841.86 203.81 -2794.41 -3252.55 -4368.48 -7839.06 -8296.86 -8298.44 -8479.62 -9818.37 -9999.55 -10000.00 -10000.00 -10000.00 -10000.00 -9999.34 -9994.46 -9993.80 -9993.80 -9993.80 -9993.80 -9993.80 -9992.40 -9982.06 -9980.66 -9980.66 -9980.66 -9980.66 -9979.34 -9449.15 -5531.51 -5001.31 -5000.00 -5000.00 -5000.00 -5000.00 -5000.00 -5000.00
-9996.57 -9996.57 -9996.57 -9996.57 -9996.57 -9996.57 -9995.57 -9988.17 -9987.17 -9987.16 -9987.16 -9987.16 -9987.16 -9986.59 -9982.39 -9981.82 -9981.82 -9981.82 -9981.82 -9980.76 -9553.48 -6396.27 -5967.90 -5571.15 -2576.31 -1552.48 -1115.32 -821.23 738.28 1082.54 1137.14 1174.17 1186.45 1246.70 1335.93 1548.27 1617.12 1651.21 1647.72 1648.33 1629.12 1616.84 1441.46 1455.95 1462.77 1468.60 1487.20 1464.14 1404.87 1156.85 1071.71 1041.60 981.82 995.04 992.31 1019.79 1192.86 1220.74 1235.36 1223.33 1209.17 1195.12 1133.22 684.81 588.83 567.47 551.31 539.66 530.64 493.54 227.57 180.12 138.30 79.25 42.94 56.82 83.53 112.70 99.29 84.59 101.66 153.97 197.75 215.05 186.09 190.00 219.32 259.08 240.06 243.17 268.76 245.95 236.46 232.47 241.32 253.47 267.56 264.93 254.73 269.52 300.46 395.18 515.35 598.55 352.05 -2773.12 -3277.38 -3953.50 -7781.25 -8296.55 -8298.27 -8479.47 -9818.35 -9999.55 -10000.00 -10000.00 -10000.00 -10000.00 -9999.34 -9994.47 -9993.81 -9993.81 -9993.81 -9993.81 -9993.80 -9992.41 -9982.06 -9980.66 -9980.66 -9980.66 -9980.66 -9979.35 -9449.15 -5531.51 -5001.31 -5000.00 -5000.00 -5000.00 -5000.00 -5000.00 -5000.00
-9996.57 -9996.57 -9996.57 -9996.57 -9996.57 -9996.57 -9995.57 -9988.17 -9987.17 -9987.16 -9987.16 -9987.16 -9987.16 -9986.59 -9982.39 -9981.82 -9981.82 -9981.82 -9981.82 -9980.76 -9553.48 -6396.16 -5920.33 -5155.91 -2015.38 -1233.37 -1078.33 -808.03 824.81 1088.09 1133.75 1144.03 1192.48 1254.85 1334.71 1581.60 1620.62 1655.41 1707.48 1713.61 1647.10 1651.77 1501.81 1480.64 1466.21 1521.19 1516.59 1463.83 1407.47 1191.87 1138.59 1093.89 1090.30 1107.72 1088.06 1087.16 1240.62 1258.79 1270.45 1305.63 1282.89 1243.98 1185.51 716.75 616.00 603.04 567.79 553.23 568.82 516.62 203.36 164.38 137.02 80.17 38.71 42.26 65.76 98.19 87.55 82.75 92.24 132.00 171.33 177.53 190.22 203.97 220.56 256.34 255.67 255.80 286.54 266.57 254.96 252.28 261.65 277.95 284.21 290.68 317.31 313.85 334.57 405.80 459.53 556.57 111.73 -2825.53 -3285.89 -3950.74 -7780.77 -8296.55 -8298.27 -8479.47 -9818.35 -9999.55 -10000.00 -10000.00 -10000.00 -10000.00 -9999.34 -9994.47 -9993.81 -9993.81 -9993.81 -9993.81 -9993.80 -9992.41 -9982.06 -9980.66 -9980.66 -9980.66 -9980.66 -9979.35 -9449.15 -5531.51 -5001.31 -5000.00 -5000.00 -5000.00 -5000.00 -5000.00 -5000.00
-9996.57 -9996.57 -9996.57 -9996.57 -9996.57 -9996.57 -9995.57 -9988.17 -9987.16 -9987.16 -9987.16 -9987.16 -9987.16 -9986.59 -9982.39 -9981.82 -9981.82 -9981.82 -9981.82 -9980.76 -9553.52 -6395.44 -5566.28 -2526.11 -1517.39 -1152.37 -1046.97 -750.11 803.36 1075.62 1145.76 1167.08 1185.25 1287.98 1339.34 1605.46 1663.85 1712.18 1716.15 1694.90 1713.96 1648.65 1481.93 1471.49 1537.19 1524.79 1470.48 1425.24 1360.15 1166.70 1169.43 1144.99 1151.89 1153.15 1118.30 1157.35 1303.57 1330.75 1303.04 1372.90 1321.71 1343.19 1272.55 755.41 651.96 643.06 612.23 580.14 609.76 510.51 207.44 151.88 109.02 58.47 37.32 46.27 67.90 89.68 83.21 83.48 93.38 127.58 171.40 154.12 229.64 243.27 224.28 239.59 253.95 275.27 290.04 286.11 279.68 285.42 295.54 313.86 321.62 325.51 347.51 347.00 355.51 419.81 427.19 499.37 99.76 -2689.27 -3294.13 -3972.58 -7783.13 -8296.38 -8298.11 -8479.32 -9818.33 -9999.55 -10000.00 -10000.00 -10000.00 -10000.00 -9999.34 -9994.46 -9993.80 -9993.80 -9993.80 -9993.80 -9993.80 -9992.40 -9982.06 -9980.66 -9980.66 -9980.66 -9980.66 -9979.34 -9449.15 -5531.51 -5001.31 -5000.00 -5000.00 -5000.00 -5000.00 -5000.00 -5000.00
-9996.94 -9996.94 -9996.94 -9996.94 -9996.94 -9996.93 -9995.79 -9987.38 -9986.24 -9986.24 -9986.24 -9986.24 -9986.24 -9985.98 -9984.02 -9983.76 -9983.76 -9983.76 -9983.76 -9982.73 -9568.58 -6459.59 -5259.04 -2017.12 -1308.41 -1200.86 -1106.18 -847.50 764.39 1080.69 1167.78 1187.38 1204.99 1274.25 1398.07 1677.89 1655.45 1682.19 1713.59 1720.90 1719.96 1684.28 1495.49 1514.67 1524.45 1526.62 1464.30 1452.07 1374.39 1223.45 1196.53 1166.06 1170.03 1184.57 1190.62 1153.27 1375.80 1403.52 1381.68 1418.14 1380.34 1429.19 1348.32 905.38 789.30 754.07 714.88 675.20 681.66 565.71 225.37 154.64 115.79 76.24 66.16 71.64 89.51 97.08 84.54 86.12 100.80 129.52 166.43 140.24 184.62 214.16 256.92 249.63 273.90 312.21 306.86 312.61 319.62 330.80 347.10 369.45 382.11 347.55 351.06 349.24 368.01 414.64 455.09 636.65 123.63 -2458.46 -3196.20 -3889.08 -7713.04 -8228.29 -8230.03 -8418.41 -9810.33 -9998.71 -9999.17 -9999.17 -9999.17 -9999.17 -9998.34 -9992.18 -9991.35 -9991.35 -9991.35 -9991.35 -9991.34 -9990.11 -9981.02 -9979.78 -9979.78 -9979.78 -9979.78 -9978.47 -9448.37 -5531.42 -5001.31 -5000.00 -5000.00 -5000.00 -5000.00 -5000.00 -5000.00
-9999.63 -9999.63 -9999.63 -9999.63 -9999.63 -9999.63 -9997.48 -9981.59 -9979.44 -9979.44 -9979.44 -9979.44 -9979.44 -9981.43 -9996.07 -9998.05 -9998.06 -9998.06 -9998.06 -9997.28 -9679.91 -6935.89 -3516.44 -2346.91 -2153.77 -2062.51 -2012.79 -1688.42 763.86 1182.46 1271.77 1317.62 1367.86 1376.51 1450.82 1659.19 1671.37 1725.84 1786.80 1795.14 1725.03 1701.13 1407.29 1373.45 1356.35 1339.47 1330.14 1334.75 1291.17 1209.06 1177.85 1155.23 1188.61 1200.75 1172.26 1166.91 1599.28 1577.28 1588.13 1624.83 1644.43 1644.01 1593.29 1397.62 1346.43 1287.61 1252.67 1199.82 1181.44 1052.06 443.72 377.06 282.82 230.84 223.74 222.60 204.63 100.90 98.73 85.07 88.98 129.85 160.74 156.78 183.20 190.75 225.16 261.67 236.32 269.70 294.06 350.59 380.60 426.02 448.38 472.80 468.65 416.59 397.12 415.17 411.07 445.29 533.23 575.89 206.85 -2141.22 -2702.05 -3316.02 -7199.51 -7725.01 -7727.04 -7968.32 -9751.20 -9992.49 -9993.08 -9993.08 -9993.08 -9993.08 -9990.96 -9975.31 -9973.20 -9973.19 -9973.19 -9973.19 -9973.19 -9973.20 -9973.30 -9973.31 -9973.31 -9973.31 -9973.31 -9972.00 -9442.59 -5530.73 -5001.31 -5000.00 -5000.00 -5000.00 -5000.00 -5000.00 -5000.00
-10000.00 -10000.00 -10000.00 -10000.00 -10000.00 -9999.99 -9997.71 -9980.81 -9978.52 -9978.52 -9978.52 -9978.52 -9978.52 -9980.81 -9997.70 -9999.99 -10000.00 -10000.00 -10000.00 -9999.24 -9694.88 -7004.67 -3317.45 -2387.64 -2262.83 -2190.51 -2155.59 -1790.11 772.19 1195.93 1278.81 1328.54 1377.63 1408.03 1447.87 1611.29 1672.29 1718.01 1796.74 1779.88 1764.84 1711.13 1403.23 1336.63 1314.29 1304.21 1282.42 1272.61 1233.00 1204.98 1202.69 1216.56 1161.92 1205.66 1205.39 1195.49 1625.48 1635.44 1690.65 1733.33 1748.08 1732.30 1702.36 1520.24 1486.59 1445.60 1378.97 1313.35 1251.48 1096.73 461.92 348.66 287.57 259.36 257.00 250.68 225.35 87.60 79.15 80.71 80.37 109.44 145.66 150.16 184.36 221.61 228.11 288.80 254.62 291.78 324.94 385.98 406.09 474.30 539.57 536.94 519.50 474.56 476.97 451.73 426.07 457.45 507.54 482.82 47.82 -2280.40 -2656.43 -3186.37 -6742.20 -7604.40 -7658.83 -7907.41 -9743.20 -9991.64 -9992.26 -9992.26 -9992.26 -9992.25 -9989.96 -9973.03 -9970.74 -9970.73 -9970.73 -9970.73 -9970.73 -9970.91 -9972.25 -9972.43 -9972.43 -9972.43 -9972.43 -9971.12 -9441.80 -5530.63 -5001.31 -5000.00 -5000.00 -5000.00 -5000.00 -5000.00 -5000.00
-10000.00 -10000.00 -10000.00 -10000.00 -10000.00 -9999.99 -9997.71 -9980.81 -9978.52 -9978.52 -9978.52 -9978.52 -9978.52 -9980.81 -9997.71 -9999.99 -10000.00 -10000.00 -10000.00 -9999.14 -9649.44 -6656.05 -3176.64 -2380.41 -2238.99 -2171.71 -2142.51 -1767.69 790.96 1199.62 1241.21 1328.09 1404.28 1470.76 1510.35 1652.11 1728.76 1770.35 1809.53 1798.12 1782.36 1713.16 1399.19 1316.49 1282.48 1282.00 1283.53 1279.82 1242.93 1177.36 1205.90 1205.44 1205.32 1219.73 1189.46 1238.90 1655.92 1700.66 1749.98 1812.61 1849.24 1800.16 1765.80 1584.12 1542.72 1495.47 1416.43 1322.88 1255.98 1117.55 489.63 379.24 298.82 277.27 271.91 256.53 230.73 90.30 75.61 84.89 97.06 157.01 166.42 143.63 165.61 265.65 214.07 234.88 272.36 313.05 363.17 415.23 438.08 518.90 593.89 640.92 637.56 564.03 512.71 402.53 407.59 429.37 368.21 293.93 -10.45 -2286.49 -2654.57 -2834.25 -4254.79 -7267.91 -7657.83 -7907.26 -9743.18 -9991.64 -9992.26 -9992.26 -9992.26 -9992.25 -9989.96 -9973.02 -9970.73 -9970.73 -9970.73 -9970.73 -9970.73 -9970.91 -9972.25 -9972.43 -9972.43 -9972.43 -9972.43 -9971.12 -9441.80 -5530.63 -5001.31 -5000.00 -5000.00 -5000.00 -5000.00 -5000.00 -5000.00
-10000.00 -10000.00 -10000.00 -10000.00 -10000.00 -9999.99 -9997.71 -9980.81 -9978.52 -9978.52 -9978.52 -9978.52 -9978.52 -9980.81 -9997.71 -9999.99 -10000.00 -10000.00 -10000.00 -9998.41 -9358.51 -4565.89 -3340.14 -2489.92 -2240.89 -2169.50 -2137.81 -1750.94 830.93 1268.51 1264.42 1335.68 1413.10 1442.45 1484.84 1639.62 1696.79 1734.63 1779.33 1781.15 1780.94 1734.97 1411.55 1337.23 1308.34 1286.64 1285.96 1282.32 1269.64 1199.72 1194.80 1193.58 1212.72 1273.37 1244.56 1307.04 1696.76 1805.55 1890.58 1927.71 2076.13 1882.76 1833.86 1674.07 1607.75 1524.21 1456.53 1393.71 1307.79 1150.68 493.30 368.95 315.41 294.76 279.51 262.72 235.92 97.92 87.08 101.49 113.19 171.62 173.67 155.11 160.63 194.69 204.76 249.39 299.69 318.97 392.43 448.11 452.10 517.04 596.85 638.33 637.67 603.27 588.74 422.00 408.97 490.71 407.95 415.44 -69.97 -2324.58 -2657.60 -3096.67 -6729.74 -7604.21 -7658.67 -7907.26 -9743.18 -9991.64 -9992.26 -9992.26 -9992.26 -9992.25 -9989.96 -9973.02 -9970.73 -9970.73 -9970.73 -9970.73 -9970.73 -9970.91 -9972.25 -9972.43 -9972.43 -9972.43 -9972.43 -9971.12 -9441.80 -5530.63 -5001.31 -5000.00 -5000.00 -5000.00 -5000.00 -5000.00 -5000.00
-10000.00 -10000.00 -10000.00 -10000.00 -10000.00 -9999.99 -9997.71 -9980.81 -9978.53 -9978.52 -9978.52 -9978.52 -9978.53 -9980.81 -9997.71 -9999.99 -10000.00 -10000.00 -10000.00 -9999.13 -9650.50 -7071.22 -6279.59 -3078.53 -2295.45 -2152.20 -2139.94 -1739.21 849.45 1263.44 1300.07 1350.83 1422.52 1505.28 1552.08 1695.00 1754.25 1786.93 1786.23 1820.79 1837.04 1742.50 1400.85 1364.47 1315.24 1284.11 1280.89 1292.50 1275.43 1204.56 1179.48 1175.61 1211.94 1248.46 1269.55 1321.04 1714.64 1825.07 1871.51 1913.49 1985.43 1833.73 1752.88 1559.24 1512.18 1484.25 1462.34 1398.90 1324.14 1172.25 491.52 357.32 335.95 317.86 295.90 278.74 246.77 112.07 111.51 101.64 102.92 119.56 145.32 184.18 170.99 179.15 203.87 295.34 327.05 359.34 372.60 477.69 484.79 560.00 639.84 765.48 783.17 498.80 490.93 429.97 312.04 473.43 562.76 500.11 -77.40 -2361.16 -2692.25 -3257.41 -7132.06 -7655.98 -7658.76 -7907.33 -9743.19 -9991.64 -9992.26 -9992.26 -9992.26 -9992.25 -9989.96 -9973.03 -9970.74 -9970.73 -9970.73 -9970.73 -9970.73 -9970.92 -9972.26 -9972.44 -9972.44 -9972.44 -9972.44 -9971.13 -9441.81 -5530.63 -5001.31 -5000.00 -5000.00 -5000.00 -5000.00 -5000.00 -5000.00
-9999.83 -9999.83 -9999.83 -9999.83 -9999.83 -9999.83 -9997.75 -9982.40 -9980.32 -9980.31 -9980.31 -9980.31 -9980.32 -9982.28 -9996.79 -9998.75 -9998.76 -9998.76 -9998.76 -9998.05 -9710.81 -7587.39 -6890.65 -3762.98 -2574.49 -2343.63 -2283.24 -1874.79 793.42 1218.56 1269.15 1330.34 1374.29 1474.79 1524.76 1597.52 1634.37 1714.56 1766.28 1790.78 1741.16 1668.10 1337.86 1312.42 1281.22 1214.69 1246.31 1231.93 1219.15 1186.31 1170.93 1173.62 1195.26 1203.48 1196.42 1272.28 1716.64 1808.88 1866.65 1848.13 1780.14 1719.11 1672.92 1503.88 1468.84 1444.57 1400.65 1361.82 1307.25 1198.13 553.90 431.08 413.03 392.50 364.46 344.52 308.02 153.92 151.13 147.03 142.38 148.65 185.46 209.65 219.59 216.83 208.39 241.56 299.68 392.94 375.77 445.48 529.23 619.72 631.97 621.41 734.96 422.13 420.67 288.23 246.17 371.54 525.71 261.37 -148.38 -2413.76 -2816.12 -3725.35 -7174.60 -7343.47 -7642.62 -7934.32 -9746.92 -9992.22 -9992.82 -9992.82 -9992.82 -9992.82 -9990.71 -9975.14 -9973.04 -9973.03 -9973.03 -9973.03 -9973.03 -9973.28 -9975.12 -9975.37 -9975.37 -9975.37 -9975.37 -9974.06 -9444.43 -5530.95 -5001.31 -5000.00 -5000.00 -5000.00 -5000.00 -5000.00 -5000.00
-9998.61 -9998.61 -9998.61 -9998.61 -9998.61 -9998.61 -9998.08 -9994.10 -9993.56 -9993.56 -9993.56 -9993.56 -9993.56 -9993.14 -9990.04 -9989.62 -9989.62 -9989.62 -9989.62 -9989.20 -9819.88 -8568.62 -8349.51 -7550.63 -4223.47 -3488.29 -3342.79 -2886.58 343.53 844.69 917.44 984.31 993.72 1019.35 1009.84 1180.29 1233.88 1268.17 1311.40 1335.93 1334.98 1261.67 1032.54 985.65 962.36 898.47 920.28 919.79 929.33 1062.91 1090.71 1080.85 1093.76 1119.95 1092.39 1148.91 1562.26 1610.32 1638.51 1624.43 1591.66 1575.44 1585.55 1590.84 1582.25 1561.87 1482.75 1449.95 1403.10 1304.37 912.73 821.46 796.93 772.17 739.64 715.96 662.97 397.17 370.74 381.58 389.75 384.82 425.99 415.89 301.41 269.74 243.09 265.93 278.09 319.46 355.42 506.21 647.39 736.84 682.63 550.32 532.40 448.63 406.95 312.12 240.68 297.05 397.22 207.83 -196.49 -2640.80 -3205.99 -3848.05 -6659.02 -4943.15 -7518.06 -8133.80 -9774.53 -9996.45 -9997.00 -9997.00 -9997.00 -9996.99 -9996.25 -9990.76 -9990.02 -9990.02 -9990.02 -9990.02 -9990.02 -9990.77 -9996.31 -9997.06 -9997.06 -9997.06 -9997.06 -9995.74 -9463.80 -5533.26 -5001.32 -5000.00 -5000.00 -5000.00 -5000.00 -5000.00 -5000.00
-9998.45 -9998.45 -9998.45 -9998.45 -9998.45 -9998.45 -9998.12 -9995.68 -9995.35 -9995.35 -9995.35 -9995.35 -9995.35 -9994.61 -9989.13 -9988.38 -9988.38 -9988.38 -9988.38 -9988.00 -9834.62 -8701.29 -8546.80 -8146.17 -5068.81 -3704.16 -3464.74 -3038.02 231.53 762.24 859.10 804.10 816.40 864.47 985.41 1179.50 1302.39 1288.62 1239.81 1266.27 1244.54 1169.96 951.83 896.69 858.88 816.82 856.68 865.26 883.26 1025.97 1045.72 1040.36 1014.26 1086.75 1108.94 1143.64 1534.07 1534.48 1545.37 1552.28 1600.56 1653.17 1680.72 1753.74 1643.09 1585.19 1566.50 1520.13 1464.14 1339.99 986.59 910.00 879.45 848.00 811.07 784.93 728.16 439.36 411.16 420.15 434.41 430.45 433.24 461.93 287.42 282.91 260.73 261.52 310.11 304.52 345.39 522.09 648.63 685.52 634.29 537.29 488.80 414.97 350.82 298.39 245.03 267.97 197.65 148.73 -210.57 -2700.24 -3199.35 -3312.15 -3744.69 -3952.37 -7461.12 -8160.70 -9778.27 -9997.02 -9997.56 -9997.56 -9997.56 -9997.56 -9997.00 -9992.88 -9992.32 -9992.32 -9992.32 -9992.32 -9992.32 -9993.14 -9999.17 -9999.99 -9999.99 -9999.99 -9999.99 -9998.67 -9466.42 -5533.57 -5001.32 -5000.00 -5000.00 -5000.00 -5000.00 -5000.00 -5000.00
-9998.45 -9998.45 -9998.45 -9998.45 -9998.45 -9998.45 -9998.12 -9995.69 -9995.36 -9995.36 -9995.36 -9995.36 -9995.36 -9994.61 -9989.12 -9988.38 -9988.38 -9988.38 -9988.38 -9988.00 -9834.66 -8701.62 -8548.16 -8499.53 -7675.72 -4101.66 -3547.40 -3083.33 179.24 714.86 735.12 816.92 896.67 1013.07 1189.95 1305.02 1359.44 1317.55 1215.48 1158.45 1180.56 1159.45 933.40 850.55 808.85 804.15 825.71 850.14 872.82 1005.80 1019.81 1003.70 987.49 1057.99 1049.04 1140.60 1479.10 1524.95 1578.72 1600.22 1644.05 1722.95 1765.62 1822.80 1781.47 1682.44 1689.97 1644.13 1606.30 1441.40 1097.10 966.84 915.53 870.44 840.57 809.72 756.91 464.90 458.98 440.03 443.05 446.45 435.91 452.31 282.62 293.84 279.96 271.70 284.48 301.10 362.82 497.53 564.74 585.78 592.10 609.31 510.68 422.44 304.32 304.56 308.60 211.42 233.47 132.07 -218.28 -2720.38 -3082.34 -3097.82 -3225.58 -3821.26 -7452.29 -8160.74 -9778.27 -9997.02 -9997.56 -9997.56 -9997.56 -9997.56 -9997.00 -9992.88 -9992.32 -9992.32 -9992.32 -9992.32 -9992.32 -9993.14 -9999.18 -10000.00 -10000.00 -10000.00 -10000.00 -9998.68 -9466.43 -5533.57 -5001.32 -5000.00 -5000.00 -5000.00 -5000.00 -5000.00 -5000.00
-9998.45 -9998.45 -9998.45 -9998.45 -9998.45 -9998.45 -9998.12 -9995.69 -9995.36 -9995.36 -9995.36 -9995.36 -9995.36 -9994.61 -9989.12 -9988.38 -9988.38 -9988.38 -9988.38 -9988.00 -9834.66 -8701.62 -8548.28 -8546.59 -8065.07 -4464.69 -3614.28 -3104.32 154.13 675.06 744.44 993.08 1061.51 1302.71 1245.92 1357.59 1312.56 1167.47 1112.23 1107.78 1156.61 1106.33 894.14 845.93 855.09 814.39 790.62 828.49 849.16 969.64 993.82 1017.84 1002.47 990.68 1039.94 1131.05 1482.52 1514.35 1601.86 1610.31 1669.41 1690.43 1766.98 1774.17 1777.59 1746.23 1717.46 1743.42 1757.90 1675.24 1216.41 1034.73 961.75 905.54 868.09 839.17 803.83 499.11 459.04 458.77 458.24 465.16 459.25 430.02 281.20 294.93 311.16 294.86 295.02 291.68 340.74 473.00 552.63 563.79 562.59 626.00 530.64 543.73 317.44 260.78 215.30 187.93 167.88 111.11 -237.07 -2678.59 -3037.07 -3116.06 -3254.36 -3896.36 -7462.17 -8160.77 -9778.27 -9997.02 -9997.56 -9997.56 -9997.56 -9997.56 -9997.00 -9992.88 -9992.32 -9992.32 -9992.32 -9992.32 -9992.32 -9993.14 -9999.18 -10000.00 -10000.00 -10000.00 -10000.00 -9998.68 -9466.43 -5533.57 -5001.32 -5000.00 -5000.00 -5000.00 -5000.00 -5000.00 -5000.00
-9998.44 -9998.44 -9998.44 -9998.44 -9998.44 -9998.44 -9998.11 -9995.69 -9995.36 -9995.36 -9995.36 -9995.36 -9995.36 -9994.61 -9989.13 -9988.38 -9988.38 -9988.38 -9988.38 -9988.00 -9834.70 -8701.84 -8547.81 -8547.05 -8098.70 -4708.04 -3676.00 -3131.26 122.66 620.72 723.89 914.78 1017.34 1115.67 1077.39 1097.40 1131.73 1142.33 1163.44 1125.13 1101.12 1041.03 873.13 844.17 771.72 736.70 754.76 799.82 806.01 964.48 998.95 1020.00 1029.99 1020.23 1056.77 1109.80 1431.75 1467.59 1489.87 1532.23 1585.45 1624.59 1645.83 1646.19 1649.90 1655.03 1680.96 1720.46 1710.23 1614.13 1258.60 1079.18 993.42 933.11 917.36 878.60 851.40 540.60 479.86 480.49 485.62 488.22 512.05 459.66 267.66 306.20 336.97 312.39 315.10 302.46 350.14 491.17 539.00 544.71 518.87 543.99 561.31 509.70 321.06 329.81 170.93 159.69 131.14 89.11 -252.38 -2654.89 -2973.79 -3095.33 -3263.03 -3806.10 -7449.88 -8161.09 -9778.31 -9997.01 -9997.56 -9997.56 -9997.56 -9997.55 -9997.00 -9992.88 -9992.32 -9992.32 -9992.32 -9992.32 -9992.33 -9993.14 -9999.18 -9999.99 -10000.00 -10000.00 -10000.00 -9998.68 -9466.42 -5533.57 -5001.32 -5000.00 -5000.00 -5000.00 -5000.00 -5000.00 -5000.00
-9995.88 -9995.88 -9995.88 -9995.88 -9995.88 -9995.88 -9995.88 -9995.86 -9995.85 -9995.85 -9995.85 -9995.85 -9995.85 -9995.18 -9990.21 -9989.53 -9989.53 -9989.53 -9989.53 -9989.19 -9851.85 -8791.48 -8357.06 -8652.07 -8299.82 -5245.41 -4046.15 -3354.83 -21.86 471.23 560.47 669.31 758.25 801.40 761.66 851.61 884.66 906.98 965.94 968.10 974.83 927.22 829.59 807.03 737.02 727.21 752.25 792.41 815.73 986.35 1038.80 1068.04 1079.53 1110.25 1097.94 1117.88 1403.07 1433.98 1450.04 1511.43 1612.17 1642.19 1659.90 1611.46 1607.42 1645.12 1646.98 1595.68 1587.88 1497.24 1164.23 1119.41 994.46 915.97 868.24 846.95 788.07 520.62 505.79 532.85 516.27 508.97 541.07 484.38 310.64 268.56 288.52 323.58 351.95 323.40 360.06 483.33 556.09 529.33 494.73 485.34 504.33 520.41 352.55 360.38 160.73 121.54 101.26 85.25 -234.65 -2767.58 -3126.14 -3267.68 -3392.85 -4452.10 -7677.13 -8303.61 -9793.16 -9994.60 -9995.10 -9995.10 -9995.10 -9995.10 -9994.89 -9993.35 -9993.14 -9993.14 -9993.14 -9993.14 -9993.14 -9993.69 -9997.72 -9998.27 -9998.27 -9998.27 -9998.27 -9996.95 -9464.88 -5533.39 -5001.32 -5000.00 -5000.00 -5000.00 -5000.00 -5000.00 -5000.00
-9976.97 -9976.97 -9976.97 -9976.97 -9976.97 -9976.98 -9979.38 -9997.10 -9999.50 -9999.50 -9999.50 -9999.50 -9999.50 -9999.35 -9998.18 -9998.02 -9998.02 -9998.02 -9998.02 -9997.98 -9978.54 -9453.51 -6900.71 -9090.33 -9728.12 -9047.30 -6125.21 -4526.17 -758.79 -272.70 -206.18 -151.76 -146.17 -132.65 -78.77 112.59 218.39 205.61 241.76 276.76 305.98 374.40 759.91 827.48 843.93 836.00 819.61 852.48 925.63 1341.62 1400.40 1394.81 1439.96 1456.04 1441.56 1429.12 1390.19 1392.90 1412.60 1485.28 1577.02 1596.01 1578.85 1264.11 1213.24 1233.29 1160.77 1134.74 1138.29 1058.17 870.02 797.67 746.08 671.78 632.00 614.21 563.05 375.16 409.27 441.93 438.02 450.99 445.80 429.33 397.17 360.04 377.13 410.48 451.14 441.08 480.45 605.15 683.23 632.15 550.20 546.61 600.54 633.42 440.65 326.98 125.12 79.81 60.14 84.22 -374.56 -3829.53 -4303.61 -4421.10 -5098.93 -8419.62 -9230.98 -9356.44 -9902.87 -9976.80 -9976.98 -9976.98 -9976.98 -9976.99 -9979.35 -9996.81 -9999.17 -9999.18 -9999.18 -9999.18 -9999.18 -9997.72 -9986.99 -9985.54 -9985.53 -9985.53 -9985.53 -9984.22 -9453.50 -5532.03 -5001.32 -5000.00 -5000.00 -5000.00 -5000.00 -5000.00 -5000.00
-9974.42 -9974.42 -9974.42 -9974.42 -9974.42 -9974.42 -9977.15 -9997.27 -9999.99 -10000.00 -10000.00 -10000.00 -10000.00 -9999.91 -9999.26 -9999.17 -9999.17 -9999.17 -9999.17 -9999.17 -9995.80 -9586.87 -6695.73 -6701.23 -9585.08 -9923.41 -9089.58 -5102.12 -883.45 -377.83 -353.96 -333.95 -334.09 -327.84 -272.28 -49.87 26.98 47.72 68.64 119.79 111.89 213.11 731.75 825.81 842.39 848.33 840.96 852.95 895.35 1339.27 1419.71 1444.88 1461.10 1504.10 1455.66 1492.70 1383.68 1380.63 1448.63 1437.03 1478.90 1501.50 1471.78 1113.83 1069.21 1058.96 1028.40 1063.99 1008.79 962.23 792.14 753.70 702.65 646.35 620.75 599.21 534.37 375.23 419.66 524.08 472.26 506.67 398.90 378.97 389.07 370.43 395.09 436.70 467.29 483.02 540.93 678.44 665.40 603.52 588.57 592.90 689.47 721.24 554.58 206.59 95.99 80.39 82.09 85.51 -432.47 -4061.55 -4552.07 -4842.86 -5802.77 -9014.44 -9441.07 -9498.92 -9917.71 -9974.39 -9974.53 -9974.53 -9974.53 -9974.54 -9977.25 -9997.28 -9999.99 -10000.00 -10000.00 -10000.00 -9999.99 -9998.27 -9985.54 -9983.81 -9983.81 -9983.81 -9983.81 -9982.49 -9451.96 -5531.85 -5001.32 -5000.00 -5000.00 -5000.00 -5000.00 -5000.00 -5000.00
-9974.41 -9974.41 -9974.41 -9974.41 -9974.41 -9974.42 -9977.14 -9997.27 -9999.99 -10000.00 -10000.00 -10000.00 -10000.00 -9999.91 -9999.26 -9999.18 -9999.18 -9999.18 -9999.18 -9999.17 -9996.69 -9931.51 -9196.53 -6717.38 -9542.07 -9974.79 -9564.64 -5935.44 -1029.33 -407.03 -388.87 -373.77 -367.14 -360.94 -315.96 -115.29 -65.69 -51.69 -7.92 45.87 95.49 201.91 726.70 785.79 799.25 824.65 840.76 861.72 921.77 1369.09 1424.77 1436.68 1418.77 1460.21 1456.09 1468.88 1396.14 1367.92 1410.38 1400.39 1409.94 1430.32 1414.95 1038.96 996.98 991.16 974.69 980.45 947.46 935.97 778.05 700.03 657.49 639.01 607.28 581.43 537.98 393.78 450.51 588.89 513.11 448.96 359.42 316.92 339.27 344.19 378.27 426.09 460.68 542.16 629.12 737.38 659.89 592.01 563.85 615.55 606.66 587.74 234.78 121.26 71.18 89.27 81.37 39.42 -584.77 -4193.71 -4751.56 -5313.76 -8582.77 -9390.62 -9442.51 -9499.27 -9917.75 -9974.39 -9974.53 -9974.53 -9974.53 -9974.53 -9977.24 -9997.28 -9999.99 -10000.00 -10000.00 -10000.00 -10000.00 -9998.27 -9985.53 -9983.81 -9983.80 -9983.80 -9983.80 -9982.49 -9451.96 -5531.84 -5001.32 -5000.00 -5000.00 -5000.00 -5000.00 -5000.00 -5000.00
-9974.41 -9974.41 -9974.41 -9974.41 -9974.41 -9974.42 -9977.14 -9997.27 -9999.99 -10000.00 -10000.00 -10000.00 -10000.00 -9999.91 -9999.26 -9999.18 -9999.18 -9999.18 -9999.18 -9999.17 -9996.81 -9978.31 -9594.31 -7155.45 -9595.16 -9975.94 -9926.58 -8619.73 -1520.42 -469.63 -411.76 -411.64 -400.36 -390.42 -349.13 -148.04 -104.54 -105.06 -63.33 -19.15 30.66 132.48 653.01 730.38 747.34 786.51 823.38 829.19 896.30 1340.01 1358.16 1402.44 1427.65 1403.64 1429.17 1449.27 1412.46 1397.56 1392.50 1399.74 1392.22 1427.97 1370.23 983.02 931.13 929.51 934.87 899.95 908.25 973.19 774.97 676.37 638.48 639.94 601.98 574.70 556.98 422.91 466.88 526.53 451.94 356.07 298.43 278.42 321.83 342.59 389.72 450.48 557.92 659.51 810.61 814.29 693.04 662.89 659.70 682.12 527.82 429.28 191.18 187.34 86.36 62.47 23.94 -121.07 -646.41 -4215.68 -4764.96 -5469.76 -8970.63 -9441.21 -9442.64 -9499.27 -9917.75 -9974.39 -9974.53 -9974.53 -9974.53 -9974.53 -9977.24 -9997.28 -9999.99 -10000.00 -10000.00 -10000.00 -10000.00 -9998.27 -9985.53 -9983.81 -9983.80 -9983.80 -9983.80 -9982.49 -9451.96 -5531.84 -5001.32 -5000.00 -5000.00 -5000.00 -5000.00 -5000.00 -5000.00
-9974.42 -9974.42 -9974.42 -9974.42 -9974.42 -9974.42 -9977.15 -9997.27 -9999.99 -10000.00 -10000.00 -10000.00 -10000.00 -9999.91 -9999.26 -9999.18 -9999.18 -9999.18 -9999.18 -9999.17 -9996.81 -9979.25 -9931.51 -9640.83 -9931.51 -9976.89 -9974.63 -9065.64 -2269.73 -704.16 -513.76 -476.61 -445.32 -418.99 -378.79 -177.48 -129.74 -136.06 -125.87 -111.50 -90.81 -0.90 566.05 648.83 677.24 721.06 755.80 796.76 823.71 1248.35 1349.29 1347.78 1378.21 1384.56 1397.19 1473.04 1417.89 1440.84 1424.00 1395.79 1391.95 1404.55 1326.23 929.31 878.53 859.25 858.85 854.37 887.44 891.23 692.63 636.36 624.81 651.57 602.06 587.82 568.94 441.89 476.44 527.22 387.06 307.14 272.54 259.39 309.44 353.85 431.77 535.88 713.52 943.67 909.19 904.94 726.87 648.23 633.24 470.19 383.94 316.09 104.26 72.60 63.39 30.25 -129.77 -233.15 -716.68 -4278.72 -4734.79 -5363.89 -8957.76 -9441.43 -9442.77 -9499.39 -9917.77 -9974.39 -9974.53 -9974.53 -9974.53 -9974.54 -9977.25 -9997.28 -9999.99 -10000.00 -10000.00 -10000.00 -9999.99 -9998.27 -9985.53 -9983.81 -9983.81 -9983.81 -9983.81 -9982.49 -9451.96 -5531.85 -5001.32 -5000.00 -5000.00 -5000.00 -5000.00 -5000.00 -5000.00
-9976.97 -9976.97 -9976.97 -9976.97 -9976.97 -9976.98 -9979.35 -9996.91 -9999.28 -9999.29 -9999.29 -9999.29 -9999.29 -9999.29 -9999.27 -9999.26 -9999.26 -9999.26 -9999.26 -9999.26 -9996.86 -9979.12 -9976.60 -9975.88 -9976.60 -9976.71 -9975.50 -9485.03 -5489.13 -2186.01 -1639.15 -1198.37 -1045.87 -984.66 -890.52 -521.94 -460.11 -451.10 -425.08 -424.26 -407.73 -286.93 457.58 592.07 610.46 646.60 640.63 655.36 716.92 1145.86 1231.54 1258.57 1289.64 1330.57 1317.98 1339.70 1298.69 1313.09 1328.84 1343.44 1267.32 1256.51 1182.53 842.49 798.47 776.35 778.37 796.20 838.00 785.70 604.58 575.24 577.79 576.33 572.22 577.60 556.81 442.67 456.57 449.81 299.33 256.99 228.24 232.84 296.50 359.69 462.12 661.08 941.19 1033.19 798.23 489.07 363.22 363.07 315.37 132.92 -32.47 -96.96 -339.64 -395.85 -415.59 -584.52 -1160.08 -1368.50 -1605.66 -4967.49 -5378.85 -6029.97 -9084.91 -9493.81 -9494.95 -9546.28 -9925.56 -9976.90 -9977.02 -9977.02 -9977.02 -9977.03 -9979.39 -9996.86 -9999.23 -9999.24 -9999.24 -9999.24 -9999.23 -9997.65 -9985.96 -9984.38 -9984.38 -9984.38 -9984.38 -9983.06 -9452.47 -5531.91 -5001.32 -5000.00 -5000.00 -5000.00 -5000.00 -5000.00 -5000.00
-9995.85 -9995.85 -9995.85 -9995.85 -9995.85 -9995.85 -9995.65 -9994.23 -9994.04 -9994.04 -9994.04 -9994.04 -9994.04 -9994.67 -9999.29 -9999.91 -9999.91 -9999.91 -9999.91 -9999.91 -9997.21 -9977.27 -9974.58 -9974.57 -9974.57 -9974.57 -9974.44 -9921.26 -9478.67 -9048.89 -8621.47 -5918.21 -5347.12 -4791.98 -4421.05 -2813.65 -2581.37 -2567.17 -2525.31 -2520.41 -2501.89 -2200.27 -144.14 186.31 215.27 219.69 200.85 220.24 247.20 524.95 577.89 622.13 694.56 785.33 734.92 702.25 623.98 673.90 675.16 665.08 591.36 542.47 521.93 517.60 534.21 516.19 537.32 571.07 555.27 489.27 333.04 307.91 311.94 319.83 333.89 343.96 331.88 258.04 271.11 282.84 133.80 111.03 94.55 115.17 229.29 299.25 392.93 551.63 698.29 793.94 425.90 -2078.31 -2451.72 -2315.66 -2811.82 -2921.50 -2950.76 -3050.22 -3597.40 -4192.39 -4462.81 -4894.21 -7604.25 -7987.64 -8111.50 -9241.67 -9390.14 -9470.13 -9831.97 -9880.36 -9880.51 -9892.74 -9983.16 -9995.39 -9995.42 -9995.42 -9995.42 -9995.42 -9995.23 -9993.79 -9993.60 -9993.60 -9993.60 -9993.60 -9993.60 -9993.07 -9989.14 -9988.61 -9988.61 -9988.61 -9988.61 -9987.29 -9456.25 -5532.36 -5001.32 -5000.00 -5000.00 -5000.00 -5000.00 -5000.00 -5000.00
-9998.40 -9998.40 -9998.40 -9998.40 -9998.40 -9998.40 -9997.86 -9993.87 -9993.33 -9993.33 -9993.33 -9993.33 -9993.33 -9994.04 -9999.29 -10000.00 -10000.00 -10000.00 -10000.00 -9999.99 -9997.25 -9977.02 -9974.29 -9974.28 -9974.28 -9974.28 -9974.28 -9973.82 -9970.32 -9968.81 -9919.63 -9554.17 -9108.13 -6227.48 -5062.06 -3156.98 -2885.48 -2869.99 -2847.29 -2831.35 -2801.57 -2478.44 -273.48 113.63 159.32 120.38 97.26 103.33 121.15 390.90 446.50 531.53 569.47 648.94 681.77 644.83 560.12 559.45 549.15 596.37 522.95 446.91 408.82 459.15 461.17 455.88 468.63 514.63 481.27 425.18 288.47 260.88 272.16 302.14 315.74 315.13 299.54 205.45 145.36 119.35 74.84 68.57 59.41 78.56 198.56 270.24 390.33 451.97 555.70 629.96 319.46 -2408.55 -2727.84 -3159.93 -3306.93 -3359.19 -3504.14 -4127.87 -5276.78 -7645.13 -7951.31 -7983.06 -8341.99 -8410.88 -8534.56 -9402.21 -9880.18 -9931.39 -9932.55 -9932.67 -9932.69 -9939.63 -9990.95 -9997.90 -9997.91 -9997.91 -9997.91 -9997.91 -9997.37 -9993.38 -9992.84 -9992.84 -9992.84 -9992.84 -9992.84 -9992.45 -9989.57 -9989.18 -9989.18 -9989.18 -9989.18 -9987.87 -9456.76 -5532.42 -5001.32 -5000.00 -5000.00 -5000.00 -5000.00 -5000.00 -5000.00
-9998.41 -9998.41 -9998.41 -9998.41 -9998.41 -9998.41 -9997.87 -9993.87 -9993.33 -9993.33 -9993.33 -9993.33 -9993.33 -9994.04 -9999.29 -10000.00 -10000.00 -10000.00 -10000.00 -9999.99 -9997.26 -9977.02 -9974.28 -9974.28 -9974.28 -9974.28 -9974.28 -9973.95 -9971.53 -9971.21 -9971.09 -9970.06 -9917.93 -9160.64 -5997.10 -3335.51 -2980.54 -2932.51 -2898.94 -2832.02 -2816.72 -2503.21 -318.85 25.80 81.85 48.11 35.87 49.74 119.79 399.86 440.97 481.59 539.92 659.32 692.51 664.62 546.35 527.48 529.82 573.45 493.29 423.05 396.95 432.91 446.28 438.24 437.97 488.26 439.26 403.97 279.00 265.40 278.74 310.06 347.68 310.59 323.20 135.52 82.32 66.25 49.75 66.06 43.17 58.22 177.36 242.46 322.30 370.37 516.30 583.97 446.64 -2290.13 -2728.96 -3237.19 -3333.06 -3514.04 -4721.57 -7135.15 -7581.44 -5518.99 -5035.11 -4803.51 -4758.42 -4888.94 -5093.46 -6236.17 -9092.87 -9875.29 -9932.66 -9932.80 -9932.82 -9939.75 -9990.97 -9997.90 -9997.92 -9997.92 -9997.92 -9997.92 -9997.38 -9993.38 -9992.84 -9992.84 -9992.84 -9992.84 -9992.83 -9992.45 -9989.57 -9989.18 -9989.18 -9989.18 -9989.18 -9987.87 -9456.76 -5532.42 -5001.32 -5000.00 -5000.00 -5000.00 -5000.00 -5000.00 -5000.00
-9998.41 -9998.41 -9998.41 -9998.41 -9998.41 -9998.41 -9997.87 -9993.87 -9993.33 -9993.33 -9993.33 -9993.33 -9993.33 -9994.04 -9999.29 -10000.00 -10000.00 -10000.00 -10000.00 -9999.99 -9997.26 -9977.02 -9974.28 -9974.28 -9974.28 -9974.28 -9974.28 -9973.95 -9971.53 -9971.21 -9971.21 -9971.21 -9970.95 -9917.37 -8871.80 -3861.59 -3055.84 -3039.05 -2988.94 -2870.07 -2825.37 -2512.77 -313.64 84.21 70.93 15.66 62.42 66.35 153.33 502.66 503.50 584.00 614.11 749.44 734.77 686.88 501.36 523.53 542.27 560.31 444.14 391.27 381.31 452.78 455.00 433.00 422.98 440.76 430.66 406.04 282.41 273.54 287.41 316.95 294.70 241.65 188.55 97.60 53.01 35.38 26.46 25.59 32.63 52.99 172.31 227.39 270.36 327.43 414.56 574.34 322.57 -2288.15 -2604.38 -3160.80 -3406.51 -4464.14 -7132.54 -5057.23 -4991.58 -4663.93 -4601.31 -4225.12 -4089.78 -4050.36 -4230.45 -5191.00 -5985.35 -9464.47 -9931.64 -9932.80 -9932.82 -9939.75 -9990.97 -9997.90 -9997.92 -9997.92 -9997.92 -9997.92 -9997.38 -9993.38 -9992.84 -9992.84 -9992.84 -9992.84 -9992.83 -9992.45 -9989.57 -9989.18 -9989.18 -9989.18 -9989.18 -9987.87 -9456.76 -5532.42 -5001.32 -5000.00 -5000.00 -5000.00 -5000.00 -5000.00 -5000.00
-9998.38 -9998.38 -9998.38 -9998.38 -9998.38 -9998.38 -9997.84 -9993.87 -9993.33 -9993.33 -9993.33 -9993.33 -9993.33 -9994.04 -9999.29 -10000.00 -10000.00 -10000.00 -10000.00 -9999.99 -9997.26 -9977.03 -9974.29 -9974.28 -9974.28 -9974.28 -9974.28 -9973.96 -9971.54 -9971.21 -9971.21 -9971.21 -9971.21 -9969.53 -9342.47 -4629.64 -3345.78 -3180.87 -3095.81 -2941.32 -2839.93 -2498.58 -308.28 105.91 50.46 -10.03 4.58 42.71 157.25 666.48 643.24 616.44 755.12 1021.06 768.96 614.15 424.88 457.60 531.01 544.30 452.55 375.15 361.30 435.34 448.89 445.16 426.50 435.02 443.92 434.75 323.98 291.96 294.52 353.92 322.78 278.44 209.14 83.26 42.70 22.09 16.24 14.61 21.04 47.15 162.39 207.90 247.96 304.71 377.28 463.67 274.50 -2356.12 -2635.51 -2983.33 -3770.79 -7390.42 -7777.78 -4737.79 -7165.46 -5083.32 -4515.28 -4274.45 -4069.12 -4408.56 -4659.33 -5612.36 -5963.17 -9454.40 -9931.50 -9932.68 -9932.70 -9939.64 -9990.95 -9997.90 -9997.91 -9997.91 -9997.91 -9997.91 -9997.37 -9993.38 -9992.84 -9992.84 -9992.84 -9992.84 -9992.84 -9992.45 -9989.57 -9989.18 -9989.18 -9989.18 -9989.18 -9987.87 -9456.76 -5532.42 -5001.32 -5000.00 -5000.00 -5000.00 -5000.00 -5000.00 -5000.00
-9987.34 -9987.34 -9987.34 -9987.34 -9987.34 -9987.34 -9988.06 -9993.32 -9994.04 -9994.04 -9994.04 -9994.04 -9994.04 -9994.67 -9999.36 -10000.00 -10000.00 -10000.00 -10000.00 -9999.99 -9997.55 -9979.47 -9977.03 -9977.02 -9977.02 -9977.02 -9977.02 -9976.44 -9972.11 -9971.53 -9971.52 -9971.52 -9971.52 -9970.88 -9710.38 -7448.62 -4618.38 -3952.26 -3438.76 -3205.87 -3024.75 -2687.40 -429.87 -97.93 -89.02 -110.05 -86.62 -31.53 114.48 544.97 736.38 746.68 737.78 793.18 726.87 511.91 362.99 337.03 432.17 473.14 409.81 319.35 328.56 422.28 461.88 449.75 432.98 434.70 434.84 428.37 318.67 253.17 240.21 253.80 244.29 217.22 131.54 44.60 25.92 16.59 12.13 10.02 13.32 24.65 17.87 40.10 76.51 115.39 157.96 237.43 61.39 -2622.53 -3128.05 -3491.49 -4448.23 -8011.77 -7973.60 -4363.18 -5170.09 -4957.68 -5029.20 -4523.09 -4464.27 -4718.91 -4980.30 -6124.13 -6595.24 -9489.79 -9882.85 -9883.83 -9883.86 -9895.70 -9983.22 -9995.06 -9995.09 -9995.09 -9995.09 -9995.09 -9994.89 -9993.42 -9993.22 -9993.22 -9993.22 -9993.22 -9993.22 -9992.79 -9989.68 -9989.25 -9989.25 -9989.25 -9989.25 -9987.94 -9456.83 -5532.43 -5001.32 -5000.00 -5000.00 -5000.00 -5000.00 -5000.00 -5000.00
-9905.77 -9905.77 -9905.77 -9905.77 -9905.77 -9905.79 -9915.75 -9989.31 -9999.26 -9999.29 -9999.29 -9999.29 -9999.29 -9999.36 -9999.92 -10000.00 -10000.00 -10000.00 -10000.00 -10000.00 -9999.71 -9997.55 -9997.26 -9997.26 -9997.26 -9997.26 -9997.25 -9994.76 -9976.36 -9973.87 -9973.86 -9973.86 -9973.86 -9973.74 -9924.33 -9514.39 -9121.64 -8619.51 -5466.46 -4777.84 -4569.16 -4159.11 -1198.98 -785.18 -762.00 -754.05 -715.03 -715.46 -552.96 150.32 335.14 301.12 256.44 262.42 152.93 71.64 155.55 235.91 189.50 329.91 296.50 175.28 227.82 355.68 420.88 403.93 393.10 409.65 407.45 387.95 228.77 142.49 126.71 121.70 105.89 97.53 28.32 -0.56 -3.26 0.82 -5.91 -11.63 -10.13 -115.39 -959.07 -1049.83 -1020.40 -986.28 -950.83 -896.69 -1144.41 -3988.56 -4742.68 -5360.37 -8872.02 -9755.40 -9337.23 -5913.13 -6133.40 -6485.37 -8234.89 -5523.56 -5492.60 -6122.77 -6430.18 -8773.92 -9133.16 -9476.31 -9522.76 -9522.87 -9522.99 -9571.04 -9926.07 -9974.12 -9974.24 -9974.24 -9974.24 -9974.25 -9976.57 -9993.70 -9996.02 -9996.03 -9996.03 -9996.03 -9996.02 -9995.36 -9990.44 -9989.77 -9989.77 -9989.77 -9989.77 -9988.45 -9457.29 -5532.48 -5001.32 -5000.00 -5000.00 -5000.00 -5000.00 -5000.00 -5000.00
-9894.73 -9894.73 -9894.73 -9894.73 -9894.73 -9894.76 -9905.96 -9988.76 -9999.97 -10000.00 -10000.00 -10000.00 -10000.00 -10000.00 -10000.00 -10000.00 -10000.00 -10000.00 -10000.00 -10000.00 -10000.00 -9999.99 -9999.99 -9999.99 -9999.99 -9999.99 -9999.99 -9997.24 -9976.93 -9974.18 -9974.18 -9974.18 -9974.18 -9974.11 -9947.21 -9748.33 -9719.54 -9299.29 -6115.10 -5064.95 -4816.35 -4372.89 -1302.19 -891.57 -862.17 -859.80 -852.18 -787.92 -606.78 64.84 258.15 208.06 148.58 82.47 28.88 32.51 168.75 158.33 114.18 248.43 233.83 196.42 196.35 345.87 383.78 373.34 361.19 381.21 376.64 322.69 165.81 131.27 81.43 39.67 29.00 15.70 1.23 -11.15 -13.11 -12.18 -16.11 -22.94 -21.21 -139.54 -1090.10 -1198.14 -1171.85 -1128.65 -1048.47 -1013.95 -1245.99 -4213.29 -5054.42 -6292.32 -9562.76 -9991.69 -9607.27 -7086.87 -9175.84 -9217.18 -7012.76 -6587.21 -9078.44 -9500.35 -9495.44 -9475.43 -9473.07 -9473.91 -9474.02 -9474.02 -9474.15 -9527.10 -9918.34 -9971.29 -9971.42 -9971.42 -9971.42 -9971.43 -9974.09 -9993.74 -9996.40 -9996.41 -9996.41 -9996.41 -9996.40 -9995.70 -9990.54 -9989.84 -9989.84 -9989.84 -9989.84 -9988.52 -9457.35 -5532.49 -5001.32 -5000.00 -5000.00 -5000.00 -5000.00 -5000.00 -5000.00
-9894.70 -9894.70 -9894.70 -9894.70 -9894.70 -9894.73 -9905.94 -9988.76 -9999.97 -10000.00 -10000.00 -10000.00 -10000.00 -10000.00 -10000.00 -10000.00 -10000.00 -10000.00 -10000.00 -10000.00 -10000.00 -10000.00 -10000.00 -10000.00 -10000.00 -10000.00 -9999.99 -9997.24 -9976.93 -9974.18 -9974.18 -9974.18 -9974.18 -9974.11 -9947.27 -9748.91 -9721.94 -9670.65 -8870.27 -5617.92 -4968.36 -4387.40 -1324.20 -912.61 -872.73 -873.84 -855.75 -758.60 -682.02 4.17 150.08 144.87 122.36 97.82 -50.84 -111.09 52.35 98.13 112.01 88.54 158.90 231.44 189.46 339.94 347.46 342.98 337.53 357.29 341.51 287.68 124.43 114.59 46.50 11.61 11.46 0.97 -6.05 -17.74 -20.97 -22.29 -24.96 -27.69 -25.17 -142.90 -1094.24 -1206.06 -1178.62 -1116.74 -1017.30 -1083.55 -1479.29 -4401.54 -5467.17 -9089.17 -9941.58 -9993.94 -9948.74 -9652.16 -9901.51 -9895.98 -9559.79 -9550.52 -9894.45 -9941.27 -9891.60 -9523.80 -9474.02 -9473.90 -9473.90 -9473.90 -9474.03 -9526.99 -9918.32 -9971.28 -9971.41 -9971.41 -9971.41 -9971.42 -9974.08 -9993.74 -9996.40 -9996.41 -9996.41 -9996.41 -9996.40 -9995.71 -9990.54 -9989.84 -9989.84 -9989.84 -9989.84 -9988.52 -9457.35 -5532.49 -5001.32 -5000.00 -5000.00 -5000.00 -5000.00 -5000.00 -5000.00
-9894.70 -9894.70 -9894.70 -9894.70 -9894.70 -9894.73 -9905.94 -9988.76 -9999.97 -10000.00 -10000.00 -10000.00 -10000.00 -10000.00 -10000.00 -10000.00 -10000.00 -10000.00 -10000.00 -10000.00 -10000.00 -10000.00 -10000.00 -10000.00 -10000.00 -10000.00 -9999.99 -9997.24 -9976.93 -9974.18 -9974.18 -9974.18 -9974.18 -9974.11 -9947.27 -9748.91 -9722.07 -9720.87 -9312.57 -6272.62 -5566.90 -4557.30 -1352.34 -880.12 -909.88 -900.91 -887.15 -848.01 -763.16 -195.17 29.19 112.65 88.20 54.28 -152.32 -201.28 40.59 48.36 106.40 73.02 85.27 221.55 201.67 314.95 326.96 321.47 313.54 316.39 271.73 213.41 66.72 43.44 10.93 3.54 2.27 -4.70 -12.49 -24.19 -27.99 -29.99 -32.01 -32.09 -27.60 -146.68 -1099.58 -1203.04 -1161.65 -1117.22 -1134.44 -1163.72 -1557.58 -4455.44 -5515.85 -9413.23 -9641.86 -9946.80 -9994.06 -9987.95 -9948.00 -9942.50 -9941.65 -9941.63 -9942.48 -9942.48 -9892.58 -9523.92 -9474.02 -9473.90 -9473.90 -9473.90 -9474.03 -9526.99 -9918.32 -9971.28 -9971.41 -9971.41 -9971.41 -9971.42 -9974.08 -9993.74 -9996.40 -9996.41 -9996.41 -9996.41 -9996.40 -9995.71 -9990.54 -9989.84 -9989.84 -9989.84 -9989.84 -9988.52 -9457.35 -5532.49 -5001.32 -5000.00 -5000.00 -5000.00 -5000.00 -5000.00 -5000.00
-9894.72 -9894.72 -9894.72 -9894.72 -9894.72 -9894.75 -9905.96 -9988.77 -9999.97 -10000.00 -10000.00 -10000.00 -10000.00 -10000.00 -10000.00 -10000.00 -10000.00 -10000.00 -10000.00 -10000.00 -10000.00 -10000.00 -10000.00 -10000.00 -10000.00 -10000.00 -9999.99 -9997.24 -9976.94 -9974.19 -9974.18 -9974.18 -9974.18 -9974.12 -9947.28 -9748.98 -9722.14 -9721.95 -9673.61 -9311.71 -8787.18 -5053.87 -1491.34 -971.48 -919.57 -922.64 -924.85 -897.81 -780.24 -241.04 -192.90 -55.36 -23.59 -9.11 -134.10 -217.04 -4.86 23.20 40.84 93.75 158.15 235.19 167.50 269.00 299.74 337.09 278.49 233.82 234.91 179.38 38.56 6.47 2.43 2.04 -0.31 -8.78 -17.86 -29.92 -34.05 -36.23 -38.22 -37.62 -29.89 -147.30 -1096.87 -1192.71 -1143.27 -1081.62 -1155.80 -1212.61 -1600.98 -4636.29 -5958.80 -9168.04 -7399.00 -9642.75 -9992.87 -9988.17 -9947.07 -9941.50 -9941.49 -9941.49 -9941.49 -9941.37 -9891.57 -9523.63 -9473.84 -9473.71 -9473.71 -9473.71 -9473.84 -9526.83 -9918.31 -9971.29 -9971.42 -9971.42 -9971.42 -9971.42 -9974.08 -9993.74 -9996.40 -9996.41 -9996.41 -9996.41 -9996.41 -9995.71 -9990.54 -9989.84 -9989.84 -9989.84 -9989.84 -9988.52 -9457.35 -5532.49 -5001.32 -5000.00 -5000.00 -5000.00 -5000.00 -5000.00 -5000.00
-9903.57 -9903.57 -9903.57 -9903.57 -9903.57 -9903.60 -9913.86 -9989.71 -9999.97 -10000.00 -10000.00 -10000.00 -10000.00 -9999.79 -9998.27 -9998.07 -9998.07 -9998.07 -9998.07 -9998.07 -9998.09 -9998.23 -9998.24 -9998.24 -9998.24 -9998.24 -9998.24 -9995.94 -9978.95 -9976.65 -9976.64 -9976.64 -9976.64 -9976.58 -9952.59 -9775.28 -9751.29 -9751.23 -9751.11 -9748.91 -9222.47 -5008.53 -2022.55 -1594.84 -1487.60 -1406.99 -1363.36 -1352.92 -1254.75 -754.12 -687.17 -613.40 -591.44 -564.62 -677.30 -654.60 -148.08 -63.40 -2.95 109.84 177.91 195.11 86.94 252.13 278.09 348.33 338.99 242.44 237.76 224.88 43.82 8.27 2.03 8.48 -0.40 -14.41 -23.60 -33.88 -37.75 -38.71 -39.57 -38.67 -30.47 -135.87 -1005.49 -1083.26 -1035.86 -985.27 -1068.59 -1192.48 -2008.18 -5364.84 -8880.66 -9667.23 -9421.29 -9724.93 -9772.24 -9742.69 -9523.50 -9493.83 -9493.76 -9493.76 -9493.76 -9493.73 -9483.59 -9408.62 -9398.48 -9398.45 -9398.45 -9398.45 -9398.60 -9459.73 -9911.42 -9972.55 -9972.70 -9972.70 -9972.70 -9972.70 -9975.27 -9994.22 -9996.78 -9996.79 -9996.79 -9996.79 -9996.79 -9995.99 -9990.11 -9989.31 -9989.31 -9989.31 -9989.31 -9987.99 -9456.88 -5532.43 -5001.32 -5000.00 -5000.00 -5000.00 -5000.00 -5000.00 -5000.00
-9968.83 -9967.97 -9968.83 -9968.97 -9968.97 -9968.97 -9972.28 -9996.69 -9999.99 -10000.00 -10000.00 -10000.00 -10000.00 -9998.27 -9985.56 -9983.84 -9983.83 -9983.83 -9983.83 -9983.83 -9983.99 -9985.15 -9985.30 -9985.30 -9985.30 -9985.30 -9985.30 -9986.32 -9993.78 -9994.79 -9994.80 -9994.80 -9994.80 -9994.79 -9991.79 -9969.65 -9966.66 -9966.65 -9966.65 -9965.36 -9446.62 -5610.14 -5055.48 -4963.24 -4836.36 -4738.67 -4657.55 -4618.59 -4531.01 -3986.58 -3893.89 -3874.95 -3860.65 -3886.68 -3928.04 -3577.98 -999.53 -637.77 -606.33 -551.81 -540.67 -528.56 -426.49 34.75 195.36 216.57 232.95 153.74 62.49 97.48 71.23 38.96 0.35 43.76 -8.32 -30.19 -37.08 -29.67 -29.62 -30.41 -30.44 -28.86 -20.66 -50.46 -354.12 -339.06 -303.19 -256.15 -354.06 -890.33 -4695.29 -7372.11 -8078.87 -8136.67 -8136.20 -8136.95 -8136.56 -7928.80 -6393.72 -6185.97 -6185.45 -6185.45 -6185.45 -6186.16 -6468.98 -8558.82 -8841.65 -8842.35 -8842.35 -8842.35 -8842.65 -8963.98 -9860.53 -9981.86 -9982.16 -9982.16 -9982.16 -9982.16 -9984.02 -9997.75 -9999.61 -9999.62 -9999.62 -9999.62 -9999.61 -9998.10 -9986.91 -9985.40 -9985.40 -9985.40 -9985.40 -9984.08 -9453.38 -5532.01 -5001.32 -5000.00 -5000.00 -5000.00 -5000.00 -5000.00 -5000.00
-9923.43 -9576.98 -9923.57 -9977.68 -9977.82 -9977.82 -9980.18 -9997.63 -9999.99 -10000.00 -10000.00 -10000.00 -10000.00 -9998.07 -9983.84 -9981.91 -9981.91 -9981.91 -9981.91 -9981.91 -9982.08 -9983.38 -9983.55 -9983.55 -9983.55 -9983.55 -9983.55 -9985.01 -9995.79 -9997.25 -9997.25 -9997.25 -9997.25 -9997.25 -9997.10 -9995.96 -9995.80 -9995.80 -9995.80 -9994.82 -9598.26 -6646.95 -6030.08 -5537.89 -5385.50 -5209.75 -5121.66 -5093.60 -4987.87 -4431.05 -4341.85 -4364.26 -4372.95 -4384.91 -4381.32 -3976.67 -1118.06 -725.24 -702.93 -673.50 -643.90 -563.85 -506.02 -28.10 66.61 217.08 277.90 190.32 77.80 78.40 196.59 44.67 -4.29 -5.96 -17.04 -32.31 -39.52 -29.78 -29.13 -29.27 -28.77 -26.67 -18.95 -39.70 -265.91 -250.32 -226.53 -150.36 -298.04 -1268.95 -5115.31 -7635.82 -7914.92 -7915.75 -7915.75 -7915.75 -7915.17 -7683.32 -5970.15 -5738.30 -5737.72 -5737.72 -5737.72 -5738.52 -6061.00 -8443.81 -8766.29 -8767.09 -8767.09 -8767.09 -8767.41 -8896.89 -9853.64 -9983.12 -9983.44 -9983.44 -9983.44 -9983.45 -9985.21 -9998.23 -9999.99 -10000.00 -10000.00 -10000.00 -10000.00 -9998.38 -9986.48 -9984.87 -9984.87 -9984.87 -9984.87 -9983.55 -9452.91 -5531.96 -5001.32 -5000.00 -5000.00 -5000.00 -5000.00 -5000.00 -5000.00
-9576.01 -7016.06 -9577.00 -9976.84 -9977.84 -9977.84 -9980.20 -9997.63 -9999.99 -10000.00 -10000.00 -10000.00 -10000.00 -9998.07 -9983.83 -9981.91 -9981.90 -9981.90 -9981.90 -9981.90 -9982.08 -9983.37 -9983.55 -9983.55 -9983.55 -9983.55 -9983.55 -9985.01 -9995.80 -9997.26 -9997.26 -9997.26 -9997.26 -9997.26 -9997.11 -9996.02 -9995.88 -9995.88 -9995.88 -9995.76 -9949.59 -9602.86 -9095.95 -5927.09 -5389.63 -5195.78 -5147.72 -5078.08 -4992.64 -4451.16 -4369.17 -4378.92 -4378.29 -4376.80 -4385.41 -4007.41 -1144.14 -742.66 -714.27 -684.86 -656.10 -601.71 -564.85 -91.27 -25.81 74.26 197.94 224.56 150.01 23.07 82.30 33.47 5.81 -7.76 -19.01 -32.42 -40.21 -30.00 -29.24 -29.23 -28.26 -25.78 -18.85 -38.45 -250.55 -251.10 -229.32 -188.10 -700.85 -4014.32 -5487.28 -7637.40 -7914.51 -7915.20 -7915.20 -7915.20 -7914.63 -7682.71 -5969.10 -5737.19 -5736.61 -5736.61 -5736.61 -5737.41 -6059.99 -8443.52 -8766.10 -8766.90 -8766.90 -8766.90 -8767.22 -8896.72 -9853.62 -9983.12 -9983.44 -9983.44 -9983.44 -9983.45 -9985.21 -9998.23 -10000.00 -10000.00 -10000.00 -10000.00 -10000.00 -9998.38 -9986.48 -9984.87 -9984.86 -9984.86 -9984.86 -9983.55 -9452.91 -5531.96 -5001.32 -5000.00 -5000.00 -5000.00 -5000.00 -5000.00 -5000.00
-9923.46 -9577.00 -9923.59 -9977.70 -9977.84 -9977.84 -9980.20 -9997.63 -9999.99 -10000.00 -10000.00 -10000.00 -10000.00 -9998.07 -9983.83 -9981.91 -9981.90 -9981.90 -9981.90 -9981.90 -9982.08 -9983.37 -9983.55 -9983.55 -9983.55 -9983.55 -9983.55 -9985.01 -9995.80 -9997.26 -9997.26 -9997.26 -9997.26 -9997.26 -9997.11 -9996.02 -9995.88 -9995.88 -9995.88 -9995.87 -9995.76 -9992.56 -9506.04 -5933.61 -5141.27 -5057.29 -5084.99 -5077.91 -4989.15 -4449.78 -4375.45 -4378.85 -4380.59 -4388.50 -4411.55 -4020.41 -1159.82 -749.49 -724.72 -700.44 -654.33 -649.73 -588.36 -125.98 -73.59 -28.02 157.90 126.85 20.40 -30.26 8.72 61.62 24.66 26.47 -13.35 -31.63 -40.92 -30.48 -29.51 -29.33 -28.10 -24.75 -18.10 -40.42 -268.02 -289.37 -261.02 -233.04 -437.56 -1821.73 -5190.02 -7636.66 -7914.51 -7915.20 -7915.20 -7915.20 -7914.63 -7682.71 -5969.10 -5737.19 -5736.61 -5736.61 -5736.61 -5737.41 -6059.99 -8443.41 -8765.09 -8765.61 -8765.58 -8765.72 -8767.08 -8896.72 -9853.62 -9983.12 -9983.44 -9983.44 -9983.44 -9983.45 -9985.21 -9998.23 -10000.00 -10000.00 -10000.00 -10000.00 -10000.00 -9998.38 -9986.48 -9984.87 -9984.86 -9984.86 -9984.86 -9983.55 -9452.91 -5531.96 -5001.32 -5000.00 -5000.00 -5000.00 -5000.00 -5000.00 -5000.00
-9977.70 -9976.84 -9977.70 -9977.84 -9977.84 -9977.84 -9980.20 -9997.63 -9999.99 -10000.00 -10000.00 -10000.00 -9999.99 -9998.07 -9983.83 -9981.91 -9981.90 -9981.90 -9981.90 -9981.90 -9982.08 -9983.37 -9983.54 -9983.54 -9983.54 -9983.54 -9983.55 -9985.01 -9995.80 -9997.26 -9997.26 -9997.26 -9997.26 -9997.26 -9997.11 -9996.02 -9995.87 -9995.87 -9995.87 -9995.87 -9995.87 -9993.63 -9550.74 -6261.03 -5227.15 -5126.67 -5102.95 -5117.86 -5007.87 -4455.49 -4384.31 -4379.61 -4378.33 -4405.71 -4418.37 -4011.13 -1153.85 -747.73 -725.61 -710.49 -688.95 -678.69 -621.27 -153.29 -84.32 -52.34 -13.73 -10.45 -32.12 -61.19 -17.00 7.88 -5.16 5.31 -15.82 -31.86 -42.55 -32.02 -30.41 -30.05 -28.09 -24.09 -17.87 -42.46 -280.18 -281.73 -258.54 -286.51 -327.50 -930.72 -5069.10 -7635.60 -7913.70 -7914.38 -7914.38 -7914.38 -7913.81 -7682.05 -5969.58 -5737.82 -5737.25 -5737.25 -5737.25 -5737.91 -6059.29 -8395.03 -8358.91 -8245.49 -8234.54 -8290.82 -8710.55 -8896.79 -9853.64 -9983.12 -9983.44 -9983.44 -9983.44 -9983.45 -9985.21 -9998.23 -9999.99 -10000.00 -10000.00 -10000.00 -9999.99 -9998.38 -9986.48 -9984.87 -9984.87 -9984.87 -9984.87 -9983.55 -9452.91 -5531.96 -5001.32 -5000.00 -5000.00 -5000.00 -5000.00 -5000.00 -5000.00
-9977.41 -9977.41 -9977.41 -9977.41 -9977.41 -9977.42 -9979.68 -9996.37 -9998.63 -9998.64 -9998.64 -9998.64 -9998.63 -9996.72 -9982.63 -9980.72 -9980.72 -9980.72 -9980.72 -9980.72 -9980.95 -9982.67 -9982.90 -9982.90 -9982.90 -9982.90 -9982.90 -9984.38 -9995.32 -9996.80 -9996.80 -9996.80 -9996.80 -9996.80 -9996.42 -9993.60 -9993.22 -9993.22 -9993.22 -9993.22 -9993.22 -9992.23 -9933.03 -9182.51 -6392.45 -5732.99 -5612.78 -5766.87 -5670.11 -5077.11 -4993.93 -5013.65 -5000.02 -5023.53 -4937.28 -4141.56 -1439.28 -1072.78 -1053.00 -1026.29 -1001.04 -971.28 -936.60 -279.71 -182.47 -168.28 -178.98 -182.27 -190.00 -175.21 -37.53 -21.12 -16.90 -14.31 -22.68 -36.26 -46.36 -30.86 -28.37 -26.77 -24.30 -19.82 -13.45 -29.57 -198.06 -198.86 -149.27 -208.99 -221.60 -754.46 -4934.48 -7329.89 -7583.45 -7584.08 -7584.08 -7584.08 -7583.66 -7414.37 -6163.53 -5994.25 -5993.71 -5992.83 -5992.40 -5936.69 -5824.24 -7728.73 -5736.57 -4538.63 -4407.75 -4898.83 -8387.55 -8978.73 -9862.63 -9982.09 -9982.39 -9982.39 -9982.39 -9982.39 -9984.22 -9997.75 -9999.58 -9999.59 -9999.59 -9999.59 -9999.58 -9998.19 -9987.88 -9986.48 -9986.48 -9986.48 -9986.48 -9985.16 -9454.35 -5532.13 -5001.32 -5000.00 -5000.00 -5000.00 -5000.00 -5000.00 -5000.00
-9974.27 -9974.27 -9974.27 -9974.27 -9974.27 -9974.27 -9975.79 -9987.06 -9988.59 -9988.59 -9988.59 -9988.59 -9988.59 -9986.82 -9973.74 -9971.97 -9971.97 -9971.97 -9971.97 -9971.97 -9972.63 -9977.47 -9978.13 -9978.13 -9978.13 -9978.13 -9978.13 -9979.76 -9991.78 -9993.41 -9993.41 -9993.41 -9993.41 -9993.40 -9991.30 -9975.75 -9973.65 -9973.64 -9973.64 -9973.64 -9973.65 -9975.06 -9985.24 -9936.71 -9569.55 -9480.36 -9464.31 -9485.28 -9473.27 -9396.78 -9385.96 -9388.77 -9386.92 -9388.53 -8915.44 -5298.08 -3698.02 -3531.97 -3525.47 -3516.29 -3507.66 -3498.85 -3229.26 -1176.18 -896.45 -912.85 -924.43 -929.28 -932.65 -838.25 -146.75 -51.46 -46.36 -32.87 -38.17 -53.16 -58.19 -11.06 -2.47 0.50 3.63 8.70 15.62 72.90 451.57 512.71 540.79 512.15 506.44 20.19 -3683.22 -5025.92 -5143.00 -5142.40 -5143.29 -5143.42 -5144.15 -5436.35 -7595.45 -7887.49 -7841.24 -7484.67 -7365.32 -6938.93 -4047.66 -5314.01 -7776.21 -5049.42 -5068.97 -5746.46 -9096.19 -9591.89 -9929.01 -9974.48 -9974.59 -9974.59 -9974.59 -9974.60 -9976.94 -9994.19 -9996.53 -9996.53 -9996.53 -9996.53 -9996.54 -9996.73 -9998.19 -9998.38 -9998.38 -9998.38 -9998.38 -9997.07 -9464.98 -5533.40 -5001.32 -5000.00 -5000.00 -5000.00 -5000.00 -5000.00 -5000.00
-9973.84 -9973.84 -9973.84 -9973.84 -9973.84 -9973.84 -9975.27 -9985.80 -9987.23 -9987.23 -9987.23 -9987.23 -9987.23 -9985.48 -9972.54 -9970.79 -9970.79 -9970.79 -9970.79 -9970.79 -9971.50 -9976.77 -9977.48 -9977.48 -9977.48 -9977.48 -9977.49 -9979.13 -9991.30 -9992.95 -9992.95 -9992.95 -9992.95 -9992.95 -9990.61 -9973.34 -9971.00 -9970.99 -9970.99 -9970.99 -9971.00 -9972.72 -9985.41 -9987.01 -9986.10 -9985.88 -9985.84 -9985.89 -9985.27 -9980.70 -9980.09 -9980.09 -9980.09 -9978.80 -9457.04 -5476.21 -4007.66 -3866.16 -3884.70 -3894.70 -3890.48 -3882.61 -3577.35 -1344.52 -1033.28 -1032.27 -1041.20 -1050.33 -1048.03 -945.39 -179.74 -72.80 -71.00 -61.38 -59.37 -71.66 -72.10 -12.48 1.26 5.28 8.31 14.68 21.44 87.67 539.14 606.41 613.10 607.18 605.43 459.60 -1019.61 -4375.46 -4755.80 -4398.46 -4757.00 -4812.98 -4813.72 -5110.77 -7310.93 -7590.62 -7241.77 -4590.16 -3668.36 -3750.54 -3874.53 -4759.52 -5569.31 -5687.57 -8697.35 -9187.22 -9586.85 -9675.84 -9937.99 -9973.45 -9973.54 -9973.54 -9973.54 -9973.55 -9975.95 -9993.71 -9996.12 -9996.12 -9996.12 -9996.12 -9996.12 -9996.54 -9999.58 -9999.99 -10000.00 -10000.00 -10000.00 -9998.68 -9466.42 -5533.57 -5001.32 -5000.00 -5000.00 -5000.00 -5000.00 -5000.00 -5000.00
-9973.84 -9973.84 -9973.84 -9973.84 -9973.84 -9973.84 -9975.27 -9985.80 -9987.22 -9987.23 -9987.23 -9987.23 -9987.22 -9985.47 -9972.54 -9970.79 -9970.78 -9970.78 -9970.78 -9970.79 -9971.50 -9976.77 -9977.48 -9977.48 -9977.48 -9977.48 -9977.49 -9979.13 -9991.30 -9992.95 -9992.95 -9992.95 -9992.95 -9992.94 -9990.61 -9973.33 -9970.99 -9970.99 -9970.99 -9970.99 -9970.99 -9972.71 -9985.41 -9987.13 -9987.13 -9987.13 -9987.13 -9987.13 -9986.54 -9982.15 -9981.56 -9981.56 -9981.56 -9980.26 -9455.99 -5458.97 -4010.62 -3909.44 -3948.56 -3947.01 -3924.32 -3909.47 -3601.19 -1381.71 -1088.77 -1069.10 -1069.35 -1060.93 -1040.21 -940.15 -181.14 -78.71 -82.73 -83.05 -81.89 -78.75 -73.29 -8.66 6.20 9.92 14.17 19.69 25.37 90.14 540.45 605.58 606.95 606.51 606.02 542.21 -383.25 -3924.42 -4346.15 -1748.23 -4397.64 -4810.99 -4754.03 -4266.61 -3686.45 -3455.83 -3439.73 -2957.33 -2507.67 -4113.30 -6485.06 -5288.44 -8622.59 -9166.50 -9531.08 -9262.19 -9589.58 -9676.05 -9938.01 -9973.45 -9973.54 -9973.54 -9973.54 -9973.54 -9975.95 -9993.71 -9996.11 -9996.12 -9996.12 -9996.12 -9996.12 -9996.53 -9999.59 -10000.00 -10000.00 -10000.00 -10000.00 -9998.68 -9466.43 -5533.57 -5001.32 -5000.00 -5000.00 -5000.00 -5000.00 -5000.00 -5000.00
-9973.84 -9973.84 -9973.84 -9973.84 -9973.84 -9973.84 -9975.27 -9985.80 -9987.22 -9987.23 -9987.23 -9987.23 -9987.22 -9985.47 -9972.54 -9970.79 -9970.78 -9970.78 -9970.78 -9970.79 -9971.50 -9976.77 -9977.48 -9977.48 -9977.48 -9977.48 -9977.49 -9979.13 -9991.30 -9992.95 -9992.95 -9992.95 -9992.95 -9992.94 -9990.61 -9973.33 -9970.99 -9970.99 -9970.99 -9970.99 -9970.99 -9972.71 -9985.41 -9987.13 -9987.13 -9987.13 -9987.13 -9987.13 -9986.54 -9982.15 -9981.56 -9981.56 -9981.56 -9980.27 -9462.70 -5512.06 -4045.26 -3936.81 -4057.27 -4063.69 -4024.74 -3955.43 -3616.63 -1417.54 -1182.75 -1104.20 -1092.68 -1086.95 -1068.33 -964.11 -195.34 -84.54 -83.36 -77.77 -76.48 -71.95 -62.76 3.80 15.93 19.07 22.31 26.26 30.85 94.75 543.94 605.88 606.45 606.00 603.43 594.02 377.63 -1098.55 -4328.07 -4396.45 -4755.90 -4753.01 -3910.76 -971.17 -2335.60 -2485.91 -2922.62 -2849.26 -3122.33 -3551.17 -3787.77 -5141.61 -9060.56 -9191.27 -8774.81 -6390.76 -9207.76 -9675.11 -9938.01 -9973.45 -9973.54 -9973.54 -9973.54 -9973.54 -9975.95 -9993.71 -9996.11 -9996.12 -9996.12 -9996.12 -9996.12 -9996.53 -9999.59 -10000.00 -10000.00 -10000.00 -10000.00 -9998.68 -9466.43 -5533.57 -5001.32 -5000.00 -5000.00 -5000.00 -5000.00 -5000.00 -5000.00
