-10000.00 -10000.00 -10000.00 -10000.00 -10000.00 -10000.00 -10001.69 -10014.11 -10015.79 -10015.79 -10015.79 -10015.79 -10015.80 -10017.23 -10027.85 -10029.28 -10029.29 -10029.29 -10029.29 -10029.29 -10029.31 -10029.44 -10029.46 -10029.46 -10029.46 -10029.46 -10029.45 -10026.92 -10008.22 -10005.69 -10005.69 -10005.69 -10005.69 -10005.68 -10005.08 -10000.61 -10000.00 -10000.00 -10000.00 -10000.00 -10000.01 -10002.33 -10019.51 -10021.84 -10021.85 -10021.85 -10021.85 -10021.84 -10020.77 -10012.87 -10011.80 -10011.80 -10011.80 -10011.80 -10011.79 -10010.54 -10001.26 -10000.00 -10000.00 -10000.00 -10000.00 -10000.01 -10003.20 -10026.76 -10029.95 -10029.95 -10029.95 -10029.95 -10029.95 -10029.65 -10027.41 -10027.10 -10027.10 -10027.10 -10027.10 -10027.07 -10014.99 -9925.74 -9913.66 -9913.63 -9913.63 -9913.63 -9912.47 -9441.92 -5963.60 -4984.23 -1140.82 55.78 255.20 348.74 -530.05 -3234.22 -4404.80 -8304.26 -8827.39 -8828.80 -8829.11 -8953.78 -9875.02 -9999.69 -10000.00 -10000.00 -10000.00 -10000.00 -10000.33 -10002.78 -10003.11 -10003.11 -10003.11 -10003.11 -10003.11 -10002.78 -10000.33 -10000.00 -10000.00 -10000.00 -10000.00 -10000.00 -10001.74 -10014.54 -10016.28 -10016.28 -10016.28 -10016.28 -10016.28 -10017.60 -10027.36 -10028.68 -10028.69 -10028.69 -10028.69 -10027.36 -9492.05 -5536.63 -5001.33 -5000.00 -5000.00 -5000.00 -5000.00 -5000.00 -5000.00
-10000.00 -10000.00 -10000.00 -10000.00 -10000.00 -10000.01 -10001.69 -10014.11 -10015.79 -10015.79 -10015.79 -10015.79 -10015.80 -10017.23 -10027.84 -10029.28 -10029.28 -10029.28 -10029.28 -10029.28 -10029.30 -10029.44 -10029.45 -10029.45 -10029.45 -10029.45 -10029.45 -10026.92 -10008.22 -10005.69 -10005.68 -10005.68 -10005.68 -10005.68 -10005.08 -10000.61 -10000.00 -10000.00 -10000.00 -10000.00 -10000.01 -10002.33 -10019.52 -10021.84 -10021.85 -10021.85 -10021.85 -10021.85 -10020.78 -10012.87 -10011.80 -10011.80 -10011.80 -10011.80 -10011.79 -10010.54 -10001.27 -10000.01 -10000.01 -10000.01 -10000.01 -10000.01 -10003.20 -10026.76 -10029.94 -10029.95 -10029.95 -10029.95 -10029.95 -10029.65 -10027.40 -10027.10 -10027.10 -10027.10 -10027.10 -10027.07 -10014.93 -9925.23 -9913.09 -9913.06 -9913.06 -9913.06 -9911.90 -9441.13 -5906.03 -4543.25 -911.32 14.78 -34.58 -194.93 -572.05 -3213.31 -4348.53 -7948.50 -8778.93 -8828.21 -8828.64 -8953.36 -9874.97 -9999.70 -10000.00 -10000.00 -10000.00 -10000.01 -10000.34 -10002.78 -10003.11 -10003.11 -10003.11 -10003.11 -10003.11 -10002.78 -10000.33 -10000.00 -10000.00 -10000.00 -10000.00 -10000.01 -10001.74 -10014.54 -10016.28 -10016.28 -10016.28 -10016.28 -10016.28 -10017.61 -10027.36 -10028.68 -10028.69 -10028.69 -10028.69 -10027.36 -9492.05 -5536.63 -5001.33 -5000.00 -5000.00 -5000.00 -5000.00 -5000.00 -5000.00
-10001.51 -10001.51 -10001.51 -10001.51 -10001.51 -10001.51 -10003.11 -10014.88 -10016.47 -10016.47 -10016.47 -10016.47 -10016.47 -10017.51 -10025.13 -10026.16 -10026.16 -10026.16 -10026.16 -10026.16 -10026.21 -10026.59 -10026.64 -10026.64 -10026.64 -10026.64 -10026.64 -10024.38 -10007.67 -10005.41 -10005.40 -10005.40 -10005.40 -10005.40 -10004.83 -10000.58 -10000.00 -10000.00 -10000.00 -10000.00 -10000.01 -10002.40 -10020.11 -10022.50 -10022.51 -10022.51 -10022.51 -10022.50 -10021.41 -10013.30 -10012.21 -10012.20 -10012.20 -10012.20 -10012.20 -10011.20 -10003.81 -10002.81 -10002.81 -10002.81 -10002.81 -10002.82 -10005.56 -10025.80 -10028.54 -10028.54 -10028.54 -10028.54 -10028.54 -10028.23 -10025.93 -10025.62 -10025.62 -10025.62 -10025.62 -10025.53 -9989.10 -9719.89 -9683.46 -9683.37 -9683.37 -9683.37 -9682.12 -9177.76 -5037.13 -1352.90 -420.37 -245.22 -404.20 -453.38 -762.67 -3276.59 -3779.43 -5082.08 -8227.29 -8637.01 -8638.38 -8783.55 -9856.24 -10001.41 -10001.77 -10001.77 -10001.77 -10001.77 -10001.88 -10002.67 -10002.78 -10002.78 -10002.78 -10002.78 -10002.78 -10002.61 -10001.34 -10001.17 -10001.17 -10001.17 -10001.17 -10001.17 -10002.85 -10015.22 -10016.90 -10016.90 -10016.90 -10016.90 -10016.91 -10018.15 -10027.33 -10028.58 -10028.58 -10028.58 -10028.58 -10027.25 -9491.96 -5536.62 -5001.33 -5000.00 -5000.00 -5000.00 -5000.00 -5000.00 -5000.00
-10012.63 -10012.63 -10012.63 -10012.63 -10012.63 -10012.63 -10013.57 -10020.53 -10021.48 -10021.48 -10021.48 -10021.48 -10021.47 -10019.52 -10005.08 -10003.13 -10003.13 -10003.13 -10003.13 -10003.13 -10003.42 -10005.57 -10005.87 -10005.87 -10005.87 -10005.87 -10005.87 -10005.59 -10003.59 -10003.32 -10003.32 -10003.32 -10003.32 -10003.31 -10002.96 -10000.35 -10000.00 -10000.00 -10000.00 -10000.00 -10000.01 -10002.92 -10024.46 -10027.38 -10027.38 -10027.38 -10027.38 -10027.38 -10026.08 -10016.51 -10015.22 -10015.21 -10015.21 -10015.21 -10015.21 -10016.10 -10022.62 -10023.51 -10023.51 -10023.51 -10023.51 -10023.51 -10022.94 -10018.72 -10018.15 -10018.15 -10018.15 -10018.15 -10018.15 -10017.78 -10015.04 -10014.67 -10014.67 -10014.67 -10014.67 -10014.14 -9798.20 -8202.60 -7986.65 -7986.12 -7986.12 -7986.12 -7984.26 -7233.55 -1595.72 -148.11 48.16 38.27 -58.09 -61.04 -230.21 -2015.25 -2266.99 -2936.83 -6721.30 -7230.56 -7232.56 -7528.81 -9717.81 -10014.06 -10014.79 -10014.79 -10014.79 -10014.79 -10013.25 -10001.88 -10000.34 -10000.33 -10000.33 -10000.33 -10000.33 -10001.34 -10008.77 -10009.77 -10009.77 -10009.77 -10009.77 -10009.78 -10011.02 -10020.25 -10021.50 -10021.50 -10021.50 -10021.50 -10021.50 -10022.17 -10027.13 -10027.80 -10027.81 -10027.81 -10027.81 -10026.48 -9491.26 -5536.54 -5001.33 -5000.00 -5000.00 -5000.00 -5000.00 -5000.00 -5000.00
-10014.13 -10014.13 -10014.13 -10014.13 -10014.13 -10014.13 -10014.99 -10021.30 -10022.15 -10022.16 -10022.16 -10022.16 -10022.15 -10019.79 -10002.37 -10000.01 -10000.01 -10000.01 -10000.01 -10000.01 -10000.33 -10002.73 -10003.05 -10003.06 -10003.06 -10003.06 -10003.06 -10003.05 -10003.04 -10003.03 -10003.03 -10003.03 -10003.03 -10003.03 -10002.71 -10000.32 -10000.00 -10000.00 -10000.00 -10000.00 -10000.01 -10002.99 -10025.05 -10028.04 -10028.04 -10028.04 -10028.04 -10028.04 -10026.72 -10016.95 -10015.62 -10015.62 -10015.62 -10015.62 -10015.62 -10016.76 -10025.17 -10026.31 -10026.31 -10026.31 -10026.31 -10026.31 -10025.29 -10017.77 -10016.75 -10016.75 -10016.75 -10016.75 -10016.75 -10016.37 -10013.57 -10013.19 -10013.19 -10013.19 -10013.19 -10012.60 -9772.36 -7997.25 -7757.02 -7756.42 -7756.42 -7756.42 -7754.38 -6928.78 -818.42 82.26 91.81 64.32 20.61 40.38 -151.75 -1834.08 -2059.62 -2650.64 -6518.08 -7040.22 -7042.30 -7359.00 -9699.08 -10015.77 -10016.56 -10016.56 -10016.56 -10016.55 -10014.79 -10001.77 -10000.01 -10000.00 -10000.00 -10000.00 -10000.00 -10001.17 -10009.77 -10010.93 -10010.94 -10010.94 -10010.94 -10010.94 -10012.13 -10020.93 -10022.12 -10022.12 -10022.12 -10022.12 -10022.12 -10022.72 -10027.10 -10027.70 -10027.70 -10027.70 -10027.70 -10026.37 -9491.17 -5536.53 -5001.33 -5000.00 -5000.00 -5000.00 -5000.00 -5000.00 -5000.00
-10014.13 -10014.13 -10014.13 -10014.13 -10014.13 -10014.14 -10014.99 -10021.30 -10022.15 -10022.16 -10022.16 -10022.16 -10022.15 -10019.79 -10002.36 -10000.01 -10000.00 -10000.00 -10000.00 -10000.00 -10000.33 -10002.72 -10003.05 -10003.05 -10003.05 -10003.05 -10003.05 -10003.05 -10003.03 -10003.03 -10003.03 -10003.03 -10003.03 -10003.03 -10002.71 -10000.32 -10000.00 -10000.00 -10000.00 -10000.00 -10000.01 -10002.99 -10025.05 -10028.04 -10028.04 -10028.04 -10028.04 -10028.04 -10026.72 -10016.95 -10015.62 -10015.62 -10015.62 -10015.62 -10015.62 -10016.76 -10025.18 -10026.32 -10026.32 -10026.32 -10026.32 -10026.32 -10025.30 -10017.76 -10016.75 -10016.74 -10016.74 -10016.74 -10016.74 -10016.36 -10013.57 -10013.19 -10013.19 -10013.19 -10013.19 -10012.59 -9772.30 -7996.74 -7756.45 -7755.85 -7755.85 -7755.85 -7753.66 -6925.30 -797.43 128.46 68.99 41.44 24.73 57.58 -145.81 -1838.92 -2083.93 -2631.66 -6514.61 -7039.74 -7041.83 -7358.58 -9699.03 -10015.77 -10016.56 -10016.56 -10016.56 -10016.56 -10014.79 -10001.77 -10000.00 -10000.00 -10000.00 -10000.00 -10000.00 -10001.17 -10009.77 -10010.94 -10010.94 -10010.94 -10010.94 -10010.94 -10012.13 -10020.93 -10022.12 -10022.12 -10022.12 -10022.12 -10022.12 -10022.72 -10027.10 -10027.70 -10027.70 -10027.70 -10027.70 -10026.37 -9491.17 -5536.53 -5001.33 -5000.00 -5000.00 -5000.00 -5000.00 -5000.00 -5000.00
-10014.13 -10014.13 -10014.13 -10014.13 -10014.13 -10014.14 -10014.99 -10021.30 -10022.15 -10022.16 -10022.16 -10022.16 -10022.15 -10019.79 -10002.36 -10000.01 -10000.00 -10000.00 -10000.00 -10000.00 -10000.33 -10002.72 -10003.05 -10003.05 -10003.05 -10003.05 -10003.05 -10003.05 -10003.03 -10003.03 -10003.03 -10003.03 -10003.03 -10003.03 -10002.71 -10000.32 -10000.00 -10000.00 -10000.00 -10000.00 -10000.01 -10002.99 -10025.05 -10028.04 -10028.04 -10028.04 -10028.04 -10028.04 -10026.72 -10016.95 -10015.62 -10015.62 -10015.62 -10015.62 -10015.62 -10016.76 -10025.18 -10026.32 -10026.32 -10026.32 -10026.32 -10026.32 -10025.30 -10017.76 -10016.75 -10016.74 -10016.74 -10016.74 -10016.74 -10016.36 -10013.57 -10013.19 -10013.19 -10013.19 -10013.19 -10012.59 -9772.30 -7996.74 -7756.45 -7755.85 -7755.72 -7754.57 -7696.87 -6519.60 -792.72 68.38 77.18 54.54 60.58 112.11 -124.34 -1857.72 -2110.66 -2691.86 -6521.33 -7038.48 -7040.68 -7358.44 -9699.03 -10015.77 -10016.56 -10016.56 -10016.56 -10016.56 -10014.79 -10001.77 -10000.00 -10000.00 -10000.00 -10000.00 -10000.00 -10001.17 -10009.77 -10010.94 -10010.94 -10010.94 -10010.94 -10010.94 -10012.13 -10020.93 -10022.12 -10022.12 -10022.12 -10022.12 -10022.12 -10022.72 -10027.10 -10027.70 -10027.70 -10027.70 -10027.70 -10026.37 -9491.17 -5536.53 -5001.33 -5000.00 -5000.00 -5000.00 -5000.00 -5000.00 -5000.00
-10014.13 -10014.13 -10014.13 -10014.13 -10014.13 -10014.14 -10014.99 -10021.30 -10022.15 -10022.16 -10022.16 -10022.16 -10022.15 -10019.79 -10002.37 -10000.01 -10000.01 -10000.01 -10000.01 -10000.01 -10000.33 -10002.72 -10003.05 -10003.05 -10003.05 -10003.05 -10003.05 -10002.99 -10002.60 -10002.55 -10002.55 -10002.55 -10002.55 -10002.55 -10002.18 -9999.50 -9999.14 -9999.14 -9999.14 -9999.14 -9999.14 -10002.19 -10024.66 -10027.70 -10027.70 -10027.70 -10027.70 -10027.70 -10026.41 -10016.88 -10015.59 -10015.58 -10015.58 -10015.58 -10015.59 -10016.73 -10025.17 -10026.31 -10026.31 -10026.31 -10026.31 -10026.31 -10025.28 -10017.64 -10016.60 -10016.60 -10016.60 -10016.60 -10016.60 -10016.13 -10012.69 -10012.22 -10012.22 -10012.22 -10012.22 -10011.62 -9771.35 -7995.98 -7755.58 -7753.89 -7698.75 -7292.46 -6828.08 -3406.55 -295.70 81.94 60.46 75.71 103.66 199.36 -90.96 -1833.55 -2109.56 -2621.58 -6050.92 -6518.01 -6577.16 -7302.57 -9698.62 -10015.55 -10016.34 -10016.34 -10016.34 -10016.33 -10014.59 -10001.75 -10000.01 -10000.01 -10000.01 -10000.01 -10000.01 -10001.17 -10009.78 -10010.94 -10010.95 -10010.95 -10010.95 -10010.95 -10012.14 -10020.93 -10022.12 -10022.12 -10022.12 -10022.12 -10022.12 -10022.71 -10027.10 -10027.70 -10027.70 -10027.70 -10027.70 -10026.37 -9491.17 -5536.53 -5001.33 -5000.00 -5000.00 -5000.00 -5000.00 -5000.00 -5000.00
-10014.19 -10014.19 -10014.19 -10014.19 -10014.19 -10014.19 -10015.02 -10021.20 -10022.04 -10022.04 -10022.04 -10022.04 -10022.03 -10019.95 -10004.54 -10002.45 -10002.44 -10002.44 -10002.44 -10002.44 -10002.47 -10002.69 -10002.72 -10002.72 -10002.72 -10002.72 -10002.67 -9981.82 -9827.79 -9806.94 -9806.89 -9806.89 -9806.89 -9806.85 -9790.23 -9667.45 -9650.83 -9650.79 -9650.79 -9650.79 -9650.86 -9676.35 -9864.73 -9890.22 -9890.28 -9890.28 -9890.28 -9890.31 -9902.11 -9989.25 -10001.04 -10001.07 -10001.07 -10001.07 -10001.08 -10003.49 -10021.29 -10023.69 -10023.70 -10023.70 -10023.70 -10023.68 -10016.80 -9965.97 -9959.09 -9959.08 -9959.08 -9959.08 -9958.99 -9922.96 -9656.78 -9620.75 -9620.66 -9620.66 -9620.66 -9620.09 -9389.66 -7686.78 -7403.43 -7013.85 -6525.38 -3515.21 -3069.21 -2245.50 -30.28 312.31 132.52 252.14 202.10 441.44 74.30 -1543.34 -1781.20 -1862.70 -2277.18 -2373.93 -2858.65 -6649.60 -9589.66 -9925.43 -9926.26 -9926.26 -9926.26 -9926.28 -9934.37 -9994.11 -10002.19 -10002.21 -10002.21 -10002.21 -10002.21 -10003.34 -10011.66 -10012.79 -10012.79 -10012.79 -10012.79 -10012.79 -10013.62 -10019.73 -10020.56 -10020.56 -10020.56 -10020.56 -10020.56 -10021.35 -10027.13 -10027.91 -10027.92 -10027.92 -10027.92 -10026.59 -9491.36 -5536.55 -5001.33 -5000.00 -5000.00 -5000.00 -5000.00 -5000.00 -5000.00
-10014.58 -10014.58 -10014.58 -10014.58 -10014.58 -10014.58 -10015.28 -10020.46 -10021.16 -10021.17 -10021.17 -10021.17 -10021.17 -10021.09 -10020.54 -10020.46 -10020.46 -10020.46 -10020.46 -10020.46 -10018.31 -10002.47 -10000.33 -10000.33 -10000.33 -10000.33 -9999.89 -9825.40 -8536.07 -8361.58 -8361.14 -8361.14 -8361.14 -8360.81 -8224.09 -7213.91 -7077.20 -7076.86 -7076.86 -7076.86 -7077.34 -7268.73 -8682.99 -8874.39 -8874.86 -8874.86 -8874.86 -8875.13 -8983.60 -9785.11 -9893.58 -9893.85 -9893.85 -9893.85 -9893.88 -9905.65 -9992.60 -10004.37 -10004.40 -10004.40 -10004.40 -10004.28 -9954.20 -9584.21 -9534.14 -9534.02 -9534.02 -9534.02 -9533.28 -9234.51 -7026.94 -6728.17 -6727.43 -6727.43 -6727.43 -6727.04 -6569.10 -5349.77 -4417.39 -1466.15 -790.06 -259.46 -160.23 -86.87 273.57 335.03 262.99 227.00 362.49 727.57 814.76 439.48 344.40 380.17 512.60 425.39 -151.44 -4443.28 -8745.06 -9259.43 -9260.70 -9260.70 -9260.70 -9260.90 -9341.57 -9937.64 -10018.31 -10018.51 -10018.51 -10018.51 -10018.51 -10019.35 -10025.59 -10026.43 -10026.43 -10026.43 -10026.43 -10026.43 -10024.58 -10010.92 -10009.07 -10009.06 -10009.06 -10009.06 -10009.07 -10011.25 -10027.33 -10029.50 -10029.51 -10029.51 -10029.51 -10028.18 -9492.79 -5536.72 -5001.33 -5000.00 -5000.00 -5000.00 -5000.00 -5000.00 -5000.00
-10014.63 -10014.63 -10014.63 -10014.63 -10014.63 -10014.63 -10015.31 -10020.36 -10021.05 -10021.05 -10021.05 -10021.05 -10021.05 -10021.24 -10022.70 -10022.90 -10022.90 -10022.90 -10022.90 -10022.89 -10020.46 -10002.44 -10000.01 -10000.00 -10000.00 -10000.00 -9999.52 -9804.23 -8361.25 -8165.97 -8165.48 -8165.48 -8165.48 -8165.11 -8012.14 -6881.86 -6728.90 -6728.52 -6728.52 -6728.52 -6729.05 -6942.90 -8523.06 -8736.91 -8737.44 -8737.44 -8737.44 -8737.74 -8859.30 -9757.48 -9879.03 -9879.34 -9879.34 -9879.34 -9879.37 -9892.40 -9988.72 -10001.76 -10001.79 -10001.79 -10001.79 -10001.65 -9945.73 -9532.55 -9476.63 -9476.49 -9476.49 -9476.49 -9475.66 -9141.34 -6671.03 -6336.71 -6335.88 -6335.75 -6334.78 -6334.11 -6130.69 -4246.73 -1092.38 -67.26 104.43 196.37 276.51 329.21 433.76 541.70 656.97 452.64 511.91 988.95 1160.92 1042.33 1084.55 1137.09 1025.29 1003.22 438.15 -1558.41 -8277.90 -9168.42 -9170.62 -9170.62 -9170.62 -9170.85 -9261.34 -9929.99 -10020.49 -10020.71 -10020.71 -10020.71 -10020.71 -10021.52 -10027.47 -10028.27 -10028.28 -10028.28 -10028.28 -10028.27 -10026.06 -10009.72 -10007.51 -10007.51 -10007.51 -10007.51 -10007.51 -10009.88 -10027.35 -10029.72 -10029.72 -10029.72 -10029.72 -10028.40 -9492.98 -5536.75 -5001.33 -5000.00 -5000.00 -5000.00 -5000.00 -5000.00 -5000.00
-10014.63 -10014.63 -10014.63 -10014.63 -10014.63 -10014.63 -10015.31 -10020.36 -10021.05 -10021.05 -10021.05 -10021.05 -10021.05 -10021.25 -10022.71 -10022.90 -10022.90 -10022.90 -10022.90 -10022.90 -10020.46 -10002.44 -10000.01 -10000.00 -10000.00 -10000.00 -9999.52 -9804.18 -8360.82 -8165.48 -8165.00 -8164.89 -8164.03 -8163.36 -8010.32 -6879.74 -6726.73 -6726.35 -6726.36 -6726.54 -6728.05 -6942.09 -8522.66 -8736.57 -8737.10 -8737.10 -8737.10 -8737.40 -8858.99 -9757.41 -9879.00 -9879.30 -9879.30 -9879.30 -9879.33 -9892.37 -9988.71 -10001.75 -10001.78 -10001.78 -10001.78 -10001.64 -9945.71 -9532.42 -9476.49 -9476.35 -9476.35 -9476.35 -9475.52 -9141.11 -6670.15 -6335.74 -6334.65 -6281.37 -5892.68 -5821.47 -5257.56 -1119.07 -67.59 74.00 128.08 227.23 277.95 358.95 418.89 454.54 495.09 470.47 500.56 797.94 819.61 1111.55 1399.30 1615.81 1170.80 1155.17 655.14 -773.83 -8172.25 -9167.80 -9170.40 -9170.40 -9170.40 -9170.62 -9261.14 -9929.98 -10020.49 -10020.72 -10020.72 -10020.72 -10020.72 -10021.52 -10027.47 -10028.28 -10028.28 -10028.28 -10028.28 -10028.28 -10026.06 -10009.72 -10007.51 -10007.50 -10007.50 -10007.50 -10007.51 -10009.87 -10027.35 -10029.72 -10029.73 -10029.73 -10029.73 -10028.40 -9492.98 -5536.75 -5001.33 -5000.00 -5000.00 -5000.00 -5000.00 -5000.00 -5000.00
-10014.63 -10014.63 -10014.63 -10014.63 -10014.63 -10014.63 -10015.31 -10020.36 -10021.05 -10021.05 -10021.05 -10021.05 -10021.05 -10021.25 -10022.71 -10022.90 -10022.90 -10022.90 -10022.90 -10022.90 -10020.46 -10002.44 -10000.01 -10000.00 -10000.00 -10000.00 -9999.52 -9804.18 -8360.82 -8165.48 -8164.89 -8119.24 -7772.56 -7655.55 -7489.21 -6354.89 -6200.87 -6202.04 -6204.73 -6278.07 -6673.78 -6941.82 -8522.66 -8736.57 -8737.10 -8737.10 -8737.10 -8737.40 -8858.99 -9757.41 -9879.00 -9879.30 -9879.30 -9879.30 -9879.33 -9892.37 -9988.71 -10001.75 -10001.78 -10001.78 -10001.78 -10001.64 -9945.71 -9532.42 -9476.49 -9476.35 -9476.35 -9476.35 -9475.52 -9141.11 -6670.02 -6334.57 -6279.20 -5496.25 -2552.85 -2031.39 -1736.00 -236.77 40.38 83.19 142.74 208.90 203.18 229.05 344.93 413.84 342.01 350.80 316.58 368.22 441.02 980.88 993.96 964.66 1531.41 1197.43 739.30 -559.81 -7744.69 -9111.65 -9170.13 -9170.40 -9170.40 -9170.62 -9261.14 -9929.98 -10020.49 -10020.72 -10020.72 -10020.72 -10020.72 -10021.52 -10027.47 -10028.28 -10028.28 -10028.28 -10028.28 -10028.28 -10026.06 -10009.72 -10007.51 -10007.50 -10007.50 -10007.50 -10007.51 -10009.87 -10027.35 -10029.72 -10029.73 -10029.73 -10029.73 -10028.40 -9492.98 -5536.75 -5001.33 -5000.00 -5000.00 -5000.00 -5000.00 -5000.00 -5000.00
-10014.63 -10014.63 -10014.63 -10014.63 -10014.63 -10014.63 -10015.31 -10020.36 -10021.04 -10021.04 -10021.04 -10021.04 -10021.04 -10021.24 -10022.70 -10022.90 -10022.90 -10022.90 -10022.90 -10022.90 -10020.46 -10002.45 -10000.01 -10000.00 -10000.00 -10000.00 -9999.52 -9804.09 -8360.04 -8164.61 -8163.16 -7771.63 -4808.15 -3881.57 -3618.03 -2451.32 -2289.02 -2301.91 -2329.29 -2879.69 -5860.61 -6882.86 -8521.15 -8735.27 -8735.80 -8735.80 -8735.80 -8736.10 -8857.67 -9755.97 -9877.54 -9877.84 -9877.84 -9877.84 -9877.87 -9890.92 -9987.30 -10000.35 -10000.38 -10000.38 -10000.38 -10000.24 -9944.33 -9531.16 -9475.24 -9475.10 -9475.10 -9475.10 -9474.27 -9139.71 -6619.46 -5914.50 -5417.04 -2425.43 -1495.99 -1396.01 -1242.19 -141.54 44.88 84.62 145.77 189.03 161.11 179.68 269.27 293.34 269.44 269.42 269.81 284.76 341.72 665.83 844.39 959.94 1470.18 1302.85 1104.45 41.04 -4641.17 -8296.08 -9113.16 -9169.06 -9169.20 -9169.42 -9260.06 -9929.84 -10020.49 -10020.71 -10020.71 -10020.71 -10020.71 -10021.52 -10027.47 -10028.28 -10028.28 -10028.28 -10028.28 -10028.27 -10026.06 -10009.72 -10007.51 -10007.51 -10007.51 -10007.51 -10007.51 -10009.88 -10027.35 -10029.72 -10029.72 -10029.72 -10029.72 -10028.39 -9492.98 -5536.74 -5001.33 -5000.00 -5000.00 -5000.00 -5000.00 -5000.00 -5000.00
-10013.49 -10013.49 -10013.49 -10013.49 -10013.49 -10013.49 -10014.11 -10018.71 -10019.33 -10019.33 -10019.33 -10019.33 -10019.33 -10019.66 -10022.06 -10022.38 -10022.39 -10022.39 -10022.39 -10022.38 -10020.19 -10003.99 -10001.80 -10001.79 -10001.79 -10001.79 -10001.22 -9768.10 -8045.62 -7812.51 -7810.55 -7300.78 -3520.82 -2850.59 -2586.25 -1454.15 -1292.83 -1304.90 -1363.33 -1516.70 -2383.37 -5755.86 -7966.14 -8210.05 -8210.66 -8210.66 -8210.66 -8210.95 -8325.72 -9173.72 -9288.49 -9288.77 -9288.77 -9288.77 -9288.81 -9304.46 -9420.09 -9435.74 -9435.78 -9435.78 -9435.78 -9435.66 -9386.38 -9022.21 -8972.93 -8972.81 -8972.81 -8972.80 -8971.80 -8622.71 -5685.76 -2539.18 -1718.11 -1247.53 -1134.74 -1185.35 -1104.59 -79.99 102.98 134.16 196.70 211.74 182.05 189.52 260.07 269.33 262.28 267.83 279.64 294.05 336.04 559.02 676.35 782.39 953.54 964.08 1038.65 450.43 -3160.86 -4731.35 -8220.33 -8681.91 -8683.19 -8683.54 -8825.70 -9876.11 -10018.27 -10018.62 -10018.62 -10018.62 -10018.62 -10019.49 -10025.89 -10026.76 -10026.76 -10026.76 -10026.76 -10026.76 -10024.94 -10011.48 -10009.66 -10009.65 -10009.65 -10009.65 -10009.66 -10011.62 -10026.13 -10028.10 -10028.10 -10028.10 -10028.10 -10026.77 -9491.53 -5536.57 -5001.33 -5000.00 -5000.00 -5000.00 -5000.00 -5000.00 -5000.00
-10005.08 -10005.08 -10005.08 -10005.08 -10005.08 -10005.08 -10005.25 -10006.53 -10006.70 -10006.70 -10006.70 -10006.70 -10006.70 -10007.96 -10017.29 -10018.55 -10018.56 -10018.56 -10018.56 -10018.56 -10018.18 -10015.40 -10015.02 -10015.02 -10015.02 -10015.02 -10013.75 -9502.20 -5722.35 -5210.68 -5159.24 -4319.34 -725.69 -127.10 107.59 689.65 790.56 812.10 805.25 678.71 475.57 -381.07 -3410.21 -3812.57 -3816.15 -3818.12 -3817.42 -3817.55 -3941.73 -4816.28 -4934.71 -4935.98 -4936.11 -4936.11 -4936.20 -4971.09 -5228.94 -5263.84 -5263.92 -5263.92 -5263.92 -5263.92 -5263.64 -5261.57 -5261.18 -5260.44 -5261.04 -5260.04 -5202.20 -4388.35 -1295.59 -10.95 169.63 231.78 300.85 250.36 359.37 391.70 425.33 453.06 479.63 464.16 448.96 449.15 385.25 381.08 380.02 388.30 400.32 416.05 430.90 463.58 523.93 550.83 635.13 788.77 969.17 894.90 458.08 -549.96 -4156.07 -5034.61 -5091.81 -5093.38 -5616.17 -9479.09 -10001.88 -10003.18 -10003.18 -10003.18 -10003.18 -10004.50 -10014.25 -10015.57 -10015.57 -10015.57 -10015.57 -10015.58 -10016.63 -10024.43 -10025.49 -10025.49 -10025.49 -10025.49 -10025.49 -10024.49 -10017.13 -10016.13 -10016.13 -10016.13 -10016.13 -10014.81 -9480.84 -5535.29 -5001.32 -5000.00 -5000.00 -5000.00 -5000.00 -5000.00 -5000.00
-10003.94 -10003.94 -10003.94 -10003.94 -10003.94 -10003.94 -10004.05 -10004.88 -10004.99 -10004.99 -10004.99 -10004.99 -10004.99 -10006.38 -10016.65 -10018.04 -10018.04 -10018.04 -10018.04 -10018.04 -10017.91 -10016.94 -10016.81 -10016.81 -10016.81 -10016.81 -10015.45 -9466.22 -5407.93 -4857.68 -4443.75 -1281.98 -11.13 173.72 442.10 982.96 1079.87 1107.10 1082.48 1063.84 959.29 815.59 633.64 604.98 579.24 564.80 573.72 574.70 69.22 -3361.87 -3899.84 -4292.99 -4345.94 -4346.93 -4347.13 -4384.64 -4661.73 -4699.23 -4699.32 -4699.32 -4699.32 -4699.34 -4705.69 -4752.51 -4712.27 -4413.62 -4657.73 -4307.31 -3818.50 -660.61 227.15 386.77 424.27 453.90 455.10 437.19 535.84 563.37 491.30 487.94 493.30 482.49 471.32 460.24 392.65 388.11 393.79 404.93 418.96 434.86 448.37 443.86 529.55 605.75 698.56 772.16 1007.37 1140.59 753.24 498.66 -573.65 -3734.76 -4548.93 -4607.23 -5181.81 -9425.36 -9999.66 -10001.09 -10001.09 -10001.09 -10001.09 -10002.47 -10012.68 -10014.06 -10014.06 -10014.06 -10014.06 -10014.06 -10015.51 -10026.19 -10027.63 -10027.64 -10027.64 -10027.64 -10027.63 -10026.24 -10015.91 -10014.51 -10014.51 -10014.51 -10014.51 -10013.19 -9479.39 -5535.12 -5001.32 -5000.00 -5000.00 -5000.00 -5000.00 -5000.00 -5000.00
-10003.94 -10003.94 -10003.94 -10003.94 -10003.94 -10003.94 -10004.05 -10004.87 -10004.98 -10004.98 -10004.98 -10004.98 -10004.99 -10006.38 -10016.65 -10018.03 -10018.04 -10018.04 -10018.04 -10018.04 -10017.91 -10016.94 -10016.81 -10016.81 -10016.81 -10016.81 -10015.45 -9466.13 -5407.15 -4856.65 -4379.72 -813.65 56.60 160.64 454.22 1025.49 1122.07 1145.45 1132.93 1098.71 1089.50 1055.35 1209.67 1196.29 1137.77 1136.56 1162.30 1166.88 1050.62 138.94 -548.51 -3443.10 -3949.74 -4298.58 -4344.56 -4383.06 -4660.32 -4697.83 -4697.81 -4697.09 -4697.81 -4697.83 -4703.36 -4749.29 -4364.56 -1804.28 -3504.12 -920.14 -343.14 123.48 419.84 504.32 454.49 442.56 451.50 455.17 510.67 715.95 490.16 474.70 472.98 462.34 462.36 453.80 401.49 392.92 394.09 404.15 416.30 429.30 449.51 447.32 543.19 519.66 586.33 665.47 1051.77 1320.19 1084.31 529.55 338.04 -608.12 -3734.59 -4548.96 -5180.45 -9425.23 -9999.66 -10001.08 -10001.08 -10001.08 -10001.09 -10002.47 -10012.67 -10014.05 -10014.06 -10014.06 -10014.06 -10014.06 -10015.51 -10026.19 -10027.64 -10027.64 -10027.64 -10027.64 -10027.64 -10026.24 -10015.91 -10014.51 -10014.51 -10014.51 -10014.51 -10013.18 -9479.38 -5535.12 -5001.32 -5000.00 -5000.00 -5000.00 -5000.00 -5000.00 -5000.00
-10003.94 -10003.94 -10003.94 -10003.94 -10003.94 -10003.94 -10004.05 -10004.87 -10004.98 -10004.98 -10004.98 -10004.98 -10004.99 -10006.38 -10016.65 -10018.03 -10018.04 -10018.04 -10018.04 -10018.04 -10017.91 -10016.94 -10016.81 -10016.81 -10016.81 -10016.81 -10015.45 -9466.13 -5407.15 -4856.69 -4396.82 -942.55 21.71 169.45 445.57 1024.16 1155.61 1165.05 1165.26 1122.49 1149.61 1173.84 1403.02 1387.58 1332.42 1326.90 1307.78 1291.08 1205.06 650.60 388.49 11.53 -916.63 -3541.25 -3938.57 -4333.56 -4658.92 -4696.47 -4651.16 -4360.63 -4651.09 -4650.95 -4319.14 -4303.38 -3882.10 -883.89 -342.54 29.53 136.61 217.55 438.41 531.02 455.09 438.64 459.22 536.54 569.43 736.71 501.36 459.29 463.97 445.10 452.35 463.88 408.00 416.85 399.49 405.29 417.69 431.48 465.47 474.91 500.18 481.28 525.21 678.20 1099.37 1117.31 1280.98 721.63 533.85 272.12 -599.28 -3731.51 -5123.16 -9424.96 -9999.66 -10001.08 -10001.08 -10001.08 -10001.09 -10002.47 -10012.67 -10014.05 -10014.06 -10014.06 -10014.06 -10014.06 -10015.51 -10026.19 -10027.64 -10027.64 -10027.64 -10027.64 -10027.64 -10026.24 -10015.91 -10014.51 -10014.51 -10014.51 -10014.51 -10013.18 -9479.38 -5535.12 -5001.32 -5000.00 -5000.00 -5000.00 -5000.00 -5000.00 -5000.00
-10003.94 -10003.94 -10003.94 -10003.94 -10003.94 -10003.94 -10004.05 -10004.87 -10004.98 -10004.98 -10004.98 -10004.98 -10004.99 -10006.38 -10016.64 -10018.03 -10018.03 -10018.03 -10018.03 -10018.03 -10017.87 -10016.66 -10016.50 -10016.50 -10016.50 -10016.50 -10015.14 -9465.84 -5407.02 -4856.65 -4423.83 -1148.50 -47.95 167.94 484.97 1063.95 1134.14 1127.77 1099.54 1120.20 1180.04 1226.07 1435.33 1444.67 1412.33 1400.94 1395.27 1385.89 1264.28 737.89 598.14 581.32 411.63 -343.97 -829.69 -3500.95 -4140.77 -4191.71 -3842.28 -1704.56 -3856.15 -3862.50 -1354.50 -936.58 -679.10 -22.02 118.59 172.76 213.26 248.12 452.60 529.28 529.62 481.28 460.68 541.55 672.59 788.00 530.26 484.44 480.19 461.10 464.61 467.53 420.13 410.48 404.59 410.81 423.35 448.01 466.34 445.10 469.27 480.49 550.02 820.55 1004.01 1065.20 982.04 845.54 628.55 439.23 345.13 -580.44 -4323.18 -9370.91 -9999.25 -10000.80 -10000.80 -10000.80 -10000.81 -10002.22 -10012.64 -10014.05 -10014.06 -10014.06 -10014.06 -10014.06 -10015.50 -10026.19 -10027.63 -10027.64 -10027.64 -10027.64 -10027.63 -10026.23 -10015.90 -10014.51 -10014.50 -10014.50 -10014.50 -10013.18 -9479.38 -5535.12 -5001.32 -5000.00 -5000.00 -5000.00 -5000.00 -5000.00 -5000.00
-10004.04 -10004.04 -10004.04 -10004.04 -10004.04 -10004.04 -10004.08 -10004.41 -10004.45 -10004.45 -10004.45 -10004.45 -10004.46 -10005.71 -10014.97 -10016.23 -10016.23 -10016.23 -10016.23 -10016.20 -10002.82 -9903.97 -9890.59 -9890.56 -9890.56 -9890.56 -9889.22 -9348.68 -5354.56 -4812.91 -4365.82 -995.40 40.13 230.81 456.45 990.24 1087.40 1163.90 1129.40 1162.30 1206.66 1264.15 1492.46 1530.75 1483.96 1480.51 1488.08 1447.37 1312.53 850.10 682.17 635.59 603.93 536.75 463.94 84.23 -275.20 -409.42 -265.08 -47.00 -367.66 -425.70 14.27 63.08 87.82 90.92 149.96 193.56 222.17 248.14 457.92 526.27 629.43 615.50 462.26 480.28 739.40 846.21 587.22 510.02 484.03 463.99 452.81 449.37 395.35 416.61 414.77 411.88 425.07 497.19 521.57 482.21 474.68 504.20 519.98 668.91 645.68 739.67 753.17 630.64 600.12 683.89 600.27 318.93 -1351.28 -8878.33 -9885.52 -9888.02 -9888.02 -9888.02 -9888.05 -9901.45 -10000.48 -10013.88 -10013.91 -10013.91 -10013.91 -10013.91 -10015.06 -10023.54 -10024.69 -10024.69 -10024.69 -10024.69 -10024.69 -10023.50 -10014.70 -10013.51 -10013.51 -10013.51 -10013.51 -10012.18 -9478.49 -5535.01 -5001.32 -5000.00 -5000.00 -5000.00 -5000.00 -5000.00 -5000.00
-10004.77 -10004.77 -10004.77 -10004.77 -10004.77 -10004.77 -10004.32 -10000.98 -10000.53 -10000.53 -10000.53 -10000.53 -10000.53 -10000.79 -10002.66 -10002.91 -10002.91 -10002.91 -10002.91 -10002.64 -9891.62 -9071.28 -8960.26 -8959.99 -8959.99 -8959.99 -8958.81 -8482.96 -4966.92 -4489.70 -3987.25 -261.08 469.07 587.42 745.16 1162.67 1223.97 1284.30 1293.97 1360.72 1378.60 1406.82 1709.55 1713.20 1700.38 1652.85 1634.80 1580.04 1461.17 1007.43 921.13 890.10 788.17 767.18 759.28 737.70 572.43 537.38 499.51 454.40 527.70 507.98 444.88 180.48 115.65 136.12 159.98 177.12 200.20 264.79 331.44 392.11 478.46 449.71 303.57 286.00 617.49 664.47 528.34 453.37 381.46 338.26 303.12 300.30 360.15 375.33 384.77 396.26 405.36 457.39 540.66 506.47 419.29 400.03 392.20 438.11 499.68 597.19 717.85 746.15 789.54 1252.80 751.06 555.25 -750.43 -8066.61 -9052.05 -9054.62 -9054.62 -9054.62 -9054.87 -9156.87 -9910.59 -10012.60 -10012.85 -10012.85 -10012.85 -10012.85 -10011.79 -10004.01 -10002.95 -10002.95 -10002.95 -10002.95 -10002.95 -10003.29 -10005.81 -10006.15 -10006.15 -10006.15 -10006.15 -10004.83 -9471.92 -5534.23 -5001.32 -5000.00 -5000.00 -5000.00 -5000.00 -5000.00 -5000.00
-10004.87 -10004.87 -10004.87 -10004.87 -10004.87 -10004.87 -10004.35 -10000.52 -10000.00 -10000.00 -10000.00 -10000.00 -10000.00 -10000.12 -10000.99 -10001.11 -10001.11 -10001.11 -10001.11 -10000.80 -9876.57 -8958.59 -8834.36 -8834.05 -8834.05 -8834.05 -8832.89 -8365.80 -4914.20 -4392.31 -3527.11 43.38 633.23 724.50 859.08 1229.28 1263.97 1264.36 1318.67 1369.69 1399.14 1449.91 1767.72 1755.67 1702.68 1664.11 1674.51 1648.57 1498.66 1038.86 968.11 949.57 911.65 891.98 850.18 822.16 659.36 615.75 596.77 580.64 589.55 602.21 526.27 200.49 127.62 160.55 178.08 192.51 212.09 293.34 403.29 473.59 435.11 376.68 307.17 335.37 617.78 559.04 553.40 522.76 443.94 393.53 358.61 310.40 372.89 374.26 386.43 398.10 431.69 455.70 524.97 498.39 389.16 346.13 356.40 405.22 529.64 613.94 695.56 671.19 933.24 1430.77 1219.85 640.40 -594.52 -7584.08 -8889.28 -8941.70 -8941.83 -8941.83 -8942.11 -9056.11 -9898.43 -10012.42 -10012.71 -10012.71 -10012.71 -10012.70 -10011.35 -10001.36 -10000.01 -10000.01 -10000.01 -10000.01 -10000.01 -10000.56 -10004.60 -10005.15 -10005.15 -10005.15 -10005.15 -10003.83 -9471.03 -5534.12 -5001.32 -5000.00 -5000.00 -5000.00 -5000.00 -5000.00 -5000.00
-10004.87 -10004.87 -10004.87 -10004.87 -10004.87 -10004.87 -10004.35 -10000.52 -10000.00 -10000.00 -10000.00 -10000.00 -10000.00 -10000.12 -10000.99 -10001.10 -10001.10 -10001.10 -10001.10 -10000.80 -9876.53 -8958.31 -8834.04 -8833.74 -8833.74 -8833.74 -8832.58 -8365.27 -4864.02 -3642.71 -564.35 520.99 763.66 795.11 887.74 1254.94 1311.86 1349.74 1346.57 1354.53 1392.94 1437.68 1738.80 1762.95 1669.63 1681.77 1657.48 1642.21 1505.19 1051.19 985.77 971.42 954.01 945.12 933.64 905.93 747.43 668.81 637.20 630.86 626.47 619.35 563.08 195.06 169.35 183.15 212.96 240.47 278.42 301.46 389.18 425.68 348.27 307.59 306.57 291.99 555.71 557.73 396.42 404.48 372.98 369.75 425.14 371.25 468.96 393.26 393.58 400.14 491.65 506.02 503.18 451.99 390.50 328.70 331.83 371.11 486.16 664.27 625.91 594.35 751.72 1218.42 1322.05 671.69 -128.28 -4796.41 -8512.43 -8940.36 -8941.55 -8941.55 -8941.83 -9055.86 -9898.40 -10012.42 -10012.71 -10012.71 -10012.71 -10012.70 -10011.35 -10001.36 -10000.00 -10000.00 -10000.00 -10000.00 -10000.00 -10000.55 -10004.60 -10005.15 -10005.15 -10005.15 -10005.15 -10003.83 -9471.03 -5534.12 -5001.32 -5000.00 -5000.00 -5000.00 -5000.00 -5000.00 -5000.00
-10004.87 -10004.87 -10004.87 -10004.87 -10004.87 -10004.87 -10004.35 -10000.52 -10000.00 -10000.00 -10000.00 -10000.00 -10000.00 -10000.12 -10000.99 -10001.10 -10001.10 -10001.10 -10001.10 -10000.80 -9876.53 -8958.31 -8834.04 -8833.74 -8833.74 -8833.74 -8832.46 -8316.44 -4145.69 -826.68 393.57 688.17 819.36 851.83 915.49 1243.06 1334.33 1375.71 1358.56 1376.55 1398.40 1465.88 1779.79 1735.56 1709.44 1713.28 1691.38 1677.34 1544.58 1066.80 1006.19 996.41 981.33 978.66 976.82 955.52 802.30 770.91 755.40 739.60 724.07 703.27 647.71 300.49 242.42 251.97 297.63 323.17 305.59 320.25 332.91 342.09 333.59 300.99 281.41 254.12 411.09 511.99 315.24 293.03 291.65 328.05 464.50 383.81 464.98 412.09 390.08 389.64 428.26 535.36 500.82 400.16 361.08 311.03 306.30 325.51 383.31 491.01 641.38 666.27 825.27 1144.73 1343.30 1334.07 524.28 -3953.92 -8015.38 -8886.14 -8941.41 -8941.55 -8941.83 -9055.86 -9898.40 -10012.42 -10012.71 -10012.71 -10012.71 -10012.70 -10011.35 -10001.36 -10000.00 -10000.00 -10000.00 -10000.00 -10000.00 -10000.55 -10004.60 -10005.15 -10005.15 -10005.15 -10005.15 -10003.83 -9471.03 -5534.12 -5001.32 -5000.00 -5000.00 -5000.00 -5000.00 -5000.00 -5000.00
-10004.87 -10004.87 -10004.87 -10004.87 -10004.87 -10004.87 -10004.35 -10000.52 -10000.00 -10000.00 -10000.00 -10000.00 -10000.00 -10000.12 -10000.99 -10001.11 -10001.11 -10001.11 -10001.11 -10000.80 -9876.45 -8957.65 -8833.30 -8832.99 -8832.99 -8832.99 -8830.68 -7951.89 -1359.27 330.41 532.19 667.36 798.62 854.98 900.74 1294.95 1337.61 1384.51 1415.86 1396.58 1431.67 1439.39 1755.95 1772.84 1750.19 1735.39 1729.10 1673.03 1576.28 1098.82 1025.59 1016.81 1010.84 1009.07 1012.01 985.62 836.91 807.95 797.78 782.72 769.60 749.51 681.94 314.79 270.61 327.01 321.10 344.56 365.88 343.32 328.53 347.31 326.82 329.50 313.12 247.55 363.42 553.59 291.44 232.54 257.04 292.50 376.98 369.85 493.83 453.60 399.64 391.50 400.09 446.98 449.84 321.44 317.90 291.34 289.04 292.97 312.63 364.95 539.16 843.77 938.13 1098.81 1453.62 938.96 178.88 -3503.52 -5042.07 -8485.23 -8940.26 -8941.39 -8941.67 -9055.71 -9898.38 -10012.43 -10012.71 -10012.71 -10012.71 -10012.71 -10011.35 -10001.36 -10000.01 -10000.01 -10000.01 -10000.01 -10000.01 -10000.56 -10004.60 -10005.15 -10005.15 -10005.15 -10005.15 -10003.83 -9471.02 -5534.12 -5001.32 -5000.00 -5000.00 -5000.00 -5000.00 -5000.00 -5000.00
-10006.86 -10006.86 -10006.86 -10006.86 -10006.86 -10006.85 -10006.19 -10001.30 -10000.64 -10000.64 -10000.64 -10000.64 -10000.64 -10000.80 -10002.00 -10002.17 -10002.17 -10002.17 -10002.17 -10001.78 -9845.31 -8689.13 -8532.66 -8532.27 -8532.15 -8531.14 -8473.09 -7158.05 -413.19 556.57 638.40 743.36 886.35 903.53 939.91 1353.12 1352.25 1369.30 1474.49 1442.52 1412.72 1431.64 1684.18 1697.52 1706.16 1675.20 1712.71 1674.11 1581.41 1135.80 1028.56 1030.29 1029.84 1028.27 1030.59 1009.91 892.05 860.37 848.54 831.35 820.20 804.13 737.31 364.34 321.85 364.18 374.40 345.03 359.27 362.40 313.79 325.12 290.16 279.69 245.16 244.98 472.08 670.80 361.47 211.53 232.24 270.92 287.25 334.13 410.48 422.48 397.92 380.03 378.49 401.88 376.62 271.48 264.86 266.58 271.54 277.72 290.22 322.93 456.10 603.38 734.23 902.59 1224.94 1062.58 96.26 -3411.16 -4471.34 -8349.85 -8874.27 -8875.70 -8876.00 -8997.18 -9892.59 -10013.77 -10014.07 -10014.07 -10014.07 -10014.06 -10012.85 -10003.91 -10002.70 -10002.69 -10002.69 -10002.69 -10002.70 -10002.90 -10004.40 -10004.60 -10004.60 -10004.60 -10004.60 -10003.28 -9470.54 -5534.06 -5001.32 -5000.00 -5000.00 -5000.00 -5000.00 -5000.00 -5000.00
-10021.50 -10021.50 -10021.50 -10021.50 -10021.50 -10021.50 -10019.78 -10007.09 -10005.37 -10005.37 -10005.37 -10005.37 -10005.37 -10005.87 -10009.51 -10010.00 -10010.01 -10010.01 -10010.01 -10009.03 -9615.19 -6705.05 -6311.20 -6309.99 -6261.86 -5905.98 -5403.39 -2048.98 501.77 840.15 1021.36 1052.14 1141.31 1119.67 1225.70 1454.40 1537.63 1579.21 1580.01 1576.34 1568.38 1535.06 1419.90 1415.72 1417.01 1397.32 1462.77 1436.67 1405.91 1100.61 1001.73 963.29 967.87 979.76 983.00 994.14 1099.22 1100.14 1084.54 1073.99 1050.03 1042.77 975.77 597.51 495.83 521.70 506.70 504.28 481.73 452.31 244.71 198.06 148.43 143.78 90.92 140.34 186.79 342.13 515.93 123.59 88.00 131.44 164.29 161.96 191.98 222.40 258.33 235.37 207.97 212.19 214.16 191.16 189.48 194.41 200.77 212.23 216.62 229.70 253.07 308.50 421.28 562.29 812.29 920.93 -31.18 -2967.63 -3857.58 -7452.37 -8334.43 -8390.23 -8390.80 -8564.71 -9849.76 -10023.67 -10024.10 -10024.10 -10024.10 -10024.10 -10023.94 -10022.72 -10022.56 -10022.56 -10022.56 -10022.56 -10022.55 -10020.21 -10002.90 -10000.56 -10000.55 -10000.55 -10000.55 -9999.23 -9466.92 -5533.63 -5001.32 -5000.00 -5000.00 -5000.00 -5000.00 -5000.00 -5000.00
-10023.48 -10023.48 -10023.48 -10023.48 -10023.48 -10023.48 -10021.62 -10007.88 -10006.01 -10006.01 -10006.01 -10006.01 -10006.01 -10006.55 -10010.53 -10011.07 -10011.07 -10011.07 -10011.07 -10010.01 -9584.04 -6436.53 -6010.45 -5961.62 -5262.27 -2562.94 -1788.97 -940.08 658.35 1046.05 1118.67 1126.93 1163.31 1169.12 1234.20 1480.69 1577.87 1625.22 1624.60 1638.36 1592.87 1576.19 1439.12 1382.88 1411.24 1392.62 1432.02 1417.19 1380.16 1141.60 1017.78 962.37 951.66 959.49 965.07 993.87 1139.07 1146.05 1138.08 1131.58 1106.59 1108.24 1065.32 595.47 522.16 526.43 521.45 505.80 493.78 461.36 242.95 192.57 126.05 96.20 51.24 90.06 102.57 152.44 171.80 63.56 71.03 121.15 181.75 182.98 171.71 167.43 210.37 224.72 197.61 206.05 209.92 201.15 194.42 192.84 201.06 211.82 218.03 219.50 218.48 257.77 302.57 371.85 626.58 815.47 177.38 -2821.07 -3279.25 -4395.17 -7865.76 -8323.55 -8325.13 -8506.18 -9843.96 -10025.01 -10025.46 -10025.46 -10025.46 -10025.46 -10025.44 -10025.27 -10025.24 -10025.24 -10025.24 -10025.24 -10025.24 -10022.55 -10002.70 -10000.01 -10000.00 -10000.00 -10000.00 -9998.68 -9466.43 -5533.57 -5001.32 -5000.00 -5000.00 -5000.00 -5000.00 -5000.00 -5000.00
-10023.49 -10023.49 -10023.49 -10023.49 -10023.49 -10023.48 -10021.62 -10007.88 -10006.02 -10006.01 -10006.01 -10006.01 -10006.01 -10006.55 -10010.53 -10011.07 -10011.07 -10011.07 -10011.07 -10010.01 -9583.96 -6435.87 -6008.72 -5611.98 -2617.13 -1593.31 -1156.14 -860.69 708.95 1054.58 1109.18 1146.21 1158.49 1218.75 1309.50 1533.14 1603.51 1637.61 1634.11 1634.73 1615.52 1601.79 1415.71 1428.75 1435.57 1441.40 1459.99 1436.94 1378.89 1139.86 1055.94 1025.83 966.04 979.27 976.53 1002.40 1163.48 1189.73 1204.35 1192.31 1178.15 1164.10 1101.65 649.09 552.55 531.19 515.02 503.37 494.36 457.97 197.23 150.49 108.66 49.62 13.31 27.18 53.86 82.77 69.32 54.62 71.69 124.00 167.79 185.36 158.44 162.62 191.94 231.71 212.68 215.80 241.15 216.57 206.84 202.84 211.70 223.85 237.94 235.65 227.99 243.12 274.07 368.79 488.96 572.16 325.62 -2799.79 -3304.08 -3980.20 -7807.95 -8323.24 -8324.97 -8506.04 -9843.95 -10025.01 -10025.46 -10025.46 -10025.46 -10025.46 -10025.44 -10025.27 -10025.25 -10025.25 -10025.25 -10025.25 -10025.24 -10022.56 -10002.69 -10000.01 -10000.00 -10000.00 -10000.00 -9998.68 -9466.43 -5533.57 -5001.32 -5000.00 -5000.00 -5000.00 -5000.00 -5000.00 -5000.00
-10023.49 -10023.49 -10023.49 -10023.49 -10023.49 -10023.48 -10021.62 -10007.88 -10006.02 -10006.01 -10006.01 -10006.01 -10006.01 -10006.55 -10010.53 -10011.07 -10011.07 -10011.07 -10011.07 -10010.01 -9583.96 -6435.75 -5961.15 -5196.74 -2056.21 -1274.19 -1119.15 -847.48 795.48 1060.13 1105.79 1116.07 1164.53 1226.90 1308.28 1566.46 1607.02 1641.81 1693.88 1700.01 1633.50 1636.72 1476.06 1453.44 1439.01 1493.99 1489.39 1436.63 1381.49 1174.88 1122.82 1078.12 1074.52 1091.95 1072.28 1069.77 1211.23 1227.78 1239.44 1274.62 1251.88 1212.96 1153.93 681.03 579.72 566.75 531.50 516.94 532.54 481.05 173.02 134.75 107.39 50.54 9.08 12.63 36.09 68.26 57.58 52.78 62.27 102.03 141.37 147.84 162.57 176.59 193.19 228.96 228.29 228.42 258.92 237.19 225.33 222.66 232.02 248.32 254.58 261.40 290.57 287.46 308.18 379.41 433.14 530.17 85.30 -2852.19 -3312.58 -3977.43 -7807.46 -8323.24 -8324.97 -8506.04 -9843.95 -10025.01 -10025.46 -10025.46 -10025.46 -10025.46 -10025.44 -10025.27 -10025.25 -10025.25 -10025.25 -10025.25 -10025.24 -10022.56 -10002.69 -10000.01 -10000.00 -10000.00 -10000.00 -9998.68 -9466.43 -5533.57 -5001.32 -5000.00 -5000.00 -5000.00 -5000.00 -5000.00 -5000.00
-10023.49 -10023.49 -10023.49 -10023.49 -10023.49 -10023.49 -10021.63 -10007.88 -10006.01 -10006.01 -10006.01 -10006.01 -10006.01 -10006.55 -10010.53 -10011.07 -10011.07 -10011.07 -10011.07 -10010.02 -9584.00 -6435.03 -5607.10 -2566.93 -1558.21 -1193.20 -1087.79 -789.56 774.03 1047.66 1117.80 1139.12 1157.30 1260.02 1312.92 1590.33 1650.25 1698.58 1702.54 1681.30 1700.36 1633.60 1456.18 1444.29 1509.99 1497.58 1443.28 1398.04 1334.17 1149.70 1153.66 1129.22 1136.11 1137.37 1102.52 1139.95 1274.18 1299.74 1272.03 1341.89 1290.70 1312.17 1240.98 719.69 615.68 606.78 575.95 543.86 573.48 474.94 177.10 122.25 79.39 28.84 7.69 16.64 38.23 59.75 53.25 53.51 63.42 97.61 141.44 124.43 201.99 215.90 196.91 212.21 226.58 247.89 262.43 256.73 250.06 255.80 265.91 284.23 291.99 296.23 320.77 320.60 329.12 393.42 400.80 472.98 73.33 -2715.93 -3320.83 -3999.28 -7809.82 -8323.08 -8324.80 -8505.88 -9843.93 -10025.01 -10025.46 -10025.46 -10025.46 -10025.46 -10025.44 -10025.27 -10025.24 -10025.24 -10025.24 -10025.24 -10025.24 -10022.55 -10002.69 -10000.01 -10000.00 -10000.00 -10000.00 -9998.68 -9466.43 -5533.57 -5001.32 -5000.00 -5000.00 -5000.00 -5000.00 -5000.00 -5000.00
-10023.93 -10023.93 -10023.93 -10023.93 -10023.93 -10023.92 -10021.95 -10007.35 -10005.38 -10005.37 -10005.37 -10005.37 -10005.37 -10006.18 -10012.14 -10012.95 -10012.95 -10012.95 -10012.95 -10011.93 -9598.86 -6497.85 -5298.37 -2056.45 -1347.75 -1240.19 -1145.51 -885.61 735.27 1052.79 1139.88 1159.48 1177.10 1246.36 1371.68 1662.64 1641.71 1668.44 1699.85 1707.15 1706.22 1669.04 1469.27 1486.97 1496.74 1498.91 1436.59 1424.37 1347.83 1205.34 1179.57 1149.11 1153.07 1167.62 1173.66 1134.85 1346.51 1372.75 1350.91 1387.37 1349.57 1398.42 1317.05 870.37 753.79 718.55 679.37 639.69 646.15 530.86 195.43 125.37 86.51 46.97 36.88 42.37 60.22 67.64 55.08 56.66 71.34 100.06 136.97 110.99 156.92 186.66 229.42 222.13 246.40 284.71 279.16 283.38 290.19 301.37 317.67 340.02 352.68 318.43 324.21 322.70 341.47 388.11 428.55 610.11 97.12 -2484.77 -3222.48 -3915.36 -7739.32 -8254.57 -8256.31 -8444.56 -9835.50 -10023.74 -10024.21 -10024.21 -10024.21 -10024.21 -10024.03 -10022.73 -10022.56 -10022.56 -10022.56 -10022.56 -10022.55 -10020.15 -10002.41 -10000.01 -10000.00 -10000.00 -10000.00 -9998.68 -9466.43 -5533.57 -5001.32 -5000.00 -5000.00 -5000.00 -5000.00 -5000.00 -5000.00
-10027.17 -10027.17 -10027.17 -10027.17 -10027.17 -10027.16 -10024.34 -10003.47 -10000.65 -10000.64 -10000.64 -10000.64 -10000.65 -10003.44 -10024.04 -10026.83 -10026.83 -10026.83 -10026.83 -10026.05 -9708.64 -6964.29 -3544.78 -2375.25 -2182.11 -2090.85 -2041.14 -1716.67 736.31 1155.00 1244.31 1290.16 1340.40 1349.06 1424.71 1643.04 1656.57 1711.04 1772.00 1780.34 1710.22 1684.55 1377.65 1342.03 1324.93 1308.05 1298.71 1303.33 1260.36 1182.78 1152.18 1129.56 1162.94 1175.08 1146.59 1140.88 1570.66 1548.31 1559.16 1595.86 1615.46 1615.04 1564.22 1367.89 1316.60 1257.79 1222.84 1170.00 1151.62 1022.57 416.74 350.41 256.17 204.19 197.09 195.96 178.08 75.10 73.04 59.38 63.29 104.15 135.04 130.80 155.08 162.34 196.76 233.26 207.91 241.30 265.69 322.54 352.59 398.01 420.37 444.79 440.64 388.62 369.46 387.56 383.45 417.68 505.62 548.27 179.70 -2164.91 -2725.27 -3339.24 -7222.73 -7748.23 -7750.26 -7991.40 -9773.23 -10014.37 -10014.97 -10014.97 -10014.97 -10014.97 -10013.66 -10004.00 -10002.70 -10002.69 -10002.69 -10002.69 -10002.69 -10002.41 -10000.29 -10000.00 -10000.00 -10000.00 -10000.00 -9998.68 -9466.43 -5533.57 -5001.32 -5000.00 -5000.00 -5000.00 -5000.00 -5000.00 -5000.00
-10027.61 -10027.61 -10027.61 -10027.61 -10027.61 -10027.60 -10024.66 -10002.95 -10000.01 -10000.00 -10000.00 -10000.00 -10000.01 -10003.07 -10025.65 -10028.71 -10028.71 -10028.71 -10028.71 -10027.96 -9723.40 -7031.73 -3344.31 -2414.50 -2289.69 -2217.37 -2182.44 -1817.03 744.86 1168.54 1251.41 1301.14 1350.23 1380.63 1421.80 1595.02 1657.34 1703.07 1781.80 1764.94 1749.89 1694.37 1373.11 1304.71 1282.36 1272.28 1250.49 1240.69 1201.62 1177.59 1175.84 1189.71 1135.07 1178.81 1178.54 1168.44 1596.95 1606.71 1661.92 1704.60 1719.34 1703.57 1673.59 1491.22 1457.54 1416.54 1349.91 1284.29 1222.43 1067.97 435.34 322.37 261.28 233.07 230.71 224.39 199.18 62.30 53.96 55.52 55.18 84.25 120.47 124.62 156.19 193.08 199.58 260.27 226.09 263.25 296.48 358.08 378.28 446.48 511.76 509.12 491.69 446.75 449.20 423.97 398.30 429.68 479.78 455.06 20.58 -2303.74 -2679.23 -3209.18 -6765.01 -7627.21 -7681.64 -7930.07 -9764.80 -10013.11 -10013.72 -10013.72 -10013.72 -10013.72 -10012.26 -10001.47 -10000.01 -10000.01 -10000.01 -10000.01 -10000.01 -10000.01 -10000.00 -10000.00 -10000.00 -10000.00 -10000.00 -9998.68 -9466.43 -5533.57 -5001.32 -5000.00 -5000.00 -5000.00 -5000.00 -5000.00 -5000.00
-10027.61 -10027.61 -10027.61 -10027.61 -10027.61 -10027.60 -10024.66 -10002.95 -10000.01 -10000.00 -10000.00 -10000.00 -10000.01 -10003.06 -10025.65 -10028.71 -10028.72 -10028.72 -10028.72 -10027.85 -9677.96 -6683.10 -3203.50 -2407.27 -2265.84 -2198.57 -2169.36 -1794.60 763.62 1172.22 1213.81 1300.69 1376.89 1443.37 1484.28 1635.84 1713.81 1755.41 1794.59 1783.17 1767.41 1696.41 1369.07 1284.57 1250.56 1250.08 1251.60 1247.90 1211.55 1149.96 1179.05 1178.59 1178.47 1192.87 1162.61 1211.85 1627.39 1671.93 1721.25 1783.88 1820.51 1771.43 1737.03 1555.10 1513.66 1466.42 1387.38 1293.83 1226.92 1088.80 463.05 352.95 272.53 250.99 245.62 230.24 204.56 64.99 50.42 59.70 71.88 131.82 141.23 118.09 137.44 237.12 185.54 206.35 243.83 284.52 334.71 387.34 410.26 491.08 566.08 613.10 609.74 536.22 484.94 374.77 379.83 401.61 340.45 266.16 -37.68 -2309.82 -2677.37 -2857.05 -4277.59 -7290.71 -7680.63 -7929.92 -9764.78 -10013.10 -10013.72 -10013.72 -10013.72 -10013.72 -10012.26 -10001.46 -10000.00 -10000.00 -10000.00 -10000.00 -10000.00 -10000.00 -10000.00 -10000.00 -10000.00 -10000.00 -10000.00 -9998.68 -9466.43 -5533.57 -5001.32 -5000.00 -5000.00 -5000.00 -5000.00 -5000.00 -5000.00
-10027.61 -10027.61 -10027.61 -10027.61 -10027.61 -10027.60 -10024.66 -10002.95 -10000.01 -10000.00 -10000.00 -10000.00 -10000.01 -10003.06 -10025.65 -10028.71 -10028.72 -10028.72 -10028.72 -10027.13 -9387.03 -4592.94 -3367.00 -2516.78 -2267.74 -2196.36 -2164.67 -1777.85 803.59 1241.12 1237.02 1308.28 1385.71 1415.05 1458.77 1623.35 1681.85 1719.69 1764.39 1766.21 1765.99 1718.21 1381.44 1305.31 1276.42 1254.71 1254.03 1250.39 1238.25 1172.32 1167.95 1166.72 1185.87 1246.52 1217.71 1279.99 1668.23 1776.82 1861.85 1898.97 2047.40 1854.03 1805.09 1645.05 1578.70 1495.16 1427.48 1364.66 1278.74 1121.93 466.71 342.65 289.12 268.47 253.22 236.43 209.74 72.61 61.89 76.30 88.00 146.43 148.48 129.57 132.46 166.16 176.23 220.86 271.16 290.44 363.98 420.22 424.28 489.22 569.03 610.51 609.85 575.46 560.97 394.24 381.21 462.94 380.19 387.68 -97.20 -2347.91 -2680.40 -3119.47 -6752.55 -7627.01 -7681.47 -7929.92 -9764.78 -10013.10 -10013.72 -10013.72 -10013.72 -10013.72 -10012.26 -10001.46 -10000.00 -10000.00 -10000.00 -10000.00 -10000.00 -10000.00 -10000.00 -10000.00 -10000.00 -10000.00 -10000.00 -9998.68 -9466.43 -5533.57 -5001.32 -5000.00 -5000.00 -5000.00 -5000.00 -5000.00 -5000.00
-10027.61 -10027.61 -10027.61 -10027.61 -10027.61 -10027.60 -10024.66 -10002.95 -10000.01 -10000.00 -10000.00 -10000.00 -10000.01 -10003.07 -10025.65 -10028.70 -10028.71 -10028.71 -10028.71 -10027.85 -9679.02 -7098.28 -6306.45 -3105.38 -2322.30 -2179.05 -2166.80 -1766.12 822.11 1236.04 1272.67 1323.43 1395.13 1477.88 1526.01 1678.72 1739.30 1771.98 1771.28 1805.84 1822.09 1725.75 1370.73 1332.55 1283.31 1252.19 1248.97 1260.58 1244.05 1177.16 1152.62 1148.75 1185.09 1221.61 1242.69 1293.98 1686.11 1796.34 1842.78 1884.76 1956.70 1805.00 1724.12 1530.22 1483.13 1455.20 1433.28 1369.85 1295.09 1143.49 464.94 331.03 309.66 291.57 269.61 252.45 220.60 86.76 86.32 76.45 77.73 94.37 120.14 158.64 142.82 150.62 175.34 266.82 298.52 330.81 344.15 449.80 456.98 532.19 612.02 737.66 755.35 470.99 463.17 402.21 284.28 445.67 534.99 472.34 -104.63 -2384.50 -2715.05 -3280.21 -7154.86 -7678.78 -7681.56 -7929.99 -9764.79 -10013.11 -10013.72 -10013.72 -10013.72 -10013.72 -10012.26 -10001.47 -10000.01 -10000.01 -10000.01 -10000.01 -10000.01 -10000.01 -10000.01 -10000.01 -10000.01 -10000.01 -10000.01 -9998.69 -9466.43 -5533.57 -5001.32 -5000.00 -5000.00 -5000.00 -5000.00 -5000.00 -5000.00
-10027.17 -10027.17 -10027.17 -10027.17 -10027.17 -10027.17 -10024.48 -10004.66 -10001.98 -10001.97 -10001.97 -10001.97 -10001.98 -10004.57 -10023.72 -10026.31 -10026.32 -10026.32 -10026.32 -10025.60 -9738.29 -7614.25 -6917.43 -3789.75 -2601.27 -2370.41 -2310.02 -1901.70 765.56 1190.57 1241.16 1302.35 1346.30 1446.80 1498.06 1580.37 1618.51 1698.71 1750.43 1774.93 1725.30 1650.62 1308.41 1281.35 1250.15 1183.62 1215.24 1200.86 1188.52 1158.93 1143.98 1146.67 1168.32 1176.53 1169.47 1245.18 1688.42 1780.50 1838.27 1819.75 1751.76 1690.73 1644.36 1474.01 1438.79 1414.52 1370.60 1331.77 1277.20 1168.46 527.09 404.66 386.61 366.08 338.03 318.10 281.80 129.22 126.64 122.53 117.89 124.15 160.96 184.73 191.59 188.42 179.97 213.14 271.26 364.53 347.48 418.07 501.93 592.43 604.68 594.11 707.67 394.78 392.88 260.38 218.32 343.69 497.86 233.52 -175.77 -2437.76 -2839.67 -3748.90 -7198.15 -7367.02 -7666.16 -7957.69 -9768.99 -10014.10 -10014.71 -10014.71 -10014.71 -10014.71 -10013.38 -10003.62 -10002.30 -10002.29 -10002.29 -10002.29 -10002.29 -10002.31 -10002.45 -10002.46 -10002.46 -10002.46 -10002.46 -10001.14 -9468.63 -5533.84 -5001.32 -5000.00 -5000.00 -5000.00 -5000.00 -5000.00 -5000.00
-10023.98 -10023.98 -10023.98 -10023.98 -10023.98 -10023.98 -10023.18 -10017.31 -10016.51 -10016.51 -10016.51 -10016.51 -10016.51 -10015.67 -10009.46 -10008.62 -10008.62 -10008.62 -10008.62 -10008.20 -9839.65 -8594.07 -8375.73 -7576.85 -4249.69 -3514.51 -3369.01 -2913.45 311.82 812.33 885.08 951.94 961.35 986.98 978.52 1156.68 1211.32 1245.62 1288.84 1313.37 1312.43 1238.88 1008.01 960.89 937.59 873.71 895.52 895.03 904.25 1035.57 1063.06 1053.20 1066.11 1092.30 1064.74 1121.46 1536.28 1584.54 1612.73 1598.65 1565.88 1549.66 1558.54 1554.70 1544.88 1524.49 1445.37 1412.56 1365.72 1268.05 884.24 794.04 769.51 744.75 712.22 688.54 636.40 376.90 351.32 362.16 370.33 365.41 406.57 395.60 274.69 242.15 215.50 238.33 250.49 291.87 328.27 482.32 623.94 713.39 659.18 526.87 508.95 424.64 378.99 283.63 212.19 268.55 368.72 179.33 -225.04 -2669.74 -3234.98 -3877.04 -6688.01 -4972.14 -7547.05 -8162.37 -9799.97 -10021.46 -10022.01 -10022.01 -10022.01 -10022.01 -10021.71 -10019.49 -10019.19 -10019.19 -10019.19 -10019.19 -10019.19 -10019.34 -10020.47 -10020.63 -10020.63 -10020.63 -10020.63 -10019.30 -9484.85 -5535.77 -5001.32 -5000.00 -5000.00 -5000.00 -5000.00 -5000.00 -5000.00
-10023.54 -10023.54 -10023.54 -10023.54 -10023.54 -10023.54 -10023.00 -10019.02 -10018.48 -10018.48 -10018.48 -10018.48 -10018.48 -10017.17 -10007.53 -10006.23 -10006.23 -10006.23 -10006.23 -10005.85 -9853.35 -8726.55 -8572.94 -8172.31 -5094.95 -3730.30 -3490.88 -3064.89 199.30 729.29 826.14 771.15 783.44 831.52 953.46 1155.02 1278.93 1265.16 1216.35 1242.81 1221.07 1146.45 927.97 872.78 834.97 792.91 832.77 841.35 858.94 998.63 1017.97 1012.62 986.51 1059.00 1081.20 1116.14 1508.40 1509.06 1519.94 1526.86 1575.13 1627.74 1653.91 1716.75 1604.72 1546.82 1528.12 1481.76 1425.77 1302.77 957.88 882.44 851.89 820.44 783.52 757.37 701.55 419.69 392.43 401.42 415.68 411.72 414.51 442.26 260.87 255.43 233.25 234.04 282.63 277.04 318.39 498.67 625.70 662.59 611.36 514.37 465.87 391.44 322.84 269.81 216.44 239.39 169.06 120.15 -239.28 -2729.85 -3229.08 -3341.88 -3774.42 -3982.10 -7490.85 -8189.97 -9804.16 -10022.46 -10023.00 -10023.00 -10023.00 -10023.00 -10022.84 -10021.64 -10021.48 -10021.48 -10021.48 -10021.48 -10021.48 -10021.65 -10022.91 -10023.08 -10023.08 -10023.08 -10023.08 -10021.76 -9487.05 -5536.04 -5001.33 -5000.00 -5000.00 -5000.00 -5000.00 -5000.00 -5000.00
-10023.54 -10023.54 -10023.54 -10023.54 -10023.54 -10023.54 -10023.00 -10019.02 -10018.48 -10018.48 -10018.48 -10018.48 -10018.48 -10017.17 -10007.53 -10006.22 -10006.22 -10006.22 -10006.22 -10005.84 -9853.39 -8726.88 -8574.30 -8525.67 -7701.87 -4127.81 -3573.55 -3110.20 147.00 681.90 702.16 783.96 863.71 980.11 1158.00 1280.54 1335.97 1294.08 1192.01 1134.98 1157.09 1135.93 909.54 826.64 784.94 780.24 801.80 826.23 848.50 978.46 992.07 975.96 959.74 1030.24 1021.30 1113.10 1453.43 1499.53 1553.29 1574.80 1618.63 1697.52 1738.82 1785.81 1743.10 1644.06 1651.60 1605.75 1567.93 1404.18 1068.39 939.28 887.97 842.88 813.02 782.16 730.30 445.23 440.25 421.30 424.33 427.72 417.18 432.65 256.07 266.36 252.48 244.22 257.00 273.62 335.83 474.12 541.82 562.85 569.17 586.39 487.75 398.91 276.34 275.98 280.02 182.84 204.89 103.48 -246.99 -2749.99 -3112.07 -3127.56 -3255.31 -3850.99 -7482.03 -8190.02 -9804.17 -10022.46 -10023.00 -10023.00 -10023.00 -10023.00 -10022.84 -10021.64 -10021.48 -10021.48 -10021.48 -10021.48 -10021.48 -10021.65 -10022.92 -10023.09 -10023.09 -10023.09 -10023.09 -10021.76 -9487.05 -5536.04 -5001.33 -5000.00 -5000.00 -5000.00 -5000.00 -5000.00 -5000.00
-10023.54 -10023.54 -10023.54 -10023.54 -10023.54 -10023.54 -10023.00 -10019.02 -10018.48 -10018.48 -10018.48 -10018.48 -10018.48 -10017.17 -10007.53 -10006.22 -10006.22 -10006.22 -10006.22 -10005.84 -9853.39 -8726.88 -8574.42 -8572.73 -8091.22 -4490.84 -3640.43 -3131.19 121.89 642.10 711.48 960.12 1028.55 1269.75 1213.97 1333.11 1289.09 1144.00 1088.76 1084.32 1133.14 1082.81 870.28 822.02 831.18 790.48 766.71 804.58 824.84 942.30 966.07 990.09 974.72 962.93 1012.19 1103.55 1456.84 1488.93 1576.43 1584.89 1643.99 1665.00 1740.17 1737.18 1739.21 1707.86 1679.08 1705.05 1719.53 1638.02 1187.70 1007.17 934.20 877.99 840.54 811.62 777.22 479.44 440.31 440.04 439.51 446.44 440.52 410.36 254.65 267.45 283.68 267.38 267.54 264.20 313.75 449.59 529.71 540.87 539.66 603.08 507.72 520.21 289.46 232.20 186.72 159.35 139.30 82.53 -265.78 -2708.20 -3066.81 -3145.79 -3284.09 -3926.10 -7491.90 -8190.04 -9804.17 -10022.46 -10023.00 -10023.00 -10023.00 -10023.00 -10022.84 -10021.64 -10021.48 -10021.48 -10021.48 -10021.48 -10021.48 -10021.65 -10022.92 -10023.09 -10023.09 -10023.09 -10023.09 -10021.76 -9487.05 -5536.04 -5001.33 -5000.00 -5000.00 -5000.00 -5000.00 -5000.00 -5000.00
-10023.54 -10023.54 -10023.54 -10023.54 -10023.54 -10023.54 -10023.00 -10019.02 -10018.49 -10018.49 -10018.49 -10018.49 -10018.48 -10017.18 -10007.53 -10006.23 -10006.22 -10006.22 -10006.22 -10005.84 -9853.43 -8727.10 -8573.95 -8573.19 -8124.85 -4734.18 -3702.14 -3158.13 90.43 587.76 690.93 881.82 984.38 1082.71 1045.44 1072.92 1108.26 1118.87 1139.97 1101.66 1077.65 1017.52 849.27 820.26 747.81 712.79 730.85 775.91 781.69 937.14 971.21 992.25 1002.24 992.49 1029.03 1082.30 1406.08 1442.16 1464.45 1506.80 1560.02 1599.16 1619.02 1609.19 1611.53 1616.66 1642.58 1682.09 1671.86 1576.91 1229.89 1051.62 965.87 905.55 889.80 851.05 824.79 520.93 461.13 461.76 466.89 469.49 493.32 439.99 241.11 278.72 309.49 284.91 287.62 274.98 323.14 467.76 516.07 521.79 495.94 521.07 538.38 486.16 293.08 301.23 142.35 131.11 102.56 60.53 -281.09 -2684.50 -3003.52 -3125.07 -3292.77 -3835.83 -7479.61 -8190.36 -9804.21 -10022.45 -10022.99 -10022.99 -10022.99 -10022.99 -10022.83 -10021.64 -10021.48 -10021.48 -10021.48 -10021.48 -10021.48 -10021.65 -10022.92 -10023.09 -10023.09 -10023.09 -10023.09 -10021.76 -9487.05 -5536.04 -5001.33 -5000.00 -5000.00 -5000.00 -5000.00 -5000.00 -5000.00
-10021.03 -10021.03 -10021.03 -10021.03 -10021.03 -10021.03 -10020.87 -10019.66 -10019.49 -10019.49 -10019.49 -10019.49 -10019.49 -10018.18 -10008.53 -10007.22 -10007.21 -10007.21 -10007.21 -10006.88 -9870.39 -8816.33 -8382.77 -8677.78 -8325.54 -5271.12 -4071.86 -3381.21 -53.20 439.22 528.46 637.30 726.24 769.39 730.51 826.83 860.74 883.06 942.02 944.18 950.91 903.25 805.28 782.68 712.67 702.86 727.90 768.06 791.02 958.96 1011.05 1040.29 1051.77 1082.50 1070.19 1090.35 1377.11 1408.23 1424.29 1485.68 1586.42 1616.45 1632.90 1575.24 1569.95 1607.66 1609.51 1558.21 1550.41 1460.83 1135.57 1091.80 966.85 888.35 840.63 819.34 761.28 499.96 485.96 513.02 496.44 489.14 521.24 463.75 284.07 241.19 261.15 296.21 324.58 296.03 333.04 458.82 531.93 505.16 470.56 461.18 480.16 495.81 324.72 332.12 132.47 93.28 73.00 56.99 -263.07 -2797.15 -3155.86 -3297.40 -3422.57 -4481.82 -7706.85 -8332.88 -9819.06 -10020.05 -10020.55 -10020.55 -10020.55 -10020.55 -10020.71 -10021.93 -10022.09 -10022.09 -10022.09 -10022.09 -10022.09 -10022.14 -10022.47 -10022.52 -10022.52 -10022.52 -10022.52 -10021.19 -9486.54 -5535.98 -5001.33 -5000.00 -5000.00 -5000.00 -5000.00 -5000.00 -5000.00
-10002.51 -10002.51 -10002.51 -10002.51 -10002.51 -10002.52 -10005.12 -10024.34 -10026.94 -10026.94 -10026.94 -10026.94 -10026.94 -10025.62 -10015.87 -10014.56 -10014.55 -10014.55 -10014.55 -10014.51 -9995.71 -9475.40 -6923.24 -9112.86 -9750.66 -9069.83 -6147.74 -4548.96 -783.52 -297.69 -231.16 -176.75 -171.16 -157.64 -104.00 85.57 191.13 178.34 214.50 249.50 278.72 347.10 732.33 799.86 816.31 808.38 792.00 824.86 897.99 1313.85 1372.60 1367.02 1412.17 1428.25 1413.77 1401.29 1362.12 1364.81 1384.50 1457.18 1548.92 1567.91 1550.47 1233.62 1182.46 1202.52 1129.99 1103.96 1107.51 1027.68 841.69 769.62 718.03 643.73 603.96 586.17 535.01 347.20 381.33 413.99 410.08 423.05 417.86 401.53 370.50 333.51 350.60 383.96 424.61 414.55 453.20 572.58 649.93 598.85 516.90 513.31 567.24 600.91 413.98 301.11 99.25 53.94 34.26 58.34 -400.84 -3858.76 -4333.24 -4450.73 -5128.55 -8449.25 -9260.60 -9385.62 -9928.78 -10002.27 -10002.45 -10002.45 -10002.45 -10002.46 -10005.03 -10024.01 -10026.58 -10026.59 -10026.59 -10026.59 -10026.59 -10025.71 -10019.21 -10018.33 -10018.32 -10018.32 -10018.32 -10017.00 -9482.80 -5535.53 -5001.32 -5000.00 -5000.00 -5000.00 -5000.00 -5000.00 -5000.00
-10000.01 -10000.01 -10000.01 -10000.01 -10000.01 -10000.01 -10002.99 -10024.97 -10027.94 -10027.95 -10027.95 -10027.95 -10027.95 -10026.63 -10016.87 -10015.55 -10015.54 -10015.54 -10015.54 -10015.54 -10012.78 -9608.36 -6717.83 -6723.33 -9607.18 -9945.51 -9111.68 -5124.43 -907.28 -401.87 -377.99 -357.99 -358.13 -351.88 -296.71 -77.19 -0.73 20.00 40.92 92.08 84.18 185.36 703.73 797.76 814.33 820.28 812.91 824.89 867.32 1311.44 1391.91 1417.08 1433.30 1476.30 1427.86 1464.84 1355.33 1352.21 1420.21 1408.61 1450.48 1473.08 1443.21 1084.11 1039.34 1029.09 998.53 1034.12 978.92 932.54 763.84 725.59 674.55 618.25 592.64 571.11 506.16 346.28 390.62 495.04 443.21 477.63 369.86 350.21 362.37 344.02 368.68 410.29 440.88 456.61 513.65 644.77 630.87 568.98 554.03 558.36 654.94 687.67 528.07 181.04 70.43 54.84 56.54 59.96 -458.46 -4090.73 -4581.68 -4872.47 -5832.39 -9044.06 -9470.68 -9528.09 -9943.63 -9999.87 -10000.01 -10000.01 -10000.01 -10000.01 -10002.91 -10024.29 -10027.19 -10027.20 -10027.20 -10027.20 -10027.19 -10026.19 -10018.76 -10017.76 -10017.76 -10017.76 -10017.76 -10016.43 -9482.29 -5535.47 -5001.32 -5000.00 -5000.00 -5000.00 -5000.00 -5000.00 -5000.00
-10000.00 -10000.00 -10000.00 -10000.00 -10000.00 -10000.01 -10002.98 -10024.97 -10027.95 -10027.95 -10027.95 -10027.95 -10027.95 -10026.63 -10016.87 -10015.55 -10015.55 -10015.55 -10015.55 -10015.54 -10013.68 -9953.00 -9218.63 -6739.48 -9564.17 -9996.88 -9586.74 -5957.74 -1053.16 -431.07 -412.91 -397.80 -391.18 -384.98 -340.39 -142.61 -93.40 -79.40 -35.63 18.16 67.77 174.16 698.68 757.74 771.19 796.59 812.70 833.66 893.74 1341.26 1396.97 1408.87 1390.97 1432.41 1428.29 1441.01 1367.79 1339.50 1381.96 1371.98 1381.52 1401.90 1386.38 1009.25 967.12 961.29 944.83 950.58 917.59 906.29 749.76 671.92 629.38 610.90 579.17 553.32 509.77 364.84 421.46 559.84 484.07 419.91 330.37 288.15 312.58 317.78 351.86 399.68 434.27 515.74 601.85 703.71 625.36 557.47 529.32 581.01 572.13 554.16 208.27 95.71 45.63 63.72 55.82 13.87 -610.76 -4222.89 -4781.18 -5343.37 -8612.38 -9420.24 -9472.13 -9528.45 -9943.67 -9999.86 -10000.00 -10000.00 -10000.00 -10000.01 -10002.90 -10024.30 -10027.19 -10027.20 -10027.20 -10027.20 -10027.20 -10026.19 -10018.76 -10017.76 -10017.75 -10017.75 -10017.75 -10016.43 -9482.29 -5535.47 -5001.32 -5000.00 -5000.00 -5000.00 -5000.00 -5000.00 -5000.00
-10000.00 -10000.00 -10000.00 -10000.00 -10000.00 -10000.01 -10002.98 -10024.97 -10027.95 -10027.95 -10027.95 -10027.95 -10027.95 -10026.63 -10016.87 -10015.55 -10015.55 -10015.55 -10015.55 -10015.54 -10013.79 -9999.79 -9616.41 -7177.55 -9617.26 -9998.03 -9948.68 -8642.03 -1544.25 -493.67 -435.79 -435.68 -424.40 -414.46 -373.56 -175.36 -132.25 -132.78 -91.05 -46.87 2.94 104.73 624.98 702.33 719.29 758.46 795.32 801.14 868.27 1312.18 1330.36 1374.64 1399.84 1375.84 1401.37 1421.41 1384.11 1369.15 1364.08 1371.32 1363.80 1399.55 1341.66 953.31 901.26 899.64 905.00 870.08 878.39 943.51 746.67 648.26 610.38 611.83 573.87 546.59 528.77 393.96 437.83 497.49 422.89 327.02 269.39 249.66 295.14 316.18 363.31 424.07 531.51 633.10 783.33 780.62 658.50 628.35 625.16 647.58 493.29 395.70 164.67 161.79 60.81 36.92 -1.61 -146.62 -672.39 -4244.86 -4794.57 -5499.38 -9000.25 -9470.83 -9472.25 -9528.45 -9943.67 -9999.86 -10000.00 -10000.00 -10000.00 -10000.01 -10002.90 -10024.30 -10027.19 -10027.20 -10027.20 -10027.20 -10027.20 -10026.19 -10018.76 -10017.76 -10017.75 -10017.75 -10017.75 -10016.43 -9482.29 -5535.47 -5001.32 -5000.00 -5000.00 -5000.00 -5000.00 -5000.00 -5000.00
-10000.00 -10000.00 -10000.00 -10000.00 -10000.00 -10000.01 -10002.99 -10024.97 -10027.94 -10027.95 -10027.95 -10027.95 -10027.95 -10026.63 -10016.87 -10015.55 -10015.55 -10015.55 -10015.55 -10015.55 -10013.79 -10000.74 -9953.61 -9662.93 -9953.60 -9998.99 -9996.73 -9087.94 -2293.56 -728.19 -537.79 -500.64 -469.35 -443.03 -403.22 -204.81 -157.46 -163.78 -153.59 -139.21 -118.53 -28.65 538.03 620.78 649.18 693.00 727.74 768.71 795.68 1220.52 1321.49 1319.97 1350.41 1356.76 1369.39 1445.17 1389.53 1412.42 1395.59 1367.38 1363.53 1376.13 1297.66 899.59 848.67 829.38 828.98 824.51 857.57 861.55 664.33 608.25 596.70 623.46 573.95 559.72 540.74 412.94 447.39 498.18 358.01 278.10 243.50 230.63 282.75 327.44 405.36 509.47 687.11 917.26 881.92 871.28 692.33 613.69 598.70 435.65 349.41 282.52 77.75 47.05 37.84 4.70 -155.32 -258.70 -742.66 -4307.90 -4764.40 -5393.51 -8987.38 -9471.05 -9472.38 -9528.56 -9943.69 -9999.87 -10000.01 -10000.01 -10000.01 -10000.01 -10002.91 -10024.29 -10027.19 -10027.19 -10027.19 -10027.19 -10027.19 -10026.19 -10018.76 -10017.76 -10017.76 -10017.76 -10017.76 -10016.43 -9482.29 -5535.47 -5001.32 -5000.00 -5000.00 -5000.00 -5000.00 -5000.00 -5000.00
-10001.99 -10001.99 -10001.99 -10001.99 -10001.99 -10001.99 -10004.59 -10023.75 -10026.34 -10026.35 -10026.35 -10026.35 -10026.34 -10025.32 -10017.72 -10016.69 -10016.69 -10016.69 -10016.69 -10016.69 -10014.82 -10001.06 -9999.09 -9998.36 -9999.08 -9999.20 -9997.98 -9507.74 -5513.45 -2210.55 -1663.69 -1222.91 -1070.41 -1009.20 -915.47 -549.87 -488.44 -479.44 -453.41 -452.59 -436.06 -315.25 429.33 563.82 582.21 618.36 612.39 627.11 688.70 1117.82 1203.53 1230.56 1261.62 1302.56 1289.96 1311.73 1271.07 1285.51 1301.26 1315.87 1239.75 1228.94 1154.71 812.89 768.63 746.50 748.52 766.36 808.16 756.07 576.47 547.34 549.89 548.43 544.32 549.70 528.78 413.69 427.47 420.70 270.23 227.88 199.14 204.03 269.89 333.38 435.81 634.77 914.88 1006.88 771.11 455.98 329.32 329.17 281.47 99.02 -66.37 -130.01 -366.37 -421.72 -441.46 -610.39 -1185.95 -1394.37 -1631.92 -4996.63 -5408.38 -6059.50 -9114.44 -9523.34 -9524.48 -9575.43 -9951.91 -10002.86 -10002.98 -10002.98 -10002.98 -10002.99 -10005.39 -10023.12 -10025.52 -10025.53 -10025.53 -10025.53 -10025.52 -10024.77 -10019.19 -10018.44 -10018.44 -10018.44 -10018.44 -10017.11 -9482.90 -5535.54 -5001.32 -5000.00 -5000.00 -5000.00 -5000.00 -5000.00 -5000.00
-10016.63 -10016.63 -10016.63 -10016.63 -10016.63 -10016.63 -10016.41 -10014.73 -10014.50 -10014.50 -10014.50 -10014.50 -10014.50 -10015.63 -10023.98 -10025.11 -10025.11 -10025.11 -10025.11 -10025.10 -10022.42 -10002.59 -9999.91 -9999.90 -9999.90 -9999.90 -9999.77 -9946.91 -9506.64 -9077.18 -8649.76 -5946.50 -5375.40 -4820.26 -4449.83 -2846.04 -2614.25 -2600.04 -2558.19 -2553.29 -2534.77 -2232.80 -174.12 156.68 185.65 190.06 171.23 190.61 217.58 495.35 548.30 592.53 664.96 755.73 705.33 673.54 601.77 652.57 653.83 643.75 570.03 521.14 499.71 488.83 504.55 486.53 507.66 541.41 525.61 459.96 306.30 281.52 285.56 293.45 307.51 317.57 305.16 228.83 241.57 253.29 104.25 81.48 65.00 86.05 203.29 273.67 367.35 526.05 672.71 768.36 399.94 -2107.12 -2480.91 -2344.86 -2841.02 -2950.69 -2979.96 -3079.32 -3625.73 -4220.61 -4491.04 -4922.43 -7632.48 -8015.86 -8139.79 -9270.52 -9419.06 -9499.05 -9860.89 -9909.28 -9909.43 -9921.73 -10012.65 -10024.95 -10024.98 -10024.98 -10024.98 -10024.98 -10023.72 -10014.46 -10013.21 -10013.21 -10013.21 -10013.21 -10013.21 -10014.30 -10022.36 -10023.45 -10023.46 -10023.46 -10023.46 -10022.13 -9487.38 -5536.08 -5001.33 -5000.00 -5000.00 -5000.00 -5000.00 -5000.00 -5000.00
-10018.62 -10018.62 -10018.62 -10018.62 -10018.62 -10018.62 -10018.01 -10013.51 -10012.90 -10012.90 -10012.90 -10012.90 -10012.90 -10014.32 -10024.83 -10026.25 -10026.25 -10026.25 -10026.25 -10026.24 -10023.45 -10002.80 -10000.01 -10000.00 -10000.00 -10000.00 -10000.00 -9999.87 -9998.78 -9997.60 -9948.42 -9582.96 -9136.92 -6256.27 -5091.36 -3189.98 -2918.97 -2903.49 -2880.79 -2864.85 -2835.07 -2511.54 -303.69 83.82 129.51 90.56 67.45 73.52 91.33 361.09 416.69 501.73 539.66 619.13 651.96 616.02 538.64 538.96 528.67 575.88 502.47 426.42 387.36 430.50 431.54 426.25 439.00 485.00 451.63 395.92 261.92 234.71 245.98 275.96 289.56 288.95 273.00 176.22 115.75 89.74 45.23 38.97 29.80 49.39 172.65 244.76 364.85 426.50 530.22 604.48 293.65 -2436.78 -2756.40 -3188.49 -3335.49 -3387.75 -3532.70 -4156.43 -5305.32 -7673.67 -7979.85 -8011.60 -8370.53 -8439.42 -8563.13 -9431.01 -9909.02 -9960.23 -9961.39 -9961.51 -9961.53 -9968.60 -10020.87 -10027.94 -10027.96 -10027.96 -10027.96 -10027.95 -10026.20 -10013.29 -10011.55 -10011.54 -10011.54 -10011.54 -10011.54 -10012.89 -10022.79 -10024.13 -10024.14 -10024.14 -10024.14 -10022.81 -9487.99 -5536.15 -5001.33 -5000.00 -5000.00 -5000.00 -5000.00 -5000.00 -5000.00
-10018.62 -10018.62 -10018.62 -10018.62 -10018.62 -10018.62 -10018.01 -10013.50 -10012.89 -10012.89 -10012.89 -10012.89 -10012.90 -10014.32 -10024.83 -10026.25 -10026.25 -10026.25 -10026.25 -10026.25 -10023.45 -10002.80 -10000.01 -10000.00 -10000.00 -10000.00 -10000.00 -10000.00 -10000.00 -10000.00 -9999.88 -9998.85 -9946.72 -9189.43 -6026.40 -3368.51 -3014.03 -2966.01 -2932.43 -2865.51 -2850.21 -2536.32 -349.06 -4.01 52.04 18.30 6.05 19.92 89.97 370.05 411.16 451.78 510.11 629.51 662.71 635.80 524.87 506.99 509.34 552.96 472.81 402.56 375.50 404.25 416.65 408.60 408.33 458.62 409.63 374.70 252.45 239.22 252.56 283.88 321.50 284.41 296.66 106.28 52.72 36.64 20.14 36.46 13.57 29.06 151.44 216.98 296.82 344.89 490.82 558.50 420.83 -2318.36 -2757.52 -3265.75 -3361.62 -3542.59 -4750.13 -7163.71 -7609.98 -5547.53 -5063.66 -4832.05 -4786.96 -4917.48 -5122.03 -6264.98 -9121.71 -9904.13 -9961.50 -9961.64 -9961.66 -9968.72 -10020.89 -10027.95 -10027.96 -10027.96 -10027.96 -10027.96 -10026.21 -10013.29 -10011.54 -10011.54 -10011.54 -10011.54 -10011.54 -10012.88 -10022.79 -10024.13 -10024.14 -10024.14 -10024.14 -10022.81 -9487.99 -5536.15 -5001.33 -5000.00 -5000.00 -5000.00 -5000.00 -5000.00 -5000.00
-10018.62 -10018.62 -10018.62 -10018.62 -10018.62 -10018.62 -10018.01 -10013.50 -10012.89 -10012.89 -10012.89 -10012.89 -10012.90 -10014.32 -10024.83 -10026.25 -10026.25 -10026.25 -10026.25 -10026.25 -10023.45 -10002.80 -10000.01 -10000.00 -10000.00 -10000.00 -10000.00 -10000.00 -10000.00 -10000.00 -10000.00 -10000.00 -9999.75 -9946.17 -8901.10 -3894.59 -3089.33 -3072.55 -3022.43 -2903.56 -2858.86 -2545.87 -343.85 54.39 41.11 -14.15 32.60 36.53 123.52 472.85 473.70 554.19 584.30 719.63 704.96 658.06 479.88 503.05 521.78 539.83 423.65 370.78 359.85 424.12 425.37 403.37 393.35 411.12 401.03 376.77 255.87 247.36 261.23 290.77 268.52 215.48 162.00 68.36 23.41 5.78 -3.15 -4.01 3.03 23.82 146.40 201.91 244.89 301.96 389.08 548.86 296.76 -2316.38 -2632.93 -3189.36 -3435.06 -4492.69 -7161.10 -5085.79 -5020.12 -4692.47 -4629.86 -4253.66 -4118.32 -4078.90 -4259.02 -5219.81 -6014.19 -9493.31 -9960.48 -9961.64 -9961.66 -9968.72 -10020.89 -10027.95 -10027.96 -10027.96 -10027.96 -10027.96 -10026.21 -10013.29 -10011.54 -10011.54 -10011.54 -10011.54 -10011.54 -10012.88 -10022.79 -10024.13 -10024.14 -10024.14 -10024.14 -10022.81 -9487.99 -5536.15 -5001.33 -5000.00 -5000.00 -5000.00 -5000.00 -5000.00 -5000.00
-10018.60 -10018.60 -10018.60 -10018.60 -10018.60 -10018.60 -10017.99 -10013.50 -10012.90 -10012.90 -10012.90 -10012.90 -10012.90 -10014.32 -10024.83 -10026.25 -10026.25 -10026.25 -10026.25 -10026.25 -10023.45 -10002.81 -10000.01 -10000.01 -10000.01 -10000.01 -10000.01 -10000.01 -10000.00 -10000.00 -10000.00 -10000.00 -10000.00 -9998.32 -9371.76 -4662.64 -3379.27 -3214.36 -3129.31 -2974.81 -2873.42 -2531.69 -338.49 76.10 20.65 -39.84 -25.24 12.90 127.43 636.67 613.43 586.63 725.32 991.25 739.15 585.33 403.40 437.11 510.52 523.81 432.06 354.66 339.84 406.69 419.26 415.52 396.87 405.38 414.29 405.49 297.43 265.78 268.34 327.74 296.60 252.26 182.60 54.02 13.10 -7.51 -13.37 -15.00 -8.56 17.99 136.47 182.42 222.49 279.23 351.80 438.20 248.70 -2384.34 -2664.07 -3011.89 -3799.34 -7418.97 -7806.33 -4766.34 -7194.00 -5111.86 -4543.82 -4303.00 -4097.66 -4437.10 -4687.90 -5641.17 -5992.01 -9483.24 -9960.33 -9961.52 -9961.53 -9968.61 -10020.87 -10027.94 -10027.96 -10027.96 -10027.96 -10027.95 -10026.20 -10013.29 -10011.55 -10011.54 -10011.54 -10011.54 -10011.55 -10012.89 -10022.79 -10024.13 -10024.13 -10024.13 -10024.13 -10022.81 -9487.98 -5536.15 -5001.33 -5000.00 -5000.00 -5000.00 -5000.00 -5000.00 -5000.00
-10008.55 -10008.55 -10008.55 -10008.55 -10008.55 -10008.55 -10009.19 -10013.94 -10014.58 -10014.59 -10014.59 -10014.59 -10014.59 -10015.85 -10025.19 -10026.45 -10026.46 -10026.46 -10026.46 -10026.45 -10023.97 -10005.61 -10003.13 -10003.12 -10003.12 -10003.12 -10003.12 -10002.79 -10000.33 -10000.00 -10000.00 -10000.00 -10000.00 -9999.36 -9739.35 -7481.23 -4651.48 -3985.36 -3471.87 -3238.98 -3057.85 -2720.09 -459.48 -127.12 -118.20 -139.23 -115.81 -60.72 85.26 515.53 706.91 717.20 708.31 763.71 697.40 483.24 340.21 315.05 410.19 451.16 387.83 297.37 305.80 393.75 432.57 420.44 403.67 405.39 405.53 399.36 291.93 226.73 213.78 227.36 217.86 190.78 104.82 15.81 -3.16 -12.49 -16.94 -19.06 -15.76 -4.07 -8.25 14.34 50.74 89.63 132.20 211.67 35.40 -2650.20 -3155.95 -3519.39 -4476.13 -8039.66 -8001.50 -4391.15 -5198.64 -4986.30 -5057.82 -4551.71 -4492.89 -4747.53 -5008.89 -6152.55 -6623.63 -9518.19 -9911.25 -9912.23 -9912.26 -9924.26 -10012.95 -10024.95 -10024.98 -10024.98 -10024.98 -10024.98 -10023.75 -10014.69 -10013.46 -10013.46 -10013.46 -10013.46 -10013.46 -10014.42 -10021.49 -10022.45 -10022.45 -10022.45 -10022.45 -10021.12 -9486.48 -5535.97 -5001.33 -5000.00 -5000.00 -5000.00 -5000.00 -5000.00 -5000.00
-9934.31 -9934.31 -9934.31 -9934.31 -9934.31 -9934.33 -9944.21 -10017.17 -10027.05 -10027.07 -10027.07 -10027.07 -10027.07 -10027.17 -10027.87 -10027.96 -10027.96 -10027.96 -10027.96 -10027.96 -10027.77 -10026.32 -10026.13 -10026.13 -10026.13 -10026.13 -10026.12 -10023.34 -10002.79 -10000.01 -10000.00 -10000.00 -10000.00 -9999.88 -9950.91 -9544.16 -9151.85 -8649.72 -5496.67 -4808.05 -4599.37 -4188.71 -1224.15 -809.74 -786.56 -778.61 -739.59 -740.02 -577.78 123.59 308.14 274.13 229.45 235.43 125.94 44.00 123.18 202.91 156.50 296.91 263.49 142.28 195.46 328.09 393.95 376.99 366.17 382.72 380.51 360.86 200.55 114.12 98.34 93.32 77.52 69.15 0.29 -26.08 -28.44 -24.35 -31.09 -36.81 -35.30 -140.85 -986.68 -1077.73 -1048.31 -1014.19 -978.74 -924.60 -1171.79 -4012.12 -4765.73 -5383.41 -8895.07 -9778.45 -9360.27 -5936.83 -6161.95 -6514.57 -8264.09 -5552.76 -5521.81 -6151.97 -6458.95 -8799.50 -9158.31 -9501.46 -9547.90 -9548.01 -9548.13 -9596.57 -9954.43 -10002.86 -10002.98 -10002.98 -10002.98 -10002.99 -10005.61 -10024.98 -10027.60 -10027.60 -10027.60 -10027.60 -10027.60 -10025.72 -10011.87 -10010.00 -10009.99 -10009.99 -10009.99 -10008.67 -9475.35 -5534.64 -5001.32 -5000.00 -5000.00 -5000.00 -5000.00 -5000.00 -5000.00
-9924.26 -9924.26 -9924.26 -9924.26 -9924.26 -9924.29 -9935.41 -10017.61 -10028.73 -10028.76 -10028.76 -10028.76 -10028.76 -10028.70 -10028.23 -10028.17 -10028.17 -10028.17 -10028.17 -10028.17 -10028.28 -10029.13 -10029.24 -10029.24 -10029.24 -10029.24 -10029.23 -10026.12 -10003.12 -10000.01 -10000.00 -10000.00 -10000.00 -9999.93 -9973.46 -9777.72 -9749.36 -9329.11 -6144.91 -5094.77 -4846.17 -4402.08 -1326.75 -915.50 -886.11 -883.73 -876.11 -811.86 -631.01 38.47 231.50 181.40 121.93 55.81 2.22 5.02 135.09 123.84 79.68 213.93 199.34 161.93 162.69 318.41 357.16 346.73 334.57 354.60 350.03 295.86 137.39 102.64 52.80 11.03 0.36 -12.93 -26.98 -36.22 -37.76 -36.82 -40.76 -47.59 -45.85 -164.56 -1117.92 -1226.33 -1200.05 -1156.84 -1076.66 -1042.14 -1273.56 -4236.30 -5076.81 -6314.70 -9585.14 -10014.08 -9629.66 -7109.99 -9204.38 -9246.45 -7042.04 -6616.49 -9107.72 -9529.63 -9524.23 -9500.62 -9497.77 -9498.61 -9498.72 -9498.72 -9498.86 -9552.22 -9946.51 -9999.88 -10000.01 -10000.01 -10000.01 -10000.02 -10003.16 -10026.37 -10029.51 -10029.52 -10029.52 -10029.52 -10029.51 -10027.25 -10010.57 -10008.31 -10008.31 -10008.31 -10008.31 -10006.98 -9473.85 -5534.46 -5001.32 -5000.00 -5000.00 -5000.00 -5000.00 -5000.00 -5000.00
-9924.24 -9924.24 -9924.24 -9924.24 -9924.24 -9924.26 -9935.39 -10017.61 -10028.74 -10028.77 -10028.77 -10028.77 -10028.77 -10028.70 -10028.23 -10028.17 -10028.17 -10028.17 -10028.17 -10028.17 -10028.28 -10029.13 -10029.25 -10029.25 -10029.25 -10029.25 -10029.24 -10026.13 -10003.12 -10000.01 -10000.00 -10000.00 -10000.00 -9999.93 -9973.52 -9778.30 -9751.76 -9700.47 -8900.08 -5647.74 -4998.17 -4416.59 -1348.76 -936.54 -896.67 -897.78 -879.69 -782.53 -706.24 -22.19 123.42 118.21 95.71 71.16 -77.50 -138.59 18.69 63.63 77.51 54.04 124.40 196.94 155.80 312.48 320.84 316.37 310.91 330.68 314.89 260.85 96.01 85.95 17.86 -17.03 -17.18 -27.66 -34.26 -42.81 -45.62 -46.93 -49.60 -52.33 -49.82 -167.93 -1122.06 -1234.25 -1206.82 -1144.94 -1045.49 -1111.74 -1506.86 -4424.54 -5489.56 -9111.56 -9963.96 -10016.33 -9971.13 -9675.28 -9930.06 -9925.26 -9589.07 -9579.80 -9923.73 -9970.55 -9920.39 -9548.99 -9498.73 -9498.60 -9498.60 -9498.60 -9498.73 -9552.11 -9946.49 -9999.87 -10000.00 -10000.00 -10000.00 -10000.01 -10003.15 -10026.37 -10029.51 -10029.52 -10029.52 -10029.52 -10029.52 -10027.26 -10010.57 -10008.31 -10008.30 -10008.30 -10008.30 -10006.98 -9473.84 -5534.46 -5001.32 -5000.00 -5000.00 -5000.00 -5000.00 -5000.00 -5000.00
-9924.24 -9924.24 -9924.24 -9924.24 -9924.24 -9924.26 -9935.39 -10017.61 -10028.74 -10028.77 -10028.77 -10028.77 -10028.77 -10028.70 -10028.23 -10028.17 -10028.17 -10028.17 -10028.17 -10028.17 -10028.28 -10029.13 -10029.25 -10029.25 -10029.25 -10029.25 -10029.24 -10026.13 -10003.12 -10000.01 -10000.00 -10000.00 -10000.00 -9999.93 -9973.52 -9778.30 -9751.88 -9750.68 -9342.39 -6302.44 -5596.72 -4586.49 -1376.90 -904.06 -933.81 -924.84 -911.08 -871.94 -787.39 -221.54 2.53 85.99 61.54 27.63 -178.98 -228.78 6.93 13.86 71.90 38.52 50.77 187.06 168.01 287.49 300.34 294.86 286.92 289.78 245.12 186.58 38.30 14.81 -17.71 -25.10 -26.37 -33.34 -40.70 -49.26 -52.64 -54.63 -56.65 -56.74 -52.24 -171.70 -1127.39 -1231.23 -1189.85 -1145.42 -1162.63 -1191.91 -1585.15 -4478.45 -5538.23 -9435.61 -9664.24 -9969.18 -10016.44 -10011.07 -9976.55 -9971.78 -9970.93 -9970.91 -9971.76 -9971.76 -9921.38 -9549.11 -9498.73 -9498.60 -9498.60 -9498.60 -9498.73 -9552.11 -9946.49 -9999.87 -10000.00 -10000.00 -10000.00 -10000.01 -10003.15 -10026.37 -10029.51 -10029.52 -10029.52 -10029.52 -10029.52 -10027.26 -10010.57 -10008.31 -10008.30 -10008.30 -10008.30 -10006.98 -9473.84 -5534.46 -5001.32 -5000.00 -5000.00 -5000.00 -5000.00 -5000.00 -5000.00
-9924.26 -9924.26 -9924.26 -9924.26 -9924.26 -9924.29 -9935.41 -10017.61 -10028.74 -10028.77 -10028.77 -10028.77 -10028.77 -10028.70 -10028.23 -10028.16 -10028.16 -10028.16 -10028.16 -10028.16 -10028.28 -10029.13 -10029.24 -10029.24 -10029.24 -10029.24 -10029.23 -10026.12 -10003.13 -10000.01 -10000.01 -10000.01 -10000.01 -9999.94 -9973.53 -9778.36 -9751.95 -9751.77 -9703.43 -9341.53 -8816.99 -5083.06 -1515.91 -995.42 -943.51 -946.58 -948.79 -921.75 -804.47 -267.40 -219.56 -82.02 -50.24 -35.77 -160.76 -244.54 -38.52 -11.30 6.34 59.25 123.65 200.69 133.84 241.55 273.12 310.48 251.87 207.21 208.30 152.55 10.14 -22.17 -26.21 -26.60 -28.95 -37.41 -46.07 -54.99 -58.69 -60.87 -62.86 -62.26 -54.53 -172.32 -1124.68 -1220.90 -1171.46 -1109.81 -1183.99 -1240.80 -1628.55 -4659.30 -5981.19 -9190.43 -7421.39 -9665.13 -10015.25 -10011.30 -9975.61 -9970.78 -9970.77 -9970.77 -9970.77 -9970.65 -9920.36 -9548.82 -9498.54 -9498.42 -9498.42 -9498.42 -9498.55 -9551.94 -9946.48 -9999.87 -10000.00 -10000.00 -10000.00 -10000.01 -10003.15 -10026.37 -10029.51 -10029.52 -10029.52 -10029.52 -10029.52 -10027.26 -10010.57 -10008.31 -10008.30 -10008.30 -10008.30 -10006.98 -9473.84 -5534.46 -5001.32 -5000.00 -5000.00 -5000.00 -5000.00 -5000.00 -5000.00
-9933.02 -9933.02 -9933.02 -9933.02 -9933.02 -9933.04 -9943.24 -10018.63 -10028.84 -10028.86 -10028.86 -10028.86 -10028.86 -10028.53 -10026.11 -10025.78 -10025.78 -10025.78 -10025.78 -10025.78 -10025.86 -10026.41 -10026.49 -10026.49 -10026.49 -10026.49 -10026.48 -10023.92 -10005.01 -10002.45 -10002.45 -10002.45 -10002.45 -10002.39 -9978.76 -9804.15 -9780.52 -9780.46 -9780.34 -9778.14 -9251.70 -5037.42 -2048.92 -1620.87 -1513.63 -1433.02 -1389.39 -1378.95 -1280.86 -780.84 -713.97 -640.20 -618.24 -591.42 -704.11 -682.17 -181.29 -97.38 -36.92 75.86 143.94 161.13 53.73 224.58 251.31 321.55 312.21 215.66 210.98 197.89 15.26 -20.51 -26.74 -20.29 -29.17 -43.19 -51.93 -58.88 -62.30 -63.26 -64.12 -63.23 -55.02 -160.72 -1032.53 -1110.59 -1063.19 -1012.60 -1095.92 -1219.81 -2035.00 -5387.83 -8903.14 -9689.70 -9443.76 -9747.40 -9794.71 -9765.88 -9552.02 -9523.08 -9523.01 -9523.01 -9523.01 -9522.98 -9512.36 -9433.89 -9423.27 -9423.24 -9423.24 -9423.24 -9423.39 -9484.90 -9939.42 -10000.93 -10001.08 -10001.08 -10001.08 -10001.09 -10004.09 -10026.25 -10029.25 -10029.26 -10029.26 -10029.26 -10029.26 -10027.17 -10011.75 -10009.66 -10009.66 -10009.66 -10009.66 -10008.33 -9475.05 -5534.60 -5001.32 -5000.00 -5000.00 -5000.00 -5000.00 -5000.00 -5000.00
-9997.59 -9996.73 -9997.59 -9997.73 -9997.73 -9997.74 -10001.13 -10026.17 -10029.56 -10029.57 -10029.57 -10029.57 -10029.57 -10027.29 -10010.47 -10008.19 -10008.18 -10008.18 -10008.18 -10008.18 -10007.96 -10006.36 -10006.14 -10006.14 -10006.14 -10006.14 -10006.14 -10007.67 -10018.94 -10020.47 -10020.47 -10020.47 -10020.47 -10020.46 -10017.39 -9994.65 -9991.58 -9991.57 -9991.57 -9990.28 -9471.55 -5636.83 -5095.19 -5004.71 -4877.83 -4780.15 -4699.02 -4660.06 -4571.04 -4015.92 -3921.78 -3902.84 -3888.54 -3914.57 -3955.92 -3606.11 -1029.41 -667.89 -636.46 -581.93 -570.79 -558.68 -456.38 6.53 167.36 188.58 204.95 125.75 34.49 69.29 41.60 9.14 -29.48 13.94 -38.15 -60.01 -66.27 -54.17 -53.49 -54.27 -54.31 -52.72 -44.53 -74.02 -375.41 -360.05 -324.18 -277.13 -375.05 -911.31 -4716.50 -7394.98 -8101.97 -8159.77 -8159.30 -8160.05 -8159.66 -7952.54 -6422.11 -6214.99 -6214.47 -6214.47 -6214.47 -6215.17 -6497.62 -8584.62 -8867.07 -8867.77 -8867.77 -8867.77 -8868.07 -8989.56 -9887.27 -10008.76 -10009.06 -10009.06 -10009.06 -10009.07 -10011.01 -10025.39 -10027.33 -10027.34 -10027.34 -10027.34 -10027.33 -10026.52 -10020.47 -10019.65 -10019.65 -10019.65 -10019.65 -10018.33 -9483.98 -5535.67 -5001.32 -5000.00 -5000.00 -5000.00 -5000.00 -5000.00 -5000.00
-9952.10 -9605.65 -9952.24 -10006.35 -10006.48 -10006.49 -10008.96 -10027.19 -10029.66 -10029.67 -10029.67 -10029.67 -10029.66 -10027.12 -10008.35 -10005.81 -10005.80 -10005.80 -10005.80 -10005.80 -10005.54 -10003.64 -10003.39 -10003.39 -10003.39 -10003.39 -10003.39 -10005.47 -10020.83 -10022.90 -10022.91 -10022.91 -10022.91 -10022.91 -10022.61 -10020.43 -10020.14 -10020.14 -10020.14 -10019.16 -9622.61 -6673.33 -6071.59 -5581.45 -5429.07 -5253.31 -5165.23 -5137.16 -5029.78 -4460.73 -4369.89 -4392.29 -4400.98 -4412.94 -4409.35 -4004.87 -1147.49 -754.84 -732.53 -703.11 -673.50 -593.45 -535.46 -56.41 38.46 188.92 249.74 162.16 49.64 50.05 166.81 14.70 -34.26 -35.93 -47.01 -62.28 -68.83 -54.22 -52.91 -53.04 -52.54 -50.44 -42.73 -63.09 -286.43 -270.45 -246.66 -170.48 -318.17 -1289.08 -5135.77 -7658.68 -7938.11 -7938.93 -7938.93 -7938.93 -7938.36 -7707.13 -5998.52 -5767.28 -5766.71 -5766.71 -5766.71 -5767.51 -6089.62 -8469.69 -8791.79 -8792.59 -8792.59 -8792.59 -8792.91 -8922.52 -9880.21 -10009.82 -10010.14 -10010.14 -10010.14 -10010.15 -10011.95 -10025.27 -10027.07 -10027.08 -10027.08 -10027.08 -10027.07 -10026.43 -10021.65 -10021.00 -10021.00 -10021.00 -10021.00 -10019.68 -9485.19 -5535.81 -5001.32 -5000.00 -5000.00 -5000.00 -5000.00 -5000.00 -5000.00
-9604.68 -7044.73 -9605.67 -10005.51 -10006.51 -10006.51 -10008.98 -10027.20 -10029.66 -10029.67 -10029.67 -10029.67 -10029.66 -10027.12 -10008.34 -10005.80 -10005.80 -10005.80 -10005.80 -10005.79 -10005.54 -10003.64 -10003.38 -10003.38 -10003.38 -10003.38 -10003.38 -10005.46 -10020.83 -10022.91 -10022.92 -10022.92 -10022.92 -10022.92 -10022.63 -10020.50 -10020.21 -10020.21 -10020.21 -10020.09 -9973.93 -9629.24 -9137.47 -5970.65 -5433.20 -5239.35 -5191.29 -5121.64 -5034.55 -4480.85 -4397.20 -4406.95 -4406.32 -4404.83 -4413.44 -4035.60 -1173.57 -772.26 -743.87 -714.46 -685.70 -631.31 -594.29 -119.58 -53.97 46.10 169.78 196.40 121.85 -5.28 52.52 3.50 -24.16 -37.73 -48.98 -62.39 -69.52 -54.44 -53.02 -53.00 -52.04 -49.55 -42.63 -61.84 -271.06 -271.23 -249.45 -208.23 -720.97 -4034.45 -5507.73 -7660.25 -7937.70 -7938.38 -7938.38 -7938.38 -7937.81 -7706.52 -5997.47 -5766.17 -5765.60 -5765.60 -5765.60 -5766.40 -6088.60 -8469.40 -8791.61 -8792.40 -8792.40 -8792.40 -8792.73 -8922.36 -9880.20 -10009.83 -10010.15 -10010.15 -10010.15 -10010.15 -10011.95 -10025.27 -10027.07 -10027.07 -10027.07 -10027.07 -10027.07 -10026.43 -10021.65 -10021.01 -10021.01 -10021.01 -10021.01 -10019.68 -9485.19 -5535.81 -5001.32 -5000.00 -5000.00 -5000.00 -5000.00 -5000.00 -5000.00
-9952.12 -9605.67 -9952.26 -10006.37 -10006.51 -10006.51 -10008.98 -10027.20 -10029.66 -10029.67 -10029.67 -10029.67 -10029.66 -10027.12 -10008.34 -10005.80 -10005.80 -10005.80 -10005.80 -10005.79 -10005.54 -10003.64 -10003.38 -10003.38 -10003.38 -10003.38 -10003.38 -10005.46 -10020.83 -10022.91 -10022.92 -10022.92 -10022.92 -10022.92 -10022.63 -10020.50 -10020.21 -10020.21 -10020.21 -10020.21 -10020.10 -10018.95 -9547.55 -5977.18 -5184.84 -5100.86 -5128.56 -5121.48 -5031.06 -4479.47 -4403.48 -4406.88 -4408.62 -4416.53 -4439.58 -4048.60 -1189.25 -779.09 -754.32 -730.04 -683.93 -679.33 -617.80 -154.29 -101.75 -56.17 129.74 98.69 -7.76 -58.61 -21.06 31.65 -5.31 -3.50 -43.32 -61.60 -70.23 -54.91 -53.29 -53.11 -51.88 -48.52 -41.88 -63.81 -288.54 -309.49 -281.14 -253.17 -457.68 -1841.86 -5210.48 -7659.52 -7937.70 -7938.38 -7938.38 -7938.38 -7937.81 -7706.52 -5997.47 -5766.17 -5765.60 -5765.60 -5765.60 -5766.40 -6088.60 -8469.28 -8790.60 -8791.11 -8791.09 -8791.23 -8792.59 -8922.36 -9880.20 -10009.83 -10010.15 -10010.15 -10010.15 -10010.15 -10011.95 -10025.27 -10027.07 -10027.07 -10027.07 -10027.07 -10027.07 -10026.43 -10021.65 -10021.01 -10021.01 -10021.01 -10021.01 -10019.68 -9485.19 -5535.81 -5001.32 -5000.00 -5000.00 -5000.00 -5000.00 -5000.00 -5000.00
-10006.37 -10005.51 -10006.37 -10006.50 -10006.50 -10006.51 -10008.98 -10027.19 -10029.66 -10029.66 -10029.66 -10029.66 -10029.66 -10027.12 -10008.34 -10005.80 -10005.79 -10005.79 -10005.79 -10005.79 -10005.54 -10003.64 -10003.38 -10003.38 -10003.38 -10003.38 -10003.38 -10005.46 -10020.83 -10022.91 -10022.92 -10022.92 -10022.92 -10022.91 -10022.63 -10020.49 -10020.20 -10020.20 -10020.20 -10020.20 -10020.21 -10020.02 -9592.26 -6304.60 -5270.72 -5170.24 -5146.52 -5161.42 -5049.78 -4485.18 -4412.34 -4407.64 -4406.36 -4433.74 -4446.40 -4039.33 -1183.28 -777.33 -755.21 -740.09 -718.54 -708.29 -650.72 -181.60 -112.48 -80.50 -41.89 -38.61 -60.28 -89.55 -46.78 -22.09 -35.13 -24.66 -45.79 -61.83 -71.86 -56.46 -54.19 -53.83 -51.87 -47.87 -41.64 -65.85 -300.70 -301.86 -278.67 -306.63 -347.63 -950.84 -5089.55 -7658.46 -7936.88 -7937.57 -7937.57 -7937.57 -7936.99 -7705.85 -5997.95 -5766.81 -5766.23 -5766.23 -5766.23 -5766.89 -6087.90 -8420.90 -8384.42 -8270.99 -8260.05 -8316.32 -8736.05 -8922.42 -9880.22 -10009.82 -10010.14 -10010.14 -10010.14 -10010.15 -10011.95 -10025.27 -10027.07 -10027.07 -10027.07 -10027.07 -10027.07 -10026.43 -10021.65 -10021.01 -10021.01 -10021.01 -10021.01 -10019.68 -9485.19 -5535.81 -5001.32 -5000.00 -5000.00 -5000.00 -5000.00 -5000.00 -5000.00
-10005.81 -10005.81 -10005.81 -10005.81 -10005.81 -10005.82 -10008.15 -10025.38 -10027.71 -10027.72 -10027.72 -10027.72 -10027.71 -10025.31 -10007.58 -10005.18 -10005.18 -10005.18 -10005.18 -10005.18 -10005.00 -10003.68 -10003.50 -10003.50 -10003.50 -10003.50 -10003.51 -10005.54 -10020.53 -10022.56 -10022.56 -10022.56 -10022.56 -10022.56 -10022.09 -10018.60 -10018.13 -10018.13 -10018.13 -10018.13 -10018.13 -10019.01 -9973.54 -9224.88 -6434.82 -5775.36 -5655.15 -5809.24 -5710.97 -5106.85 -5022.16 -5041.88 -5028.25 -5051.76 -4965.52 -4169.92 -1468.61 -1102.24 -1082.46 -1055.75 -1030.50 -1000.74 -965.98 -308.44 -211.11 -196.92 -207.62 -210.91 -218.64 -203.99 -67.27 -50.98 -46.77 -44.18 -52.55 -66.13 -75.72 -56.45 -53.46 -51.85 -49.38 -44.91 -38.53 -54.19 -219.29 -219.64 -170.05 -229.77 -242.38 -775.24 -4955.51 -7352.80 -7606.62 -7607.25 -7607.25 -7607.25 -7606.83 -7438.11 -6191.46 -6022.74 -6022.21 -6021.33 -6020.89 -5965.19 -5852.33 -7753.74 -5761.16 -4563.21 -4432.34 -4923.41 -8412.13 -9003.54 -9889.08 -10008.77 -10009.06 -10009.06 -10009.06 -10009.07 -10010.89 -10024.37 -10026.20 -10026.20 -10026.20 -10026.20 -10026.20 -10025.70 -10021.95 -10021.44 -10021.44 -10021.44 -10021.44 -10020.12 -9485.58 -5535.86 -5001.32 -5000.00 -5000.00 -5000.00 -5000.00 -5000.00 -5000.00
-10000.69 -10000.69 -10000.69 -10000.69 -10000.69 -10000.70 -10002.04 -10011.98 -10013.33 -10013.33 -10013.33 -10013.33 -10013.33 -10011.98 -10001.98 -10000.62 -10000.62 -10000.62 -10000.62 -10000.62 -10001.02 -10004.00 -10004.41 -10004.41 -10004.41 -10004.41 -10004.41 -10006.07 -10018.30 -10019.95 -10019.96 -10019.96 -10019.96 -10019.95 -10018.12 -10004.62 -10002.79 -10002.79 -10002.79 -10002.79 -10002.79 -10004.67 -10018.28 -9970.22 -9603.06 -9513.87 -9497.82 -9518.79 -9506.38 -9426.89 -9415.66 -9418.47 -9416.62 -9418.23 -8945.14 -5327.64 -3726.59 -3560.40 -3553.91 -3544.73 -3536.10 -3527.28 -3258.09 -1207.98 -928.65 -945.05 -956.63 -961.48 -964.85 -870.12 -176.17 -80.55 -75.45 -61.95 -67.26 -82.25 -87.88 -45.21 -37.22 -34.24 -31.12 -26.04 -19.12 39.13 424.99 487.10 515.19 486.55 480.84 -5.41 -3708.55 -5049.26 -5166.06 -5165.46 -5166.35 -5166.49 -5167.21 -5459.61 -7620.15 -7912.39 -7866.13 -7509.57 -7390.21 -6963.82 -4071.80 -5332.60 -7794.04 -5067.26 -5086.80 -5764.29 -9114.03 -9610.65 -9954.57 -10000.97 -10001.08 -10001.08 -10001.08 -10001.09 -10003.08 -10017.78 -10019.77 -10019.78 -10019.78 -10019.78 -10019.78 -10020.30 -10024.13 -10024.65 -10024.65 -10024.65 -10024.65 -10023.32 -9488.44 -5536.20 -5001.33 -5000.00 -5000.00 -5000.00 -5000.00 -5000.00 -5000.00
-10000.00 -10000.00 -10000.00 -10000.00 -10000.00 -10000.00 -10001.22 -10010.17 -10011.38 -10011.39 -10011.39 -10011.39 -10011.38 -10010.17 -10001.22 -10000.00 -10000.00 -10000.00 -10000.00 -10000.00 -10000.48 -10004.05 -10004.53 -10004.53 -10004.53 -10004.53 -10004.54 -10006.14 -10018.00 -10019.60 -10019.60 -10019.60 -10019.60 -10019.60 -10017.59 -10002.73 -10000.72 -10000.71 -10000.71 -10000.71 -10000.72 -10002.71 -10017.44 -10019.32 -10018.41 -10018.19 -10018.15 -10018.20 -10017.32 -10010.86 -10009.99 -10009.99 -10009.99 -10008.70 -9486.94 -5505.94 -4036.12 -3894.46 -3913.00 -3922.99 -3918.78 -3910.91 -3606.12 -1376.74 -1065.96 -1064.96 -1073.89 -1083.01 -1080.71 -977.68 -209.12 -101.79 -99.98 -90.36 -88.35 -100.65 -101.83 -47.78 -34.79 -30.78 -27.75 -21.37 -14.62 52.67 511.84 580.16 586.84 580.92 579.18 433.34 -1045.53 -4398.85 -4778.85 -4421.51 -4780.05 -4836.03 -4836.76 -5133.97 -7335.19 -7615.02 -7266.18 -4614.56 -3692.76 -3774.94 -3898.14 -4777.24 -5586.23 -5704.50 -8714.27 -9204.14 -9603.77 -9693.78 -9963.44 -9999.91 -10000.00 -10000.00 -10000.00 -10000.01 -10002.02 -10016.89 -10018.91 -10018.91 -10018.91 -10018.91 -10018.91 -10019.57 -10024.42 -10025.08 -10025.08 -10025.08 -10025.08 -10023.76 -9488.83 -5536.25 -5001.33 -5000.00 -5000.00 -5000.00 -5000.00 -5000.00 -5000.00
-10000.00 -10000.00 -10000.00 -10000.00 -10000.00 -10000.00 -10001.21 -10010.17 -10011.38 -10011.38 -10011.38 -10011.38 -10011.38 -10010.17 -10001.21 -10000.00 -10000.00 -10000.00 -10000.00 -10000.00 -10000.48 -10004.05 -10004.53 -10004.53 -10004.53 -10004.53 -10004.54 -10006.14 -10017.99 -10019.60 -10019.60 -10019.60 -10019.60 -10019.60 -10017.59 -10002.72 -10000.71 -10000.71 -10000.71 -10000.71 -10000.71 -10002.71 -10017.44 -10019.44 -10019.44 -10019.44 -10019.44 -10019.44 -10018.59 -10012.31 -10011.46 -10011.46 -10011.46 -10010.16 -9485.89 -5488.71 -4039.08 -3937.74 -3976.85 -3975.30 -3952.62 -3937.77 -3629.96 -1413.93 -1121.46 -1101.78 -1102.04 -1093.61 -1072.89 -972.44 -210.52 -107.69 -111.71 -112.04 -110.87 -107.74 -103.02 -43.97 -29.86 -26.14 -21.89 -16.37 -10.69 55.13 513.15 579.33 580.69 580.26 579.76 515.95 -409.16 -3947.81 -4369.20 -1771.27 -4420.69 -4834.04 -4777.08 -4289.80 -3710.71 -3480.23 -3464.14 -2981.73 -2532.07 -4137.70 -6508.66 -5306.16 -8639.51 -9183.43 -9548.00 -9279.11 -9606.50 -9693.99 -9963.46 -9999.91 -10000.00 -10000.00 -10000.00 -10000.00 -10002.02 -10016.89 -10018.90 -10018.91 -10018.91 -10018.91 -10018.91 -10019.57 -10024.42 -10025.08 -10025.08 -10025.08 -10025.08 -10023.76 -9488.83 -5536.25 -5001.33 -5000.00 -5000.00 -5000.00 -5000.00 -5000.00 -5000.00
-10000.00 -10000.00 -10000.00 -10000.00 -10000.00 -10000.00 -10001.21 -10010.17 -10011.38 -10011.38 -10011.38 -10011.38 -10011.38 -10010.17 -10001.21 -10000.00 -10000.00 -10000.00 -10000.00 -10000.00 -10000.48 -10004.05 -10004.53 -10004.53 -10004.53 -10004.53 -10004.54 -10006.14 -10017.99 -10019.60 -10019.60 -10019.60 -10019.60 -10019.60 -10017.59 -10002.72 -10000.71 -10000.71 -10000.71 -10000.71 -10000.71 -10002.71 -10017.44 -10019.44 -10019.44 -10019.44 -10019.44 -10019.44 -10018.59 -10012.31 -10011.46 -10011.46 -10011.46 -10010.18 -9492.60 -5541.79 -4073.73 -3965.11 -4085.56 -4091.99 -4053.03 -3983.73 -3645.40 -1449.76 -1215.44 -1136.89 -1125.37 -1119.63 -1101.01 -996.40 -224.72 -113.52 -112.34 -106.76 -105.46 -100.93 -92.50 -31.51 -20.13 -16.99 -13.75 -9.80 -5.21 59.74 516.63 579.62 580.20 579.74 577.18 567.77 351.71 -1121.94 -4351.12 -4419.49 -4778.95 -4776.06 -3933.81 -994.36 -2359.86 -2510.31 -2947.02 -2873.67 -3146.73 -3575.57 -3811.38 -5159.33 -9077.49 -9208.19 -8791.73 -6407.68 -9224.68 -9693.05 -9963.46 -9999.91 -10000.00 -10000.00 -10000.00 -10000.00 -10002.02 -10016.89 -10018.90 -10018.91 -10018.91 -10018.91 -10018.91 -10019.57 -10024.42 -10025.08 -10025.08 -10025.08 -10025.08 -10023.76 -9488.83 -5536.25 -5001.33 -5000.00 -5000.00 -5000.00 -5000.00 -5000.00 -5000.00
-10000.01 -10000.01 -10000.01 -10000.01 -10000.01 -10000.01 -10001.22 -10010.17 -10011.38 -10011.38 -10011.38 -10011.38 -10011.38 -10010.17 -10001.22 -10000.01 -10000.01 -10000.01 -10000.01 -10000.01 -10000.49 -10004.05 -10004.53 -10004.53 -10004.53 -10004.53 -10004.54 -10006.14 -10017.99 -10019.59 -10019.60 -10019.60 -10019.60 -10019.59 -10017.58 -10002.73 -10000.72 -10000.71 -10000.71 -10000.71 -10000.72 -10002.71 -10017.44 -10019.44 -10019.44 -10019.44 -10019.44 -10019.44 -10018.58 -10012.24 -10011.38 -10011.38 -10011.38 -10010.35 -9595.10 -6388.17 -4931.20 -4796.83 -4734.29 -4353.22 -4257.49 -4116.99 -3708.26 -1493.37 -1250.60 -1182.08 -1163.14 -1147.98 -1134.94 -1025.21 -234.48 -119.68 -105.50 -95.29 -99.15 -97.96 -76.89 -19.85 -10.45 -8.30 -5.97 -2.87 1.01 66.57 522.31 582.65 583.79 583.51 572.79 562.17 476.64 -395.87 -3909.86 -4777.47 -4777.17 -3934.42 -634.58 378.43 -864.80 -2399.75 -2980.47 -2482.12 -3511.47 -3501.96 -3391.74 -5023.49 -8263.87 -5952.93 -5940.55 -5798.92 -9185.76 -9692.69 -9963.43 -9999.91 -10000.00 -10000.00 -10000.00 -10000.00 -10002.02 -10016.89 -10018.90 -10018.90 -10018.90 -10018.90 -10018.91 -10019.56 -10024.42 -10025.08 -10025.08 -10025.08 -10025.08 -10023.76 -9488.83 -5536.25 -5001.33 -5000.00 -5000.00 -5000.00 -5000.00 -5000.00 -5000.00
