-5009.62 -5011.19 -5022.17 -5040.21 -5078.44 -5132.75 -5203.28 -5249.42 -5285.25 -5306.50 -5315.56 -5322.53 -5329.10 -5335.56 -5332.16 -5331.15 -5331.33 -5336.46 -5342.92 -5347.37 -5350.72 -5348.76 -5336.70 -5336.07 -5338.12 -5341.07 -5345.04 -5351.84 -5354.43 -5359.37 -5365.23 -5369.06 -5375.99 -5379.43 -5388.13 -5401.71 -5416.39 -5422.69 -5426.37 -5434.24 -5441.61 -5450.21 -5448.81 -5455.72 -5468.19 -5475.51 -5486.72 -5497.87 -5510.97 -5523.30 -5530.59 -5537.13 -5544.97 -5545.32 -5544.11 -5542.94 -5539.07 -5536.02 -5530.70 -5521.80 -5508.04 -5497.33 -5495.27 -5490.35 -5488.83 -5491.06 -5493.81 -5492.36 -5489.22 -5483.04 -5480.61 -5481.53 -5477.11 -5467.54 -5424.94 -5250.53 -4874.08 -4208.20 -3824.61 -3502.49 -3023.42 -2599.76 -2428.32 -3432.05 -4898.15 -6640.08 -6124.70 -4246.21 -2716.73 -1212.66 -1056.34 -2175.62 -2727.82 -3354.05 -3770.80 -3756.58 -3789.99 -3547.57 -3304.68 -2643.74 -1565.41 -966.83 -778.10 -961.32 -1664.43 -2312.95 -3127.84 -3856.36 -5971.46 -7892.34 -8774.00 -8791.12 -8803.99 -8805.03 -8792.52 -8639.56 -7659.22 -5467.46 -3138.55 -2432.45 -2299.32 -2311.44 -2326.67 -2343.43 -2359.56 -2366.86 -2371.56 -2377.84 -2381.56 -2395.84 -2408.72 -2438.27 -2526.79 -2644.35 -2815.23 -3007.17 -3394.00 -3777.92 -4039.90 -4137.67 -4137.79
-5015.49 -5015.42 -5027.62 -5043.01 -5073.95 -5110.31 -5182.69 -5244.10 -5291.95 -5310.64 -5326.73 -5333.63 -5345.52 -5346.40 -5342.79 -5340.80 -5341.93 -5343.17 -5349.72 -5353.72 -5356.04 -5347.06 -5339.52 -5339.46 -5341.73 -5345.58 -5348.74 -5352.26 -5356.22 -5362.26 -5365.36 -5370.16 -5375.80 -5382.20 -5386.80 -5403.60 -5411.38 -5421.23 -5427.64 -5434.68 -5441.44 -5448.15 -5453.81 -5459.55 -5471.20 -5479.57 -5492.69 -5496.26 -5518.14 -5524.00 -5537.77 -5544.82 -5548.79 -5549.92 -5548.29 -5543.73 -5536.38 -5533.71 -5532.49 -5526.50 -5513.61 -5513.81 -5512.59 -5506.81 -5506.82 -5504.12 -5504.64 -5499.09 -5495.96 -5491.22 -5492.99 -5492.14 -5477.06 -5426.94 -5387.53 -5227.50 -4917.76 -4446.09 -3701.91 -3297.80 -2979.19 -2632.18 -2600.05 -3231.66 -4419.15 -7119.58 -7204.25 -3848.87 -1993.65 -846.01 -1092.75 -1886.89 -2895.15 -3210.79 -3477.40 -3276.27 -3282.20 -3328.91 -3126.75 -2538.65 -1427.28 -890.00 -643.52 -897.33 -1509.69 -2230.30 -3065.21 -4550.37 -6498.72 -8236.43 -8771.86 -8786.60 -8802.28 -8804.63 -8806.92 -8781.70 -7797.38 -6128.30 -3563.31 -2456.86 -2342.90 -2318.51 -2338.00 -2359.37 -2380.09 -2387.86 -2391.26 -2399.14 -2404.39 -2413.85 -2421.52 -2459.94 -2480.62 -2584.74 -2699.72 -2903.11 -3383.71 -3739.90 -3917.54 -4090.90 -4090.96
-5019.47 -5021.10 -5033.98 -5050.65 -5064.58 -5102.12 -5164.14 -5227.54 -5271.31 -5316.75 -5330.29 -5345.37 -5348.86 -5352.89 -5351.24 -5349.50 -5346.88 -5351.87 -5356.74 -5359.23 -5364.95 -5355.67 -5346.50 -5346.22 -5346.93 -5348.08 -5352.68 -5354.88 -5359.33 -5362.43 -5368.10 -5371.91 -5377.67 -5382.91 -5390.18 -5404.07 -5413.61 -5423.62 -5430.00 -5436.76 -5445.19 -5454.16 -5459.08 -5467.09 -5476.72 -5485.98 -5497.80 -5506.58 -5524.33 -5529.19 -5542.78 -5546.64 -5553.33 -5553.58 -5550.09 -5545.95 -5539.33 -5536.03 -5533.49 -5524.86 -5519.93 -5517.08 -5514.12 -5514.21 -5512.60 -5511.71 -5510.65 -5508.05 -5502.59 -5501.58 -5498.29 -5498.13 -5429.13 -5364.54 -5318.65 -5015.54 -4861.78 -4444.50 -3908.88 -3170.66 -3047.88 -2513.35 -2304.20 -4028.33 -5334.90 -7315.23 -6894.72 -3980.83 -1851.57 -949.93 -1210.74 -1865.48 -2432.52 -3244.14 -3195.77 -2955.05 -2769.60 -2808.83 -2624.76 -2129.29 -1294.45 -809.36 -642.55 -1151.54 -1559.46 -2251.16 -3217.68 -4651.19 -6767.23 -8365.85 -8683.23 -8789.27 -8803.59 -8808.99 -8810.97 -8736.08 -8356.01 -6221.76 -3799.17 -2594.25 -2358.90 -2337.10 -2359.21 -2380.87 -2392.73 -2403.01 -2403.07 -2414.96 -2421.03 -2429.35 -2440.57 -2458.16 -2488.18 -2640.79 -2773.12 -2967.80 -3194.63 -3585.62 -3931.56 -4093.35 -4093.51
-5023.24 -5023.17 -5036.26 -5053.64 -5068.25 -5092.47 -5119.52 -5211.20 -5277.85 -5313.22 -5340.10 -5347.10 -5349.20 -5355.03 -5358.67 -5355.98 -5355.97 -5361.42 -5367.36 -5372.09 -5373.10 -5366.27 -5353.53 -5356.71 -5356.97 -5358.30 -5362.69 -5368.92 -5364.09 -5367.11 -5370.11 -5382.35 -5384.94 -5388.11 -5394.80 -5410.43 -5415.38 -5429.52 -5436.27 -5443.61 -5457.33 -5464.46 -5468.31 -5476.48 -5485.69 -5496.39 -5505.78 -5517.33 -5528.24 -5539.32 -5548.59 -5554.03 -5556.92 -5557.98 -5555.15 -5554.24 -5552.90 -5552.63 -5539.49 -5526.96 -5522.46 -5519.25 -5516.06 -5515.74 -5516.40 -5516.42 -5517.55 -5515.04 -5510.78 -5506.70 -5504.33 -5483.63 -5418.65 -5230.97 -5023.78 -4812.10 -4527.85 -4445.39 -4014.76 -3241.42 -2973.10 -2392.98 -2250.46 -2818.71 -4263.46 -7044.21 -6998.39 -4731.76 -1653.87 -1137.34 -1299.22 -1920.87 -2718.21 -3025.57 -2831.28 -2401.57 -2397.12 -2545.34 -2502.99 -1932.26 -1317.85 -965.16 -809.85 -1105.54 -1585.89 -2293.25 -3358.48 -3970.00 -6747.20 -7874.64 -8464.35 -8745.11 -8813.88 -8821.06 -8823.53 -8803.12 -8690.98 -6937.10 -4875.54 -2701.92 -2416.41 -2360.52 -2371.77 -2395.93 -2408.19 -2417.07 -2430.23 -2434.49 -2436.77 -2449.76 -2458.26 -2489.58 -2538.37 -2625.92 -2791.04 -2941.98 -3211.65 -3549.76 -3913.30 -3968.22 -3980.10
-5029.24 -5029.18 -5044.88 -5064.01 -5074.84 -5096.01 -5115.22 -5155.38 -5229.87 -5284.02 -5319.69 -5337.91 -5346.67 -5355.91 -5364.17 -5366.22 -5375.42 -5383.15 -5383.15 -5387.83 -5395.99 -5391.80 -5387.86 -5391.68 -5387.57 -5393.78 -5400.99 -5389.38 -5386.37 -5395.41 -5396.40 -5402.54 -5407.99 -5408.70 -5415.72 -5423.59 -5444.04 -5448.90 -5452.73 -5459.31 -5469.20 -5478.81 -5488.16 -5491.66 -5494.74 -5512.64 -5520.98 -5529.92 -5537.95 -5549.62 -5554.32 -5558.09 -5560.47 -5561.29 -5560.83 -5563.98 -5559.41 -5554.26 -5541.67 -5528.99 -5524.13 -5521.80 -5518.48 -5518.93 -5520.80 -5520.46 -5520.61 -5517.82 -5513.65 -5508.91 -5504.59 -5467.46 -5336.66 -5050.15 -4798.93 -4397.85 -4236.68 -4047.32 -3597.44 -3078.45 -2663.71 -2246.47 -2224.11 -2646.76 -5081.68 -6518.53 -6742.84 -4846.78 -1458.80 -1154.89 -1342.93 -1874.64 -2533.40 -2695.87 -2382.45 -2148.11 -2126.90 -2148.68 -2131.73 -1768.64 -1495.22 -878.78 -926.62 -1172.29 -1625.38 -2249.60 -2756.05 -3909.97 -5878.57 -7079.18 -8093.00 -8786.82 -8817.32 -8832.54 -8835.86 -8821.66 -8590.04 -7729.23 -4522.12 -3012.23 -2426.61 -2386.56 -2393.51 -2413.53 -2433.72 -2441.22 -2442.52 -2454.26 -2461.73 -2475.46 -2491.60 -2506.23 -2572.14 -2614.89 -2790.23 -3006.36 -3285.82 -3570.09 -3835.52 -3877.72 -3877.90
-5040.63 -5040.56 -5055.16 -5063.53 -5086.75 -5096.21 -5115.89 -5149.45 -5186.68 -5266.81 -5291.39 -5307.01 -5323.47 -5332.86 -5360.91 -5376.89 -5393.74 -5399.18 -5405.56 -5409.60 -5409.90 -5410.81 -5412.94 -5415.85 -5416.19 -5414.77 -5416.64 -5419.73 -5418.48 -5418.46 -5420.42 -5421.28 -5418.15 -5425.53 -5427.42 -5443.06 -5455.57 -5465.57 -5472.23 -5484.95 -5493.18 -5500.43 -5505.95 -5502.13 -5507.95 -5526.22 -5538.07 -5546.19 -5553.44 -5557.63 -5560.58 -5563.56 -5563.86 -5566.20 -5569.08 -5576.03 -5567.57 -5551.04 -5542.41 -5533.50 -5527.97 -5523.12 -5520.13 -5520.89 -5521.51 -5522.24 -5522.81 -5521.61 -5519.09 -5511.76 -5471.61 -5368.31 -5210.18 -4894.52 -4556.40 -4199.87 -4058.33 -3961.59 -3637.57 -3128.65 -2615.18 -2335.59 -2303.08 -2682.64 -4883.72 -6703.17 -6478.22 -4187.56 -1407.83 -1074.53 -1323.54 -1759.94 -2182.56 -1841.50 -1834.75 -1866.76 -1873.12 -1788.20 -1770.88 -1839.55 -1467.46 -828.81 -853.38 -1454.31 -1829.32 -2538.04 -3171.20 -4389.35 -5413.93 -7036.88 -8552.36 -8764.34 -8837.77 -8847.69 -8853.33 -8839.71 -8649.07 -7426.95 -5784.52 -3087.39 -2532.75 -2428.97 -2412.34 -2430.08 -2450.77 -2455.03 -2461.61 -2467.35 -2478.72 -2490.74 -2532.13 -2550.45 -2596.73 -2651.92 -2818.33 -3018.66 -3374.27 -3555.01 -3705.88 -3723.95 -3724.07
-5046.45 -5048.67 -5059.15 -5077.35 -5091.93 -5107.90 -5129.25 -5142.49 -5179.78 -5228.85 -5262.08 -5279.64 -5292.27 -5324.54 -5356.98 -5390.66 -5405.72 -5415.87 -5415.66 -5422.16 -5426.37 -5428.51 -5429.09 -5430.24 -5430.73 -5432.48 -5431.17 -5429.96 -5427.20 -5425.33 -5426.93 -5427.82 -5432.82 -5436.40 -5441.34 -5450.81 -5461.55 -5467.56 -5481.71 -5492.49 -5501.18 -5511.65 -5511.74 -5518.59 -5524.44 -5536.42 -5551.68 -5557.21 -5564.68 -5569.28 -5569.57 -5568.41 -5571.48 -5573.53 -5571.39 -5570.02 -5562.23 -5552.23 -5543.68 -5538.27 -5532.94 -5530.03 -5523.36 -5521.28 -5521.17 -5522.66 -5522.65 -5522.03 -5520.69 -5508.01 -5477.08 -5354.51 -5113.61 -4808.69 -4319.26 -4150.74 -3917.88 -3860.98 -3392.83 -3100.49 -2612.68 -2368.75 -2311.86 -2723.34 -4718.15 -6526.54 -6075.14 -3486.82 -1521.92 -887.12 -1002.51 -1397.43 -1558.53 -1763.54 -1633.55 -1611.57 -1710.72 -1652.85 -1599.80 -1575.12 -1395.36 -831.14 -1050.11 -1462.97 -1939.99 -2469.82 -3470.62 -4461.28 -5711.12 -7173.40 -8474.08 -8779.77 -8849.78 -8851.86 -8851.83 -8849.28 -8813.93 -8331.21 -5657.55 -3383.77 -2607.44 -2434.94 -2417.71 -2447.14 -2459.54 -2477.22 -2480.11 -2488.41 -2494.51 -2540.50 -2588.06 -2653.20 -2666.65 -2782.39 -2899.89 -3030.28 -3278.98 -3440.40 -3607.97 -3634.12 -3634.27
-5051.06 -5050.99 -5064.36 -5080.80 -5099.82 -5111.11 -5126.02 -5132.81 -5148.81 -5178.41 -5210.58 -5233.40 -5256.23 -5298.26 -5350.93 -5390.41 -5412.56 -5418.06 -5435.61 -5437.91 -5437.04 -5436.21 -5440.24 -5439.87 -5439.74 -5438.93 -5438.62 -5436.61 -5435.11 -5433.47 -5433.83 -5433.66 -5435.45 -5438.68 -5444.82 -5451.34 -5461.99 -5472.22 -5484.82 -5493.31 -5504.30 -5516.64 -5519.66 -5521.66 -5532.41 -5544.13 -5552.38 -5567.58 -5571.91 -5574.47 -5575.02 -5576.28 -5577.65 -5575.96 -5573.09 -5569.59 -5563.71 -5554.63 -5545.23 -5537.05 -5533.84 -5529.38 -5522.94 -5520.46 -5519.71 -5519.83 -5521.44 -5519.42 -5515.88 -5473.37 -5388.03 -5196.65 -5038.34 -4891.52 -4527.64 -3820.04 -3748.36 -3398.59 -3182.90 -2903.03 -2729.58 -2604.24 -2423.06 -2637.45 -4913.58 -6378.96 -5534.66 -2318.31 -822.03 -589.02 -741.79 -1121.89 -1185.13 -1296.74 -1465.15 -1480.18 -1512.40 -1460.76 -1554.00 -1570.15 -1071.07 -840.69 -1113.88 -1444.97 -1959.01 -2424.21 -3381.82 -4524.53 -5620.62 -7479.09 -8600.20 -8819.88 -8848.78 -8859.29 -8869.27 -8873.20 -8845.26 -8221.07 -5484.49 -3494.03 -2815.67 -2438.18 -2431.34 -2463.66 -2476.48 -2488.62 -2494.05 -2497.69 -2528.02 -2586.89 -2680.48 -2727.43 -2804.09 -2908.76 -2985.64 -3107.05 -3212.55 -3385.41 -3488.91 -3509.57 -3509.67
-5055.86 -5055.79 -5070.74 -5087.44 -5103.85 -5114.86 -5128.50 -5132.72 -5135.09 -5157.03 -5165.59 -5183.12 -5204.00 -5284.44 -5319.10 -5383.03 -5414.94 -5444.17 -5446.45 -5442.58 -5442.08 -5444.20 -5445.61 -5443.88 -5442.94 -5442.06 -5441.32 -5438.26 -5436.39 -5434.57 -5432.25 -5431.76 -5432.98 -5435.44 -5443.10 -5451.67 -5459.38 -5471.97 -5481.90 -5490.92 -5508.78 -5518.92 -5523.93 -5526.11 -5537.80 -5548.80 -5560.78 -5574.90 -5581.01 -5584.12 -5580.44 -5580.79 -5579.08 -5578.26 -5576.35 -5568.78 -5563.56 -5559.16 -5543.74 -5538.62 -5534.05 -5531.59 -5525.45 -5525.07 -5521.76 -5518.50 -5517.66 -5517.74 -5512.75 -5466.50 -5352.97 -5205.77 -4912.68 -4797.37 -4403.83 -3922.35 -3536.40 -3151.67 -2953.72 -2850.23 -2724.34 -2511.98 -2505.67 -2791.96 -4396.51 -5279.56 -4413.01 -1445.10 -585.96 -356.01 -524.53 -756.81 -945.70 -1133.84 -1296.04 -1333.20 -1397.13 -1434.21 -1524.15 -1406.59 -864.37 -698.06 -1068.13 -1402.63 -2283.46 -3760.98 -4315.75 -5986.53 -6994.48 -8150.58 -8649.71 -8826.81 -8857.18 -8877.34 -8879.90 -8880.42 -8848.52 -8288.52 -6506.33 -4085.39 -2877.99 -2469.60 -2438.62 -2463.69 -2489.12 -2498.98 -2504.30 -2501.53 -2536.41 -2609.56 -2685.26 -2717.44 -2829.70 -2923.80 -3045.56 -3088.88 -3210.66 -3355.97 -3428.29 -3456.99 -3457.07
-5058.71 -5058.64 -5071.95 -5087.65 -5100.36 -5116.93 -5128.18 -5131.91 -5133.11 -5140.18 -5151.62 -5157.56 -5182.03 -5219.39 -5304.29 -5366.39 -5431.56 -5451.77 -5437.44 -5441.74 -5444.21 -5446.32 -5445.80 -5443.90 -5442.41 -5438.92 -5440.34 -5437.52 -5435.38 -5430.78 -5429.04 -5427.98 -5429.57 -5432.48 -5435.58 -5448.07 -5457.02 -5465.36 -5478.01 -5490.42 -5505.90 -5519.24 -5529.71 -5533.30 -5542.00 -5558.75 -5573.88 -5587.26 -5586.83 -5586.59 -5586.66 -5586.91 -5581.79 -5577.36 -5574.23 -5568.02 -5561.00 -5555.40 -5548.50 -5542.87 -5534.65 -5531.98 -5530.40 -5529.51 -5526.41 -5519.64 -5514.75 -5513.76 -5511.26 -5465.67 -5335.87 -5046.90 -4698.67 -4453.70 -4277.18 -3853.81 -3433.80 -3091.64 -2890.65 -2744.28 -2651.07 -2500.08 -2376.47 -2558.63 -3071.85 -3981.56 -2243.24 -735.10 -201.94 -165.71 -258.11 -621.78 -922.29 -1140.57 -1226.36 -1294.77 -1309.24 -1376.09 -1463.93 -1091.42 -728.75 -592.48 -900.58 -1580.31 -2610.02 -5395.26 -5201.75 -6823.79 -7994.11 -8355.64 -8808.89 -8860.66 -8869.87 -8886.95 -8890.10 -8886.92 -8872.18 -8739.26 -7782.97 -4598.18 -2952.09 -2520.13 -2432.40 -2463.11 -2486.74 -2507.58 -2508.72 -2511.00 -2516.89 -2572.48 -2614.37 -2683.36 -2825.41 -2884.93 -2978.84 -3049.30 -3191.55 -3341.80 -3424.05 -3438.27 -3438.34
-5050.72 -5051.33 -5064.88 -5078.13 -5093.27 -5112.12 -5118.25 -5126.32 -5131.70 -5137.67 -5148.55 -5157.35 -5172.51 -5190.08 -5270.02 -5319.06 -5378.38 -5429.06 -5434.10 -5443.17 -5445.75 -5442.06 -5438.46 -5435.52 -5432.93 -5432.01 -5432.43 -5434.27 -5424.31 -5421.02 -5418.36 -5424.93 -5419.35 -5417.14 -5421.34 -5433.06 -5439.84 -5458.05 -5463.79 -5481.41 -5496.91 -5513.69 -5536.48 -5545.45 -5556.94 -5571.75 -5583.27 -5589.39 -5592.86 -5591.22 -5590.84 -5590.64 -5584.98 -5580.51 -5573.20 -5567.62 -5560.73 -5556.92 -5549.12 -5543.53 -5536.08 -5533.48 -5528.93 -5527.98 -5523.57 -5516.59 -5514.05 -5509.96 -5500.83 -5459.00 -5314.70 -4923.08 -4630.86 -4310.23 -3943.74 -3625.90 -3406.00 -3073.14 -2834.20 -2639.50 -2527.05 -2462.81 -2278.97 -2293.59 -2728.05 -2867.64 -1385.22 -364.84 -13.57 1.78 -87.58 -584.69 -976.50 -1197.39 -1215.98 -1257.95 -1275.58 -1327.21 -1312.34 -1041.46 -563.19 -531.57 -1053.07 -1926.27 -2819.04 -4493.75 -5585.46 -6842.77 -7811.32 -8290.52 -8579.82 -8871.10 -8866.85 -8887.90 -8886.25 -8886.77 -8871.91 -8542.91 -7511.32 -5174.96 -3164.58 -2496.94 -2421.30 -2446.05 -2488.59 -2513.40 -2518.14 -2518.18 -2533.69 -2553.34 -2582.02 -2613.32 -2696.77 -2829.07 -2895.44 -2933.72 -3040.13 -3291.33 -3335.00 -3403.60 -3403.74
-5033.35 -5033.29 -5049.41 -5063.39 -5075.63 -5091.07 -5104.91 -5116.39 -5125.44 -5135.62 -5146.53 -5154.18 -5165.60 -5180.09 -5213.84 -5266.62 -5347.05 -5404.69 -5427.82 -5440.31 -5445.42 -5437.31 -5418.85 -5416.43 -5420.21 -5421.58 -5420.34 -5409.97 -5403.59 -5402.80 -5399.13 -5401.09 -5403.12 -5399.57 -5408.61 -5417.46 -5429.12 -5441.10 -5444.85 -5460.25 -5474.65 -5494.41 -5535.59 -5556.71 -5573.07 -5585.99 -5595.69 -5597.18 -5602.14 -5597.43 -5597.91 -5593.91 -5588.11 -5581.26 -5576.35 -5568.06 -5563.50 -5555.92 -5551.62 -5543.55 -5539.49 -5533.67 -5528.74 -5524.97 -5520.61 -5517.05 -5512.86 -5506.69 -5499.02 -5399.99 -5217.17 -4897.14 -4398.41 -4281.24 -3797.51 -3418.83 -3242.68 -2910.31 -2718.92 -2508.08 -2135.52 -2116.26 -2103.43 -1914.40 -1768.45 -1379.32 -895.91 -126.33 -17.12 -25.92 -58.18 -507.37 -1021.45 -1162.65 -1218.00 -1213.04 -1251.39 -1262.98 -1225.29 -1014.66 -713.45 -876.97 -1208.73 -1916.48 -3352.15 -3999.52 -5200.72 -5753.31 -6131.63 -7075.31 -8572.03 -8844.78 -8845.63 -8873.85 -8877.97 -8894.56 -8870.42 -8616.20 -7798.43 -5636.99 -3373.83 -2553.62 -2402.00 -2436.91 -2496.76 -2520.56 -2523.32 -2524.25 -2527.66 -2543.97 -2571.11 -2586.18 -2638.75 -2708.43 -2766.13 -2896.28 -3002.45 -3133.50 -3270.81 -3316.49 -3318.00
-5035.56 -5038.06 -5049.40 -5060.70 -5074.89 -5091.61 -5100.79 -5116.26 -5125.40 -5137.72 -5146.73 -5156.29 -5166.27 -5180.41 -5215.76 -5239.86 -5284.79 -5353.95 -5409.09 -5442.15 -5448.75 -5441.27 -5420.49 -5415.67 -5414.82 -5413.20 -5409.65 -5407.25 -5403.31 -5399.10 -5397.53 -5395.48 -5396.00 -5398.18 -5401.88 -5411.42 -5422.00 -5435.75 -5447.72 -5457.16 -5473.93 -5499.12 -5526.11 -5567.17 -5585.43 -5598.61 -5604.88 -5604.33 -5609.06 -5608.50 -5602.92 -5601.47 -5593.01 -5585.69 -5580.78 -5571.50 -5567.15 -5559.39 -5554.58 -5546.48 -5538.43 -5532.85 -5526.69 -5522.54 -5517.63 -5512.71 -5506.81 -5503.63 -5493.88 -5406.39 -5291.94 -4917.40 -4443.95 -4064.89 -3800.11 -3416.66 -3186.81 -2971.49 -2608.34 -2100.91 -1944.61 -1991.84 -1939.39 -1562.74 -1409.73 -1080.07 -384.45 -116.62 -27.31 -32.07 -122.27 -286.79 -538.53 -977.55 -1177.13 -1194.65 -1215.66 -1231.77 -1273.92 -905.80 -771.43 -1054.78 -1387.96 -1878.40 -2594.48 -3574.46 -4433.57 -5036.89 -5712.73 -6941.81 -8039.64 -8805.40 -8808.50 -8837.94 -8863.95 -8874.77 -8874.66 -8755.55 -8381.22 -5570.46 -3439.91 -2554.85 -2410.08 -2446.04 -2496.75 -2513.74 -2523.65 -2525.09 -2523.69 -2526.30 -2542.66 -2562.41 -2605.25 -2637.84 -2727.92 -2836.54 -2886.92 -3054.15 -3207.17 -3308.83 -3308.91
-5045.51 -5048.16 -5057.25 -5069.98 -5082.44 -5091.66 -5107.34 -5116.92 -5131.36 -5140.20 -5151.49 -5160.55 -5169.09 -5184.55 -5212.90 -5244.22 -5270.54 -5318.68 -5374.61 -5422.70 -5446.50 -5445.77 -5426.29 -5419.05 -5417.07 -5415.52 -5412.96 -5410.41 -5408.24 -5404.97 -5402.02 -5401.69 -5402.54 -5406.81 -5407.33 -5417.31 -5428.89 -5439.29 -5452.61 -5465.20 -5478.32 -5513.51 -5535.73 -5573.32 -5592.98 -5607.88 -5615.30 -5614.93 -5614.99 -5612.69 -5609.99 -5602.42 -5597.69 -5590.81 -5587.66 -5576.64 -5571.29 -5561.99 -5558.15 -5549.64 -5545.28 -5536.46 -5526.25 -5520.25 -5516.81 -5511.03 -5501.53 -5488.55 -5476.97 -5401.19 -5294.38 -4898.73 -4566.25 -4049.14 -3664.17 -3275.84 -3094.73 -2693.40 -2374.63 -2053.49 -1660.31 -1292.53 -1429.08 -1227.55 -1013.84 -650.57 -201.28 -14.71 -5.18 -17.65 -11.35 -16.73 -217.08 -674.27 -1135.25 -1064.42 -1042.44 -1162.11 -1014.29 -761.58 -673.56 -753.22 -1060.47 -1773.41 -2504.56 -3627.71 -4194.65 -5129.57 -6243.20 -7262.16 -8496.92 -8784.88 -8778.61 -8814.11 -8855.90 -8864.79 -8855.00 -8823.33 -8285.74 -6693.52 -3500.93 -2584.86 -2433.14 -2452.22 -2485.10 -2505.34 -2520.34 -2524.48 -2518.49 -2513.21 -2525.19 -2532.30 -2545.26 -2591.60 -2661.61 -2707.88 -2852.46 -3003.82 -3112.47 -3299.24 -3299.31
-5057.45 -5057.40 -5065.42 -5076.76 -5091.75 -5101.35 -5114.15 -5123.75 -5137.47 -5141.75 -5155.68 -5165.82 -5172.54 -5193.38 -5214.02 -5240.40 -5256.65 -5284.74 -5329.24 -5391.78 -5441.23 -5442.90 -5432.10 -5424.44 -5423.77 -5421.81 -5420.65 -5418.76 -5415.78 -5415.66 -5414.37 -5410.23 -5410.80 -5412.26 -5418.94 -5425.79 -5440.12 -5445.77 -5463.96 -5472.70 -5485.40 -5516.95 -5538.14 -5579.73 -5594.57 -5614.63 -5619.56 -5626.99 -5625.00 -5620.65 -5615.25 -5609.74 -5606.29 -5599.22 -5588.23 -5581.81 -5574.28 -5569.80 -5565.58 -5557.61 -5548.79 -5540.03 -5529.47 -5520.76 -5514.22 -5511.08 -5500.98 -5474.13 -5444.03 -5374.96 -5229.66 -4961.70 -4569.59 -4134.39 -3647.47 -3401.25 -2815.16 -2572.81 -2083.80 -1710.24 -1435.43 -1196.10 -1101.94 -927.45 -869.64 -537.47 -90.13 1.01 4.42 3.72 3.30 -8.51 -75.73 -207.90 -453.37 -331.19 -771.36 -1062.61 -973.67 -287.10 -176.82 -388.97 -1258.88 -1705.53 -2460.13 -3509.76 -4332.38 -5340.80 -6929.74 -7786.37 -8563.08 -8758.21 -8759.26 -8802.12 -8831.65 -8825.34 -8806.04 -8797.34 -8270.49 -6408.33 -4271.83 -2619.49 -2461.29 -2454.91 -2468.73 -2494.31 -2519.99 -2521.20 -2512.56 -2509.11 -2504.86 -2509.86 -2525.53 -2546.15 -2590.33 -2584.25 -2721.28 -2756.10 -3077.09 -3240.11 -3286.47
-5070.24 -5070.18 -5082.78 -5089.12 -5098.11 -5106.35 -5121.68 -5131.75 -5142.94 -5153.74 -5168.95 -5174.36 -5182.40 -5192.64 -5222.25 -5239.55 -5251.56 -5271.96 -5297.79 -5357.15 -5413.99 -5431.33 -5431.01 -5427.97 -5428.22 -5428.30 -5427.48 -5427.06 -5428.13 -5424.43 -5422.19 -5423.06 -5425.83 -5429.31 -5429.94 -5438.73 -5445.76 -5458.41 -5466.83 -5481.11 -5494.80 -5521.50 -5543.15 -5579.33 -5600.23 -5614.43 -5629.18 -5641.10 -5638.53 -5626.18 -5621.87 -5618.77 -5608.13 -5602.42 -5596.79 -5585.62 -5581.17 -5574.80 -5568.67 -5562.35 -5552.04 -5542.63 -5534.84 -5523.75 -5513.05 -5507.53 -5499.29 -5481.96 -5438.15 -5352.71 -5211.43 -4952.35 -4647.95 -4166.00 -3860.89 -3623.33 -3119.87 -2820.81 -2100.35 -1665.12 -1265.52 -1022.47 -948.90 -717.78 -434.90 -23.50 -22.87 7.52 24.39 19.72 15.84 7.85 -9.33 -58.96 -79.16 -155.18 -294.12 -764.69 -721.75 -222.71 -106.30 -481.50 -1097.62 -2271.99 -2870.17 -3201.50 -4532.68 -5658.50 -7055.18 -8311.97 -8722.98 -8734.90 -8747.03 -8713.87 -8755.12 -8730.56 -8710.77 -8717.11 -8362.90 -6671.49 -3783.79 -2576.17 -2396.93 -2374.57 -2428.04 -2498.70 -2519.91 -2517.15 -2509.93 -2500.18 -2493.95 -2495.82 -2505.96 -2511.28 -2521.27 -2557.67 -2614.15 -2754.26 -2967.24 -3227.00 -3227.19
-5083.76 -5086.92 -5093.37 -5100.64 -5108.65 -5116.92 -5133.79 -5147.66 -5165.49 -5183.36 -5188.09 -5194.45 -5205.14 -5216.95 -5229.09 -5234.23 -5242.85 -5257.55 -5272.19 -5300.85 -5358.49 -5414.41 -5423.37 -5427.98 -5431.09 -5431.65 -5431.99 -5432.94 -5437.92 -5438.48 -5449.54 -5449.88 -5447.49 -5448.38 -5455.85 -5452.86 -5455.39 -5463.30 -5472.72 -5485.68 -5503.41 -5524.81 -5536.75 -5573.43 -5601.13 -5614.98 -5622.48 -5635.41 -5636.89 -5630.30 -5626.68 -5621.92 -5614.03 -5607.80 -5598.64 -5594.65 -5585.93 -5580.47 -5572.79 -5567.71 -5558.01 -5543.28 -5533.65 -5523.72 -5513.10 -5506.99 -5501.40 -5490.04 -5415.94 -5337.10 -5154.98 -5004.36 -4622.48 -4252.10 -3857.89 -3570.19 -3124.49 -2658.60 -2291.83 -1690.33 -1145.96 -962.54 -797.09 -460.47 -87.58 -8.91 -0.28 14.50 38.60 41.67 45.51 33.49 24.07 8.42 -9.26 -16.23 -77.73 -114.55 -289.26 -116.52 -197.33 -497.86 -1258.33 -1977.14 -2673.04 -3597.31 -4694.15 -6025.36 -7373.54 -8358.15 -8630.93 -8660.46 -8663.84 -8635.66 -8638.37 -8609.60 -8564.58 -8518.33 -8359.29 -6788.94 -3987.57 -2457.45 -2275.88 -2297.82 -2420.73 -2484.05 -2503.95 -2507.61 -2502.74 -2493.01 -2485.83 -2483.58 -2483.28 -2478.59 -2494.22 -2519.28 -2605.13 -2704.40 -2956.48 -3047.10 -3071.05
-5097.64 -5098.09 -5101.79 -5109.99 -5121.14 -5128.86 -5141.13 -5154.62 -5191.04 -5202.24 -5209.63 -5213.64 -5220.88 -5229.57 -5231.69 -5230.14 -5235.70 -5250.10 -5257.75 -5267.72 -5301.71 -5372.84 -5408.19 -5424.82 -5432.22 -5434.22 -5434.80 -5439.62 -5454.66 -5463.52 -5464.16 -5465.93 -5472.66 -5474.39 -5468.81 -5469.39 -5465.69 -5468.30 -5477.93 -5493.05 -5505.29 -5526.20 -5549.38 -5565.44 -5595.74 -5601.37 -5615.88 -5624.98 -5630.98 -5646.38 -5642.18 -5629.71 -5622.80 -5616.36 -5605.88 -5601.69 -5593.55 -5584.22 -5582.05 -5576.07 -5567.61 -5548.64 -5539.12 -5529.80 -5519.67 -5509.45 -5504.67 -5486.88 -5447.48 -5389.60 -5170.17 -5024.35 -4822.97 -4438.54 -4175.32 -3599.50 -2983.17 -2571.97 -2141.59 -1637.37 -993.02 -827.71 -246.35 -116.25 -8.95 14.69 26.74 43.50 69.31 73.64 71.17 72.31 63.41 21.75 -3.36 -8.59 -15.87 -24.28 -104.93 -119.21 -194.86 -651.01 -1216.56 -2094.29 -3051.09 -3794.53 -4496.11 -6219.06 -7260.24 -8100.41 -8429.37 -8516.01 -8566.64 -8486.91 -8514.25 -8512.40 -8449.59 -8348.99 -8246.35 -4972.06 -3666.14 -2308.61 -2198.07 -2287.33 -2422.80 -2475.50 -2492.43 -2501.44 -2496.45 -2483.33 -2474.45 -2468.24 -2462.82 -2468.30 -2481.39 -2535.37 -2597.38 -2725.19 -2895.89 -2946.02 -2946.16
-5109.88 -5111.91 -5116.78 -5122.98 -5129.53 -5137.22 -5147.50 -5173.46 -5198.46 -5210.72 -5217.81 -5223.88 -5231.30 -5234.99 -5233.23 -5227.54 -5229.78 -5239.59 -5247.64 -5259.06 -5273.67 -5331.34 -5380.55 -5422.93 -5437.66 -5439.49 -5441.61 -5448.12 -5463.42 -5472.79 -5475.18 -5477.64 -5486.71 -5490.83 -5490.53 -5476.93 -5472.35 -5472.50 -5484.83 -5501.91 -5515.17 -5544.49 -5561.01 -5583.34 -5597.80 -5607.54 -5620.40 -5621.06 -5638.08 -5647.67 -5647.93 -5640.16 -5635.88 -5626.80 -5617.89 -5611.15 -5602.78 -5598.61 -5595.00 -5582.08 -5572.50 -5561.11 -5538.62 -5534.88 -5512.59 -5506.07 -5495.07 -5481.40 -5439.53 -5379.98 -5164.52 -5009.66 -4752.42 -4335.34 -3632.41 -3020.58 -2683.18 -2167.50 -1869.68 -1227.98 -632.11 -293.38 -50.38 -15.64 16.69 47.28 75.78 85.13 98.73 107.40 120.59 106.75 68.06 60.58 48.66 17.77 -6.41 -15.71 -19.03 -38.36 -165.09 -527.81 -1314.82 -1994.92 -2754.91 -3723.36 -4611.98 -5957.48 -7487.09 -8184.28 -8290.81 -8129.47 -8356.48 -8386.64 -8398.83 -8337.61 -8227.30 -8227.13 -7926.17 -5638.06 -3277.54 -2261.26 -2157.64 -2270.41 -2372.90 -2470.92 -2482.51 -2491.68 -2487.05 -2474.81 -2466.53 -2453.76 -2454.43 -2468.13 -2489.83 -2520.04 -2607.67 -2677.28 -2779.24 -2872.78 -2872.86
-5121.59 -5121.53 -5123.68 -5130.63 -5135.90 -5146.79 -5158.12 -5175.23 -5205.78 -5214.86 -5223.74 -5230.22 -5235.09 -5238.27 -5236.36 -5229.01 -5231.48 -5239.03 -5247.91 -5256.95 -5267.93 -5302.54 -5339.14 -5411.64 -5435.39 -5445.16 -5448.04 -5450.50 -5470.75 -5478.84 -5482.58 -5488.24 -5496.23 -5497.66 -5492.79 -5467.91 -5449.20 -5463.92 -5476.85 -5499.65 -5514.42 -5544.79 -5572.07 -5596.35 -5614.08 -5621.75 -5629.48 -5634.94 -5642.42 -5657.45 -5662.53 -5656.30 -5649.92 -5640.26 -5629.68 -5623.43 -5615.63 -5606.64 -5601.32 -5594.26 -5582.19 -5570.67 -5549.92 -5528.63 -5504.10 -5501.78 -5482.73 -5467.13 -5440.06 -5394.25 -5111.40 -4815.57 -4368.27 -4178.59 -3530.85 -2953.60 -2532.17 -2102.45 -1639.95 -852.02 -196.79 -37.57 3.50 29.51 58.63 81.60 92.29 94.20 118.08 131.78 128.22 126.77 108.69 84.32 66.93 51.03 34.59 -6.21 -8.65 -25.88 -74.42 -218.11 -894.77 -995.05 -2135.19 -3635.56 -3969.34 -5583.51 -5930.71 -6632.06 -7512.59 -7653.46 -8053.87 -8190.77 -8196.58 -8133.62 -8052.86 -8036.27 -7552.13 -5322.63 -3149.67 -2298.24 -2111.89 -2230.77 -2331.93 -2447.36 -2481.83 -2484.34 -2474.74 -2469.16 -2456.68 -2449.58 -2449.64 -2453.09 -2477.62 -2538.42 -2594.89 -2684.29 -2750.50 -2857.26 -2857.33
-5133.70 -5133.64 -5137.12 -5147.67 -5150.67 -5155.83 -5162.94 -5178.77 -5203.73 -5221.81 -5226.54 -5233.13 -5238.08 -5241.31 -5241.13 -5235.04 -5234.23 -5241.52 -5250.29 -5259.41 -5267.18 -5281.89 -5339.12 -5366.26 -5426.87 -5446.43 -5453.10 -5460.56 -5468.22 -5483.25 -5491.32 -5492.71 -5493.99 -5486.55 -5448.67 -5408.18 -5355.97 -5312.00 -5368.51 -5404.20 -5484.86 -5521.23 -5555.14 -5594.49 -5617.49 -5637.15 -5651.82 -5649.29 -5655.61 -5667.95 -5669.49 -5656.46 -5655.28 -5651.95 -5640.86 -5630.20 -5630.87 -5616.03 -5606.40 -5597.95 -5593.49 -5572.75 -5556.73 -5535.12 -5514.42 -5501.24 -5487.65 -5463.25 -5431.98 -5296.97 -5018.26 -4537.04 -4217.14 -3831.03 -3612.94 -2800.75 -2358.08 -1991.73 -912.51 -523.73 -37.68 1.51 28.41 48.63 55.27 86.15 115.99 133.36 159.80 158.55 158.70 157.00 137.38 130.19 107.45 88.93 69.76 16.67 -4.94 -27.06 -51.15 -93.36 -271.33 -570.46 -1484.24 -2339.13 -2203.32 -3505.62 -3045.49 -4406.58 -5826.20 -7034.89 -7758.78 -7949.47 -7965.40 -7783.08 -7770.41 -7727.70 -7151.13 -5061.85 -3145.48 -2120.51 -2076.06 -2201.11 -2317.89 -2409.31 -2473.76 -2482.35 -2474.47 -2462.68 -2448.04 -2436.99 -2429.88 -2435.63 -2486.91 -2539.14 -2585.84 -2711.08 -2794.39 -2834.86 -2842.70
-5150.59 -5150.55 -5166.04 -5168.24 -5165.50 -5168.69 -5175.26 -5186.17 -5217.13 -5221.06 -5229.42 -5233.50 -5238.99 -5242.84 -5241.65 -5237.03 -5238.59 -5249.71 -5256.27 -5267.09 -5276.75 -5286.29 -5300.01 -5356.95 -5411.97 -5434.57 -5439.05 -5459.48 -5470.43 -5476.30 -5468.50 -5474.97 -5427.64 -5390.29 -5326.10 -5064.08 -4708.87 -4891.84 -4993.48 -5018.10 -5270.91 -5364.70 -5447.41 -5538.79 -5593.87 -5618.97 -5656.44 -5676.94 -5673.21 -5685.38 -5679.54 -5667.58 -5650.65 -5652.67 -5640.22 -5636.54 -5631.28 -5622.59 -5620.52 -5618.13 -5594.57 -5578.31 -5564.63 -5550.23 -5535.59 -5513.88 -5500.13 -5475.57 -5410.82 -5275.52 -4936.75 -4495.68 -4171.29 -3710.61 -3373.21 -2802.24 -2408.00 -2169.51 -724.20 -146.80 -21.27 3.02 33.57 58.26 89.71 104.78 129.81 151.73 167.07 187.16 193.67 213.36 189.35 149.43 142.85 125.81 88.86 45.10 10.89 -24.00 -53.39 -136.50 -424.54 -278.93 -239.40 -679.47 -1036.37 -1234.94 -1258.28 -2307.89 -4335.93 -6339.43 -7123.15 -7610.92 -7634.19 -7604.52 -7337.99 -7393.43 -6735.02 -5002.73 -2542.74 -2047.43 -2061.92 -2200.86 -2332.88 -2427.62 -2469.35 -2475.45 -2465.94 -2455.65 -2438.81 -2430.02 -2425.85 -2435.64 -2485.05 -2534.73 -2606.20 -2692.36 -2752.94 -2830.06 -2830.13
-5188.94 -5194.56 -5194.36 -5201.42 -5185.58 -5198.82 -5200.22 -5205.36 -5216.12 -5217.12 -5217.47 -5222.78 -5227.23 -5231.21 -5237.80 -5246.82 -5249.88 -5266.26 -5269.41 -5279.24 -5288.34 -5290.04 -5263.78 -5223.48 -5273.32 -5332.29 -5398.68 -5422.74 -5454.62 -5457.28 -5428.80 -5388.41 -5110.31 -4863.74 -4622.67 -4270.06 -3638.99 -3494.29 -3833.34 -4070.44 -4387.31 -4385.34 -4926.51 -5366.54 -5331.92 -5602.13 -5656.07 -5679.63 -5684.49 -5692.41 -5687.97 -5680.30 -5663.58 -5663.31 -5646.58 -5642.77 -5636.49 -5630.10 -5627.55 -5618.70 -5590.72 -5582.79 -5574.44 -5563.13 -5543.22 -5523.62 -5497.45 -5474.25 -5397.34 -5293.28 -5036.39 -4645.35 -4233.22 -3567.86 -3373.07 -2763.27 -2519.76 -2274.90 -1021.34 -107.83 -3.63 22.15 50.82 79.89 133.22 133.87 202.10 330.19 374.26 434.34 392.65 281.68 317.37 363.02 402.61 344.10 86.83 70.23 39.27 -20.34 -49.53 -338.60 -1361.44 -612.95 -783.53 -635.17 -457.52 -480.01 -557.00 -736.36 -1297.22 -4688.97 -6506.74 -7450.12 -7382.48 -7295.32 -7048.85 -6958.77 -6545.37 -4066.07 -2855.42 -1892.67 -1981.17 -2177.71 -2295.52 -2431.64 -2470.12 -2472.44 -2463.87 -2447.52 -2437.36 -2433.02 -2431.84 -2435.29 -2463.76 -2525.38 -2646.13 -2762.06 -2797.11 -2872.18 -2872.13
-5250.10 -5250.09 -5254.37 -5235.65 -5246.62 -5273.94 -5254.80 -5238.80 -5217.32 -5213.76 -5212.76 -5214.86 -5220.04 -5224.69 -5241.98 -5259.14 -5271.81 -5283.30 -5291.05 -5301.09 -5300.49 -5280.19 -5234.00 -4985.09 -4675.83 -4587.50 -4976.27 -5166.40 -5156.33 -5352.91 -5227.11 -4861.07 -4586.76 -4147.84 -3595.08 -3054.11 -2732.98 -2724.86 -2923.27 -2906.10 -3255.90 -3725.34 -3663.44 -4328.58 -4669.73 -5051.82 -5619.29 -5627.61 -5664.64 -5667.22 -5677.49 -5676.69 -5670.96 -5667.75 -5659.09 -5658.25 -5643.15 -5626.26 -5608.33 -5593.26 -5588.47 -5582.68 -5577.53 -5567.65 -5561.01 -5531.62 -5508.02 -5457.51 -5345.28 -5088.09 -4786.88 -4300.71 -4004.00 -3627.16 -2979.43 -2610.93 -2369.26 -1729.15 -1020.47 -113.07 8.64 33.61 65.25 120.24 140.11 210.46 457.66 598.97 666.84 842.72 690.30 616.10 761.03 735.14 705.91 521.70 186.57 92.20 46.57 -18.83 -69.93 -236.80 -3364.26 -2401.46 -1969.82 -1621.85 -1769.01 -736.99 -650.94 -569.01 -1137.86 -2969.49 -5977.33 -6804.85 -7076.65 -6675.54 -6650.18 -6517.27 -6003.11 -4914.68 -2429.84 -1912.88 -1941.52 -2115.72 -2223.55 -2367.79 -2452.77 -2461.33 -2463.28 -2443.78 -2431.83 -2434.57 -2440.89 -2461.91 -2502.93 -2544.80 -2663.43 -2754.64 -2859.40 -2950.56 -2950.63
-5326.51 -5335.38 -5341.70 -5331.89 -5313.52 -5296.60 -5294.16 -5263.34 -5251.56 -5250.41 -5230.43 -5238.44 -5244.66 -5243.09 -5262.72 -5282.07 -5310.64 -5313.53 -5328.22 -5327.02 -5318.25 -5239.30 -4880.17 -4322.55 -3599.77 -3739.14 -3750.81 -4449.60 -4547.84 -4854.18 -4629.55 -3909.10 -3284.35 -2981.21 -2665.96 -2308.52 -2166.27 -2170.29 -2286.49 -2347.38 -2543.29 -2549.43 -2787.94 -3131.86 -3928.18 -4367.36 -5018.49 -5427.13 -5501.36 -5407.15 -5487.78 -5571.56 -5647.37 -5627.07 -5655.60 -5655.47 -5641.30 -5619.98 -5603.09 -5592.20 -5582.64 -5571.86 -5570.65 -5573.69 -5566.53 -5546.83 -5527.03 -5494.09 -5288.96 -4956.12 -4500.39 -4158.57 -3911.26 -3670.25 -3004.54 -2288.92 -1403.27 -598.69 -286.21 -77.34 16.85 51.11 74.83 123.53 170.10 273.19 476.79 795.19 1071.11 1257.68 1088.54 1108.29 1339.41 1170.03 1334.31 880.16 370.46 106.25 42.81 -17.25 -54.92 -953.17 -5039.98 -4473.77 -3635.82 -3182.17 -2424.71 -1785.69 -1049.10 -964.00 -1388.11 -3557.89 -4926.16 -5606.21 -5565.20 -5506.66 -5455.29 -6115.55 -6118.11 -5009.76 -2521.07 -1943.54 -1947.99 -2166.66 -2288.64 -2368.63 -2453.37 -2468.04 -2455.29 -2439.24 -2423.78 -2426.64 -2437.06 -2458.43 -2516.86 -2632.16 -2746.60 -2860.01 -2972.17 -2990.57 -3009.62
-5457.07 -5442.64 -5421.98 -5420.74 -5393.94 -5382.18 -5365.37 -5340.78 -5289.20 -5291.40 -5281.57 -5275.36 -5286.72 -5299.25 -5359.30 -5353.44 -5388.80 -5377.98 -5375.12 -5365.60 -5342.43 -5196.27 -4497.37 -3464.44 -2755.32 -2641.41 -3074.70 -3406.97 -3343.39 -3781.63 -3977.01 -3316.59 -2451.66 -2185.13 -2103.74 -1944.72 -1712.55 -1834.48 -1745.42 -2101.99 -2004.28 -2283.64 -2380.04 -2614.88 -3016.10 -3362.41 -4366.67 -4850.90 -4870.91 -4955.86 -5123.41 -5369.86 -5350.39 -5507.57 -5599.94 -5644.20 -5621.22 -5615.57 -5599.89 -5587.60 -5576.11 -5567.61 -5559.22 -5557.79 -5544.38 -5538.82 -5371.98 -5382.89 -5242.51 -4844.86 -4419.46 -3971.63 -3757.34 -3539.81 -2850.21 -1361.71 -452.99 -142.57 -28.04 25.43 60.10 84.48 110.65 143.72 179.34 226.31 290.96 675.27 1031.94 1096.54 1368.11 1458.89 1532.57 1474.51 1440.91 793.86 523.91 117.96 43.84 -4.59 -64.07 -593.47 -4560.28 -4877.52 -4713.38 -4283.94 -3588.43 -2958.79 -2333.14 -1892.50 -1428.25 -2097.66 -2268.02 -2663.45 -2876.22 -2541.74 -3849.04 -4049.40 -3723.86 -4300.06 -2696.22 -2232.95 -2023.42 -2132.27 -2343.19 -2427.28 -2450.57 -2454.98 -2442.39 -2421.06 -2408.30 -2413.68 -2422.39 -2461.32 -2523.75 -2630.99 -2757.44 -2909.07 -2964.28 -3043.69 -3043.74
-5560.40 -5560.27 -5517.11 -5505.13 -5496.07 -5503.88 -5498.26 -5456.69 -5425.68 -5388.16 -5369.08 -5348.21 -5398.15 -5404.67 -5428.54 -5438.46 -5441.45 -5486.01 -5483.74 -5465.89 -5387.73 -5157.54 -4307.95 -3480.17 -2326.50 -2221.87 -2231.15 -2413.53 -2576.54 -2890.16 -2915.53 -2622.91 -2219.23 -1900.97 -1542.14 -907.19 -947.94 -875.58 -1006.63 -1282.36 -1509.54 -2134.86 -2255.15 -2341.13 -2446.45 -2616.40 -3167.73 -3605.95 -4028.17 -3776.85 -3909.27 -4241.06 -4588.65 -4871.78 -5282.95 -5400.12 -5585.01 -5550.21 -5466.00 -5538.78 -5534.15 -5544.80 -5492.07 -5459.39 -5376.87 -5144.95 -5117.96 -4504.68 -4189.85 -3862.96 -3309.18 -3413.34 -3598.15 -2989.73 -2118.00 -794.50 7.31 22.36 16.92 47.46 89.10 107.36 144.03 163.73 202.31 231.19 282.25 441.40 528.29 715.61 885.96 1108.23 1253.40 1463.53 1518.49 942.68 727.56 136.03 77.81 5.86 -35.69 -119.33 -2639.25 -5424.45 -5290.65 -4691.12 -4538.77 -4424.25 -3959.91 -2890.32 -2101.97 -1560.31 -1401.73 -1436.63 -1534.86 -1776.83 -2157.34 -2244.27 -2429.41 -2982.64 -2851.60 -2469.05 -2030.65 -2114.10 -2291.65 -2397.46 -2445.81 -2440.77 -2423.51 -2409.95 -2397.90 -2401.63 -2437.79 -2460.85 -2508.04 -2648.33 -2749.72 -2955.12 -3022.86 -3050.38 -3057.40
-5623.61 -5623.51 -5626.13 -5593.48 -5576.61 -5569.24 -5557.11 -5527.48 -5534.18 -5509.31 -5496.42 -5474.64 -5480.81 -5502.05 -5521.12 -5581.88 -5591.04 -5640.83 -5585.79 -5573.80 -5507.84 -5141.92 -4112.57 -3168.84 -2332.69 -2239.39 -2260.61 -2270.07 -2210.14 -2300.66 -2378.86 -2304.33 -1937.52 -1403.35 -843.79 -472.66 -189.81 -159.15 -344.01 -321.81 -466.41 -1402.52 -2134.22 -2342.23 -2072.54 -2430.69 -2560.95 -2607.32 -2785.09 -2813.89 -3052.02 -3183.75 -3581.91 -3893.39 -4452.57 -5055.50 -5191.59 -5288.23 -5312.48 -5369.69 -5329.48 -5074.70 -5235.45 -5191.30 -4901.19 -4564.20 -4473.65 -3643.03 -3495.39 -2724.79 -2698.52 -2491.03 -1982.18 -1354.50 -605.80 -162.75 50.91 65.50 63.96 74.55 111.80 132.33 171.74 204.04 232.95 261.80 289.62 341.73 410.66 478.98 556.46 658.87 871.40 1143.39 1436.23 1184.57 753.88 572.59 258.46 14.18 -39.50 -86.81 -2052.11 -4552.96 -4301.05 -5073.97 -4691.39 -4769.62 -4798.69 -4167.32 -3364.14 -2740.85 -1717.62 -1314.58 -1164.49 -1153.12 -1593.56 -1474.79 -1688.53 -2256.70 -2389.01 -2318.84 -2115.66 -2127.81 -2221.80 -2353.78 -2416.09 -2423.03 -2410.89 -2399.64 -2400.95 -2412.86 -2447.27 -2487.45 -2540.46 -2632.10 -2724.53 -2887.28 -2999.08 -3069.38 -3069.44
-5639.73 -5639.67 -5642.39 -5634.30 -5634.85 -5635.58 -5626.67 -5617.75 -5634.10 -5625.65 -5601.42 -5618.99 -5593.98 -5634.86 -5662.60 -5649.44 -5653.01 -5682.29 -5682.78 -5670.57 -5574.22 -5299.25 -4196.05 -3442.74 -2577.44 -2584.83 -2693.92 -2644.52 -2322.53 -2210.91 -2193.29 -2058.58 -1899.25 -798.37 -343.40 -56.04 -53.58 -52.46 -63.62 -90.27 -106.75 -331.33 -1430.71 -1253.84 -1259.92 -2034.93 -2207.39 -2372.76 -2347.98 -2519.21 -2543.84 -2460.24 -2424.20 -3307.35 -3299.42 -3721.00 -4148.85 -4438.33 -4435.15 -4582.03 -4330.77 -4565.68 -4335.92 -4411.68 -3923.57 -3353.45 -2828.67 -2671.94 -2372.30 -2311.20 -2147.77 -1973.35 -1419.40 -952.22 35.94 53.59 63.97 83.19 94.96 105.56 142.84 166.28 192.06 224.43 256.34 276.62 315.81 348.58 375.06 415.82 451.04 489.47 608.34 887.79 1021.05 1098.93 926.41 846.73 337.13 122.11 22.00 -39.13 -75.46 -143.59 -2395.01 -4372.44 -4949.52 -4802.94 -4995.33 -5069.94 -4522.93 -3657.54 -2929.42 -1952.48 -1387.06 -1190.96 -1152.96 -1138.59 -1256.06 -1497.81 -1710.78 -2027.19 -1982.97 -2116.21 -2248.78 -2326.50 -2378.46 -2389.71 -2394.58 -2393.33 -2403.94 -2416.78 -2454.37 -2528.22 -2570.99 -2712.10 -2821.88 -3017.37 -3124.16 -3171.87 -3172.06
-5646.30 -5645.49 -5647.91 -5649.41 -5649.69 -5647.98 -5649.76 -5666.16 -5667.65 -5676.05 -5672.83 -5680.81 -5690.10 -5696.01 -5707.11 -5724.06 -5730.51 -5736.96 -5745.14 -5721.67 -5638.93 -5492.40 -4770.60 -3850.43 -3788.55 -3418.20 -3667.68 -3695.76 -2920.45 -2593.12 -2278.60 -2033.22 -1565.75 -560.65 -166.79 -33.11 -5.58 -15.73 -11.75 -25.04 -42.31 -95.40 -492.13 -586.14 -444.28 -1302.06 -1581.76 -1783.61 -1959.19 -2251.11 -2213.71 -2203.16 -2261.15 -2216.91 -2534.84 -2885.70 -3050.27 -3078.26 -3138.65 -3067.22 -3158.93 -3350.77 -3049.75 -3218.82 -2934.06 -2607.14 -2581.98 -2349.44 -2301.92 -2263.71 -2015.03 -899.65 -137.59 32.41 46.62 73.68 97.13 111.64 118.40 147.33 172.33 198.36 229.10 256.75 271.93 298.59 312.43 330.37 364.59 414.69 434.41 435.73 429.39 525.50 688.50 980.68 1142.28 901.02 468.65 124.18 57.68 23.42 -14.59 -46.54 -200.29 -2416.01 -5045.44 -4920.74 -4864.79 -5122.42 -5114.35 -5025.76 -3888.37 -3445.24 -2554.29 -1522.48 -1268.67 -1075.30 -1084.47 -1201.97 -1422.13 -1689.25 -1787.29 -2015.21 -2199.09 -2247.74 -2333.50 -2356.50 -2359.97 -2369.06 -2387.05 -2402.21 -2459.77 -2521.80 -2631.35 -2860.62 -3005.20 -3153.36 -3243.37 -3277.61 -3277.73
-5660.40 -5659.19 -5661.14 -5664.34 -5661.45 -5664.68 -5670.05 -5678.39 -5696.10 -5695.29 -5702.45 -5711.06 -5710.55 -5721.07 -5730.30 -5735.97 -5744.86 -5747.76 -5758.03 -5754.98 -5726.19 -5618.11 -5256.41 -4945.62 -4841.55 -5069.56 -4964.75 -4480.39 -3474.77 -2785.41 -2464.00 -2311.14 -1865.30 -899.29 -86.99 -48.14 -6.84 14.85 15.94 0.75 -24.27 -54.44 -67.94 -106.15 -106.49 -164.57 -273.73 -477.70 -724.34 -1122.85 -1504.78 -1701.99 -2118.89 -2203.09 -2280.29 -2330.53 -2461.89 -2501.35 -2403.61 -2550.07 -2550.20 -2489.28 -2507.17 -2519.66 -2530.92 -2387.48 -2343.91 -2328.66 -2156.33 -1934.94 -1488.62 -111.83 37.65 53.34 68.26 92.68 114.76 139.80 151.67 177.48 181.62 220.53 239.27 268.25 278.77 302.47 312.98 315.57 338.90 401.02 420.72 420.67 431.84 458.06 523.82 705.50 1018.83 1050.29 762.47 350.80 67.71 63.90 36.76 12.17 -97.18 -2231.86 -5013.15 -5243.47 -4922.72 -4954.90 -5012.31 -5148.01 -5091.02 -4753.69 -3717.65 -3047.00 -2547.42 -1528.63 -1354.64 -1249.14 -1228.77 -1304.94 -1504.46 -1798.92 -1951.53 -2129.19 -2186.22 -2283.90 -2333.74 -2347.08 -2351.30 -2390.50 -2468.25 -2583.58 -2694.32 -2854.34 -3046.66 -3173.27 -3345.35 -3405.89 -3430.29
-5676.69 -5675.26 -5676.60 -5676.96 -5680.56 -5680.80 -5681.73 -5688.19 -5717.16 -5721.07 -5724.57 -5727.48 -5735.37 -5737.55 -5742.71 -5751.46 -5754.36 -5764.07 -5763.70 -5766.92 -5757.62 -5737.05 -5676.05 -5581.93 -5585.83 -5606.74 -5445.35 -5253.56 -4613.40 -3775.93 -2997.74 -2596.17 -1674.94 -618.80 -88.47 -64.88 -14.33 9.45 25.89 20.97 9.55 -21.63 -4.61 -12.79 -16.17 -49.85 -80.16 -89.93 -280.74 -483.90 -455.23 -544.16 -1344.01 -1899.45 -1891.51 -1897.07 -2034.04 -2047.60 -2134.76 -2212.67 -2209.21 -2281.18 -2304.40 -2241.26 -2328.68 -2335.63 -2423.97 -2338.00 -1745.83 -1153.60 -497.54 -9.68 50.16 67.28 80.82 102.70 155.75 167.35 186.98 198.05 213.73 241.74 256.34 273.98 289.66 300.88 314.59 321.55 337.01 345.03 348.67 400.52 413.22 444.66 476.21 633.12 890.08 1126.27 972.64 763.05 138.28 124.31 101.24 35.03 1.73 -1134.21 -3334.06 -4106.53 -4926.59 -4799.93 -4768.33 -4914.44 -5118.30 -5234.39 -4979.07 -4390.22 -3874.60 -3173.84 -2231.19 -1424.05 -1203.37 -1076.80 -1310.24 -1530.79 -1801.35 -1953.59 -2137.32 -2214.96 -2301.85 -2313.84 -2334.57 -2393.24 -2488.14 -2572.98 -2724.70 -2838.28 -2957.42 -3098.37 -3325.97 -3448.49 -3476.31
-5693.25 -5693.17 -5697.59 -5696.33 -5692.53 -5698.74 -5699.71 -5704.19 -5729.89 -5735.96 -5732.90 -5741.73 -5744.65 -5747.38 -5758.16 -5766.30 -5766.10 -5772.82 -5772.41 -5773.83 -5769.61 -5754.12 -5729.85 -5728.97 -5718.81 -5711.57 -5706.26 -5572.13 -5360.50 -5025.43 -3940.69 -2959.60 -1763.13 -637.63 -98.49 -62.05 -9.58 10.84 26.19 32.85 34.21 34.00 28.07 27.33 22.29 0.39 -17.18 -19.43 -56.52 -78.74 -95.55 -174.90 -671.21 -1033.81 -1404.39 -1525.82 -1541.27 -1550.39 -1688.91 -1922.62 -1932.00 -1906.55 -1947.63 -2041.43 -2120.98 -2229.93 -2442.15 -1575.14 -189.75 22.91 33.52 45.84 79.61 88.18 107.99 157.73 229.19 240.39 239.96 235.88 239.22 252.49 260.93 267.86 277.45 297.17 312.64 321.10 326.46 329.45 329.14 348.47 375.21 436.46 454.29 482.22 704.48 954.26 994.08 554.23 234.62 199.59 149.45 67.98 62.28 32.49 -841.72 -3122.00 -4937.46 -5144.18 -4940.83 -4986.16 -5174.99 -5354.43 -5439.04 -5333.06 -5214.37 -4747.95 -3579.17 -2250.24 -1467.82 -1045.35 -1170.77 -1420.45 -1576.12 -1856.61 -1911.56 -2078.22 -2149.10 -2249.59 -2290.30 -2343.85 -2421.85 -2478.65 -2630.66 -2819.86 -3015.00 -3125.66 -3288.40 -3450.73 -3450.78
-5711.44 -5709.81 -5711.72 -5714.33 -5721.06 -5711.54 -5722.47 -5724.76 -5738.90 -5746.23 -5751.30 -5754.85 -5760.86 -5764.04 -5769.12 -5773.28 -5781.49 -5780.91 -5780.74 -5781.36 -5778.74 -5772.05 -5762.46 -5759.12 -5758.53 -5754.53 -5740.16 -5720.20 -5677.15 -5445.71 -3873.50 -2285.43 -1425.58 -136.72 -94.14 -56.57 -5.87 15.51 30.39 52.69 56.90 49.72 39.81 42.79 37.60 32.10 23.35 15.34 -2.88 -29.83 -79.41 -102.20 -115.58 -388.67 -627.87 -856.31 -787.69 -1119.37 -1175.75 -1334.17 -1560.66 -1473.80 -1428.06 -1602.95 -1419.94 -1793.94 -1458.80 -544.53 -87.23 31.31 45.29 67.05 80.85 105.83 132.83 157.30 221.92 246.26 247.92 249.74 262.03 262.07 264.19 267.06 279.55 291.22 309.00 319.77 325.91 329.11 330.39 340.13 371.01 427.97 451.68 466.03 539.90 660.03 874.54 835.61 993.98 607.01 260.39 123.10 100.65 49.09 2.70 -72.63 -1377.50 -5200.65 -4990.83 -4871.15 -5048.91 -5308.90 -5475.85 -5485.16 -5426.25 -5206.06 -4477.49 -3256.16 -1559.82 -967.23 -998.42 -1194.74 -1312.80 -1515.56 -1726.69 -1981.96 -2078.41 -2114.56 -2253.21 -2282.14 -2342.73 -2392.32 -2495.97 -2657.73 -2861.98 -3185.20 -3269.79 -3397.88 -3422.22
-5742.05 -5741.96 -5746.12 -5741.20 -5737.78 -5741.19 -5740.20 -5745.79 -5750.19 -5753.93 -5756.29 -5759.47 -5763.36 -5768.73 -5772.80 -5788.11 -5788.74 -5791.97 -5789.01 -5789.47 -5786.75 -5785.17 -5780.63 -5778.71 -5774.10 -5769.75 -5765.32 -5758.04 -5679.12 -5470.00 -3886.89 -2228.50 -883.82 -119.17 -76.74 -22.84 2.61 15.32 24.99 43.23 64.23 69.69 60.22 52.09 50.05 43.05 31.43 22.02 15.57 2.17 -41.04 -89.46 -125.89 -140.20 -167.49 -294.92 -400.69 -440.03 -740.65 -1018.43 -802.25 -717.01 -881.13 -831.30 -493.10 -588.48 -649.62 3.61 19.12 37.96 49.11 77.24 101.56 109.61 149.11 174.91 209.57 250.51 259.34 265.52 263.55 262.92 264.01 264.91 272.72 285.19 305.37 315.11 326.04 329.04 330.16 350.19 365.32 408.23 448.40 452.69 480.92 577.02 740.45 1046.20 1144.38 707.27 298.76 178.61 116.01 92.62 36.40 -101.11 -2226.17 -4852.41 -4759.94 -4669.47 -4956.50 -5222.46 -5476.43 -5492.72 -5485.62 -5364.72 -4866.08 -3021.69 -1658.19 -853.76 -844.58 -927.17 -1171.69 -1325.81 -1545.26 -1845.77 -1961.38 -2086.11 -2185.53 -2280.86 -2317.47 -2398.35 -2564.66 -2740.65 -2920.85 -3025.52 -3232.68 -3395.53 -3395.58
-5762.43 -5762.36 -5765.54 -5767.74 -5770.63 -5770.63 -5773.96 -5768.74 -5762.16 -5759.20 -5764.54 -5767.90 -5768.86 -5774.93 -5783.48 -5796.63 -5801.33 -5801.92 -5803.98 -5801.97 -5799.59 -5795.40 -5794.50 -5788.66 -5786.74 -5782.27 -5779.03 -5773.82 -5747.50 -5492.66 -4375.25 -1870.51 -142.79 -123.55 -60.58 -19.27 8.61 21.57 32.38 57.86 87.22 82.09 78.57 92.67 82.83 86.90 59.39 40.78 28.60 15.54 -9.48 -21.93 -92.01 -127.89 -168.00 -186.83 -202.66 -228.17 -332.57 -392.57 -283.65 -292.40 -234.98 -182.73 -173.57 -48.76 -12.10 15.35 28.04 37.99 53.93 71.65 106.61 121.96 170.17 181.39 226.47 250.45 259.35 265.41 263.08 262.83 263.20 263.16 266.23 275.74 304.71 315.83 321.48 325.84 329.32 340.58 355.92 404.50 415.96 420.83 452.87 491.90 590.27 871.45 1179.13 1057.86 699.62 290.63 125.80 106.53 64.34 -972.27 -3450.08 -4684.02 -4674.84 -4623.46 -4818.05 -5023.70 -5408.16 -5480.03 -5486.58 -5441.84 -4961.83 -3338.15 -1763.90 -630.75 -605.41 -689.81 -961.26 -1195.64 -1474.60 -1646.11 -1734.38 -1949.93 -2143.53 -2193.57 -2255.01 -2392.33 -2567.54 -2758.80 -2872.98 -3067.40 -3206.12 -3368.45 -3368.50
-5774.24 -5774.17 -5779.19 -5780.95 -5780.23 -5780.51 -5784.42 -5778.56 -5771.11 -5774.20 -5776.42 -5778.15 -5783.64 -5788.30 -5797.54 -5812.66 -5818.00 -5823.44 -5818.43 -5815.45 -5811.94 -5807.30 -5804.88 -5803.15 -5796.01 -5791.08 -5780.56 -5705.72 -5641.27 -4367.83 -2902.03 -761.08 -141.93 -86.82 -29.37 2.55 10.19 23.44 40.98 50.86 71.57 85.29 98.78 112.50 119.67 106.04 114.64 61.56 31.83 23.89 14.07 0.23 -84.71 -116.77 -143.41 -162.24 -190.18 -201.54 -224.74 -211.55 -204.95 -190.47 -157.12 -118.60 -98.69 -58.28 -0.01 18.90 33.87 44.23 49.96 70.97 95.67 128.29 168.73 177.17 197.01 225.71 246.45 255.19 257.76 259.36 263.00 263.08 263.98 271.66 289.97 301.48 313.69 316.30 325.78 334.71 352.42 392.68 411.44 418.84 430.14 470.60 574.40 872.49 1177.57 1108.56 878.71 447.22 164.82 110.63 84.36 35.19 -1530.81 -4030.85 -4809.73 -4675.54 -4677.61 -4991.23 -5190.63 -5471.60 -5479.12 -5430.81 -4969.34 -3864.53 -2169.91 -641.02 -509.58 -571.11 -781.19 -918.34 -1205.19 -1440.82 -1649.95 -1865.21 -2040.06 -2122.25 -2189.21 -2306.25 -2442.55 -2671.26 -2895.44 -3094.88 -3223.31 -3344.49 -3344.55
-5782.75 -5782.70 -5786.65 -5789.87 -5792.73 -5793.83 -5793.95 -5795.96 -5786.78 -5783.88 -5787.75 -5792.78 -5795.95 -5797.03 -5810.18 -5822.36 -5825.30 -5829.75 -5831.14 -5832.58 -5829.94 -5827.02 -5826.74 -5815.70 -5805.26 -5775.27 -5696.38 -5127.60 -4629.18 -3772.48 -1407.96 -619.36 -194.32 -108.16 -18.80 3.23 14.41 29.26 40.05 56.94 74.02 93.78 132.22 157.98 186.14 191.82 137.17 116.97 45.95 26.10 20.14 0.84 -45.78 -104.99 -125.88 -152.98 -174.70 -192.31 -195.65 -201.71 -191.53 -167.22 -135.15 -85.07 -41.81 -10.24 5.87 23.72 41.55 47.14 55.06 70.77 87.60 119.81 140.35 184.48 204.31 227.92 240.83 248.70 250.45 256.41 262.12 262.90 264.51 272.90 281.78 292.01 302.74 312.34 329.46 336.63 346.28 385.00 403.45 414.77 445.89 457.07 471.31 622.38 1057.42 1144.26 971.28 482.66 293.13 202.36 114.27 -1.53 -393.01 -3325.02 -5059.31 -4703.70 -4696.28 -4906.52 -5153.51 -5457.55 -5469.79 -5438.60 -5250.29 -4045.04 -1926.05 -585.88 -424.16 -450.49 -494.41 -809.67 -961.00 -1270.54 -1486.99 -1711.84 -1840.84 -1987.38 -2094.95 -2164.55 -2275.05 -2510.11 -2721.44 -2907.82 -3151.98 -3297.39 -3315.96
-5788.70 -5788.62 -5794.58 -5795.25 -5801.11 -5803.20 -5808.78 -5805.28 -5799.54 -5798.40 -5802.38 -5804.06 -5810.80 -5817.73 -5829.71 -5837.73 -5846.52 -5845.20 -5847.59 -5845.84 -5848.06 -5846.43 -5836.98 -5815.32 -5744.46 -5692.04 -5511.19 -4361.89 -3846.18 -2382.19 -953.25 -246.05 -130.40 -77.31 -38.16 -4.31 10.38 32.64 44.75 61.88 93.30 101.09 140.13 169.83 201.65 200.16 158.60 101.69 51.24 34.23 12.29 4.71 -19.33 -65.51 -101.51 -142.58 -165.57 -182.55 -179.35 -158.11 -142.57 -119.34 -79.70 -49.36 -26.17 0.42 16.57 38.44 45.35 50.55 58.74 75.98 92.94 117.65 140.98 166.23 195.85 221.34 229.31 234.72 237.41 245.67 248.94 261.47 267.12 273.35 279.17 287.94 305.54 316.09 331.01 344.68 362.32 387.40 400.83 411.77 441.51 457.54 468.10 514.40 922.23 1205.62 1245.26 743.50 404.93 210.03 124.04 44.53 -522.82 -4208.47 -5442.90 -4800.51 -4866.83 -5058.82 -5222.27 -5402.17 -5457.13 -5423.37 -5149.04 -4718.56 -1889.57 -702.27 -325.47 -334.89 -367.36 -735.79 -937.98 -1245.29 -1501.31 -1513.40 -1737.90 -1868.37 -1981.35 -2101.25 -2229.56 -2453.59 -2627.24 -2953.42 -3171.36 -3289.99 -3290.04
-5792.53 -5792.46 -5798.82 -5802.74 -5807.77 -5811.71 -5816.08 -5812.53 -5807.78 -5813.23 -5815.55 -5817.59 -5820.74 -5824.76 -5835.42 -5850.01 -5855.06 -5858.30 -5861.20 -5860.48 -5860.40 -5847.04 -5772.24 -5745.91 -5499.82 -4954.32 -4384.86 -3383.84 -2609.64 -1060.08 -362.18 -147.62 -107.60 -58.06 -18.02 -0.32 14.99 27.53 42.81 81.12 100.46 118.83 141.82 154.93 203.66 204.11 145.43 105.82 52.80 34.15 19.30 5.88 -1.26 -41.38 -89.66 -122.51 -153.15 -168.49 -151.07 -135.95 -116.88 -90.93 -39.55 -20.55 -3.54 12.59 22.26 36.18 46.35 53.89 61.91 84.70 92.61 116.93 131.07 154.26 181.77 205.22 218.14 216.59 230.31 237.66 243.97 256.95 270.01 280.08 286.64 297.97 308.01 320.53 332.91 347.63 357.86 386.12 398.22 405.98 428.42 438.08 475.27 502.63 777.65 1181.32 1327.47 869.42 588.44 326.71 97.68 49.04 -248.17 -2431.98 -5405.50 -5017.09 -4929.83 -5053.95 -5262.67 -5354.33 -5413.60 -5380.94 -5253.58 -3803.83 -2102.32 -725.87 -338.84 -274.17 -379.44 -553.12 -925.83 -1072.56 -1176.60 -1431.08 -1710.79 -1800.56 -1942.11 -2047.46 -2211.78 -2312.09 -2636.22 -2883.19 -3016.97 -3108.03 -3107.95
-5794.73 -5794.66 -5802.31 -5806.71 -5813.99 -5817.17 -5820.85 -5822.24 -5819.58 -5820.61 -5823.67 -5828.54 -5835.63 -5837.50 -5843.56 -5848.72 -5850.50 -5850.48 -5851.30 -5837.99 -5818.82 -5764.93 -5665.71 -5380.32 -4653.69 -4387.22 -3167.60 -2307.96 -1133.24 -282.63 -181.54 -149.76 -105.32 -38.78 -10.40 7.57 26.40 34.35 47.11 80.15 101.11 121.34 145.81 173.07 209.59 219.89 151.79 107.42 68.31 32.17 19.55 6.09 -18.50 -51.04 -95.76 -106.95 -130.85 -136.88 -137.80 -118.89 -94.71 -60.05 -39.06 -7.18 8.12 15.36 26.65 36.91 44.49 49.96 66.54 78.22 92.07 106.88 130.22 152.03 173.32 187.31 197.45 206.42 212.20 219.68 239.68 256.40 271.75 280.71 297.40 301.93 312.34 323.43 327.95 341.38 357.44 386.41 398.94 402.37 406.07 408.36 440.77 473.75 635.72 1039.28 1267.62 978.55 480.79 238.21 94.96 41.41 -18.88 -1046.09 -2605.13 -5083.00 -4903.10 -4776.97 -5248.91 -5354.83 -5375.73 -5314.44 -5124.35 -3841.08 -2192.19 -594.19 -282.39 -239.71 -317.48 -532.78 -733.07 -871.92 -1020.25 -1275.97 -1626.11 -1714.89 -1848.35 -2044.90 -2185.29 -2300.63 -2415.59 -2714.23 -2861.81 -3046.37 -3046.43
-5795.90 -5796.69 -5801.70 -5812.44 -5816.21 -5820.25 -5826.83 -5826.13 -5825.90 -5830.04 -5836.97 -5844.03 -5848.17 -5853.85 -5855.15 -5845.81 -5845.24 -5845.89 -5844.09 -5764.40 -5664.12 -5416.02 -4892.24 -4360.19 -3872.67 -3198.28 -2817.32 -1588.31 -844.08 -219.82 -175.85 -137.15 -79.88 -25.32 -9.49 18.57 32.38 44.78 58.50 73.97 101.08 138.57 162.76 190.90 224.82 217.61 152.28 113.71 79.28 34.67 18.29 6.59 -14.46 -52.79 -90.71 -97.67 -111.82 -123.29 -119.28 -91.32 -58.32 -39.81 -16.07 -0.29 11.87 17.75 28.22 36.69 44.45 47.82 57.92 67.68 80.89 100.91 114.65 138.01 150.19 167.15 182.33 190.89 204.59 210.78 225.89 253.58 264.29 276.26 300.14 308.60 318.27 324.46 327.85 330.27 343.25 367.62 393.98 402.96 405.55 408.20 440.30 484.38 545.40 1029.37 1165.03 847.07 475.38 191.01 106.75 36.25 -31.75 -220.94 -1736.65 -4488.29 -4559.19 -4672.84 -5009.83 -5337.89 -5330.03 -5306.33 -5067.23 -3823.54 -2038.08 -516.76 -262.94 -220.77 -292.99 -441.59 -537.00 -699.84 -1074.94 -1243.17 -1364.85 -1580.30 -1802.78 -1938.16 -2086.01 -2221.33 -2400.02 -2619.16 -2732.32 -2816.45 -2816.34
-5797.04 -5796.97 -5804.70 -5812.48 -5817.11 -5827.10 -5829.46 -5834.01 -5834.35 -5839.89 -5843.78 -5850.29 -5857.59 -5862.92 -5862.41 -5842.47 -5834.06 -5816.72 -5644.93 -5582.47 -5173.60 -4715.86 -4154.21 -3293.99 -2891.67 -2613.89 -2522.01 -1736.62 -485.26 -183.07 -147.98 -99.21 -62.94 -20.74 5.44 16.29 31.39 42.61 57.76 71.93 107.19 149.23 185.73 200.93 208.50 187.92 154.44 122.05 65.84 40.24 21.78 10.48 -5.12 -41.72 -85.30 -95.26 -105.63 -111.52 -106.94 -89.62 -40.74 -26.40 -19.06 -7.67 12.94 21.35 28.75 37.03 42.83 47.90 56.21 70.14 78.50 89.05 107.93 121.21 142.99 159.40 169.28 184.56 190.54 212.92 233.89 246.47 265.15 279.47 295.99 311.25 319.92 325.64 326.84 327.84 332.09 355.81 378.08 396.04 403.19 407.09 432.04 480.02 523.25 779.83 1022.62 790.87 433.55 183.86 109.45 66.10 -7.19 -548.72 -2056.54 -4776.07 -4563.32 -4708.85 -4988.32 -5227.97 -5279.79 -5231.76 -4925.86 -3879.67 -1502.83 -718.62 -254.77 -195.17 -206.44 -374.20 -548.54 -637.53 -846.43 -1040.23 -1285.56 -1509.21 -1770.95 -1904.14 -2071.11 -2202.63 -2386.14 -2527.85 -2660.58 -2756.76 -2756.83
-5798.99 -5798.92 -5806.66 -5813.51 -5820.54 -5829.95 -5835.42 -5838.07 -5838.53 -5845.14 -5850.99 -5858.05 -5866.05 -5864.90 -5844.15 -5803.02 -5673.55 -5536.54 -5188.21 -4622.01 -4084.97 -3835.12 -2998.04 -2561.69 -2509.49 -2379.98 -1673.14 -815.25 -193.86 -161.21 -115.55 -78.45 -33.24 -1.85 9.32 19.74 33.06 48.70 70.00 82.22 145.11 172.18 196.63 191.31 152.36 154.13 129.80 99.16 61.12 31.21 20.10 12.53 -12.97 -42.95 -76.41 -86.81 -102.54 -99.90 -73.44 -73.40 -44.93 -39.74 -24.73 -7.90 6.76 20.95 29.07 40.90 45.12 47.77 51.00 61.45 72.92 83.50 105.04 114.20 130.72 144.31 160.47 169.40 179.99 193.07 215.10 238.05 255.71 277.55 290.47 307.98 321.51 326.61 327.32 327.36 326.95 340.05 361.19 385.26 397.93 403.46 407.33 459.29 482.90 630.76 921.98 814.13 394.95 185.57 114.92 52.34 -16.67 -1473.75 -4460.57 -4925.97 -4701.51 -4878.37 -5094.58 -5229.03 -5269.77 -5174.60 -4745.33 -3831.28 -1404.71 -530.43 -196.08 -175.45 -197.84 -293.71 -431.77 -473.71 -706.30 -1085.08 -1342.39 -1414.64 -1735.52 -1979.68 -2100.89 -2223.75 -2321.29 -2504.85 -2568.18 -2640.42 -2640.41
-5802.69 -5803.27 -5809.45 -5818.62 -5827.40 -5835.27 -5841.26 -5846.68 -5844.27 -5852.26 -5858.72 -5858.10 -5846.44 -5817.57 -5773.38 -5512.56 -5203.38 -4536.64 -4039.17 -3700.92 -3574.65 -2642.38 -2521.08 -2314.72 -2278.69 -1704.34 -844.08 -235.22 -193.93 -140.75 -105.58 -56.86 -19.75 10.03 14.46 29.08 41.90 65.21 79.87 95.52 147.49 188.23 188.23 160.34 131.88 115.67 89.96 75.47 47.77 31.84 16.56 11.51 -1.04 -32.77 -67.08 -82.33 -82.18 -69.49 -61.44 -56.81 -50.67 -43.85 -11.98 0.40 10.69 19.88 28.71 38.19 42.95 47.06 51.97 64.41 68.95 82.03 97.05 113.29 119.26 135.31 156.05 166.75 181.73 196.06 208.77 229.45 256.58 275.86 287.63 312.81 322.02 328.49 329.94 330.12 329.73 327.18 333.94 357.97 380.22 393.33 403.83 426.16 461.21 437.71 626.51 759.72 443.73 179.84 121.87 48.44 -4.68 -665.93 -4263.41 -5104.08 -4854.79 -4949.20 -5130.56 -5219.07 -5239.90 -5163.87 -4783.80 -3223.60 -1382.55 -437.16 -212.82 -172.14 -196.22 -244.82 -311.51 -456.76 -682.66 -1039.99 -1220.83 -1458.56 -1795.97 -2006.76 -2134.54 -2200.59 -2304.23 -2402.44 -2534.88 -2620.92 -2621.00
-5807.96 -5807.88 -5814.56 -5822.86 -5827.86 -5839.73 -5849.13 -5854.11 -5869.21 -5868.20 -5859.98 -5823.11 -5772.82 -5564.96 -5138.99 -4672.36 -4006.39 -3633.80 -3117.22 -2729.89 -2375.95 -2198.32 -2200.12 -2156.25 -1916.19 -1261.71 -485.76 -204.21 -186.92 -144.29 -79.53 -25.84 -8.81 7.59 19.40 30.78 50.31 72.09 91.16 116.40 153.52 192.58 190.25 169.09 129.26 95.98 77.73 55.10 37.11 29.26 17.33 11.32 -0.30 -19.73 -69.46 -74.39 -73.42 -62.79 -55.26 -53.13 -49.14 -43.64 -20.12 -2.19 8.27 13.31 28.58 34.83 41.05 47.08 51.94 60.27 65.56 73.77 92.76 105.35 114.44 125.90 146.08 151.72 185.45 196.23 209.96 232.74 250.98 271.98 290.73 307.43 322.10 334.05 338.46 338.73 337.75 335.38 332.95 341.74 351.08 368.74 401.06 401.54 393.82 363.83 403.57 435.98 337.51 143.32 88.09 44.43 -6.96 -525.83 -2534.12 -5264.36 -5009.14 -4888.49 -5016.10 -5072.47 -5111.44 -4985.47 -4732.76 -2842.24 -1696.72 -363.40 -188.22 -168.20 -185.82 -215.65 -282.99 -458.12 -631.65 -912.64 -1250.53 -1446.01 -1844.69 -2014.05 -2132.40 -2237.67 -2301.12 -2426.73 -2541.66 -2628.34 -2631.08
-5804.50 -5804.42 -5815.75 -5823.26 -5829.32 -5838.34 -5853.11 -5865.73 -5886.20 -5874.05 -5835.95 -5688.03 -5322.75 -5157.46 -4623.33 -3918.77 -3428.11 -2860.92 -2528.34 -2388.93 -2170.86 -2084.41 -2098.27 -2119.42 -1875.74 -845.32 -383.11 -203.60 -157.39 -125.01 -65.64 -21.11 0.03 7.88 29.20 38.18 56.76 88.08 98.62 125.96 161.23 197.63 172.71 158.78 126.86 89.21 61.32 47.28 32.76 23.68 14.52 6.26 -1.38 -26.52 -67.93 -65.18 -65.14 -58.00 -54.06 -46.65 -41.43 -42.00 -22.40 -5.48 4.04 15.89 29.46 34.55 37.24 44.75 51.60 59.48 65.97 72.22 87.21 100.92 110.32 125.19 141.80 155.50 177.09 190.11 208.87 231.22 248.98 272.77 286.26 305.82 322.44 339.63 346.49 348.43 348.88 344.07 341.79 339.92 344.77 354.49 371.08 381.62 364.47 346.53 296.71 276.05 249.01 140.11 97.05 40.74 4.55 -499.21 -3631.00 -4797.04 -4892.97 -4866.36 -4932.90 -4994.93 -5069.09 -4830.83 -4218.60 -2532.00 -769.69 -318.27 -194.50 -174.85 -196.57 -247.98 -318.04 -455.35 -652.99 -851.64 -1153.73 -1465.58 -1713.38 -1990.88 -2127.38 -2238.28 -2373.64 -2427.71 -2571.61 -2644.24 -2644.32
-5821.90 -5821.81 -5828.79 -5832.96 -5844.82 -5852.26 -5860.16 -5872.37 -5892.06 -5877.48 -5783.93 -5496.68 -4843.96 -4108.92 -3299.85 -3111.67 -2810.81 -2656.33 -2447.38 -2295.06 -2138.73 -2052.15 -2077.99 -2111.27 -1541.03 -774.75 -404.70 -206.35 -158.39 -124.69 -56.98 -14.43 -5.50 16.04 39.29 54.28 82.59 95.36 109.82 142.11 177.35 194.91 155.02 145.35 107.85 82.73 62.95 38.25 27.66 17.24 8.16 -0.24 -9.69 -32.37 -58.57 -59.03 -57.55 -47.26 -37.73 -28.45 -28.87 -34.25 -15.48 0.39 8.66 18.80 24.63 31.77 36.49 41.21 51.83 53.66 62.24 73.87 83.36 96.59 100.74 117.90 136.07 151.97 177.24 192.47 215.16 226.30 260.82 274.45 292.42 313.12 325.98 341.79 349.75 352.70 353.11 354.89 351.93 354.73 353.74 356.21 355.74 362.74 359.28 331.11 302.60 258.03 200.86 162.47 94.62 60.77 17.37 -226.70 -2087.28 -4453.53 -4856.49 -4841.47 -4904.52 -4980.22 -4985.69 -4645.36 -3560.44 -1947.15 -619.89 -225.74 -180.60 -195.50 -233.24 -297.22 -373.49 -510.83 -665.14 -884.03 -1183.13 -1368.56 -1704.15 -1928.30 -2127.24 -2336.22 -2517.96 -2594.61 -2722.68 -2771.86 -2772.04
-5849.74 -5849.63 -5854.20 -5854.10 -5859.52 -5861.11 -5862.17 -5873.61 -5860.23 -5826.62 -5602.43 -5203.51 -4111.80 -3457.09 -2904.08 -2609.30 -2589.85 -2583.33 -2459.19 -2277.98 -2160.29 -2094.92 -2093.70 -2130.14 -1312.18 -546.99 -260.05 -191.99 -152.60 -114.24 -50.37 -14.26 8.90 23.37 43.37 56.54 92.24 119.07 131.83 160.45 190.10 182.07 151.06 126.88 79.55 62.84 52.48 36.62 24.74 11.70 6.38 -7.92 -24.87 -40.97 -48.07 -45.56 -38.27 -23.23 -8.34 -1.79 -4.07 -11.54 -7.49 -0.38 9.39 19.47 25.65 31.46 35.51 39.81 47.93 50.32 58.39 66.93 76.40 86.49 93.70 112.21 129.10 146.08 167.80 190.84 217.52 235.40 253.27 269.99 286.42 312.71 329.26 340.49 348.48 357.22 361.06 366.81 362.62 362.83 365.99 359.21 353.23 350.77 349.18 307.52 295.51 246.23 199.29 149.20 95.94 80.83 43.08 13.03 -2063.29 -4380.83 -4509.08 -4713.03 -4857.92 -4898.60 -4795.94 -4233.50 -2322.89 -880.09 -322.17 -200.64 -175.91 -207.46 -270.86 -378.94 -581.99 -681.32 -745.21 -921.97 -1284.32 -1541.38 -1797.46 -2000.34 -2175.02 -2342.34 -2535.69 -2716.07 -2900.62 -2948.22 -2948.43
-5882.38 -5882.27 -5880.47 -5859.88 -5846.89 -5831.01 -5760.68 -5731.69 -5712.48 -5303.55 -4818.36 -4307.45 -3601.51 -2715.83 -2462.20 -2312.60 -2395.31 -2449.83 -2386.63 -2170.26 -2111.85 -2114.78 -2119.80 -2076.59 -1397.57 -650.96 -363.26 -222.70 -159.52 -113.12 -41.79 -6.63 9.14 19.08 41.46 70.24 107.40 125.22 154.08 188.58 178.96 127.96 101.69 103.48 65.75 46.05 29.84 18.89 16.59 12.37 2.33 -23.92 -32.72 -43.59 -48.16 -45.15 -27.05 -9.99 7.57 16.12 14.49 0.93 -0.04 6.21 8.83 16.89 23.66 29.83 33.86 36.93 41.92 48.92 56.72 63.15 71.40 82.13 93.83 108.46 122.24 145.04 161.23 184.93 210.62 230.53 245.99 272.15 289.08 309.24 329.51 338.65 349.60 360.21 371.66 386.03 385.49 384.05 377.65 369.03 360.35 325.88 316.76 268.72 238.90 205.61 169.15 147.98 107.56 68.41 32.01 -259.14 -1776.83 -4327.05 -4303.29 -4558.42 -4757.33 -4766.48 -4424.33 -3786.42 -1658.57 -462.25 -234.07 -152.85 -197.55 -233.53 -259.81 -411.10 -539.15 -784.26 -891.77 -1082.49 -1474.74 -1699.48 -1910.43 -2083.30 -2213.23 -2289.20 -2550.27 -2651.61 -3006.17 -3080.73 -3080.91
-5873.66 -5872.46 -5785.97 -5592.53 -5548.71 -5535.14 -5353.35 -4971.70 -4786.17 -4385.77 -3708.98 -2980.54 -2860.73 -2537.36 -2357.10 -2293.51 -2303.54 -2280.09 -2121.52 -1807.63 -1883.92 -1841.80 -1883.40 -1817.76 -1335.10 -572.24 -278.33 -223.26 -171.04 -123.21 -39.05 -4.29 8.20 29.59 58.95 80.81 133.27 149.47 175.01 191.89 167.50 115.74 69.91 55.62 50.65 33.68 18.75 15.47 11.29 0.29 -6.28 -26.83 -39.81 -48.75 -54.03 -51.73 -24.05 3.50 27.43 39.70 28.46 10.46 8.65 9.98 13.09 18.25 22.74 27.82 29.92 33.34 34.87 41.82 53.46 59.16 66.02 76.70 87.82 98.99 122.94 146.37 163.36 180.97 201.52 222.13 244.02 269.09 290.59 301.75 324.18 338.65 352.76 366.94 380.31 398.41 402.63 397.35 386.36 372.66 353.44 311.22 303.64 256.71 215.13 168.54 144.46 116.07 88.13 55.75 27.64 -459.10 -1428.15 -3670.40 -4043.08 -4345.69 -4701.72 -4729.12 -3762.04 -2725.48 -915.01 -423.41 -166.71 -169.52 -199.03 -229.43 -301.83 -463.71 -685.14 -860.46 -955.56 -1203.57 -1579.10 -1894.95 -2053.30 -2118.74 -2268.80 -2378.01 -2543.85 -2727.60 -3007.48 -3282.97 -3283.24
-5372.30 -5372.80 -4992.83 -4920.48 -4779.31 -4399.40 -4185.07 -3746.21 -3328.56 -2995.74 -2939.94 -2676.65 -2506.09 -2419.29 -2389.76 -2368.22 -2319.50 -2178.87 -1927.39 -1619.19 -1316.04 -1175.36 -1425.64 -1482.34 -875.90 -307.41 -263.07 -226.15 -173.83 -125.16 -50.05 -4.03 14.13 35.76 56.01 117.80 157.15 174.45 168.59 147.80 142.37 112.03 62.76 44.89 34.83 19.38 18.12 9.46 1.69 -11.43 -22.08 -31.40 -43.89 -52.31 -57.91 -48.74 -29.46 1.01 35.81 45.05 38.31 21.35 15.38 16.64 16.10 21.73 24.30 25.27 26.98 28.71 32.04 42.58 47.63 55.09 65.29 77.74 90.72 101.87 116.92 136.79 161.12 182.89 202.97 217.18 247.13 267.97 285.30 300.14 319.10 337.36 349.86 373.24 388.09 402.66 406.76 401.78 391.90 374.18 342.35 288.44 251.72 216.32 190.66 148.41 117.34 99.54 80.78 36.83 -157.43 -945.85 -2332.96 -3014.54 -3905.59 -4337.40 -4484.92 -4539.86 -3573.88 -1924.78 -656.47 -310.71 -142.50 -174.13 -210.63 -240.36 -294.22 -417.17 -698.30 -910.53 -1150.30 -1474.59 -1590.52 -1831.91 -2028.46 -2220.93 -2368.22 -2492.24 -2722.31 -2869.56 -3115.81 -3220.99 -3220.98
-3901.59 -3903.61 -3870.83 -3561.69 -3616.38 -3031.19 -2971.09 -2737.70 -2703.48 -2541.62 -2439.84 -2420.03 -2407.74 -2402.09 -2403.43 -2411.48 -2380.38 -2239.44 -1858.15 -1539.29 -1047.20 -943.64 -952.09 -956.04 -468.91 -305.27 -268.71 -216.73 -171.90 -129.61 -80.48 -13.73 2.54 50.49 90.06 136.43 152.38 125.84 131.71 105.00 73.50 71.61 39.03 28.41 18.68 14.81 10.05 0.91 -7.72 -30.36 -34.46 -48.31 -48.76 -62.74 -64.56 -56.31 -49.48 -13.44 11.43 36.75 46.78 25.04 19.97 18.85 19.53 21.85 23.47 24.47 25.74 26.60 27.73 34.90 42.01 47.35 63.67 70.82 81.68 102.53 109.07 136.41 157.05 186.34 210.30 225.16 243.44 268.51 280.72 299.71 307.73 334.83 345.85 368.70 394.61 402.68 405.78 397.16 386.57 355.94 320.78 295.64 247.17 207.62 177.02 126.63 103.72 89.98 70.17 -207.01 -809.85 -1833.48 -2837.43 -3283.23 -4393.62 -4551.11 -4508.75 -4143.77 -3274.62 -1629.12 -582.26 -185.86 -152.58 -184.76 -215.98 -237.99 -263.04 -396.52 -652.87 -923.07 -1228.09 -1540.58 -1705.06 -1774.77 -2095.57 -2272.08 -2424.43 -2577.73 -2771.86 -3026.49 -3129.25 -3234.51 -3234.63
-2712.95 -2715.02 -2758.51 -2864.60 -2708.98 -2636.71 -2540.61 -2463.99 -2425.18 -2403.66 -2398.23 -2394.09 -2397.49 -2404.89 -2416.85 -2439.48 -2437.33 -2349.55 -2151.76 -1653.09 -1087.49 -749.44 -675.50 -579.37 -344.61 -310.69 -276.86 -224.50 -187.49 -138.51 -106.08 -46.23 1.25 26.26 71.75 102.88 73.73 95.12 94.55 80.62 52.38 41.79 28.20 16.86 13.99 9.10 3.31 -8.08 -27.59 -47.76 -46.30 -65.64 -68.98 -66.39 -68.22 -65.81 -58.36 -34.47 11.05 33.44 42.21 32.08 29.91 23.40 22.89 23.11 23.19 23.21 23.53 24.50 27.31 30.16 38.33 46.01 57.59 69.79 74.16 95.14 104.45 136.96 157.21 181.52 200.84 218.25 248.43 260.09 274.64 292.17 310.17 323.93 344.71 355.34 383.72 397.28 399.96 395.95 371.52 353.73 315.51 277.80 247.95 201.76 157.23 127.48 97.70 83.04 43.35 -37.52 -903.12 -1916.31 -2600.50 -4069.57 -5169.15 -5022.04 -4959.75 -4440.24 -2774.84 -1023.50 -307.11 -188.42 -160.98 -209.01 -234.27 -255.12 -269.35 -430.15 -637.92 -953.84 -1229.85 -1486.06 -1639.23 -1935.25 -2204.70 -2324.56 -2442.33 -2588.26 -2834.91 -2987.35 -3153.01 -3254.31 -3254.44
-2431.37 -2431.95 -2469.50 -2476.40 -2449.42 -2430.72 -2428.26 -2423.87 -2410.98 -2405.42 -2403.78 -2407.19 -2414.96 -2419.95 -2436.10 -2466.65 -2455.10 -2400.75 -2261.54 -1612.77 -1424.83 -916.71 -715.79 -482.92 -346.66 -321.10 -283.74 -232.13 -195.16 -170.41 -117.35 -60.55 -9.87 -1.08 41.77 60.82 39.86 37.23 37.08 42.64 39.72 21.29 20.67 9.98 -3.21 -7.51 -10.45 -30.42 -51.21 -55.09 -61.50 -74.91 -76.23 -72.93 -74.83 -66.39 -55.87 -36.20 0.92 31.85 46.64 47.23 34.04 32.21 26.75 23.56 22.32 21.09 20.75 21.70 25.08 26.69 34.34 39.94 48.76 69.65 79.55 97.61 108.52 137.76 157.13 168.85 197.46 214.28 232.74 248.65 271.02 286.54 301.91 325.89 330.19 364.84 378.77 388.23 389.29 373.50 364.16 324.71 284.20 260.01 224.95 180.36 144.82 120.15 88.69 60.61 43.89 0.80 -1373.84 -1876.91 -3517.93 -4626.92 -5275.13 -5349.29 -5140.10 -4136.24 -1805.42 -744.20 -240.44 -161.70 -204.58 -238.83 -258.15 -268.15 -314.90 -446.15 -661.81 -867.92 -1271.17 -1493.05 -1805.89 -2080.79 -2179.67 -2311.86 -2449.82 -2524.62 -2802.55 -2996.85 -3101.17 -3181.84 -3181.72
-2430.21 -2430.08 -2438.96 -2440.65 -2440.81 -2439.85 -2436.74 -2428.35 -2427.08 -2424.51 -2421.14 -2421.69 -2429.03 -2435.56 -2447.43 -2474.21 -2468.21 -2442.37 -2237.75 -1820.52 -1234.12 -909.12 -708.62 -409.94 -351.95 -329.33 -282.13 -245.78 -204.48 -182.92 -135.52 -76.40 -45.74 -14.51 -3.99 11.37 15.86 13.08 10.52 10.27 4.75 0.38 2.41 -1.15 -21.62 -42.41 -47.87 -71.03 -78.02 -79.14 -78.70 -85.23 -84.11 -80.52 -81.00 -74.27 -63.47 -45.13 -21.87 19.26 38.87 45.01 37.78 31.57 28.37 23.11 21.75 19.71 18.79 19.52 20.27 23.54 33.37 37.20 46.60 68.86 77.03 94.22 109.48 129.71 145.02 167.47 192.32 217.62 239.66 258.25 267.61 277.73 297.85 315.60 324.35 354.97 372.47 379.68 381.74 362.52 348.85 305.46 275.49 238.34 189.15 165.07 128.09 98.24 74.82 44.78 -69.94 -532.86 -1363.52 -2076.52 -3426.07 -4252.54 -5433.85 -5507.03 -5018.17 -3755.47 -2006.32 -589.52 -227.69 -115.54 -179.94 -232.36 -271.34 -297.39 -355.53 -454.81 -681.71 -840.69 -1130.97 -1556.30 -1839.76 -2085.36 -2231.95 -2321.40 -2440.65 -2542.87 -2698.55 -2902.24 -3039.47 -3195.68 -3195.87
-2450.74 -2450.76 -2453.36 -2458.17 -2455.61 -2453.70 -2451.43 -2458.94 -2447.23 -2443.33 -2446.31 -2440.49 -2441.52 -2444.08 -2463.01 -2479.77 -2475.51 -2374.10 -2167.11 -1803.05 -1309.02 -922.64 -746.76 -466.67 -390.49 -334.15 -322.40 -263.36 -222.83 -202.03 -160.86 -148.49 -108.99 -52.41 -19.97 4.76 2.80 -0.62 0.77 1.56 -0.92 -25.00 -30.71 -19.40 -44.90 -75.79 -75.94 -88.76 -90.74 -89.62 -91.90 -92.36 -91.21 -86.22 -86.17 -76.68 -63.44 -43.24 -29.08 17.05 37.60 44.43 53.42 32.86 30.25 22.67 20.05 15.94 16.05 15.78 17.31 21.02 25.90 37.19 43.30 57.93 70.46 87.17 109.11 125.33 150.55 171.00 194.08 208.43 242.72 253.39 262.26 276.34 293.13 304.69 314.01 344.20 366.37 367.06 358.29 349.75 313.54 285.08 253.83 205.52 163.15 133.72 109.98 77.09 49.02 17.33 -266.22 -718.53 -1795.93 -2103.91 -3327.13 -4727.79 -5294.47 -5478.29 -4962.66 -3328.70 -1661.18 -310.90 -106.23 -68.50 -151.22 -218.68 -278.56 -310.41 -386.51 -483.60 -596.71 -838.45 -1171.85 -1439.60 -1734.05 -2026.26 -2179.53 -2265.75 -2426.23 -2563.90 -2690.33 -2886.22 -3019.88 -3212.41 -3212.51
-2480.18 -2480.85 -2487.09 -2485.80 -2495.67 -2483.72 -2480.35 -2477.12 -2460.26 -2455.44 -2476.02 -2480.16 -2475.21 -2473.30 -2476.59 -2486.46 -2450.67 -2310.64 -2079.89 -1665.04 -1011.44 -807.31 -718.68 -679.72 -533.68 -360.92 -328.51 -293.67 -270.62 -229.50 -182.22 -177.86 -143.66 -101.01 -49.56 -54.75 -43.59 -46.05 -34.01 -28.53 -33.97 -77.81 -85.56 -68.94 -100.08 -95.56 -99.41 -98.98 -99.18 -99.77 -100.32 -98.32 -93.90 -89.60 -88.04 -81.02 -65.68 -51.16 -11.79 6.65 41.26 57.57 78.02 47.74 33.58 26.34 20.70 13.63 12.64 13.64 15.36 18.01 21.51 34.01 40.61 55.42 64.96 77.21 98.88 117.69 147.78 167.11 183.62 204.19 226.52 244.83 258.57 263.52 284.11 299.79 312.32 331.95 345.26 346.91 333.18 320.45 300.41 261.88 221.55 185.93 158.41 104.72 95.12 61.47 36.79 -105.84 -329.41 -1294.83 -1619.39 -2092.93 -3206.84 -4827.68 -5380.63 -5409.61 -5202.17 -4121.16 -1071.85 -576.94 -115.67 -62.01 -126.66 -223.54 -288.82 -323.20 -386.41 -509.55 -621.23 -883.94 -1190.12 -1332.69 -1517.56 -1869.66 -2096.24 -2301.64 -2384.21 -2514.96 -2677.55 -2886.94 -3049.80 -3228.90 -3228.91
-2530.97 -2530.93 -2525.33 -2525.54 -2529.89 -2532.50 -2534.67 -2534.55 -2542.11 -2535.88 -2515.86 -2503.80 -2497.98 -2511.84 -2509.38 -2498.22 -2439.18 -2261.48 -1784.12 -1271.56 -918.91 -725.34 -704.50 -716.00 -675.08 -375.04 -340.83 -320.88 -302.74 -262.75 -242.66 -208.16 -187.96 -157.47 -110.07 -113.27 -102.38 -92.63 -96.07 -97.67 -86.44 -99.24 -123.66 -126.02 -108.28 -107.43 -112.66 -108.34 -111.18 -111.85 -108.99 -110.05 -106.82 -101.10 -92.54 -83.26 -69.73 -51.07 -21.40 5.00 31.25 40.69 43.69 36.39 28.29 27.08 15.83 9.34 10.09 9.90 11.90 13.83 21.71 24.63 33.84 47.68 61.40 73.89 88.50 121.58 134.70 161.54 181.68 199.42 217.20 233.96 252.88 262.55 272.63 293.21 309.13 319.14 332.13 332.77 310.75 276.78 258.20 238.45 205.70 181.14 131.37 107.03 69.97 -1.14 -181.66 -378.65 -1088.75 -1504.90 -1509.87 -2131.23 -2954.61 -5050.59 -5277.33 -5536.26 -5355.96 -4152.33 -2267.42 -1113.61 -320.99 -109.02 -163.63 -234.97 -303.15 -346.41 -411.92 -502.92 -691.17 -908.01 -1192.68 -1320.12 -1628.42 -1832.13 -2088.09 -2285.98 -2381.32 -2484.46 -2643.26 -2941.37 -3107.96 -3252.47 -3252.03
-2549.48 -2549.42 -2548.88 -2553.04 -2551.95 -2554.22 -2536.99 -2553.06 -2557.28 -2553.02 -2549.25 -2542.64 -2539.18 -2533.39 -2525.42 -2503.03 -2427.47 -2185.77 -1549.00 -1197.58 -907.71 -722.58 -683.73 -712.80 -725.89 -472.49 -365.64 -344.16 -312.36 -286.03 -275.57 -237.03 -209.36 -188.58 -150.44 -141.24 -152.64 -147.17 -151.17 -153.78 -145.78 -141.73 -135.88 -142.09 -140.32 -133.34 -130.83 -125.14 -131.73 -131.10 -123.30 -117.24 -114.06 -106.80 -96.93 -88.04 -75.70 -62.33 -38.17 -14.63 3.44 19.02 22.58 12.44 8.84 10.98 1.28 1.23 3.40 5.94 7.61 11.32 17.53 22.05 31.33 44.14 56.36 71.72 82.07 98.19 130.11 142.65 177.85 187.10 215.15 225.23 237.66 257.20 266.20 280.41 295.67 309.50 315.37 312.54 292.66 262.69 233.70 195.69 183.36 157.05 116.90 85.44 51.72 -219.64 -668.64 -1308.44 -1397.28 -1380.51 -1509.79 -2353.99 -3524.96 -4963.25 -5516.27 -5566.02 -5436.02 -4687.53 -3394.21 -1824.29 -1263.43 -155.27 -250.83 -280.67 -324.87 -373.94 -419.56 -558.38 -770.00 -1022.08 -1209.95 -1399.38 -1673.57 -1911.42 -2082.39 -2250.59 -2379.38 -2562.50 -2833.27 -3152.87 -3336.15 -3440.91 -3440.66
-2562.28 -2562.21 -2565.23 -2571.82 -2571.44 -2562.61 -2530.62 -2528.93 -2548.81 -2518.03 -2533.98 -2546.19 -2551.28 -2545.38 -2540.23 -2510.99 -2411.02 -2242.59 -1670.13 -1266.49 -979.08 -772.40 -700.26 -688.26 -721.14 -602.74 -525.49 -345.91 -334.00 -314.81 -302.22 -278.88 -238.31 -227.96 -211.09 -185.09 -169.58 -171.65 -169.79 -168.21 -178.91 -181.38 -175.97 -163.41 -161.77 -157.75 -149.65 -151.04 -146.92 -146.80 -135.57 -134.91 -127.92 -114.36 -103.92 -94.23 -78.12 -65.37 -55.88 -38.30 -25.30 -14.62 -0.79 2.17 -0.90 -7.20 0.26 -2.29 -1.93 2.08 4.29 6.96 11.11 17.69 29.62 40.39 52.12 68.27 78.73 105.85 127.03 148.90 170.75 181.13 200.89 219.90 232.65 248.50 259.41 275.79 286.02 293.53 294.78 288.57 270.92 249.33 217.60 163.11 151.72 125.66 101.87 65.72 41.45 -451.60 -951.45 -1372.05 -1315.62 -1326.29 -1514.58 -2684.13 -3964.17 -4852.88 -5527.25 -5575.07 -5555.59 -5319.31 -4714.29 -2817.79 -1737.45 -862.82 -351.57 -318.78 -351.10 -416.64 -505.48 -660.20 -913.66 -1161.13 -1280.19 -1486.66 -1774.56 -1912.62 -2123.11 -2289.69 -2418.79 -2644.36 -2909.20 -3206.02 -3486.62 -3617.45 -3617.49
-2575.35 -2575.28 -2581.39 -2581.62 -2553.57 -2556.69 -2552.91 -2548.79 -2551.82 -2548.59 -2553.15 -2504.66 -2466.23 -2523.14 -2543.82 -2523.72 -2461.63 -2370.09 -2018.70 -1707.00 -1201.57 -938.32 -781.85 -702.26 -725.18 -722.87 -544.36 -447.74 -373.11 -327.22 -316.99 -290.48 -261.66 -244.60 -226.27 -227.05 -200.44 -207.60 -192.34 -204.76 -215.38 -199.13 -187.20 -195.54 -181.30 -177.81 -171.11 -171.05 -163.49 -160.29 -148.80 -141.66 -131.37 -119.80 -108.07 -96.78 -81.29 -67.17 -54.51 -48.60 -42.31 -32.61 -26.15 -20.02 -27.05 -23.67 -16.90 -12.13 -9.07 -3.62 -0.78 1.05 8.07 19.47 24.63 34.93 49.77 65.45 72.61 100.75 130.03 141.13 157.33 172.98 191.84 216.07 231.55 243.22 258.00 272.66 278.94 279.36 278.99 254.67 234.92 185.10 165.17 146.15 128.58 99.57 78.70 36.65 -215.48 -830.00 -1204.47 -1238.60 -1220.31 -1350.54 -1506.94 -2610.31 -3997.76 -5270.00 -5510.26 -5580.43 -5587.35 -5505.06 -5325.57 -4606.27 -2857.63 -1745.87 -556.79 -391.62 -380.68 -417.35 -593.03 -817.32 -905.78 -1325.10 -1412.92 -1554.44 -1834.10 -2040.75 -2199.69 -2281.91 -2396.74 -2601.48 -2912.39 -3191.79 -3520.16 -3649.92 -3650.06
-2588.76 -2589.59 -2594.98 -2559.44 -2539.68 -2578.20 -2578.72 -2583.70 -2600.76 -2588.20 -2569.81 -2548.24 -2529.36 -2547.12 -2541.75 -2530.32 -2487.93 -2390.96 -2184.55 -1951.08 -1692.82 -1239.36 -944.79 -743.35 -712.73 -718.27 -670.62 -593.89 -534.13 -422.29 -321.70 -311.82 -280.27 -271.13 -266.84 -262.47 -237.98 -244.56 -250.76 -237.95 -241.30 -234.74 -224.75 -229.65 -224.31 -213.89 -182.29 -187.01 -177.17 -167.32 -154.94 -142.87 -137.98 -122.75 -113.41 -91.78 -73.85 -63.61 -53.89 -53.57 -51.12 -47.88 -42.40 -37.15 -35.41 -37.43 -33.19 -31.09 -13.69 -9.62 -6.65 -3.09 3.12 11.11 22.72 31.37 48.68 63.32 73.88 91.02 115.88 133.14 152.38 174.64 186.25 199.29 237.50 252.53 264.05 271.63 270.00 261.89 254.49 237.61 199.09 163.97 136.54 107.85 100.89 72.16 51.11 33.35 -93.24 -781.01 -1128.73 -1179.30 -1222.84 -1381.39 -1639.91 -2746.34 -4390.92 -5205.10 -5531.41 -5579.76 -5602.27 -5593.10 -5415.83 -5056.66 -3542.79 -1833.07 -663.02 -407.61 -412.52 -468.34 -578.50 -774.18 -958.52 -1317.74 -1611.32 -1806.97 -1924.30 -2049.20 -2183.43 -2269.61 -2362.93 -2551.25 -2844.63 -3059.04 -3409.22 -3605.37 -3605.45
-2600.87 -2600.80 -2560.22 -2599.12 -2584.81 -2589.55 -2611.68 -2607.46 -2602.96 -2599.86 -2595.85 -2582.26 -2563.28 -2547.61 -2529.33 -2527.74 -2507.57 -2496.53 -2389.20 -2314.31 -1970.96 -1490.50 -1133.41 -848.25 -738.53 -707.67 -730.87 -709.96 -640.27 -530.13 -423.35 -363.77 -364.24 -294.74 -283.46 -277.90 -269.29 -269.30 -271.75 -272.62 -273.12 -268.62 -262.24 -256.07 -247.68 -233.99 -207.33 -198.25 -193.60 -178.44 -162.06 -151.19 -144.23 -122.34 -98.12 -83.23 -65.12 -46.58 -49.84 -58.44 -59.87 -60.42 -56.52 -50.67 -49.82 -48.51 -44.91 -45.00 -36.39 -27.46 -14.43 -8.82 -1.45 2.74 18.46 29.56 42.16 61.34 70.01 89.28 109.98 126.39 139.76 172.60 187.99 202.05 242.50 262.54 270.47 270.81 266.21 245.32 216.30 188.18 176.38 137.05 131.41 106.41 91.53 59.15 29.71 -125.45 -544.51 -1067.03 -1178.46 -1197.56 -1260.39 -1457.25 -2125.12 -3100.41 -4695.88 -5305.84 -5538.10 -5579.87 -5612.95 -5620.35 -5546.68 -5250.88 -3655.32 -2362.60 -744.14 -445.76 -432.48 -521.73 -631.52 -856.32 -1199.59 -1440.81 -1749.06 -1903.90 -2004.46 -2091.28 -2237.32 -2297.30 -2392.82 -2562.29 -2822.74 -3128.93 -3329.91 -3614.05 -3614.13
-2608.06 -2608.89 -2592.58 -2585.15 -2603.02 -2619.97 -2623.98 -2607.59 -2607.24 -2589.58 -2593.25 -2585.60 -2564.77 -2557.93 -2532.97 -2481.05 -2509.06 -2500.84 -2468.86 -2342.87 -2228.10 -1838.84 -1152.82 -937.68 -743.70 -708.63 -721.46 -744.03 -741.50 -643.19 -551.16 -560.22 -435.15 -365.80 -336.90 -312.08 -295.65 -300.00 -310.31 -309.01 -307.08 -302.09 -286.71 -274.23 -260.73 -243.23 -229.04 -213.93 -202.61 -180.61 -170.37 -154.48 -138.22 -119.69 -86.80 -69.11 -46.60 -34.04 -37.82 -59.64 -68.61 -71.75 -70.93 -67.38 -62.35 -54.95 -54.92 -56.24 -45.68 -37.42 -24.11 -18.51 -7.09 -1.50 11.28 25.36 37.58 54.60 63.66 82.86 94.48 116.56 125.17 160.12 181.46 202.29 234.33 258.99 268.34 268.69 229.34 199.68 172.46 159.45 128.99 103.93 89.90 85.91 70.34 42.31 19.32 -167.57 -583.02 -1032.12 -1184.00 -1228.12 -1336.97 -1466.19 -1869.36 -3425.61 -5130.90 -5391.66 -5537.33 -5570.06 -5610.24 -5639.79 -5569.58 -5350.08 -3816.52 -2313.86 -882.29 -448.03 -451.32 -572.04 -781.57 -973.17 -1107.29 -1439.89 -1742.71 -1946.80 -2076.93 -2162.87 -2242.51 -2352.58 -2477.10 -2670.93 -2801.14 -3325.21 -3500.17 -3665.89 -3665.71
-2608.23 -2608.16 -2609.35 -2602.24 -2635.35 -2637.03 -2634.23 -2624.93 -2606.87 -2592.52 -2590.17 -2581.05 -2569.97 -2559.64 -2543.81 -2465.03 -2492.22 -2513.36 -2496.88 -2440.36 -2343.26 -1937.83 -1468.41 -1080.72 -792.64 -717.36 -710.28 -723.17 -732.42 -723.97 -724.39 -727.68 -667.13 -599.62 -476.42 -478.59 -442.43 -417.51 -400.79 -399.15 -453.59 -347.23 -314.79 -296.47 -288.74 -271.73 -248.30 -224.80 -212.96 -191.49 -177.20 -155.17 -133.42 -109.13 -73.65 -61.87 -26.66 -22.66 -36.68 -65.17 -78.56 -82.12 -82.15 -79.86 -71.28 -65.98 -64.08 -55.16 -53.10 -40.91 -32.33 -19.22 -10.51 4.47 14.06 25.64 34.76 46.23 51.97 71.31 85.68 102.34 120.21 142.95 172.61 194.10 217.48 243.26 266.73 264.56 234.88 220.35 148.38 114.28 104.77 98.43 66.25 59.54 47.25 9.27 -78.94 -206.72 -727.99 -1205.25 -1241.25 -1266.27 -1355.41 -1397.13 -2311.55 -3727.18 -4991.00 -5537.00 -5548.58 -5567.80 -5605.39 -5634.74 -5568.94 -5203.05 -3423.15 -2041.67 -698.10 -435.23 -490.23 -668.71 -804.18 -1050.12 -1414.17 -1532.99 -1847.26 -2047.88 -2137.24 -2220.78 -2293.09 -2379.87 -2463.91 -2726.40 -3102.17 -3457.74 -3682.13 -3992.04 -3992.12
-2612.57 -2612.45 -2619.16 -2632.92 -2637.14 -2633.25 -2630.54 -2619.90 -2607.30 -2593.10 -2590.69 -2587.16 -2582.05 -2579.90 -2554.13 -2493.64 -2489.71 -2516.65 -2498.90 -2478.08 -2284.82 -1974.33 -1468.20 -1025.72 -756.39 -728.78 -720.79 -745.35 -751.06 -743.28 -758.19 -762.20 -787.49 -759.61 -665.04 -647.78 -632.63 -639.84 -633.35 -621.50 -593.02 -461.49 -341.47 -319.74 -307.38 -292.76 -275.19 -254.93 -225.19 -197.85 -178.40 -151.87 -129.75 -99.43 -67.88 -46.01 -21.55 -23.67 -62.10 -75.70 -88.76 -91.40 -93.88 -87.55 -77.62 -74.24 -72.15 -72.53 -67.77 -58.17 -38.67 -27.08 -11.37 3.60 12.79 18.71 28.62 37.96 42.12 55.97 73.09 91.81 115.83 133.38 165.30 182.52 206.55 239.85 253.87 224.10 205.52 186.04 134.58 84.22 69.89 51.94 36.67 34.67 18.91 -209.68 -577.60 -964.10 -1221.63 -1256.31 -1262.83 -1305.12 -1372.46 -1634.10 -2390.59 -3317.90 -4718.32 -5446.79 -5547.53 -5560.86 -5599.65 -5603.68 -5398.52 -4960.62 -3024.92 -1907.61 -518.20 -451.14 -559.43 -798.45 -1011.42 -1209.73 -1571.27 -1866.17 -1977.38 -2125.10 -2186.27 -2301.56 -2372.85 -2388.27 -2588.95 -2886.01 -3223.09 -3639.96 -3904.17 -4014.11 -4014.60
-2555.26 -2555.20 -2593.51 -2628.83 -2660.15 -2654.44 -2646.99 -2631.10 -2610.00 -2600.30 -2599.12 -2604.54 -2605.76 -2599.54 -2569.84 -2540.77 -2509.43 -2527.56 -2508.26 -2455.43 -2181.81 -1941.00 -1400.05 -981.15 -814.92 -844.88 -958.19 -887.74 -876.27 -899.69 -865.91 -863.02 -930.71 -780.87 -772.84 -703.74 -681.49 -662.38 -662.47 -666.27 -669.79 -617.24 -419.55 -356.39 -328.73 -322.25 -295.34 -260.44 -226.60 -201.07 -181.37 -151.35 -114.93 -89.48 -48.63 -35.28 -43.06 -61.52 -80.26 -93.70 -101.17 -103.92 -98.40 -103.35 -101.16 -94.87 -87.73 -87.03 -78.70 -74.49 -54.08 -40.83 -23.12 -8.83 9.12 15.23 23.21 29.80 36.23 49.42 63.58 81.06 94.33 105.90 132.84 153.30 187.87 219.91 229.94 221.30 210.38 136.06 100.14 57.85 37.26 34.78 19.93 10.22 -178.65 -584.02 -1311.68 -1487.17 -1425.15 -1248.05 -1265.29 -1352.32 -1444.07 -1883.69 -2955.59 -4122.06 -4879.33 -5485.60 -5541.71 -5556.18 -5587.72 -5602.49 -5483.58 -4598.84 -2843.99 -1387.76 -577.60 -546.69 -781.98 -1011.37 -1333.88 -1611.65 -1861.21 -2046.32 -2119.16 -2231.29 -2265.62 -2325.92 -2402.96 -2468.41 -2601.05 -2762.00 -3155.71 -3712.18 -4026.65 -4143.56 -4143.63
-2583.00 -2593.86 -2636.67 -2646.02 -2667.21 -2673.41 -2655.70 -2638.52 -2626.56 -2621.52 -2615.25 -2615.29 -2621.61 -2606.95 -2584.82 -2560.75 -2546.43 -2552.81 -2520.93 -2428.89 -2200.72 -1794.01 -1370.49 -1110.53 -1110.24 -1132.14 -1157.93 -1226.75 -1330.24 -1249.63 -1303.40 -1326.62 -1325.49 -1211.37 -916.85 -735.83 -704.14 -696.32 -697.58 -692.51 -698.15 -682.20 -557.39 -490.84 -361.64 -326.09 -297.83 -273.66 -220.01 -211.64 -178.97 -152.53 -113.90 -83.94 -66.89 -58.14 -65.11 -89.21 -91.92 -104.30 -107.02 -117.21 -121.84 -116.79 -114.36 -104.14 -101.00 -93.32 -83.08 -82.21 -71.51 -52.74 -37.43 -17.87 6.01 7.49 12.65 19.60 25.75 34.18 51.61 72.27 83.19 98.65 117.26 130.65 179.08 198.92 209.62 203.62 213.22 166.12 79.67 37.03 33.42 10.53 -11.17 -80.04 -378.56 -1030.85 -1522.33 -1376.35 -1284.95 -1256.79 -1305.44 -1393.96 -1472.63 -2049.87 -2845.52 -4684.37 -5398.11 -5524.42 -5537.48 -5558.22 -5598.33 -5589.13 -5268.63 -4913.30 -2247.11 -713.13 -483.29 -722.31 -926.30 -1201.36 -1651.62 -2024.78 -2105.74 -2211.40 -2241.10 -2283.71 -2331.61 -2371.25 -2414.24 -2524.12 -2759.85 -2978.89 -3362.55 -3717.73 -4033.54 -4150.09 -4150.16
-2654.87 -2654.78 -2634.42 -2640.33 -2667.57 -2685.31 -2680.77 -2664.74 -2648.46 -2646.83 -2654.62 -2639.33 -2642.50 -2633.19 -2600.75 -2552.02 -2546.84 -2566.60 -2564.35 -2481.88 -2311.68 -1894.55 -1595.62 -1448.23 -1445.06 -1561.17 -1632.23 -1719.25 -1736.09 -1898.80 -1864.04 -1746.10 -1815.87 -1316.33 -940.86 -779.53 -746.23 -726.87 -728.43 -735.61 -780.23 -754.18 -682.66 -586.93 -420.60 -330.89 -303.24 -273.69 -233.73 -212.09 -180.31 -151.37 -104.31 -71.87 -63.77 -81.55 -95.53 -109.07 -116.36 -121.97 -123.80 -134.84 -134.91 -130.93 -124.22 -112.62 -104.44 -95.11 -87.82 -87.17 -75.72 -60.38 -53.09 -29.77 -6.91 -1.46 4.02 9.89 16.47 25.28 42.69 51.95 66.42 79.77 90.95 111.33 150.50 163.45 186.74 192.54 168.42 114.29 80.61 25.58 17.44 -4.70 -35.72 -148.85 -726.77 -1359.95 -1450.46 -1344.40 -1318.69 -1316.31 -1397.04 -1556.68 -1944.71 -2757.82 -3729.41 -4914.96 -5460.33 -5496.93 -5536.59 -5567.07 -5599.53 -5521.38 -5235.21 -4042.96 -1775.36 -742.53 -476.46 -709.14 -1104.90 -1304.33 -1660.97 -2048.54 -2158.16 -2271.23 -2301.83 -2318.69 -2344.38 -2373.60 -2560.34 -2665.12 -2995.25 -3203.76 -3582.66 -3859.54 -4048.44 -4159.11 -4159.18
-2634.27 -2634.24 -2649.87 -2669.77 -2684.45 -2694.23 -2699.72 -2686.73 -2673.97 -2681.33 -2691.40 -2669.02 -2664.51 -2654.64 -2619.96 -2595.45 -2597.26 -2626.62 -2609.10 -2531.68 -2423.07 -2230.42 -2067.93 -2012.43 -1983.78 -2243.01 -2287.04 -2281.28 -2377.63 -2331.98 -2374.19 -2397.74 -2337.71 -1590.47 -1123.25 -927.53 -798.60 -784.35 -822.60 -845.22 -848.46 -756.23 -726.31 -609.88 -489.45 -347.68 -311.61 -276.88 -238.52 -223.01 -189.67 -141.68 -103.18 -89.79 -94.98 -131.58 -139.48 -139.13 -143.29 -143.45 -150.34 -154.97 -148.54 -139.45 -133.80 -114.34 -108.57 -105.40 -92.43 -92.21 -88.97 -80.03 -60.95 -42.03 -38.09 -21.46 -1.97 4.27 14.99 25.27 35.66 41.08 53.42 59.06 75.64 86.44 116.85 133.71 144.55 130.60 114.87 95.07 42.43 14.35 -25.03 -21.76 -30.62 -208.21 -1148.44 -1523.82 -1430.95 -1357.70 -1402.21 -1444.36 -1575.13 -2025.40 -2371.23 -3585.43 -4697.88 -5282.33 -5426.91 -5491.09 -5546.19 -5570.67 -5598.80 -5519.93 -5145.09 -3408.78 -1639.82 -698.47 -524.50 -725.41 -1131.96 -1588.27 -1776.50 -2026.66 -2221.33 -2287.50 -2317.18 -2343.17 -2375.81 -2470.18 -2614.22 -2743.13 -3050.70 -3504.77 -3751.42 -4066.45 -4144.82 -4182.28 -4182.30
-2685.44 -2685.37 -2656.79 -2639.83 -2666.79 -2698.10 -2704.92 -2698.56 -2699.64 -2695.42 -2698.03 -2693.57 -2687.75 -2680.70 -2660.71 -2650.74 -2649.75 -2648.29 -2633.77 -2622.72 -2585.50 -2467.94 -2407.17 -2365.60 -2411.87 -2454.15 -2505.68 -2502.03 -2581.02 -2603.25 -2643.99 -2636.27 -2568.07 -2428.42 -1827.43 -1216.48 -894.18 -843.14 -891.76 -894.45 -898.85 -805.58 -737.82 -705.41 -450.47 -349.83 -319.97 -284.86 -252.55 -236.14 -188.78 -146.11 -118.10 -138.20 -153.69 -180.48 -173.89 -177.58 -164.78 -175.67 -169.41 -163.45 -159.84 -156.07 -142.90 -133.96 -120.98 -117.55 -105.04 -99.41 -94.38 -90.39 -77.28 -77.38 -63.94 -32.78 -15.07 0.87 11.54 20.28 25.16 29.07 36.37 37.08 53.25 62.62 80.42 98.09 100.26 94.27 84.60 43.38 23.69 -46.54 -120.97 -175.86 -454.95 -1075.96 -1506.67 -1482.29 -1449.36 -1641.30 -1648.16 -2012.56 -2282.80 -2587.01 -3972.08 -4508.20 -5117.10 -5376.60 -5476.86 -5509.47 -5564.48 -5587.87 -5598.72 -5492.93 -4602.29 -3786.99 -1808.75 -693.52 -681.06 -1005.06 -1285.21 -1686.02 -1851.17 -2067.94 -2221.06 -2289.93 -2313.37 -2339.14 -2399.34 -2656.75 -2736.68 -2895.65 -3296.40 -3569.23 -3939.71 -4165.43 -4214.34 -4258.39 -4258.45
-2690.66 -2690.59 -2678.62 -2647.04 -2643.58 -2685.04 -2707.60 -2712.07 -2711.77 -2709.74 -2711.71 -2689.09 -2681.02 -2668.72 -2693.51 -2692.26 -2680.04 -2675.83 -2673.05 -2654.77 -2662.90 -2655.58 -2601.70 -2597.18 -2604.74 -2619.58 -2622.50 -2649.15 -2655.26 -2678.26 -2693.41 -2696.45 -2690.08 -2550.66 -1967.91 -1532.52 -1082.87 -981.68 -906.86 -896.72 -903.18 -825.60 -761.65 -732.05 -423.71 -361.17 -346.67 -305.46 -272.74 -251.80 -221.53 -204.19 -184.27 -203.71 -193.52 -202.54 -206.72 -202.60 -194.98 -208.93 -192.11 -186.18 -169.83 -167.63 -153.69 -141.09 -129.83 -124.92 -117.05 -110.32 -100.06 -100.66 -94.21 -91.11 -90.19 -62.99 -46.45 -26.26 0.51 8.95 15.40 21.55 25.85 31.31 33.57 37.15 56.01 71.44 70.15 59.52 50.62 26.41 19.93 -153.02 -324.38 -697.72 -1499.75 -1477.81 -1508.53 -1565.26 -1849.21 -2009.25 -2162.25 -2501.76 -3223.47 -4000.33 -4662.79 -5225.70 -5451.43 -5526.68 -5533.53 -5557.26 -5594.11 -5597.75 -5598.96 -5544.82 -4914.25 -2758.04 -1610.04 -601.29 -846.22 -1150.48 -1357.90 -1783.39 -2000.98 -2163.59 -2288.02 -2293.49 -2306.89 -2350.97 -2531.65 -2753.88 -2953.40 -3253.57 -3414.59 -3789.84 -4135.92 -4215.70 -4258.47 -4277.77 -4277.83
-2695.82 -2695.76 -2705.62 -2691.87 -2680.88 -2672.80 -2694.93 -2707.82 -2702.74 -2714.27 -2704.66 -2666.29 -2677.04 -2659.14 -2709.02 -2710.06 -2704.63 -2696.26 -2690.33 -2697.52 -2684.96 -2678.66 -2661.38 -2668.08 -2660.13 -2675.95 -2679.31 -2680.87 -2691.16 -2705.30 -2714.02 -2720.57 -2710.04 -2626.06 -2184.62 -1872.47 -1423.04 -1088.23 -920.94 -903.03 -900.08 -817.93 -787.91 -737.06 -603.68 -398.90 -356.79 -321.78 -296.13 -278.72 -256.67 -254.36 -229.03 -224.70 -237.13 -237.61 -225.26 -233.04 -226.54 -224.98 -214.70 -204.24 -183.46 -176.33 -167.32 -148.90 -142.77 -131.75 -127.74 -120.14 -115.21 -111.07 -111.70 -102.65 -95.48 -99.52 -76.70 -49.66 -18.62 -18.28 1.98 11.31 15.97 21.66 24.33 27.67 29.65 45.80 36.22 26.07 17.80 -12.78 -87.87 -300.71 -574.49 -1128.31 -1512.84 -1531.36 -1749.06 -2141.59 -3275.07 -3074.24 -3504.64 -4222.19 -4635.90 -5128.89 -5311.44 -5576.85 -5550.97 -5658.85 -5722.13 -5689.59 -5595.35 -5538.45 -5465.79 -5272.95 -4265.30 -2615.85 -1021.70 -652.50 -870.39 -1211.00 -1541.31 -1810.06 -2078.40 -2228.80 -2298.49 -2309.96 -2309.46 -2325.54 -2483.35 -2881.68 -3199.91 -3498.76 -3782.33 -4099.21 -4224.60 -4257.79 -4286.69 -4297.67 -4297.73
-2700.77 -2700.70 -2708.55 -2714.48 -2720.11 -2709.67 -2708.13 -2702.26 -2690.25 -2711.60 -2714.16 -2694.17 -2702.50 -2734.53 -2738.15 -2731.26 -2728.57 -2724.07 -2723.47 -2715.16 -2723.75 -2715.04 -2704.60 -2704.09 -2693.04 -2698.93 -2700.88 -2701.47 -2710.19 -2716.57 -2726.18 -2733.38 -2726.57 -2691.94 -2492.91 -2185.70 -1509.40 -1216.58 -963.18 -909.81 -876.54 -815.25 -823.54 -815.89 -664.48 -511.23 -395.50 -346.04 -327.83 -310.57 -290.25 -284.73 -291.60 -266.99 -265.77 -276.41 -259.49 -261.86 -243.62 -241.34 -232.12 -224.14 -204.86 -191.04 -180.86 -164.64 -155.77 -146.73 -134.36 -134.73 -131.97 -128.14 -122.37 -118.06 -123.94 -113.18 -93.08 -73.42 -67.48 -41.75 -15.56 -0.25 -0.64 10.35 4.09 5.85 20.01 -2.54 -6.31 4.56 -53.13 -144.12 -286.60 -665.33 -1520.64 -1515.12 -1560.46 -1914.65 -2389.64 -3144.76 -4114.36 -4762.36 -4997.18 -5225.51 -5305.31 -5490.66 -5638.21 -5712.68 -5462.50 -5362.74 -5614.51 -5177.82 -5286.21 -4933.27 -4757.47 -4130.17 -3796.63 -1987.56 -794.64 -830.22 -1064.12 -1535.66 -1889.73 -2060.93 -2237.13 -2310.76 -2330.44 -2326.37 -2319.86 -2344.97 -2496.00 -2899.05 -3361.18 -3766.63 -4041.88 -4195.91 -4284.09 -4288.30 -4294.34 -4302.47 -4302.53
-2694.80 -2694.71 -2699.95 -2700.97 -2706.20 -2708.62 -2711.10 -2708.38 -2699.10 -2722.80 -2735.23 -2734.78 -2739.16 -2738.81 -2747.87 -2751.78 -2753.41 -2756.20 -2750.57 -2751.85 -2755.33 -2742.52 -2739.98 -2739.71 -2727.71 -2739.63 -2728.46 -2726.08 -2729.64 -2734.44 -2740.71 -2755.55 -2736.98 -2713.15 -2603.01 -2306.00 -1828.10 -1253.24 -1055.70 -944.37 -907.30 -830.59 -808.12 -807.01 -739.88 -527.84 -385.84 -382.20 -356.70 -338.97 -337.77 -337.81 -336.44 -317.74 -318.95 -306.78 -292.89 -279.57 -269.27 -261.94 -247.94 -236.77 -229.34 -211.17 -199.76 -171.46 -163.37 -160.39 -153.84 -156.47 -155.26 -148.05 -131.24 -134.70 -134.72 -128.57 -120.81 -102.13 -87.33 -47.19 -32.28 -28.02 -11.20 -3.48 -16.74 -6.22 -34.59 -79.64 -91.79 -99.59 -160.76 -200.99 -242.95 -644.99 -1617.21 -1610.67 -2079.31 -3000.28 -3672.72 -4903.80 -5188.76 -5357.93 -5559.46 -5632.57 -5726.31 -5828.93 -5851.40 -5933.67 -4974.40 -3458.62 -2225.02 -1745.42 -3259.61 -2406.32 -2153.76 -2225.46 -1586.27 -961.78 -727.77 -859.08 -1229.36 -1697.37 -1942.08 -2188.21 -2302.85 -2329.19 -2334.30 -2330.10 -2326.65 -2348.44 -2438.23 -2668.54 -3373.69 -3847.88 -4177.38 -4250.54 -4288.58 -4293.02 -4298.74 -4306.17 -4306.23
-2673.07 -2674.38 -2681.72 -2687.24 -2695.33 -2697.02 -2703.79 -2701.59 -2719.48 -2732.29 -2734.53 -2735.89 -2739.07 -2745.03 -2761.77 -2780.85 -2784.05 -2795.29 -2791.71 -2792.25 -2791.04 -2775.18 -2769.25 -2763.13 -2765.89 -2758.11 -2762.10 -2751.43 -2750.60 -2752.69 -2759.86 -2745.86 -2703.29 -2689.99 -2706.89 -2441.79 -1975.42 -1508.16 -1117.92 -975.19 -943.12 -851.63 -800.03 -799.02 -753.22 -548.90 -458.78 -417.69 -381.09 -373.87 -362.32 -375.88 -363.85 -356.45 -341.73 -339.42 -324.46 -298.85 -292.27 -267.76 -263.51 -248.66 -237.16 -224.54 -207.62 -183.05 -175.76 -175.84 -166.88 -165.29 -171.32 -167.64 -163.00 -164.22 -148.78 -135.39 -130.32 -122.69 -107.32 -91.89 -79.49 -71.77 -50.61 -43.69 -63.50 -58.06 -86.62 -95.83 -128.54 -146.23 -162.46 -184.33 -223.18 -890.15 -1859.38 -2148.36 -3232.09 -3922.99 -4900.30 -5090.97 -5674.81 -5699.65 -5805.80 -5949.54 -5486.68 -5128.64 -4070.69 -3189.00 -2473.51 -582.28 -163.61 -241.99 17.73 10.22 -195.76 -989.22 -706.56 -604.88 -614.23 -906.06 -1226.31 -1692.59 -1945.80 -2199.73 -2317.62 -2337.79 -2340.02 -2336.28 -2336.29 -2349.25 -2410.49 -2611.53 -3349.93 -3665.73 -4044.66 -4263.11 -4293.82 -4300.20 -4303.70 -4311.45 -4312.36
-2682.12 -2682.07 -2684.51 -2691.82 -2697.70 -2699.76 -2708.49 -2719.07 -2733.68 -2738.07 -2746.61 -2748.22 -2752.05 -2757.26 -2778.50 -2797.57 -2799.51 -2812.20 -2814.55 -2816.27 -2816.25 -2809.57 -2805.37 -2796.16 -2792.13 -2784.48 -2785.90 -2783.03 -2764.96 -2768.45 -2755.70 -2731.62 -2725.78 -2710.76 -2669.86 -2440.96 -2220.63 -1645.15 -1171.33 -1000.51 -966.03 -874.88 -825.44 -806.91 -762.70 -664.75 -581.19 -497.20 -421.13 -452.93 -439.09 -440.73 -432.25 -451.95 -513.87 -473.25 -443.28 -366.56 -383.74 -435.85 -345.90 -281.27 -261.30 -230.84 -217.03 -203.00 -193.21 -187.42 -186.69 -187.63 -186.25 -184.67 -179.08 -179.38 -171.43 -154.97 -151.08 -148.21 -132.77 -122.29 -100.39 -94.67 -81.74 -84.76 -79.18 -86.01 -96.47 -107.46 -143.31 -176.34 -183.27 -185.73 -990.53 -1519.14 -2472.88 -3011.13 -4527.97 -5031.80 -5512.59 -5556.31 -5812.10 -6000.05 -6136.53 -5149.30 -3515.18 -2809.70 -1673.72 -552.88 3.43 22.45 30.63 32.60 24.00 22.37 14.07 -101.28 -345.21 -585.49 -791.19 -969.09 -1407.90 -1638.53 -1982.35 -2226.76 -2323.66 -2345.95 -2349.61 -2343.62 -2343.33 -2367.34 -2402.25 -2564.25 -3043.08 -3345.32 -3940.35 -4275.36 -4300.82 -4305.96 -4310.94 -4321.48 -4321.54
-2696.95 -2696.89 -2700.33 -2705.49 -2716.08 -2715.14 -2720.95 -2732.60 -2750.17 -2759.98 -2758.67 -2762.60 -2766.22 -2774.20 -2791.04 -2816.71 -2824.97 -2832.91 -2836.27 -2843.14 -2837.76 -2836.20 -2824.86 -2820.53 -2818.09 -2808.66 -2802.33 -2802.07 -2791.92 -2781.01 -2765.65 -2738.63 -2726.88 -2667.57 -2600.03 -2461.60 -2351.53 -1984.50 -1307.40 -1134.69 -988.04 -901.70 -860.15 -829.33 -786.36 -724.91 -663.84 -537.61 -509.51 -526.95 -561.63 -622.75 -611.15 -573.90 -604.96 -558.54 -513.68 -551.67 -494.57 -506.79 -438.50 -299.91 -297.66 -269.84 -230.55 -218.23 -201.92 -205.58 -211.64 -203.38 -208.50 -208.11 -206.50 -196.83 -191.00 -183.51 -174.18 -159.35 -159.23 -142.27 -126.94 -109.40 -102.97 -103.71 -102.28 -96.37 -90.88 -103.59 -149.75 -202.60 -228.75 -698.91 -1490.27 -1980.83 -2468.05 -3945.22 -5072.24 -5058.45 -4887.48 -5079.68 -5389.87 -4520.83 -3407.51 -1819.78 -718.94 -238.12 11.60 17.70 26.45 37.56 42.78 40.43 32.38 25.88 19.35 -35.87 -209.30 -701.10 -938.50 -1206.10 -1432.82 -1777.50 -2002.15 -2226.28 -2343.35 -2354.77 -2354.90 -2361.77 -2370.18 -2395.70 -2454.14 -2583.82 -2891.59 -3215.61 -3798.52 -4264.79 -4282.54 -4308.18 -4314.30 -4328.30 -4328.36
-2714.03 -2713.98 -2715.95 -2725.02 -2725.40 -2738.08 -2737.17 -2752.18 -2762.51 -2773.74 -2777.87 -2783.44 -2791.12 -2798.76 -2813.46 -2836.79 -2853.21 -2860.27 -2861.58 -2870.00 -2862.84 -2859.39 -2851.97 -2843.96 -2843.06 -2838.89 -2828.12 -2809.92 -2798.22 -2790.17 -2782.67 -2761.94 -2701.67 -2641.02 -2471.32 -2372.81 -2236.24 -2095.46 -1606.42 -1218.07 -1097.46 -991.75 -944.65 -860.88 -823.37 -778.82 -725.14 -683.20 -671.28 -644.79 -657.14 -677.85 -663.32 -640.65 -645.29 -616.73 -596.93 -582.76 -547.31 -553.30 -531.53 -427.95 -369.35 -298.52 -239.32 -228.91 -228.92 -227.74 -229.03 -231.91 -234.33 -231.24 -233.92 -226.68 -218.56 -221.07 -215.00 -200.19 -186.00 -164.85 -153.19 -140.75 -123.15 -123.86 -114.67 -93.77 -62.77 -55.94 -163.26 -360.31 -749.63 -1196.25 -1647.06 -1964.32 -2717.07 -3732.72 -4780.93 -3144.05 -2118.49 -1173.31 -2232.65 -1143.17 35.79 15.86 16.38 30.67 40.56 37.97 44.29 43.33 42.32 38.88 32.68 25.63 22.03 8.45 -255.46 -715.33 -1117.62 -1288.98 -1594.29 -1775.88 -2063.89 -2305.03 -2358.25 -2364.59 -2365.79 -2368.36 -2386.04 -2429.72 -2518.99 -2679.29 -2901.26 -3109.18 -3590.57 -4120.19 -4277.92 -4305.88 -4320.29 -4337.00 -4337.06
