-5142.07 -5141.99 -5144.60 -5156.70 -5196.11 -5257.23 -5315.64 -5349.28 -5371.80 -5382.64 -5381.54 -5382.40 -5392.36 -5381.71 -5374.22 -5367.84 -5366.19 -5368.34 -5368.79 -5367.10 -5364.84 -5354.68 -5342.82 -5341.72 -5344.14 -5351.73 -5356.78 -5365.74 -5375.29 -5389.27 -5398.41 -5405.97 -5417.37 -5424.03 -5433.71 -5449.49 -5470.21 -5482.73 -5485.50 -5488.21 -5492.88 -5498.51 -5494.31 -5486.45 -5494.41 -5498.36 -5499.24 -5502.04 -5499.43 -5499.88 -5496.56 -5495.65 -5494.22 -5493.21 -5492.41 -5496.12 -5501.92 -5496.41 -5485.89 -5476.30 -5466.66 -5459.96 -5452.25 -5443.95 -5438.06 -5435.78 -5435.65 -5435.53 -5432.47 -5429.31 -5425.17 -5428.06 -5425.00 -5417.15 -5372.27 -5199.49 -4604.39 -4356.57 -3927.34 -3624.79 -3061.54 -2766.91 -2422.83 -2880.84 -3224.84 -5828.69 -6016.15 -4929.36 -3464.28 -2022.71 -1623.64 -1738.30 -2827.24 -3504.43 -3810.71 -3930.56 -3933.93 -3674.06 -3409.43 -2167.01 -1322.79 -806.05 -653.77 -890.24 -1422.92 -2080.51 -2623.32 -3058.14 -5001.09 -6897.83 -8340.20 -8591.83 -8601.39 -8616.56 -8595.96 -8402.78 -7159.93 -5359.51 -2742.61 -2210.79 -2092.28 -2095.54 -2097.79 -2091.45 -2071.62 -2056.83 -2031.28 -2015.71 -2000.41 -1985.01 -1983.85 -2003.42 -2094.35 -2203.97 -2380.71 -2634.05 -3062.85 -3364.54 -3694.34 -3822.45 -3822.62
-5150.72 -5151.66 -5157.49 -5168.39 -5199.42 -5248.98 -5313.61 -5354.70 -5385.24 -5399.90 -5402.33 -5402.63 -5401.49 -5401.94 -5392.07 -5381.58 -5374.54 -5372.38 -5369.48 -5369.72 -5367.48 -5362.56 -5347.70 -5345.98 -5348.68 -5353.30 -5360.01 -5373.67 -5379.07 -5388.96 -5400.35 -5407.54 -5421.15 -5426.67 -5435.59 -5450.95 -5465.47 -5470.58 -5472.41 -5477.70 -5481.90 -5485.65 -5479.22 -5480.32 -5481.89 -5483.51 -5485.13 -5488.62 -5492.41 -5494.99 -5496.12 -5496.55 -5497.25 -5495.93 -5493.84 -5493.55 -5492.59 -5492.33 -5489.74 -5485.04 -5472.54 -5461.05 -5457.56 -5449.29 -5443.96 -5442.69 -5441.06 -5438.39 -5434.12 -5428.16 -5427.69 -5431.25 -5431.24 -5424.33 -5383.43 -5209.74 -4832.69 -4164.98 -3778.96 -3453.76 -2969.61 -2540.99 -2364.49 -3362.95 -4824.66 -6562.13 -6042.64 -4161.73 -2630.58 -1125.53 -965.15 -2080.69 -2634.55 -3264.46 -3676.33 -3661.32 -3696.05 -3452.11 -3206.92 -2540.28 -1455.18 -847.28 -649.27 -823.36 -1506.52 -2140.81 -2942.84 -3658.95 -5762.06 -7678.97 -8560.47 -8576.03 -8591.79 -8598.63 -8593.08 -8449.58 -7469.06 -5287.60 -2949.81 -2245.80 -2105.55 -2092.01 -2094.21 -2090.20 -2074.52 -2057.66 -2038.35 -2010.05 -2001.93 -1983.86 -1978.12 -1994.53 -2068.20 -2183.77 -2353.63 -2546.21 -2939.06 -3334.21 -3612.07 -3722.34 -3722.47
-5154.64 -5154.56 -5161.95 -5171.26 -5195.11 -5228.03 -5295.19 -5351.99 -5394.17 -5408.23 -5416.57 -5418.55 -5423.61 -5417.25 -5403.78 -5395.02 -5387.09 -5381.44 -5377.74 -5376.24 -5373.81 -5360.16 -5350.61 -5349.67 -5352.82 -5358.77 -5365.71 -5373.28 -5382.69 -5395.89 -5403.01 -5412.38 -5422.71 -5431.91 -5437.64 -5454.89 -5461.59 -5469.33 -5473.10 -5476.17 -5478.67 -5480.14 -5479.06 -5478.95 -5480.39 -5481.54 -5483.18 -5484.92 -5489.84 -5491.78 -5496.33 -5497.94 -5498.70 -5498.60 -5497.41 -5495.23 -5492.35 -5492.92 -5495.54 -5492.63 -5480.27 -5480.84 -5478.53 -5467.38 -5463.06 -5454.67 -5451.82 -5443.26 -5439.44 -5435.41 -5438.65 -5440.03 -5429.53 -5381.30 -5344.51 -5185.51 -4875.52 -4403.01 -3656.66 -3247.74 -2925.07 -2573.95 -2534.29 -3161.36 -4345.99 -7038.79 -7120.06 -3758.89 -1900.17 -749.36 -993.76 -1785.25 -2792.13 -3106.80 -3372.39 -3168.38 -3175.07 -3221.52 -3015.65 -2425.03 -1304.63 -752.34 -497.21 -738.73 -1335.96 -2038.53 -2854.36 -4329.94 -6273.87 -8003.50 -8536.88 -8552.05 -8574.39 -8579.95 -8582.84 -8564.59 -7593.83 -5925.31 -3353.58 -2246.61 -2120.58 -2085.74 -2089.55 -2087.08 -2071.20 -2060.18 -2034.04 -2012.08 -1996.68 -1983.00 -1975.47 -1991.08 -2010.34 -2102.36 -2203.34 -2416.10 -2904.23 -3275.05 -3465.29 -3655.08 -3655.16
-5155.62 -5156.58 -5164.93 -5176.67 -5187.22 -5219.46 -5277.54 -5336.53 -5377.17 -5417.00 -5426.13 -5431.46 -5430.51 -5427.10 -5415.60 -5406.37 -5394.73 -5389.79 -5388.66 -5383.55 -5383.45 -5369.31 -5357.77 -5356.45 -5357.80 -5361.19 -5368.73 -5376.03 -5386.88 -5394.73 -5406.92 -5414.67 -5424.87 -5433.06 -5441.74 -5455.48 -5463.89 -5471.41 -5474.89 -5477.68 -5480.30 -5481.94 -5480.92 -5480.49 -5481.09 -5482.02 -5483.61 -5485.03 -5488.82 -5490.94 -5496.73 -5498.35 -5500.36 -5500.72 -5500.20 -5498.86 -5497.15 -5496.86 -5499.59 -5495.32 -5490.96 -5487.80 -5480.85 -5477.28 -5471.09 -5465.00 -5459.28 -5453.61 -5447.06 -5446.36 -5445.61 -5447.32 -5381.95 -5319.89 -5275.31 -4974.05 -4820.33 -4402.53 -3865.94 -3122.43 -2996.62 -2457.73 -2245.90 -3957.11 -5260.69 -7234.53 -6809.58 -3890.71 -1757.55 -852.52 -1109.07 -1760.43 -2325.16 -3131.82 -3082.76 -2842.02 -2651.57 -2688.19 -2502.74 -2001.46 -1155.95 -659.91 -479.62 -974.01 -1369.11 -2042.94 -2998.03 -4418.61 -6528.07 -8118.87 -8437.40 -8540.79 -8556.72 -8567.42 -8574.33 -8509.90 -8127.41 -5997.76 -3571.79 -2357.60 -2109.34 -2078.22 -2080.72 -2079.73 -2070.91 -2053.15 -2039.63 -2009.09 -1995.94 -1978.86 -1970.90 -1975.53 -1994.32 -2134.41 -2265.04 -2466.58 -2689.75 -3091.90 -3457.91 -3635.10 -3635.26
-5155.33 -5155.26 -5165.40 -5177.91 -5189.17 -5209.34 -5233.62 -5320.28 -5383.44 -5416.03 -5436.20 -5438.41 -5437.35 -5432.29 -5426.99 -5414.18 -5404.96 -5403.03 -5399.12 -5397.42 -5391.28 -5380.80 -5364.45 -5366.22 -5366.93 -5370.51 -5378.36 -5387.70 -5390.30 -5397.61 -5406.75 -5424.36 -5430.33 -5436.82 -5444.36 -5460.14 -5464.82 -5474.83 -5478.25 -5481.50 -5488.51 -5487.84 -5485.61 -5484.89 -5484.02 -5484.40 -5485.34 -5487.61 -5489.71 -5493.80 -5497.58 -5499.83 -5501.67 -5503.76 -5505.38 -5508.03 -5513.65 -5517.53 -5510.38 -5500.44 -5498.12 -5492.90 -5486.01 -5482.01 -5477.45 -5473.07 -5470.29 -5463.89 -5458.33 -5453.58 -5452.91 -5434.41 -5371.30 -5187.15 -4982.28 -4772.07 -4489.29 -4406.21 -3974.60 -3199.22 -2928.96 -2341.35 -2193.98 -2757.80 -4199.30 -6969.80 -6917.73 -4645.70 -1562.27 -1041.25 -1200.08 -1815.67 -2608.65 -2911.78 -2715.23 -2280.82 -2273.25 -2418.73 -2371.38 -1791.04 -1167.20 -805.72 -634.95 -917.38 -1385.31 -2071.63 -3122.11 -3722.36 -6487.43 -7609.27 -8196.30 -8478.85 -8547.22 -8554.51 -8565.06 -8548.80 -8442.30 -6687.23 -4622.49 -2444.28 -2148.15 -2076.30 -2072.82 -2072.76 -2066.34 -2047.98 -2031.60 -2009.06 -1995.09 -1977.94 -1970.41 -1976.48 -2016.84 -2096.32 -2260.22 -2409.00 -2690.44 -3038.45 -3414.99 -3482.56 -3498.02
-5156.13 -5156.06 -5168.98 -5183.64 -5193.12 -5211.07 -5227.82 -5265.53 -5336.98 -5388.02 -5418.58 -5430.41 -5432.99 -5434.65 -5434.49 -5427.96 -5425.26 -5425.72 -5416.90 -5412.51 -5414.51 -5405.22 -5398.07 -5399.38 -5394.83 -5402.43 -5413.62 -5406.81 -5408.99 -5423.21 -5429.32 -5439.27 -5448.01 -5453.03 -5461.19 -5469.71 -5486.86 -5489.72 -5490.21 -5492.21 -5495.72 -5497.34 -5497.20 -5493.31 -5488.20 -5492.29 -5492.31 -5493.26 -5493.45 -5497.05 -5498.04 -5500.14 -5502.58 -5505.88 -5508.98 -5520.40 -5520.81 -5522.15 -5515.24 -5507.06 -5503.70 -5500.06 -5492.15 -5490.50 -5489.11 -5481.21 -5477.31 -5470.13 -5463.88 -5458.67 -5455.34 -5420.02 -5291.63 -5008.39 -4759.05 -4361.08 -4201.35 -4012.25 -3561.50 -3041.33 -2626.60 -2203.03 -2177.06 -2592.13 -5022.92 -6457.12 -6668.87 -4769.91 -1373.78 -1065.58 -1246.72 -1772.91 -2427.20 -2583.95 -2267.93 -2026.76 -2001.16 -2017.44 -1994.89 -1620.22 -1339.22 -707.66 -738.62 -969.34 -1405.18 -2011.96 -2509.84 -3650.03 -5605.70 -6804.45 -7811.39 -8500.26 -8536.00 -8554.22 -8560.81 -8548.18 -8314.52 -7458.01 -4243.81 -2737.24 -2129.23 -2077.92 -2063.79 -2063.24 -2054.43 -2042.33 -2022.82 -2004.44 -1992.44 -1978.68 -1976.40 -1980.21 -2026.87 -2068.73 -2235.75 -2455.71 -2729.48 -3031.86 -3316.34 -3371.91 -3372.10
-5161.14 -5161.07 -5173.46 -5180.98 -5200.36 -5209.57 -5226.57 -5257.94 -5293.67 -5369.94 -5389.44 -5401.23 -5410.83 -5414.59 -5431.16 -5439.76 -5445.96 -5440.45 -5440.20 -5433.67 -5428.42 -5423.13 -5421.06 -5421.14 -5420.76 -5420.46 -5425.00 -5430.43 -5434.91 -5436.85 -5445.20 -5450.90 -5455.07 -5463.28 -5467.84 -5481.16 -5493.55 -5499.96 -5501.60 -5508.89 -5511.22 -5511.78 -5507.18 -5500.09 -5495.54 -5499.68 -5501.14 -5501.66 -5500.50 -5499.69 -5498.74 -5500.48 -5503.73 -5508.78 -5518.35 -5532.07 -5529.51 -5522.72 -5519.05 -5513.77 -5509.96 -5504.84 -5499.44 -5493.07 -5492.02 -5486.42 -5483.02 -5477.78 -5473.70 -5465.48 -5425.58 -5324.09 -5167.66 -4854.33 -4518.56 -4165.74 -4027.20 -3931.93 -3609.32 -3100.87 -2588.55 -2303.81 -2265.95 -2639.36 -4837.24 -6648.27 -6415.29 -4117.60 -1330.15 -989.20 -1234.17 -1664.63 -2081.44 -1736.17 -1722.30 -1746.47 -1749.02 -1656.30 -1630.66 -1691.73 -1305.31 -651.17 -657.18 -1237.09 -1598.98 -2286.35 -2909.69 -4110.03 -5128.05 -6739.90 -8251.81 -8464.33 -8536.14 -8550.61 -8555.58 -8542.60 -8353.60 -7126.81 -5476.32 -2764.48 -2206.33 -2091.28 -2052.92 -2052.92 -2049.43 -2036.95 -2021.63 -2001.99 -1986.88 -1980.20 -1992.10 -1998.19 -2031.53 -2081.95 -2240.49 -2440.82 -2805.05 -2992.80 -3160.27 -3195.50 -3195.63
-5159.52 -5160.94 -5170.38 -5186.50 -5200.28 -5212.43 -5234.07 -5247.88 -5283.20 -5329.84 -5360.02 -5372.97 -5377.79 -5403.25 -5426.47 -5450.46 -5457.16 -5456.24 -5450.59 -5446.16 -5441.21 -5438.53 -5434.34 -5431.44 -5430.73 -5432.34 -5433.80 -5434.92 -5437.43 -5443.17 -5448.08 -5453.28 -5461.46 -5465.18 -5471.33 -5482.47 -5491.51 -5498.37 -5503.70 -5509.65 -5512.68 -5514.17 -5510.24 -5500.46 -5499.64 -5499.92 -5502.61 -5503.92 -5504.20 -5501.29 -5500.21 -5501.01 -5505.69 -5512.87 -5518.26 -5526.21 -5524.92 -5523.23 -5521.28 -5519.37 -5517.06 -5513.82 -5505.40 -5498.58 -5495.70 -5490.97 -5488.66 -5482.15 -5478.22 -5464.11 -5433.44 -5311.32 -5072.82 -4770.17 -4284.17 -4117.52 -3889.43 -3833.68 -3370.00 -3080.25 -2592.38 -2348.48 -2291.58 -2692.69 -4681.38 -6484.60 -6020.93 -3427.18 -1456.43 -814.62 -924.04 -1310.54 -1466.88 -1662.29 -1529.99 -1496.88 -1589.60 -1521.99 -1459.29 -1424.09 -1234.95 -640.35 -846.91 -1240.18 -1699.15 -2210.60 -3195.27 -4172.02 -5411.30 -6867.46 -8161.33 -8463.70 -8536.72 -8535.73 -8539.74 -8534.13 -8490.06 -8009.51 -5333.54 -3037.13 -2254.05 -2064.41 -2044.74 -2045.15 -2043.30 -2031.89 -2019.37 -1996.52 -1985.07 -2002.73 -2029.46 -2079.74 -2087.54 -2190.38 -2301.11 -2432.28 -2686.22 -2855.61 -3045.62 -3085.28 -3085.44
-5155.68 -5155.61 -5169.10 -5183.29 -5199.45 -5211.14 -5226.92 -5233.36 -5245.82 -5274.80 -5303.09 -5319.87 -5338.01 -5370.66 -5417.19 -5448.97 -5461.57 -5460.81 -5464.20 -5458.93 -5450.27 -5444.14 -5438.33 -5436.52 -5434.32 -5432.23 -5432.72 -5432.68 -5435.85 -5437.77 -5442.15 -5446.81 -5452.95 -5458.33 -5463.75 -5466.73 -5480.69 -5483.64 -5493.99 -5498.63 -5503.82 -5507.08 -5502.23 -5496.08 -5495.14 -5497.23 -5500.11 -5503.09 -5504.00 -5501.61 -5500.07 -5502.64 -5506.64 -5512.53 -5517.39 -5522.03 -5524.70 -5525.26 -5521.37 -5519.36 -5518.15 -5513.63 -5505.75 -5499.45 -5494.77 -5491.66 -5487.49 -5483.22 -5476.27 -5432.02 -5346.06 -5155.47 -4998.03 -4853.77 -4492.38 -3791.32 -3722.88 -3376.90 -3164.76 -2889.40 -2715.92 -2593.48 -2405.75 -2617.05 -4885.60 -6342.14 -5491.92 -2267.04 -765.58 -526.51 -672.42 -1040.93 -1100.40 -1207.24 -1366.22 -1371.16 -1394.87 -1340.76 -1418.01 -1422.33 -906.78 -662.39 -909.05 -1219.41 -1712.00 -2161.43 -3099.48 -4223.55 -5313.21 -7163.63 -8275.56 -8495.17 -8523.15 -8532.01 -8531.98 -8536.44 -8503.85 -7873.66 -5123.12 -3124.81 -2434.25 -2043.96 -2021.47 -2026.05 -2030.61 -2020.30 -2007.83 -1991.51 -1994.34 -2036.08 -2108.21 -2143.85 -2203.32 -2301.97 -2376.58 -2498.92 -2610.71 -2791.59 -2906.60 -2944.20 -2944.32
-5150.84 -5150.77 -5165.15 -5180.64 -5195.37 -5207.27 -5217.93 -5220.40 -5225.38 -5245.12 -5250.46 -5263.69 -5280.50 -5351.40 -5379.43 -5437.71 -5459.62 -5477.62 -5470.93 -5459.49 -5449.52 -5445.87 -5440.52 -5434.63 -5432.30 -5426.74 -5426.70 -5427.38 -5428.56 -5430.75 -5431.59 -5435.55 -5438.35 -5443.45 -5454.01 -5461.61 -5466.20 -5475.57 -5482.25 -5486.67 -5488.34 -5499.20 -5493.64 -5488.01 -5487.55 -5492.80 -5496.56 -5501.32 -5502.81 -5501.66 -5499.19 -5501.62 -5503.24 -5509.90 -5513.98 -5517.88 -5521.85 -5522.91 -5519.66 -5518.25 -5516.51 -5514.20 -5507.10 -5504.08 -5497.82 -5490.53 -5484.57 -5482.03 -5473.82 -5425.76 -5311.20 -5164.51 -4872.20 -4759.39 -4369.13 -3891.80 -3511.44 -3132.70 -2940.57 -2841.20 -2716.87 -2504.64 -2498.86 -2781.85 -4378.25 -5253.66 -4382.27 -1404.36 -537.07 -308.66 -462.52 -686.97 -869.73 -1051.33 -1207.16 -1238.23 -1289.69 -1318.09 -1390.63 -1260.18 -702.68 -512.42 -859.26 -1178.84 -2032.08 -3490.98 -4022.98 -5684.22 -6679.23 -7825.67 -8318.85 -8489.36 -8517.30 -8531.39 -8532.70 -8531.04 -8486.14 -7915.01 -6122.17 -3689.79 -2469.51 -2044.99 -2002.05 -2009.48 -2021.87 -2016.02 -1996.20 -1989.99 -1987.31 -2049.74 -2109.07 -2123.67 -2224.52 -2313.61 -2429.74 -2473.19 -2600.90 -2754.84 -2837.52 -2879.74 -2879.83
-5142.99 -5142.92 -5156.56 -5169.12 -5184.28 -5197.64 -5207.87 -5211.67 -5210.40 -5217.80 -5224.96 -5226.73 -5244.54 -5277.73 -5355.15 -5408.80 -5467.11 -5478.73 -5449.93 -5450.73 -5445.17 -5440.18 -5435.26 -5425.09 -5422.40 -5415.40 -5419.44 -5414.63 -5417.31 -5415.75 -5418.36 -5419.93 -5425.80 -5431.88 -5433.33 -5446.21 -5453.63 -5458.95 -5465.50 -5472.78 -5482.10 -5489.70 -5486.55 -5483.28 -5483.52 -5491.19 -5498.76 -5503.13 -5498.35 -5498.23 -5495.34 -5498.93 -5499.54 -5503.67 -5506.82 -5511.77 -5515.34 -5517.26 -5517.21 -5514.87 -5511.68 -5511.73 -5509.37 -5506.03 -5500.18 -5489.68 -5481.10 -5476.22 -5471.40 -5423.54 -5292.75 -5003.32 -4655.96 -4414.68 -4240.69 -3821.74 -3407.18 -3072.56 -2878.43 -2738.19 -2648.72 -2501.02 -2377.63 -2555.72 -3061.83 -3962.44 -2234.13 -735.77 -203.24 -106.26 -227.27 -570.38 -846.81 -1063.07 -1144.60 -1205.26 -1213.44 -1265.81 -1339.19 -953.16 -570.60 -409.29 -699.95 -1357.31 -2360.63 -5126.07 -4916.74 -6519.90 -7678.41 -8027.32 -8474.26 -8518.56 -8524.05 -8533.64 -8532.48 -8519.09 -8495.83 -8351.62 -7385.05 -4189.19 -2519.12 -2074.73 -1980.83 -1992.64 -2002.77 -2007.85 -1999.87 -1978.97 -1971.69 -2008.93 -2037.49 -2087.96 -2218.12 -2274.61 -2365.02 -2435.26 -2580.68 -2738.57 -2827.99 -2854.29 -2854.36
-5123.47 -5122.87 -5135.05 -5149.14 -5163.24 -5182.68 -5188.07 -5192.55 -5196.60 -5201.46 -5206.48 -5215.89 -5223.75 -5234.74 -5305.32 -5351.80 -5404.42 -5446.04 -5443.34 -5444.05 -5439.95 -5426.61 -5418.98 -5411.32 -5403.75 -5401.69 -5401.24 -5405.36 -5400.61 -5398.84 -5399.57 -5411.72 -5405.31 -5404.88 -5408.57 -5422.21 -5426.10 -5442.18 -5442.95 -5453.54 -5462.14 -5468.65 -5482.64 -5482.81 -5486.86 -5493.91 -5498.11 -5498.94 -5495.77 -5493.10 -5492.55 -5493.10 -5495.12 -5495.57 -5500.63 -5503.27 -5505.78 -5508.61 -5510.71 -5510.72 -5508.27 -5505.87 -5502.51 -5501.17 -5491.78 -5481.88 -5477.96 -5469.75 -5458.89 -5414.93 -5268.86 -4876.54 -4585.31 -4266.58 -3903.80 -3592.99 -3377.55 -3052.40 -2820.49 -2633.83 -2527.02 -2466.82 -2284.40 -2294.50 -2719.61 -2848.70 -1397.20 -367.16 24.59 126.98 -25.27 -553.09 -894.75 -1110.06 -1128.24 -1173.52 -1187.99 -1225.26 -1190.46 -906.13 -402.11 -357.78 -853.83 -1700.90 -2576.42 -4228.26 -5300.95 -6540.79 -7494.28 -7961.19 -8244.06 -8525.73 -8515.65 -8530.33 -8519.76 -8510.73 -8486.87 -8143.74 -7091.80 -4740.35 -2715.83 -2036.10 -1946.12 -1957.21 -1990.70 -2003.50 -1994.73 -1985.19 -1981.21 -1988.70 -2005.73 -2026.52 -2097.37 -2223.41 -2287.61 -2327.05 -2434.24 -2691.06 -2740.66 -2818.58 -2818.72
-5093.73 -5093.66 -5110.39 -5121.50 -5128.21 -5143.17 -5156.80 -5166.35 -5175.23 -5178.96 -5189.88 -5195.04 -5202.95 -5212.82 -5234.86 -5284.48 -5357.22 -5407.57 -5423.85 -5431.70 -5429.28 -5415.02 -5388.60 -5381.32 -5382.13 -5383.73 -5382.13 -5373.73 -5368.85 -5372.74 -5369.21 -5374.75 -5382.20 -5378.11 -5388.51 -5397.70 -5404.55 -5415.58 -5413.33 -5423.25 -5428.20 -5440.13 -5472.27 -5484.88 -5494.24 -5498.47 -5496.72 -5493.61 -5493.08 -5490.50 -5489.36 -5491.18 -5490.69 -5493.57 -5494.72 -5497.88 -5500.79 -5504.76 -5505.17 -5503.81 -5501.84 -5499.79 -5496.31 -5491.54 -5484.66 -5478.24 -5471.94 -5462.63 -5451.72 -5349.69 -5167.18 -4846.58 -4347.48 -4231.73 -3752.34 -3378.14 -3207.36 -2886.04 -2701.32 -2499.34 -2135.93 -2122.10 -2111.12 -1912.49 -1751.82 -1362.16 -922.91 -134.28 66.84 134.92 61.49 -528.33 -909.04 -1025.12 -1115.18 -1125.34 -1154.96 -1161.29 -1112.31 -891.24 -567.53 -706.83 -1013.70 -1696.44 -3105.42 -3743.65 -4919.78 -5459.45 -5820.81 -6751.14 -8234.47 -8501.35 -8495.84 -8514.62 -8507.52 -8515.51 -8480.54 -8203.16 -7371.60 -5194.80 -2916.81 -2077.20 -1913.93 -1934.93 -1989.42 -2000.48 -1995.32 -1988.01 -1979.66 -1982.55 -1998.17 -2008.02 -2052.80 -2118.24 -2172.07 -2304.05 -2407.45 -2542.36 -2683.63 -2735.15 -2737.01
-5082.77 -5083.77 -5093.22 -5102.23 -5113.61 -5126.78 -5135.30 -5146.42 -5153.17 -5165.05 -5172.37 -5181.74 -5180.40 -5194.54 -5222.51 -5241.11 -5277.85 -5340.13 -5391.39 -5416.64 -5416.62 -5404.09 -5377.00 -5372.70 -5369.61 -5365.59 -5361.69 -5360.89 -5360.12 -5360.22 -5361.52 -5364.25 -5364.62 -5368.39 -5373.18 -5381.70 -5391.16 -5399.54 -5405.52 -5409.58 -5418.41 -5436.95 -5454.75 -5483.68 -5491.41 -5498.20 -5497.53 -5491.97 -5492.53 -5490.11 -5488.11 -5486.72 -5485.40 -5487.21 -5488.64 -5493.28 -5493.25 -5496.10 -5496.82 -5497.27 -5493.18 -5489.45 -5483.39 -5478.76 -5473.69 -5466.50 -5459.05 -5453.73 -5441.83 -5351.89 -5235.30 -4860.18 -4388.63 -4012.06 -3746.14 -3370.44 -3147.45 -2939.60 -2589.80 -2093.57 -1941.77 -1998.50 -1945.69 -1550.46 -1364.63 -1048.92 -488.93 -183.89 160.74 162.71 -50.64 -539.41 -733.20 -877.34 -962.52 -1035.69 -1084.58 -1105.22 -1158.25 -780.00 -628.04 -889.99 -1198.21 -1672.04 -2363.70 -3322.19 -4161.78 -4746.38 -5404.95 -6622.22 -7710.46 -8465.62 -8460.78 -8482.99 -8495.30 -8493.86 -8482.30 -8339.72 -7950.92 -5119.47 -2973.00 -2071.33 -1911.90 -1938.92 -1980.20 -1989.49 -1996.20 -1986.74 -1979.98 -1973.39 -1983.75 -1994.25 -2029.35 -2059.94 -2147.86 -2259.29 -2309.09 -2473.83 -2629.25 -2736.30 -2736.37
-5078.82 -5079.74 -5086.51 -5096.33 -5105.12 -5115.48 -5132.01 -5137.08 -5141.68 -5151.74 -5158.08 -5159.84 -5165.37 -5179.33 -5200.08 -5230.37 -5250.92 -5293.13 -5344.17 -5381.99 -5404.68 -5398.88 -5375.33 -5364.29 -5361.24 -5360.95 -5360.04 -5359.60 -5358.90 -5358.61 -5359.13 -5361.98 -5364.42 -5369.14 -5372.47 -5381.41 -5389.74 -5396.41 -5404.41 -5409.44 -5415.87 -5437.55 -5453.37 -5480.11 -5490.78 -5496.84 -5495.87 -5492.99 -5488.01 -5485.71 -5483.93 -5483.77 -5482.54 -5483.35 -5483.08 -5485.48 -5485.99 -5491.35 -5491.73 -5489.33 -5487.41 -5482.32 -5474.09 -5470.56 -5462.54 -5458.91 -5446.79 -5430.85 -5417.73 -5339.79 -5232.64 -4836.10 -4502.55 -3987.90 -3606.37 -3223.89 -3048.36 -2654.69 -2348.36 -2041.02 -1653.09 -1282.15 -1411.46 -1173.12 -954.38 -731.50 -406.66 -46.32 137.55 151.61 42.67 -465.16 -622.28 -741.19 -868.44 -880.21 -910.96 -1004.71 -886.67 -643.82 -534.87 -598.76 -884.95 -1572.62 -2282.07 -3386.57 -3938.27 -4852.77 -5950.57 -6957.14 -8175.48 -8455.82 -8437.82 -8465.80 -8496.50 -8490.45 -8462.66 -8415.91 -7855.78 -6245.03 -3027.91 -2097.10 -1929.97 -1942.05 -1964.74 -1979.59 -1990.42 -1990.80 -1979.54 -1974.47 -1975.54 -1981.47 -1992.41 -2035.49 -2102.53 -2145.50 -2287.58 -2440.99 -2549.44 -2738.71 -2738.78
-5076.21 -5076.15 -5082.45 -5090.05 -5097.49 -5104.77 -5116.74 -5120.00 -5128.91 -5137.66 -5144.38 -5149.41 -5153.15 -5170.75 -5183.50 -5207.79 -5218.02 -5244.94 -5275.48 -5338.92 -5384.97 -5383.48 -5368.34 -5361.67 -5359.12 -5358.65 -5359.32 -5359.92 -5360.89 -5362.15 -5364.76 -5365.22 -5368.10 -5370.98 -5377.37 -5382.46 -5392.81 -5396.50 -5405.63 -5410.45 -5418.44 -5435.97 -5451.32 -5477.92 -5483.39 -5491.80 -5492.06 -5491.57 -5487.52 -5483.31 -5478.87 -5479.28 -5480.03 -5478.11 -5478.02 -5476.83 -5479.56 -5481.54 -5482.32 -5481.36 -5480.79 -5474.02 -5465.12 -5458.57 -5454.06 -5448.65 -5437.73 -5409.61 -5378.79 -5307.23 -5159.00 -4889.92 -4496.67 -4063.62 -3580.31 -3339.28 -2762.70 -2526.89 -2054.80 -1690.08 -1421.77 -1170.73 -1054.29 -876.10 -825.54 -652.16 -359.32 -1.72 99.19 95.32 -225.09 -451.60 -526.09 -584.43 -708.12 -715.35 -802.13 -894.40 -825.24 -151.86 -5.24 -224.45 -1080.53 -1512.62 -2249.15 -3274.27 -4085.55 -5075.83 -6646.82 -7491.20 -8253.73 -8437.77 -8434.12 -8459.65 -8480.67 -8461.89 -8424.82 -8396.57 -7845.53 -5961.08 -3807.88 -2132.02 -1962.99 -1941.34 -1949.84 -1969.92 -1991.12 -1991.32 -1982.73 -1975.02 -1971.10 -1974.68 -1983.90 -2006.80 -2047.91 -2048.95 -2179.93 -2214.92 -2531.90 -2695.88 -2740.58
-5073.95 -5073.88 -5080.31 -5084.18 -5091.03 -5097.20 -5108.24 -5112.69 -5121.43 -5125.49 -5136.84 -5138.12 -5143.20 -5150.85 -5178.73 -5186.67 -5198.47 -5212.44 -5234.98 -5290.55 -5345.84 -5362.00 -5358.84 -5356.23 -5355.36 -5356.57 -5357.68 -5359.98 -5364.81 -5366.52 -5368.04 -5372.91 -5377.53 -5381.99 -5383.24 -5390.02 -5394.56 -5400.92 -5405.41 -5411.68 -5417.60 -5432.30 -5444.19 -5468.37 -5479.39 -5484.62 -5489.90 -5496.36 -5491.50 -5481.45 -5475.69 -5475.45 -5470.69 -5472.02 -5473.47 -5471.25 -5472.50 -5473.02 -5474.25 -5473.85 -5471.16 -5466.44 -5459.51 -5450.88 -5443.98 -5437.45 -5428.14 -5410.11 -5363.22 -5277.32 -5132.61 -4873.90 -4568.97 -4088.46 -3784.59 -3554.43 -3060.41 -2766.30 -2066.21 -1639.21 -1226.63 -928.76 -789.75 -719.02 -708.70 -493.08 -309.42 -140.98 -184.58 -174.74 -315.61 -396.83 -428.27 -437.51 -444.86 -569.09 -501.78 -688.00 -555.10 -51.40 77.03 -327.74 -924.28 -2081.90 -2665.54 -2981.07 -4292.99 -5404.89 -6792.01 -8027.72 -8426.60 -8426.42 -8430.96 -8390.54 -8413.88 -8378.74 -8334.02 -8321.59 -7948.41 -6232.83 -3321.65 -2092.61 -1903.77 -1864.38 -1913.01 -1977.16 -1994.52 -1991.96 -1985.04 -1980.57 -1974.75 -1976.62 -1983.18 -1990.08 -2006.56 -2032.26 -2089.63 -2228.31 -2439.43 -2697.61 -2697.78
-5072.21 -5072.41 -5075.87 -5079.64 -5085.02 -5087.17 -5098.80 -5108.18 -5123.52 -5134.59 -5138.35 -5139.80 -5144.34 -5150.47 -5160.91 -5167.45 -5170.59 -5181.72 -5194.08 -5219.64 -5277.50 -5332.84 -5340.60 -5347.72 -5350.87 -5354.55 -5356.01 -5360.94 -5369.85 -5375.34 -5387.63 -5391.81 -5392.59 -5395.14 -5400.87 -5398.04 -5397.27 -5400.89 -5403.85 -5408.48 -5414.70 -5427.05 -5431.77 -5454.15 -5468.36 -5473.57 -5472.23 -5480.54 -5479.04 -5469.05 -5470.64 -5468.16 -5465.22 -5463.18 -5463.31 -5464.26 -5467.06 -5467.38 -5467.25 -5467.81 -5461.98 -5454.59 -5448.94 -5442.07 -5431.48 -5425.81 -5420.77 -5408.37 -5332.34 -5255.01 -5070.97 -4918.21 -4535.46 -4165.48 -3775.87 -3495.36 -3062.01 -2600.77 -2230.91 -1619.03 -1056.92 -833.71 -714.09 -629.85 -565.43 -519.44 -409.70 -280.32 -317.56 -387.87 -364.72 -349.12 -330.45 -324.39 -276.46 -304.43 -263.82 -177.60 -227.78 -22.03 -76.55 -386.18 -1076.80 -1790.72 -2476.85 -3386.62 -4461.72 -5783.32 -7119.58 -8088.06 -8352.65 -8367.36 -8359.39 -8322.69 -8310.67 -8266.14 -8208.51 -8133.25 -7956.02 -6366.61 -3541.36 -1981.71 -1788.12 -1797.24 -1907.85 -1967.75 -1986.14 -1990.52 -1987.05 -1980.27 -1977.25 -1976.73 -1976.65 -1978.54 -1994.06 -2022.02 -2102.71 -2200.66 -2448.98 -2537.47 -2559.25
-5070.93 -5071.24 -5073.28 -5076.27 -5078.90 -5083.03 -5089.37 -5100.95 -5131.88 -5139.59 -5143.16 -5146.35 -5148.60 -5152.39 -5151.84 -5144.66 -5152.76 -5164.16 -5169.55 -5175.39 -5208.97 -5282.08 -5316.41 -5332.93 -5344.43 -5348.64 -5353.16 -5361.53 -5383.03 -5392.53 -5396.75 -5402.26 -5410.23 -5413.51 -5409.78 -5404.79 -5398.81 -5395.39 -5399.86 -5407.52 -5410.68 -5421.33 -5431.80 -5439.84 -5453.49 -5451.86 -5456.13 -5459.31 -5460.71 -5475.44 -5468.75 -5464.60 -5462.24 -5459.81 -5459.55 -5460.89 -5460.67 -5463.56 -5461.83 -5460.79 -5457.09 -5443.74 -5438.32 -5432.18 -5424.92 -5419.84 -5417.78 -5398.59 -5358.69 -5297.97 -5072.35 -4929.56 -4728.09 -4346.87 -4087.83 -3520.87 -2915.47 -2494.52 -2039.49 -1484.49 -1003.44 -769.03 -645.59 -568.42 -493.24 -441.19 -423.82 -409.11 -376.89 -337.44 -311.44 -245.67 -215.11 -236.55 -133.07 -141.89 -34.42 -13.60 -76.39 -89.39 -182.97 -595.26 -1044.32 -1909.01 -2860.01 -3594.35 -4283.59 -5990.26 -7017.25 -7849.03 -8162.68 -8239.31 -8280.68 -8191.17 -8202.97 -8184.57 -8105.24 -7986.09 -7857.94 -4548.22 -3232.35 -1845.36 -1716.77 -1792.29 -1913.65 -1963.95 -1979.92 -1990.17 -1986.76 -1980.62 -1977.40 -1976.79 -1977.24 -1983.50 -1999.82 -2056.03 -2115.74 -2236.70 -2401.16 -2452.23 -2452.36
-5068.32 -5068.20 -5069.47 -5071.09 -5073.75 -5076.47 -5085.05 -5104.17 -5125.36 -5134.33 -5138.25 -5139.58 -5142.14 -5144.69 -5142.65 -5132.66 -5131.15 -5137.52 -5145.92 -5157.78 -5171.84 -5231.14 -5281.75 -5325.75 -5342.81 -5348.23 -5353.37 -5361.96 -5380.51 -5395.61 -5401.90 -5407.48 -5415.88 -5420.13 -5421.34 -5404.90 -5397.26 -5392.31 -5398.55 -5406.28 -5410.87 -5422.14 -5431.28 -5441.70 -5443.68 -5442.82 -5443.75 -5445.28 -5453.88 -5465.91 -5467.87 -5463.15 -5459.94 -5457.49 -5455.12 -5456.58 -5453.25 -5455.80 -5456.34 -5454.56 -5448.89 -5444.53 -5428.62 -5427.74 -5409.14 -5404.47 -5394.29 -5382.24 -5341.22 -5282.20 -5064.53 -4911.56 -4653.91 -4237.52 -3544.42 -2936.99 -2593.34 -2048.56 -1673.48 -1162.77 -847.35 -661.45 -601.83 -536.10 -470.38 -434.76 -425.34 -389.18 -335.48 -242.23 -77.20 -105.32 -120.34 -40.80 7.72 41.25 69.69 115.79 110.40 20.30 -138.89 -486.20 -1199.98 -1828.88 -2573.37 -3529.88 -4404.89 -5740.50 -7259.67 -7946.64 -8041.44 -7872.61 -8080.92 -8098.53 -8101.10 -8028.79 -7899.77 -7877.05 -7544.78 -5238.13 -2847.03 -1810.09 -1687.38 -1781.83 -1875.20 -1964.53 -1974.40 -1987.40 -1986.67 -1980.73 -1979.26 -1977.71 -1982.25 -1998.36 -2022.40 -2054.02 -2137.62 -2206.34 -2304.89 -2396.76 -2396.82
-5065.82 -5065.75 -5067.16 -5068.12 -5070.43 -5071.59 -5077.87 -5091.72 -5120.56 -5125.79 -5130.82 -5133.94 -5136.22 -5137.81 -5131.94 -5121.72 -5124.82 -5127.08 -5138.51 -5145.75 -5155.55 -5193.42 -5230.56 -5306.22 -5332.79 -5344.59 -5352.04 -5357.71 -5381.83 -5393.66 -5402.69 -5409.76 -5415.63 -5418.85 -5413.45 -5385.91 -5367.33 -5374.95 -5381.49 -5393.75 -5403.39 -5417.15 -5431.44 -5443.51 -5447.27 -5445.17 -5443.56 -5443.28 -5445.28 -5463.42 -5467.61 -5464.25 -5461.54 -5458.61 -5451.51 -5449.16 -5450.64 -5450.97 -5451.12 -5446.92 -5446.00 -5436.32 -5421.88 -5404.64 -5386.88 -5389.94 -5372.98 -5360.78 -5334.27 -5288.25 -5005.59 -4710.58 -4264.22 -4079.41 -3441.76 -2856.69 -2401.32 -1888.48 -1418.21 -1067.35 -809.72 -679.96 -542.07 -518.32 -457.99 -431.33 -420.84 -346.52 -150.09 22.71 137.27 67.77 72.62 81.01 68.63 113.69 150.62 169.35 192.25 167.92 218.60 -18.36 -908.00 -1036.28 -1989.98 -3460.90 -3779.16 -5376.93 -5714.05 -6407.27 -7271.69 -7404.05 -7796.87 -7924.12 -7915.50 -7837.95 -7733.29 -7693.55 -7187.63 -4932.41 -2738.04 -1868.06 -1654.89 -1752.81 -1842.90 -1949.75 -1981.48 -1988.25 -1981.40 -1981.94 -1980.48 -1979.77 -1986.36 -1996.42 -2022.10 -2088.84 -2145.23 -2238.01 -2297.77 -2398.34 -2398.40
-5064.67 -5064.61 -5065.39 -5066.14 -5066.71 -5068.68 -5074.01 -5085.60 -5107.72 -5120.24 -5124.64 -5125.89 -5128.38 -5129.94 -5126.80 -5118.24 -5117.80 -5124.00 -5129.85 -5141.54 -5149.88 -5165.25 -5224.21 -5251.65 -5317.07 -5340.27 -5348.78 -5359.98 -5372.30 -5390.49 -5401.37 -5403.03 -5404.97 -5397.60 -5358.63 -5316.17 -5261.21 -5209.66 -5260.81 -5291.56 -5356.71 -5381.54 -5404.68 -5426.63 -5445.08 -5446.64 -5450.06 -5447.26 -5447.53 -5458.42 -5462.18 -5459.46 -5451.92 -5458.65 -5452.52 -5447.61 -5447.93 -5445.57 -5446.68 -5443.74 -5440.74 -5426.94 -5418.24 -5403.00 -5389.55 -5377.87 -5367.67 -5349.93 -5318.66 -5184.73 -4906.50 -4428.65 -4111.99 -3735.47 -3522.48 -2698.57 -2174.11 -1712.93 -1315.41 -1066.70 -792.57 -616.47 -530.31 -498.30 -477.27 -405.05 -356.31 -222.61 150.18 208.78 208.86 211.00 201.71 196.93 169.61 150.01 160.73 130.17 122.43 57.19 183.43 216.82 -6.14 -541.15 -1364.50 -2184.85 -2024.00 -3313.95 -2838.88 -4194.22 -5606.49 -6802.32 -7511.79 -7693.90 -7698.86 -7505.05 -7468.01 -7403.28 -6802.56 -4690.15 -2750.48 -1696.24 -1635.95 -1735.52 -1838.03 -1922.26 -1982.02 -1991.11 -1985.84 -1983.82 -1978.87 -1976.06 -1981.23 -1987.57 -2047.88 -2101.50 -2148.26 -2274.17 -2355.35 -2393.91 -2399.82
-5069.40 -5069.35 -5078.94 -5077.09 -5071.94 -5072.53 -5075.99 -5082.71 -5108.16 -5113.78 -5116.46 -5117.70 -5121.13 -5123.78 -5120.55 -5114.68 -5116.38 -5124.25 -5132.13 -5142.00 -5151.97 -5163.07 -5178.83 -5238.45 -5296.67 -5321.71 -5327.83 -5353.28 -5366.50 -5372.74 -5368.14 -5376.81 -5329.39 -5291.28 -5226.77 -4961.26 -4599.80 -4782.43 -4873.20 -4891.19 -5128.54 -5213.63 -5283.68 -5359.07 -5398.79 -5418.76 -5446.57 -5458.21 -5454.80 -5462.31 -5459.79 -5447.64 -5437.92 -5445.34 -5440.60 -5439.46 -5440.69 -5439.79 -5442.71 -5444.62 -5429.93 -5419.60 -5412.53 -5404.20 -5394.00 -5380.10 -5371.44 -5352.45 -5289.95 -5158.82 -4823.05 -4386.92 -4067.67 -3615.62 -3279.75 -2688.55 -2165.31 -1804.12 -1324.96 -1108.71 -813.28 -615.72 -503.91 -371.11 -238.19 -240.99 -68.92 59.10 220.46 224.49 235.94 242.74 241.67 224.18 224.92 216.76 129.28 -136.91 -275.09 -202.70 -257.71 -61.30 40.34 57.61 -67.39 -535.44 -862.95 -1052.35 -1065.20 -2100.97 -4121.78 -6119.49 -6892.74 -7366.33 -7379.52 -7333.26 -7050.60 -7090.98 -6399.09 -4644.76 -2154.48 -1636.23 -1629.00 -1750.53 -1864.15 -1945.27 -1983.68 -1991.14 -1987.01 -1983.46 -1977.67 -1975.38 -1984.13 -2000.18 -2054.69 -2108.86 -2183.26 -2267.30 -2322.82 -2402.11 -2402.17
-5096.63 -5100.71 -5098.38 -5102.15 -5085.52 -5094.31 -5091.66 -5094.47 -5102.17 -5099.94 -5096.84 -5100.31 -5102.88 -5104.15 -5112.48 -5117.88 -5121.18 -5135.31 -5139.10 -5150.09 -5159.33 -5162.63 -5136.92 -5098.24 -5152.32 -5214.26 -5283.36 -5309.10 -5344.53 -5348.01 -5320.14 -5283.74 -5001.36 -4754.98 -4511.96 -4156.94 -3519.05 -3368.58 -3697.53 -3926.92 -4228.25 -4217.59 -4747.67 -5178.21 -5125.62 -5390.31 -5430.15 -5449.32 -5450.88 -5460.34 -5456.89 -5451.16 -5445.08 -5445.78 -5432.78 -5433.65 -5432.19 -5431.13 -5434.21 -5431.91 -5409.42 -5411.08 -5407.76 -5404.19 -5393.53 -5380.15 -5361.46 -5343.97 -5270.74 -5172.07 -4920.61 -4534.02 -4129.99 -3463.36 -3266.96 -2588.35 -2179.28 -1821.85 -1372.43 -1109.61 -843.88 -648.96 -392.30 -138.53 156.52 74.20 122.56 234.33 226.73 236.67 258.65 254.48 256.13 266.76 274.76 262.01 100.90 -331.24 -1201.09 -1186.60 -1205.83 -1297.76 -1093.39 -235.91 -563.22 -487.16 -305.13 -309.32 -370.10 -541.69 -1095.31 -4477.23 -6290.45 -7219.73 -7136.44 -7033.56 -6768.86 -6659.26 -6227.18 -3711.47 -2494.64 -1492.16 -1564.32 -1733.58 -1837.06 -1959.61 -1994.80 -1998.28 -1993.87 -1985.76 -1984.43 -1987.16 -1998.09 -2008.49 -2043.87 -2108.31 -2233.11 -2352.00 -2380.63 -2458.17 -2458.12
-5147.49 -5147.46 -5148.19 -5129.32 -5135.98 -5158.08 -5138.44 -5119.62 -5096.68 -5088.75 -5087.63 -5087.85 -5091.11 -5095.33 -5110.11 -5126.26 -5137.88 -5148.25 -5155.97 -5165.92 -5166.18 -5147.17 -5103.73 -4856.51 -4548.41 -4462.95 -4856.54 -5046.98 -5036.27 -5237.42 -5112.15 -4745.78 -4471.71 -4030.78 -3472.97 -2925.65 -2598.42 -2580.74 -2769.50 -2741.44 -3086.36 -3542.80 -3468.92 -4119.32 -4449.97 -4825.29 -5385.18 -5384.42 -5422.30 -5425.08 -5437.93 -5438.64 -5433.05 -5434.44 -5431.38 -5431.56 -5423.85 -5416.89 -5402.41 -5391.65 -5395.15 -5398.00 -5398.38 -5398.48 -5397.28 -5380.49 -5362.78 -5322.33 -5214.18 -4964.42 -4671.69 -4193.41 -3900.40 -3512.21 -2775.00 -2400.11 -2027.97 -1593.17 -1300.02 -1133.65 -759.12 -565.73 -185.59 231.53 241.09 200.15 255.20 250.06 243.61 263.37 270.31 279.56 280.86 282.22 289.29 283.36 -148.36 -685.92 -2111.45 -2875.72 -2639.46 -2404.75 -2395.74 -1570.64 -1758.55 -1463.44 -1603.38 -568.79 -468.82 -377.91 -942.20 -2768.82 -5767.52 -6583.82 -6839.87 -6430.60 -6380.76 -6238.16 -5694.64 -4588.55 -2073.94 -1536.48 -1537.41 -1690.34 -1783.63 -1910.68 -1988.80 -1996.14 -1999.35 -1990.49 -1988.42 -1997.67 -2018.63 -2042.31 -2093.66 -2140.37 -2260.92 -2351.74 -2458.97 -2549.26 -2549.32
-5214.06 -5221.78 -5225.98 -5213.80 -5193.92 -5175.97 -5170.79 -5139.32 -5123.74 -5118.90 -5099.37 -5105.43 -5110.19 -5108.64 -5127.14 -5145.44 -5172.51 -5174.91 -5188.82 -5187.70 -5179.26 -5101.66 -4744.88 -4188.81 -3467.71 -3610.29 -3622.33 -4324.68 -4423.55 -4730.67 -4505.98 -3785.11 -3158.26 -2851.35 -2526.97 -2163.02 -2006.13 -2003.31 -2105.11 -2149.70 -2344.61 -2339.05 -2573.46 -2906.81 -3699.58 -4122.81 -4768.20 -5176.40 -5247.79 -5151.00 -5233.91 -5320.35 -5402.58 -5384.16 -5416.64 -5420.28 -5411.79 -5394.80 -5386.24 -5379.82 -5377.76 -5373.96 -5380.68 -5393.94 -5396.03 -5386.95 -5374.26 -5349.36 -5155.91 -4832.57 -4386.07 -4043.01 -3783.72 -3500.46 -2722.45 -2236.66 -1719.63 -1402.24 -1070.99 -978.93 -467.26 -33.33 80.19 245.72 262.67 269.75 269.56 267.92 270.91 280.08 288.07 285.65 295.13 305.79 324.26 322.70 17.82 -791.68 -1830.86 -2744.53 -3123.57 -3302.33 -3337.02 -3278.81 -3221.10 -2969.55 -2243.37 -1601.56 -861.21 -775.94 -1198.42 -3362.41 -4724.33 -5393.32 -5342.25 -5269.98 -5207.71 -5842.66 -5821.27 -4693.23 -2176.19 -1578.80 -1563.60 -1749.19 -1864.04 -1926.98 -2005.14 -2017.12 -2005.90 -1994.72 -1986.78 -2005.24 -2022.45 -2049.68 -2116.85 -2236.50 -2356.18 -2468.62 -2584.15 -2601.65 -2623.10
-5333.02 -5319.28 -5298.43 -5295.30 -5267.44 -5253.26 -5235.22 -5208.83 -5158.31 -5156.14 -5145.30 -5138.26 -5148.76 -5159.43 -5217.08 -5211.87 -5245.75 -5235.71 -5232.66 -5223.23 -5200.30 -5055.30 -4358.59 -3327.35 -2620.39 -2507.61 -2943.22 -3277.20 -3212.96 -3652.25 -3848.52 -3186.78 -2315.68 -2039.54 -1949.17 -1784.23 -1549.08 -1648.22 -1620.71 -1877.20 -1812.83 -2041.77 -2133.05 -2366.24 -2757.50 -3099.91 -4105.59 -4589.93 -4606.16 -4691.89 -4861.59 -5112.24 -5094.41 -5254.88 -5352.05 -5403.58 -5379.26 -5380.45 -5370.18 -5363.65 -5360.76 -5359.49 -5357.96 -5366.72 -5363.84 -5367.06 -5212.53 -5236.27 -5106.76 -4716.90 -4301.01 -3839.32 -3586.09 -3244.96 -2720.11 -1814.24 -963.18 -946.11 -943.84 -242.86 178.36 235.48 248.80 262.09 272.00 289.31 300.48 293.03 295.00 308.96 308.32 307.91 317.21 338.65 346.83 326.94 281.37 -72.09 -287.02 -1735.00 -2682.47 -3522.67 -3638.83 -3801.42 -3934.93 -3953.17 -3366.50 -2732.75 -2117.66 -1680.42 -1237.45 -1906.81 -2074.74 -2461.97 -2662.15 -2315.45 -3606.38 -3794.46 -3445.53 -4013.09 -2368.28 -1885.24 -1654.67 -1744.83 -1934.70 -2005.43 -2021.22 -2022.94 -2010.75 -1996.77 -1990.24 -2004.91 -2014.26 -2065.22 -2133.28 -2247.89 -2377.79 -2533.63 -2589.85 -2670.98 -2671.05
-5425.80 -5425.67 -5384.32 -5371.75 -5361.02 -5365.18 -5357.71 -5316.18 -5283.91 -5246.47 -5227.11 -5206.26 -5253.31 -5259.86 -5283.06 -5293.02 -5296.11 -5338.75 -5336.29 -5318.22 -5240.67 -5011.95 -4164.17 -3337.60 -2186.75 -2083.93 -2094.55 -2278.53 -2442.73 -2757.00 -2780.46 -2484.99 -2075.90 -1746.95 -1427.29 -891.28 -927.51 -842.75 -1077.26 -1274.53 -1388.75 -1856.91 -1956.02 -2027.36 -2142.45 -2317.33 -2879.39 -3326.05 -3755.89 -3501.54 -3637.14 -3972.83 -4323.47 -4609.63 -5024.57 -5142.35 -5335.26 -5304.44 -5222.55 -5304.96 -5306.77 -5328.46 -5279.27 -5261.54 -5187.81 -4971.54 -4955.69 -4353.99 -4052.66 -3733.63 -3169.32 -3256.51 -3405.93 -2871.38 -2369.46 -1767.82 -753.02 -93.52 -92.03 127.21 247.78 255.40 271.09 285.22 312.12 316.82 322.25 314.63 318.32 322.77 334.04 339.00 356.10 364.78 371.90 349.39 331.80 136.39 56.23 -1257.65 -2697.17 -3524.83 -3611.08 -3950.86 -4027.77 -4102.50 -4157.22 -4163.39 -3710.41 -2654.00 -1885.11 -1362.69 -1208.97 -1240.95 -1328.72 -1562.02 -1932.59 -1997.11 -2162.66 -2699.23 -2552.67 -2156.53 -1681.99 -1751.02 -1907.08 -2001.80 -2040.14 -2032.62 -2016.27 -2005.28 -2000.77 -2003.00 -2048.10 -2078.14 -2131.53 -2278.09 -2384.04 -2591.90 -2662.18 -2690.37 -2698.96
-5477.22 -5477.13 -5475.82 -5449.70 -5433.74 -5422.92 -5410.75 -5380.46 -5384.58 -5359.03 -5346.10 -5325.36 -5331.28 -5352.09 -5371.36 -5429.68 -5438.75 -5486.14 -5433.72 -5421.14 -5355.48 -4993.00 -3965.60 -3023.45 -2189.52 -2097.33 -2120.69 -2131.63 -2072.82 -2164.21 -2240.71 -2159.27 -1784.41 -1262.25 -761.61 -399.37 -49.46 -6.61 -192.10 -419.24 -371.74 -1269.06 -1886.98 -1987.49 -1829.69 -2095.94 -2227.41 -2279.64 -2481.99 -2522.41 -2767.85 -2906.10 -3308.99 -3623.68 -4184.76 -4791.72 -4929.81 -5032.09 -5061.01 -5125.89 -5092.31 -4844.28 -5014.87 -4983.20 -4710.25 -4381.25 -4307.69 -3489.56 -3356.34 -2587.19 -2533.18 -2266.33 -1891.46 -1577.12 -980.32 -487.47 128.70 240.89 249.08 253.04 257.16 267.02 292.55 316.53 321.75 325.62 336.48 353.67 348.86 356.72 365.19 393.99 399.23 386.53 398.00 368.92 336.60 301.24 168.86 -658.17 -2759.17 -3120.13 -3515.02 -3813.27 -3847.11 -4007.69 -4239.35 -4467.24 -4524.90 -3906.04 -3111.66 -2504.90 -1511.75 -1118.91 -966.54 -950.59 -1373.89 -1244.33 -1441.62 -1989.40 -2105.64 -2019.07 -1801.86 -1787.98 -1870.85 -1985.28 -2041.33 -2039.80 -2025.44 -2020.30 -2019.70 -2039.16 -2078.15 -2119.19 -2177.30 -2277.54 -2371.40 -2533.61 -2651.92 -2726.01 -2726.08
-5480.20 -5480.15 -5479.35 -5477.83 -5476.04 -5474.08 -5466.04 -5459.51 -5473.72 -5465.10 -5443.34 -5459.12 -5436.38 -5476.62 -5503.71 -5492.72 -5496.07 -5524.40 -5524.82 -5511.99 -5417.82 -5144.40 -4043.43 -3291.87 -2430.33 -2439.80 -2550.13 -2502.57 -2182.58 -2071.92 -2046.98 -1901.96 -1738.38 -669.05 -176.91 238.07 248.94 262.50 254.73 114.34 -64.36 -540.81 -1437.16 -1304.93 -1312.58 -1831.69 -1919.72 -1997.30 -1995.39 -2196.37 -2242.00 -2163.92 -2129.74 -3031.71 -3022.33 -3446.30 -3878.08 -4172.63 -4174.96 -4329.23 -4083.77 -4329.99 -4107.21 -4197.80 -3728.35 -3168.26 -2657.60 -2511.58 -2207.83 -2130.78 -1998.27 -1893.41 -1476.98 -1045.58 -70.10 176.80 240.07 252.46 259.58 273.72 279.63 286.63 306.35 325.27 351.31 368.23 381.43 372.27 374.58 396.25 399.50 417.35 424.23 417.65 414.01 377.73 355.22 434.81 247.53 -126.55 -1579.24 -2611.87 -3299.14 -3644.00 -3815.66 -3911.53 -4107.91 -4447.75 -4683.48 -4796.30 -4249.80 -3397.78 -2688.65 -1739.15 -1188.25 -991.12 -942.65 -923.00 -1028.72 -1254.12 -1455.62 -1749.60 -1690.79 -1810.55 -1928.02 -1988.56 -2038.45 -2042.79 -2034.01 -2030.97 -2056.05 -2066.35 -2107.68 -2184.96 -2229.04 -2376.81 -2488.01 -2690.05 -2798.41 -2845.02 -2845.22
-5471.95 -5472.62 -5473.02 -5474.63 -5476.07 -5476.84 -5476.94 -5490.02 -5496.60 -5504.85 -5502.65 -5512.30 -5520.16 -5528.67 -5539.74 -5556.42 -5564.14 -5571.25 -5579.76 -5556.97 -5478.51 -5333.39 -4613.25 -3696.19 -3634.73 -3269.08 -3520.83 -3550.43 -2777.58 -2449.26 -2125.33 -1846.20 -1410.52 -511.90 41.22 244.57 278.90 317.15 319.06 282.91 265.61 43.61 -490.18 -504.54 -264.24 -1163.69 -1543.60 -1643.18 -1730.12 -1897.39 -1874.36 -1884.21 -1953.77 -1893.88 -2244.83 -2602.38 -2772.37 -2803.82 -2868.34 -2803.58 -2905.57 -3105.08 -2814.63 -3000.88 -2730.35 -2419.08 -2395.56 -2140.68 -2081.01 -2005.87 -1849.55 -1231.33 -824.54 -159.39 211.20 299.49 286.65 276.75 276.82 296.12 302.34 312.48 329.55 355.56 370.47 387.60 397.47 396.67 404.53 412.36 426.21 432.64 455.81 451.28 440.51 426.54 421.89 451.17 383.78 -68.19 -351.06 -1539.46 -2365.83 -2816.49 -3352.68 -3989.80 -4068.34 -4212.87 -4446.33 -4831.76 -4839.11 -4742.12 -3622.82 -3187.77 -2323.56 -1317.72 -1066.28 -869.32 -876.57 -984.53 -1199.18 -1441.93 -1527.09 -1739.42 -1914.19 -1956.24 -2020.68 -2038.95 -2043.54 -2050.35 -2058.51 -2075.31 -2135.06 -2201.40 -2314.68 -2549.27 -2690.98 -2845.63 -2939.04 -2968.95 -2969.09
-5467.76 -5468.23 -5468.84 -5470.46 -5472.34 -5475.89 -5478.18 -5488.34 -5507.68 -5513.91 -5522.37 -5529.14 -5532.76 -5542.94 -5552.83 -5561.04 -5569.88 -5575.66 -5583.57 -5583.94 -5557.63 -5451.62 -5093.83 -4785.00 -4683.23 -4913.09 -4813.55 -4332.48 -3329.48 -2634.21 -2288.85 -2069.04 -1701.69 -995.32 40.09 203.45 254.00 352.73 370.75 311.85 275.07 249.79 106.27 148.68 250.31 -14.13 -411.19 -411.59 -712.90 -1007.64 -1235.62 -1390.76 -1778.37 -1875.74 -1973.48 -2034.67 -2168.27 -2220.20 -2125.45 -2283.97 -2288.41 -2238.29 -2270.16 -2295.60 -2318.54 -2178.33 -2108.99 -2064.90 -1970.94 -1746.38 -1450.00 -446.55 5.03 256.90 329.95 376.40 332.14 294.28 295.26 306.11 307.37 333.25 344.01 374.64 387.27 407.10 420.11 425.63 434.09 430.39 445.82 483.57 485.94 489.35 479.26 475.88 464.13 479.98 475.27 214.13 -159.97 -660.09 -1273.32 -1267.56 -2386.06 -3611.13 -4104.91 -4108.10 -4347.86 -4618.66 -4729.31 -4873.32 -4802.11 -4463.10 -3452.72 -2800.97 -2315.96 -1323.50 -1149.53 -1044.95 -1026.69 -1098.68 -1291.72 -1565.54 -1706.44 -1875.22 -1927.47 -2008.91 -2051.28 -2058.69 -2067.52 -2101.71 -2174.96 -2291.56 -2398.40 -2559.98 -2756.33 -2882.36 -3055.37 -3115.69 -3142.16
-5463.01 -5463.59 -5464.30 -5466.00 -5467.18 -5469.95 -5474.02 -5489.64 -5512.07 -5516.73 -5523.96 -5529.43 -5535.57 -5544.79 -5552.92 -5563.15 -5568.05 -5579.70 -5581.71 -5584.70 -5580.61 -5562.53 -5504.26 -5413.23 -5420.17 -5444.28 -5289.20 -5101.70 -4463.77 -3605.21 -2779.03 -2308.12 -1696.52 -925.14 178.82 226.73 244.72 278.02 343.51 332.69 330.32 271.13 265.03 268.15 268.61 250.74 223.38 209.69 -31.14 -317.45 -291.97 -433.01 -1129.78 -1530.85 -1534.56 -1549.80 -1708.90 -1740.01 -1847.54 -1936.69 -1939.21 -2025.04 -2057.64 -1996.91 -2081.98 -2075.82 -2066.72 -2016.32 -1840.43 -1423.27 -849.63 79.15 254.37 290.77 339.20 392.01 328.82 314.06 314.49 315.87 328.45 358.89 367.46 389.98 407.12 420.89 437.71 451.83 451.07 462.21 488.09 496.96 501.06 523.29 511.32 499.63 510.45 510.51 504.17 576.78 130.79 1.24 -73.21 -685.37 -1000.26 -2144.61 -3865.98 -3979.15 -4079.95 -4417.21 -4412.77 -4649.69 -4837.26 -4936.31 -4680.64 -4108.30 -3608.12 -2928.94 -2016.34 -1235.55 -1022.90 -909.70 -1130.97 -1347.09 -1601.70 -1752.31 -1904.45 -1974.97 -2045.49 -2057.20 -2081.33 -2129.45 -2220.59 -2308.76 -2456.87 -2570.59 -2690.34 -2828.22 -3058.93 -3180.81 -3210.83
-5456.55 -5456.49 -5456.18 -5458.49 -5462.64 -5463.49 -5467.32 -5478.88 -5507.40 -5513.21 -5520.33 -5526.98 -5534.98 -5541.74 -5551.72 -5559.29 -5566.52 -5574.62 -5578.50 -5583.26 -5583.10 -5571.96 -5551.84 -5553.47 -5547.52 -5544.12 -5542.47 -5413.05 -5202.84 -4841.03 -3677.61 -2741.21 -2051.69 -754.93 133.40 221.74 247.53 254.92 296.84 375.72 389.05 313.75 311.31 278.58 269.44 264.31 277.57 273.85 251.96 242.96 217.54 54.23 -617.87 -884.67 -1024.53 -1143.98 -1155.61 -1189.60 -1356.50 -1623.29 -1638.88 -1623.92 -1676.58 -1771.88 -1833.59 -1887.67 -2006.92 -1859.54 -1075.90 -578.46 -28.85 262.83 327.61 340.32 344.35 326.89 320.99 319.81 323.94 338.24 351.79 363.44 376.17 399.93 417.73 432.18 450.65 464.97 472.89 481.77 498.91 501.97 520.98 552.48 550.03 555.90 522.56 508.36 444.89 586.18 445.16 235.36 100.13 -187.69 -571.76 -1855.04 -3837.66 -3854.33 -4006.88 -4214.82 -4436.62 -4710.06 -4914.27 -5074.73 -5135.56 -5027.54 -4911.23 -4461.64 -3335.15 -2059.81 -1301.06 -896.25 -1028.14 -1261.22 -1413.42 -1692.47 -1739.14 -1893.77 -1965.76 -2042.15 -2080.34 -2124.65 -2190.84 -2246.89 -2389.91 -2580.37 -2778.44 -2887.38 -3051.37 -3209.35 -3209.42
-5450.08 -5450.71 -5452.42 -5453.72 -5454.98 -5458.43 -5461.99 -5476.05 -5497.00 -5508.81 -5511.26 -5519.38 -5529.59 -5537.40 -5545.84 -5555.21 -5562.19 -5570.07 -5575.15 -5577.20 -5578.32 -5578.33 -5574.65 -5573.26 -5576.11 -5578.26 -5571.76 -5555.65 -5507.76 -5236.72 -3689.97 -2359.10 -1798.64 -493.96 119.22 191.11 235.35 259.12 279.16 324.50 384.52 371.05 345.14 325.73 361.68 372.27 394.66 330.16 297.43 255.71 243.02 217.75 93.55 -268.47 -418.64 -618.94 -543.69 -769.34 -835.41 -980.96 -1233.28 -1160.09 -1117.26 -1287.20 -1159.41 -1546.31 -1577.66 -1174.92 -686.92 -124.75 267.40 316.04 323.65 336.12 319.42 320.28 322.56 324.92 327.49 349.62 367.52 374.85 394.23 416.19 429.10 442.50 458.70 475.13 488.12 497.57 507.87 523.31 545.85 567.20 583.30 594.65 560.75 520.46 449.44 437.09 312.55 294.60 221.24 -189.10 -478.02 -2344.69 -3631.91 -3739.99 -3880.91 -4131.55 -4487.33 -4594.11 -4807.45 -5048.02 -5184.36 -5187.08 -5122.88 -4913.53 -4223.08 -3052.99 -1420.68 -854.45 -896.76 -1079.52 -1195.98 -1393.67 -1596.57 -1832.02 -1918.86 -1953.28 -2064.93 -2093.43 -2148.04 -2195.98 -2293.50 -2451.43 -2649.69 -2971.54 -3052.45 -3179.32 -3205.76
-5455.37 -5455.30 -5454.69 -5455.13 -5455.89 -5461.37 -5462.79 -5473.21 -5477.03 -5485.13 -5498.24 -5506.38 -5509.38 -5522.55 -5532.41 -5551.82 -5558.35 -5563.48 -5569.56 -5571.85 -5575.64 -5576.30 -5576.16 -5577.13 -5582.08 -5585.05 -5590.41 -5585.07 -5492.17 -5247.74 -3649.23 -2255.88 -1202.01 -254.65 140.94 209.96 226.01 248.50 262.71 300.85 360.63 388.67 376.14 359.23 409.27 451.88 464.36 361.52 319.56 289.02 245.58 238.21 166.58 30.73 -104.42 -245.33 -318.93 -308.91 -446.23 -606.24 -575.79 -536.23 -610.45 -617.56 -466.28 -561.89 -646.04 -251.07 193.79 275.95 289.60 310.59 315.76 318.12 318.34 320.67 324.25 331.10 337.51 356.95 366.05 381.07 403.52 422.80 440.86 451.80 470.41 484.62 501.03 508.31 525.37 553.56 560.05 594.44 605.90 606.04 588.48 554.31 509.67 335.53 323.62 451.74 288.25 -86.57 -865.80 -2587.92 -3098.83 -3629.20 -3705.23 -3805.88 -4191.17 -4378.85 -4734.23 -4976.64 -5194.29 -5200.97 -5189.80 -5082.11 -4607.47 -2841.78 -1531.38 -765.21 -765.62 -855.33 -1088.98 -1250.23 -1450.25 -1741.83 -1847.01 -1942.45 -2057.32 -2127.04 -2160.08 -2220.72 -2392.14 -2552.61 -2739.92 -2837.17 -3047.26 -3204.01 -3204.07
-5449.31 -5449.26 -5449.01 -5451.57 -5453.20 -5458.74 -5459.81 -5464.50 -5462.29 -5469.38 -5475.42 -5486.76 -5493.22 -5504.53 -5519.79 -5539.20 -5552.16 -5558.25 -5561.79 -5565.21 -5568.92 -5572.16 -5573.64 -5577.04 -5579.94 -5584.13 -5589.37 -5589.83 -5549.13 -5246.42 -4055.62 -1928.39 -290.46 -9.66 164.97 205.34 230.43 258.18 270.40 309.58 352.16 381.87 389.11 385.10 446.77 528.43 540.69 419.04 347.78 299.42 256.07 244.68 235.65 166.65 9.27 -112.36 -169.74 -170.51 -215.96 -241.90 -255.56 -292.86 -172.77 -125.40 -90.36 235.44 240.99 153.25 297.06 316.83 295.56 301.36 310.40 311.52 318.65 320.58 329.74 336.25 344.95 357.64 367.87 389.55 406.09 424.71 446.05 453.56 483.76 497.93 507.07 519.01 540.99 557.56 561.92 613.01 622.45 594.04 527.44 489.15 439.30 397.41 405.82 477.88 442.85 118.80 -910.14 -1735.75 -2397.82 -3066.30 -3672.87 -3807.93 -4000.86 -4314.16 -4612.65 -4797.72 -5144.91 -5201.22 -5201.53 -5162.60 -4718.30 -3166.44 -1651.68 -576.97 -559.97 -658.76 -919.97 -1147.99 -1422.00 -1583.03 -1666.66 -1870.63 -2039.57 -2077.32 -2127.11 -2257.37 -2423.78 -2606.13 -2708.30 -2908.16 -3043.81 -3201.32 -3201.38
-5432.88 -5432.83 -5430.54 -5435.46 -5444.11 -5448.41 -5451.72 -5455.89 -5452.99 -5454.94 -5466.98 -5473.50 -5483.74 -5495.19 -5508.73 -5531.70 -5541.52 -5546.69 -5556.36 -5561.78 -5565.12 -5570.13 -5572.23 -5575.26 -5579.34 -5581.37 -5578.11 -5501.72 -5425.62 -4066.90 -2730.81 -1083.56 -205.00 134.69 202.00 221.31 234.89 261.04 280.33 288.99 319.27 369.47 411.31 450.44 514.48 594.64 624.74 467.67 401.11 308.84 282.20 260.08 239.62 210.80 132.72 55.65 -82.82 -129.50 -154.35 -123.88 -34.05 10.43 76.14 151.60 221.32 250.55 269.99 313.39 319.46 300.74 294.16 296.14 300.23 307.92 317.64 319.40 327.67 334.40 344.20 358.64 368.43 390.90 413.70 428.63 447.52 463.32 485.28 494.79 514.15 530.52 548.93 563.87 582.85 618.32 642.78 606.34 562.06 513.26 483.45 461.06 444.14 640.85 662.21 313.92 -156.16 -530.20 -1122.29 -2050.62 -3294.85 -3802.29 -4022.11 -4371.25 -4471.72 -4773.09 -4945.88 -5197.39 -5202.58 -5162.94 -4736.05 -3682.97 -2057.37 -597.38 -486.04 -554.24 -766.46 -908.30 -1191.62 -1420.10 -1614.42 -1811.90 -1965.32 -2040.56 -2092.56 -2194.89 -2323.76 -2549.21 -2765.85 -2957.48 -3086.82 -3200.47 -3200.53
-5412.77 -5414.73 -5416.59 -5418.91 -5422.74 -5429.06 -5438.56 -5437.72 -5435.04 -5444.24 -5454.51 -5461.85 -5473.96 -5485.89 -5506.47 -5523.71 -5539.11 -5544.78 -5552.07 -5557.34 -5563.96 -5569.20 -5570.59 -5569.76 -5572.63 -5549.73 -5474.71 -4872.33 -4339.66 -3417.09 -1550.48 -1280.30 -219.94 92.37 211.87 227.50 245.94 267.47 279.44 286.64 335.03 367.11 415.16 445.91 506.07 616.47 635.54 549.90 382.50 319.19 301.41 265.79 244.29 228.97 204.36 142.90 68.12 -23.42 -24.26 -5.43 86.87 197.65 236.20 246.53 286.97 288.81 302.70 306.57 293.64 290.28 291.14 293.42 297.47 301.65 307.34 320.30 328.55 334.70 346.77 364.17 370.36 392.43 412.64 427.60 445.68 466.56 487.27 499.35 515.13 531.19 555.68 575.02 586.88 627.17 654.45 657.26 617.44 629.21 589.36 478.52 462.66 613.30 688.76 465.76 235.70 -66.03 -423.19 -2256.65 -3380.98 -4026.65 -4144.90 -4334.96 -4473.34 -4696.73 -4912.43 -5188.34 -5195.97 -5172.01 -5005.77 -3864.69 -1832.22 -555.33 -408.44 -452.33 -504.45 -822.03 -980.75 -1279.17 -1487.17 -1693.68 -1811.93 -1939.32 -2027.17 -2090.97 -2188.68 -2411.52 -2616.34 -2794.43 -3031.60 -3173.01 -3192.64
-5389.35 -5389.30 -5389.82 -5396.18 -5404.34 -5408.07 -5410.85 -5418.64 -5418.51 -5429.98 -5440.64 -5452.25 -5463.40 -5472.97 -5502.79 -5513.79 -5530.26 -5539.33 -5548.63 -5557.71 -5563.17 -5569.55 -5564.81 -5561.61 -5492.48 -5453.12 -5267.26 -4076.26 -3505.61 -1952.93 -1257.81 -365.98 131.24 158.82 199.46 224.61 243.71 267.90 280.84 297.11 361.74 369.95 416.79 463.68 504.34 628.22 642.18 517.64 416.88 356.89 299.67 283.74 252.76 244.25 229.83 185.72 131.52 78.08 96.71 197.00 242.46 242.30 252.17 286.81 301.81 295.26 291.23 276.97 281.11 283.06 287.17 290.01 294.83 301.05 307.65 313.74 322.81 334.12 341.51 362.18 370.28 386.82 403.93 428.85 447.27 465.14 484.04 496.58 527.45 543.11 566.78 585.23 604.72 645.61 671.09 681.01 684.70 690.79 613.22 569.15 567.80 593.60 489.80 423.65 241.26 44.45 -193.04 -657.91 -2716.48 -4091.51 -4181.40 -4318.33 -4598.34 -4847.51 -4987.89 -5137.84 -5183.57 -5155.75 -4913.15 -4507.27 -1800.33 -672.39 -329.33 -352.51 -396.83 -771.04 -971.59 -1280.19 -1523.40 -1524.85 -1730.38 -1851.02 -1947.61 -2046.59 -2162.30 -2371.11 -2538.64 -2858.97 -3073.36 -3184.51 -3184.57
-5362.31 -5362.26 -5357.91 -5368.19 -5372.44 -5385.13 -5383.95 -5401.13 -5401.98 -5406.40 -5417.25 -5437.82 -5449.65 -5462.21 -5481.22 -5506.50 -5521.24 -5530.77 -5538.89 -5551.36 -5555.21 -5548.99 -5483.23 -5466.65 -5235.66 -4675.96 -4092.55 -3047.51 -2489.90 -1228.84 -639.62 24.90 152.82 188.61 223.95 227.79 248.68 260.52 281.10 331.58 359.26 381.35 431.55 467.14 515.25 587.57 603.60 595.50 443.20 365.53 319.60 299.95 269.49 249.15 236.30 223.66 173.47 141.90 199.70 238.69 254.00 278.16 305.50 303.28 285.43 276.15 275.65 272.79 273.69 275.08 281.31 286.23 289.17 298.67 303.34 308.54 317.97 333.61 342.53 356.93 372.88 392.17 407.19 424.17 448.02 468.34 485.53 511.65 535.34 568.61 591.78 611.65 624.79 662.24 691.51 721.94 727.30 673.28 651.85 661.20 711.84 629.15 473.04 705.02 411.54 238.60 -152.02 -1014.37 -2720.03 -3623.49 -4054.85 -4244.79 -4632.12 -4830.42 -5017.53 -5090.55 -5134.30 -5107.01 -4999.00 -3628.40 -2004.01 -695.35 -340.30 -300.80 -421.46 -598.64 -979.08 -1122.80 -1217.50 -1453.04 -1720.88 -1804.96 -1929.05 -2019.99 -2165.96 -2252.39 -2563.90 -2805.69 -2933.10 -3017.80 -3017.74
-5331.88 -5331.83 -5332.64 -5338.05 -5343.88 -5353.31 -5366.86 -5370.04 -5377.03 -5388.30 -5401.28 -5426.99 -5437.41 -5456.79 -5471.84 -5486.46 -5490.64 -5497.27 -5512.32 -5504.32 -5494.55 -5450.45 -5359.12 -5082.31 -4359.02 -4093.36 -2812.56 -2063.08 -1328.07 -511.94 23.08 130.80 194.15 228.03 230.67 236.05 268.76 277.67 306.47 348.60 388.96 404.84 445.46 496.06 531.88 605.51 624.65 597.98 524.87 395.87 333.01 302.68 280.01 257.06 244.17 237.39 215.47 211.67 241.35 261.05 287.53 330.12 331.00 297.34 277.73 266.76 260.80 265.52 270.59 271.16 278.83 281.76 287.30 292.96 301.11 310.00 324.81 332.72 343.40 357.85 378.51 393.20 409.65 436.75 453.22 476.10 509.35 522.09 544.04 595.42 603.11 628.97 644.45 670.42 708.42 723.95 750.03 715.76 748.50 776.64 680.97 564.64 484.46 840.02 499.39 120.41 -207.57 -1152.75 -2654.52 -3420.89 -3726.32 -4153.90 -4500.59 -4522.28 -4987.92 -5071.74 -5083.91 -5036.26 -4862.13 -3654.51 -2081.46 -564.77 -281.85 -268.13 -360.34 -591.43 -795.09 -934.63 -1080.73 -1330.50 -1656.87 -1731.89 -1850.38 -2029.05 -2156.18 -2254.76 -2359.74 -2648.73 -2791.93 -2967.41 -2967.48
-5297.78 -5300.70 -5298.71 -5312.07 -5315.68 -5320.10 -5327.29 -5350.44 -5357.17 -5371.59 -5377.74 -5403.68 -5427.27 -5440.16 -5453.34 -5459.08 -5469.43 -5478.72 -5490.42 -5414.38 -5323.57 -5079.34 -4568.26 -4046.61 -3560.24 -2857.28 -2419.76 -1596.00 -1085.09 -398.52 50.46 191.70 231.56 240.58 240.92 261.77 283.58 299.79 319.99 347.90 419.23 478.84 499.14 523.23 551.16 578.49 572.75 545.42 508.06 387.39 322.17 307.17 285.24 269.89 253.86 248.15 237.41 223.19 265.12 301.72 348.07 327.28 278.99 267.44 258.93 256.33 252.96 253.54 263.97 262.66 271.75 277.07 283.11 291.24 297.63 307.12 312.22 326.25 341.63 353.66 380.57 388.92 403.66 437.94 455.68 484.29 528.21 546.98 565.61 598.05 614.78 636.80 668.90 681.34 725.83 750.70 758.89 786.61 803.02 783.58 665.64 609.10 609.94 832.98 710.88 278.68 -51.42 -998.19 -2299.33 -3082.94 -3572.14 -3867.09 -4094.60 -4387.37 -4744.31 -5036.80 -5023.18 -5010.29 -4791.72 -3625.55 -1922.37 -481.93 -265.10 -239.24 -339.28 -501.77 -605.97 -771.16 -1138.50 -1301.33 -1416.16 -1611.40 -1813.39 -1936.71 -2065.27 -2186.99 -2353.16 -2559.87 -2667.76 -2743.78 -2743.68
-5259.88 -5259.83 -5259.08 -5265.53 -5260.06 -5291.31 -5296.52 -5311.27 -5316.69 -5337.22 -5359.58 -5385.70 -5403.84 -5429.23 -5438.07 -5425.46 -5440.83 -5433.80 -5264.21 -5213.95 -4814.39 -4367.48 -3815.51 -2954.40 -2545.76 -2224.24 -2050.37 -1604.38 -779.66 61.82 193.14 234.47 241.23 250.64 265.45 272.97 287.34 293.86 330.26 379.16 466.80 510.23 538.43 532.57 539.18 536.36 507.44 488.46 393.20 380.67 330.58 309.52 285.06 272.98 264.33 258.74 253.76 260.34 286.42 305.13 295.85 276.80 268.44 257.19 252.44 251.69 252.03 253.06 255.51 260.65 266.05 276.49 281.82 286.59 295.94 302.04 313.85 327.94 343.29 365.41 376.17 394.87 423.85 437.35 464.87 499.02 526.23 554.61 574.92 598.25 623.73 658.02 674.86 696.06 722.55 752.03 772.49 794.20 762.32 679.40 622.49 689.77 761.19 927.62 617.09 247.19 118.78 -247.69 -1375.54 -2718.56 -3487.54 -3922.44 -4026.53 -4418.48 -4705.84 -4921.64 -4959.46 -4922.19 -4640.38 -3661.90 -1395.07 -656.59 -243.38 -215.68 -239.59 -431.53 -617.05 -709.92 -917.36 -1106.51 -1342.60 -1547.79 -1790.70 -1912.43 -2056.16 -2173.25 -2341.99 -2474.71 -2597.74 -2685.31 -2685.38
-5218.70 -5218.66 -5212.06 -5223.62 -5230.31 -5237.06 -5240.05 -5276.75 -5286.32 -5314.40 -5337.31 -5357.12 -5390.75 -5405.95 -5397.84 -5375.50 -5255.24 -5134.35 -4793.70 -4235.82 -3712.97 -3475.24 -2642.19 -2197.59 -2140.24 -1932.13 -1463.07 -1032.19 -103.36 204.31 248.53 249.46 253.91 260.99 276.05 288.79 301.99 310.98 353.85 377.81 471.70 502.98 545.18 528.48 489.41 486.52 477.58 451.07 398.29 382.26 360.47 333.59 283.22 276.35 275.57 272.41 262.64 264.54 278.08 301.46 290.33 271.26 260.65 254.61 251.61 251.10 251.56 252.56 254.07 258.86 261.51 267.36 275.96 283.42 295.13 300.45 313.94 322.87 345.74 363.48 378.90 393.69 422.27 443.94 474.76 500.67 524.35 562.93 587.99 615.88 629.30 670.66 695.56 729.26 736.36 757.56 787.11 800.13 752.96 715.41 730.23 793.65 803.74 881.58 435.55 227.79 198.06 -59.62 -1293.61 -2916.82 -3681.56 -4025.61 -4262.75 -4574.76 -4791.63 -4900.22 -4927.97 -4841.78 -4452.23 -3598.15 -1288.98 -463.66 -174.47 -182.21 -226.26 -344.23 -497.53 -542.38 -776.13 -1150.88 -1398.05 -1456.38 -1757.41 -1984.23 -2088.12 -2192.70 -2278.23 -2446.92 -2501.62 -2565.20 -2565.18
-5174.66 -5177.26 -5173.39 -5170.93 -5180.45 -5183.99 -5209.68 -5227.94 -5260.57 -5278.98 -5304.13 -5334.92 -5340.77 -5325.63 -5307.39 -5059.44 -4764.59 -4114.35 -3624.48 -3304.51 -3185.31 -2256.69 -2143.32 -1924.16 -1834.64 -1428.32 -770.70 -279.26 200.13 257.00 262.11 265.25 273.59 288.72 295.58 315.45 322.39 348.50 380.21 415.48 443.74 506.55 526.36 505.64 482.13 447.18 437.62 428.99 401.41 390.98 359.60 336.14 296.49 284.85 280.55 278.27 276.01 283.46 291.67 280.47 270.07 263.91 254.23 251.96 251.05 250.87 251.11 252.11 254.33 255.85 259.44 267.13 272.54 282.86 291.70 301.10 307.48 323.58 349.06 362.53 385.42 408.40 425.75 449.60 482.70 513.56 538.65 585.47 610.10 629.85 658.91 678.65 706.06 733.90 747.53 774.91 789.75 810.64 848.08 864.38 807.51 851.83 938.31 945.00 664.19 248.42 86.70 -707.55 -1421.88 -2623.44 -3521.56 -4029.81 -4374.66 -4611.29 -4806.85 -4868.17 -4879.17 -4814.70 -4468.11 -2994.69 -1246.90 -368.75 -173.56 -166.46 -216.78 -284.86 -365.08 -521.29 -748.43 -1101.79 -1274.77 -1495.12 -1813.63 -2006.83 -2117.73 -2172.05 -2251.80 -2337.22 -2458.44 -2537.16 -2537.23
-5126.55 -5126.50 -5115.21 -5128.71 -5134.18 -5141.21 -5157.57 -5181.39 -5206.03 -5240.55 -5250.28 -5257.84 -5230.81 -5049.17 -4641.99 -4197.52 -3548.91 -3192.56 -2687.15 -2310.33 -1969.01 -1800.28 -1790.83 -1718.35 -1586.94 -1207.56 -225.13 199.30 239.56 267.56 275.76 279.56 288.24 300.43 307.02 321.07 349.13 367.52 408.15 453.80 503.86 532.15 512.15 495.77 466.96 429.41 409.23 391.45 380.94 375.30 342.10 323.94 303.57 296.19 291.33 289.07 289.34 290.83 292.39 284.95 275.66 264.50 258.51 253.26 250.99 250.81 250.92 251.47 252.19 253.93 258.37 266.00 270.02 279.46 289.14 300.02 309.88 327.96 349.92 358.22 399.61 409.62 432.89 468.79 489.65 520.67 555.42 581.16 610.57 644.15 667.95 697.81 718.70 742.48 760.01 779.29 800.10 821.99 856.79 832.45 752.74 851.62 951.75 985.19 639.53 244.76 -161.00 -1055.51 -1987.85 -2887.13 -3399.77 -4019.44 -4379.97 -4474.54 -4658.90 -4705.81 -4730.90 -4618.77 -4405.06 -2614.60 -1534.29 -284.64 -139.38 -141.76 -196.97 -242.06 -325.06 -511.63 -686.09 -962.00 -1290.72 -1476.11 -1855.93 -2004.60 -2108.23 -2196.21 -2243.47 -2351.97 -2459.35 -2533.56 -2534.28
-5064.92 -5064.89 -5057.56 -5057.87 -5069.82 -5084.95 -5113.78 -5141.50 -5185.20 -5215.08 -5201.75 -5056.05 -4761.02 -4615.09 -4107.29 -3425.54 -2950.85 -2405.17 -2080.56 -1955.95 -1755.09 -1671.30 -1660.50 -1638.43 -1516.21 -779.91 -32.65 224.95 260.88 273.81 283.10 291.01 304.29 308.27 323.22 343.54 372.09 399.22 409.92 451.67 505.47 553.99 511.13 494.59 460.61 429.57 400.01 383.62 370.20 355.80 341.04 323.88 313.51 305.11 299.84 303.64 300.96 301.94 298.72 292.36 287.68 273.38 261.04 253.71 251.67 251.04 251.09 251.35 251.91 252.92 255.95 263.59 271.30 280.43 288.55 298.90 312.50 329.52 348.11 364.42 394.44 416.06 446.15 477.01 495.82 528.42 551.09 585.19 614.21 654.19 671.23 698.58 719.69 738.29 767.15 783.50 796.49 782.81 774.24 745.54 662.05 750.35 888.55 921.83 648.35 217.47 118.24 -669.05 -1576.27 -3033.63 -3613.37 -3852.81 -4368.72 -4456.40 -4555.27 -4606.39 -4676.90 -4463.52 -3897.13 -2300.47 -618.64 -217.65 -119.68 -140.08 -188.50 -263.03 -352.37 -498.14 -696.37 -889.02 -1182.55 -1479.57 -1714.15 -1972.66 -2091.67 -2187.97 -2301.59 -2344.01 -2468.28 -2530.37 -2530.44
-5021.34 -5021.29 -5004.92 -5003.30 -4995.72 -5006.57 -5056.92 -5082.35 -5147.67 -5151.26 -5101.95 -4845.36 -4231.28 -3523.58 -2752.29 -2591.11 -2308.99 -2176.63 -1985.60 -1845.66 -1705.95 -1626.03 -1618.35 -1595.65 -1353.71 -672.89 -65.90 232.78 266.33 276.30 294.53 304.35 308.63 333.50 350.30 382.60 427.82 424.74 438.09 471.73 519.25 561.27 523.17 494.64 456.61 432.23 404.90 372.00 362.57 348.68 339.07 326.67 320.70 314.30 309.84 311.06 308.96 317.34 331.68 315.62 311.12 279.10 269.64 258.26 254.47 251.61 251.57 251.64 252.28 252.75 256.70 260.69 269.03 279.96 286.72 297.11 308.48 325.84 341.73 365.44 408.48 429.72 457.00 473.61 518.38 538.99 565.70 601.59 631.07 661.37 680.51 698.52 721.78 740.27 764.32 788.42 800.67 820.63 792.28 695.67 606.05 693.91 765.15 903.73 469.63 236.22 32.66 -386.24 -1496.71 -2640.95 -3114.95 -4153.20 -4372.35 -4383.96 -4515.20 -4578.52 -4581.82 -4274.64 -3245.05 -1714.17 -460.02 -118.73 -100.96 -152.15 -211.88 -300.09 -393.36 -534.89 -687.47 -908.20 -1193.87 -1370.68 -1682.32 -1890.27 -2074.09 -2262.07 -2425.58 -2490.83 -2601.46 -2637.99 -2638.15
-4986.25 -4984.81 -4967.21 -4956.21 -4952.47 -4960.71 -4972.59 -5016.48 -5045.11 -5051.38 -4883.37 -4518.94 -3462.80 -2855.37 -2332.56 -2063.36 -2069.12 -2088.74 -1983.34 -1820.30 -1714.90 -1652.87 -1634.46 -1587.57 -1227.43 -474.98 135.10 255.00 262.04 280.10 305.57 315.12 329.69 351.01 368.96 401.02 454.01 478.72 479.16 507.85 538.66 547.90 512.17 463.08 425.96 402.12 393.58 377.23 356.67 341.89 337.80 325.27 319.94 317.12 321.04 326.75 329.04 350.17 370.45 335.31 347.92 307.19 277.62 275.26 264.00 253.70 252.41 252.22 252.41 253.01 256.22 259.69 267.87 275.10 286.02 294.72 305.35 322.47 338.47 363.76 398.59 426.09 463.71 493.67 518.73 541.14 570.14 606.03 641.21 669.04 682.77 707.92 727.60 742.49 763.97 782.56 803.66 835.91 793.70 735.86 640.79 548.65 526.01 650.34 448.22 188.71 5.16 -227.58 -655.74 -1355.39 -2847.13 -3983.68 -3991.41 -4256.97 -4453.35 -4489.99 -4395.06 -3863.66 -2050.24 -675.21 -160.86 -70.55 -80.64 -146.93 -232.23 -368.43 -578.94 -691.04 -755.64 -927.65 -1276.50 -1518.22 -1755.47 -1941.06 -2098.01 -2246.67 -2433.49 -2589.05 -2754.58 -2792.28 -2792.48
-4956.18 -4956.12 -4928.33 -4894.02 -4876.70 -4874.20 -4813.18 -4820.94 -4852.20 -4471.76 -4020.19 -3581.51 -2913.50 -2075.34 -1855.75 -1747.69 -1854.95 -1931.47 -1896.67 -1697.44 -1648.87 -1653.80 -1640.63 -1570.62 -1198.95 -703.66 -52.11 230.36 257.61 297.68 332.04 348.57 360.64 366.14 377.78 422.11 465.64 489.97 509.38 538.96 541.55 504.73 475.77 473.26 419.27 374.00 365.27 353.00 342.38 336.95 324.69 319.25 318.35 317.93 325.61 328.50 340.81 367.65 396.87 402.09 411.66 363.75 309.73 284.91 268.34 257.81 254.44 253.40 253.03 253.33 255.05 259.59 267.32 271.67 281.01 293.57 308.01 321.68 337.77 371.32 389.71 427.59 469.13 503.73 519.87 549.76 587.42 609.66 652.58 669.98 687.47 716.19 730.76 754.07 765.63 784.85 819.34 838.30 842.33 727.28 702.50 604.69 608.63 494.26 246.80 183.12 116.99 -91.24 -464.48 -976.67 -2238.36 -3448.99 -3642.53 -4095.88 -4323.60 -4344.29 -4027.38 -3428.86 -1393.86 -263.30 -67.86 -18.23 -100.16 -158.88 -206.74 -388.29 -524.26 -770.93 -880.93 -1069.27 -1440.91 -1660.90 -1851.17 -2005.18 -2115.60 -2181.59 -2415.40 -2503.18 -2837.04 -2901.69 -2901.86
-4889.03 -4886.65 -4772.40 -4553.09 -4502.96 -4508.69 -4347.24 -3995.88 -3849.47 -3524.76 -2886.72 -2221.23 -2137.57 -1871.62 -1727.06 -1707.09 -1742.34 -1743.08 -1612.75 -1317.67 -1413.67 -1365.74 -1382.89 -1363.52 -1155.49 -406.72 187.09 240.49 265.68 301.53 340.79 371.36 392.97 403.37 406.24 431.89 482.98 504.17 530.68 544.10 533.27 502.38 448.24 422.27 409.73 364.61 345.72 336.39 333.03 315.87 314.00 313.54 315.00 317.71 325.35 330.25 362.21 409.82 452.55 471.79 461.95 391.38 341.08 290.29 278.35 261.76 261.92 256.96 254.05 253.79 253.94 257.31 264.72 271.83 278.88 286.63 301.87 314.46 348.44 375.63 402.63 435.36 460.08 487.35 520.84 553.79 603.23 612.95 644.24 674.73 693.81 725.31 737.44 758.58 767.90 781.14 817.83 845.50 853.66 771.20 705.06 760.18 858.09 486.36 252.47 169.86 96.75 -110.56 -291.12 -1041.85 -1856.48 -2882.45 -3288.48 -3810.17 -4230.41 -4266.85 -3379.86 -2394.57 -672.35 -214.35 5.88 -31.30 -83.30 -139.87 -232.84 -418.26 -649.01 -828.27 -927.52 -1162.45 -1529.98 -1824.64 -1971.76 -2029.42 -2147.63 -2242.48 -2390.35 -2554.56 -2822.75 -3080.13 -3080.38
-4335.96 -4336.53 -3923.61 -3831.95 -3686.14 -3308.56 -3130.92 -2726.32 -2339.61 -2072.12 -2098.03 -1899.01 -1761.32 -1732.89 -1738.91 -1748.95 -1740.58 -1632.48 -1408.25 -1114.55 -830.20 -691.76 -919.44 -1005.93 -711.74 93.16 191.69 239.68 267.17 293.99 335.52 380.44 410.76 438.14 441.56 467.59 514.36 536.67 530.93 510.72 505.74 491.76 444.03 402.51 377.51 340.26 337.73 322.34 312.57 303.37 301.13 299.73 304.74 312.95 317.13 327.61 351.10 381.89 436.11 478.91 469.39 409.43 378.48 339.18 289.52 280.41 266.29 265.86 259.38 255.57 254.31 258.14 262.01 272.82 279.93 291.25 306.33 317.59 345.10 367.92 399.45 434.07 448.59 468.85 525.04 554.33 590.93 621.10 654.98 681.47 699.19 728.89 743.59 758.40 777.26 788.10 827.33 850.99 862.19 810.33 836.50 994.31 629.38 343.97 236.57 170.43 117.58 -132.45 -475.89 -1177.61 -1772.24 -1846.55 -2671.29 -3446.43 -3775.96 -3879.94 -3078.60 -1596.33 -409.02 -100.13 34.20 -23.65 -87.98 -147.40 -215.11 -351.82 -645.70 -849.31 -1092.60 -1404.97 -1512.40 -1742.67 -1924.66 -2092.35 -2227.74 -2333.45 -2540.54 -2676.22 -2892.37 -2994.26 -2994.23
-2823.40 -2825.47 -2765.21 -2424.96 -2478.15 -1890.97 -1860.28 -1679.73 -1686.29 -1593.15 -1549.26 -1604.67 -1639.81 -1703.28 -1739.71 -1776.52 -1786.52 -1676.99 -1326.59 -1022.96 -547.59 -450.22 -443.59 -549.98 -96.79 144.52 200.26 239.43 266.19 283.00 311.71 383.64 404.59 447.05 498.32 518.17 537.55 531.01 504.66 473.57 475.83 466.69 409.42 380.93 348.18 335.23 318.96 305.90 299.71 289.98 291.25 290.25 289.72 292.82 301.94 319.47 324.10 346.45 376.29 440.98 459.89 395.04 366.23 332.79 310.18 290.91 276.74 271.13 264.16 260.51 256.63 255.26 258.78 266.53 280.29 290.64 301.06 318.85 333.44 365.64 391.54 424.21 454.30 477.62 512.97 554.24 582.41 621.23 635.96 684.94 701.47 728.52 754.85 766.68 795.67 814.53 837.69 858.73 863.75 858.26 991.01 847.05 377.33 279.01 228.86 165.52 127.62 -12.85 -482.15 -831.61 -1090.77 -1549.51 -2257.70 -2624.79 -3327.97 -2900.84 -2556.71 -1239.19 -317.50 17.67 25.92 -24.86 -81.21 -126.28 -164.86 -316.18 -580.52 -850.79 -1145.52 -1453.92 -1608.34 -1661.39 -1961.54 -2120.05 -2255.49 -2392.49 -2568.54 -2804.11 -2893.37 -2984.96 -2985.04
-1607.74 -1609.85 -1620.12 -1705.07 -1541.27 -1485.60 -1411.92 -1376.34 -1407.56 -1430.52 -1491.77 -1536.84 -1630.89 -1679.31 -1733.01 -1791.04 -1818.36 -1769.71 -1594.23 -1123.97 -578.26 -244.90 -168.59 -150.23 73.55 184.02 222.30 238.93 254.14 292.15 312.53 364.69 412.96 443.56 497.78 509.66 499.92 502.96 470.72 444.81 465.05 447.46 405.17 347.63 333.43 317.11 298.98 288.31 284.80 276.64 284.08 282.26 278.18 283.26 295.33 302.46 316.06 326.87 375.96 401.91 426.18 402.19 393.14 333.99 324.00 300.48 287.23 278.13 271.01 266.10 258.12 255.90 257.46 266.91 276.42 289.37 294.72 313.01 324.66 364.80 390.45 419.86 442.69 469.17 519.76 539.84 570.40 605.56 639.47 669.76 703.05 724.68 755.36 794.85 822.13 836.80 865.93 824.77 784.38 848.71 998.90 580.04 345.09 296.83 219.57 165.00 98.29 21.02 -143.97 -381.21 -689.60 -1314.48 -1831.48 -1740.29 -1941.04 -2066.37 -1578.43 -471.41 -36.42 25.14 20.00 -47.26 -88.69 -133.90 -159.85 -334.29 -545.05 -856.44 -1128.74 -1376.39 -1510.23 -1787.55 -2046.11 -2151.78 -2247.83 -2375.63 -2605.69 -2751.73 -2895.19 -2982.94 -2983.03
-1314.98 -1315.59 -1320.89 -1309.73 -1268.65 -1261.57 -1286.63 -1319.27 -1370.32 -1414.93 -1487.94 -1543.08 -1619.12 -1667.37 -1738.56 -1813.57 -1836.83 -1809.76 -1692.85 -1080.10 -898.79 -403.25 -211.88 -71.41 66.19 156.81 211.80 237.73 246.60 272.20 306.50 334.32 390.81 429.58 491.68 464.66 450.52 459.82 424.81 420.47 439.38 435.67 385.64 311.35 291.87 284.19 281.31 269.30 261.79 260.19 264.93 261.62 264.24 272.29 278.94 295.90 305.28 319.87 363.31 410.58 450.10 439.66 388.74 348.06 328.15 313.97 294.33 282.14 274.96 271.80 262.28 256.40 259.03 264.10 272.11 290.08 300.40 317.97 327.48 363.90 385.08 399.67 436.84 465.85 491.22 523.90 559.92 593.12 626.39 679.10 681.50 739.36 754.48 791.91 822.33 864.00 887.57 763.97 690.69 951.77 860.23 385.45 317.37 280.24 219.78 153.80 107.79 40.53 -119.97 -205.10 -760.28 -1147.24 -1417.37 -1510.22 -1609.66 -1388.67 -558.35 -146.14 50.19 42.55 -25.45 -73.27 -107.68 -135.17 -192.50 -330.81 -545.64 -752.61 -1149.69 -1360.38 -1647.71 -1912.24 -1994.99 -2108.90 -2231.68 -2291.06 -2555.70 -2733.31 -2826.84 -2890.18 -2890.00
-1318.04 -1317.88 -1298.89 -1273.98 -1269.83 -1284.02 -1299.44 -1334.06 -1380.35 -1447.80 -1505.05 -1553.93 -1624.97 -1689.01 -1740.18 -1808.90 -1841.14 -1838.58 -1663.80 -1272.53 -707.59 -387.47 -183.25 -23.84 50.61 115.05 190.51 233.77 235.13 256.92 280.99 317.91 351.34 412.95 444.26 382.68 398.63 427.42 408.77 361.08 349.69 349.06 299.98 285.48 269.74 252.00 248.38 247.02 252.48 250.70 249.56 247.82 255.68 266.12 271.83 282.78 295.08 318.15 353.29 406.71 437.52 440.44 402.19 368.31 341.44 329.41 323.18 288.61 288.37 278.04 269.72 261.72 257.87 260.82 271.17 289.38 298.58 316.99 328.90 351.63 369.30 397.69 430.93 465.04 492.04 526.22 554.20 574.26 620.50 655.26 671.69 725.29 758.58 799.89 823.36 836.26 845.62 780.04 719.09 764.85 458.75 407.10 321.18 273.89 247.01 159.76 84.55 -24.64 -109.61 -269.08 -711.11 -984.63 -1369.50 -1389.40 -1268.58 -893.04 -405.39 -24.20 85.05 87.44 -1.57 -64.09 -117.97 -155.60 -220.93 -322.43 -548.73 -709.07 -984.81 -1392.54 -1669.62 -1892.99 -2026.91 -2101.04 -2201.19 -2288.13 -2430.42 -2617.06 -2742.95 -2885.14 -2885.22
-1357.19 -1357.36 -1331.59 -1315.90 -1304.27 -1312.52 -1335.39 -1395.13 -1412.10 -1478.00 -1529.23 -1581.01 -1639.52 -1684.44 -1758.37 -1803.80 -1826.79 -1773.80 -1587.40 -1243.18 -770.99 -394.29 -218.43 -63.22 -23.05 64.36 102.97 205.10 234.94 242.48 274.18 285.15 306.99 369.17 409.28 373.04 335.63 343.30 357.95 309.92 317.28 292.56 270.20 257.66 246.34 240.23 240.90 233.44 232.32 236.20 241.14 241.52 246.59 257.83 261.35 272.91 286.56 318.25 343.80 399.87 422.21 433.39 424.91 389.04 376.75 353.82 361.35 324.84 310.67 288.27 271.58 265.83 257.91 262.27 269.41 283.41 294.49 309.59 327.80 348.71 375.76 407.03 430.58 458.49 500.54 517.44 551.52 573.46 617.96 649.63 658.37 706.75 756.78 792.41 777.76 805.37 741.05 830.76 1017.33 661.40 370.50 344.06 301.89 257.73 234.22 151.15 37.19 -29.71 -181.07 -322.73 -687.69 -1177.12 -1325.38 -1367.06 -1213.30 -742.78 -246.31 134.29 173.80 141.76 23.09 -51.26 -118.49 -153.86 -239.94 -335.70 -449.48 -682.01 -999.37 -1252.77 -1544.75 -1814.50 -1951.30 -2020.46 -2156.64 -2286.48 -2400.05 -2584.49 -2706.81 -2884.24 -2884.33
-1417.02 -1417.72 -1401.48 -1375.31 -1387.36 -1372.38 -1392.50 -1422.91 -1439.37 -1497.95 -1579.41 -1625.34 -1677.53 -1722.61 -1768.39 -1815.12 -1812.35 -1699.03 -1490.47 -1099.24 -472.13 -278.68 -188.68 -146.50 -86.38 -1.74 61.67 134.31 217.00 232.00 257.84 260.88 278.74 316.67 371.16 331.42 292.40 287.88 284.30 283.66 277.88 246.62 244.63 239.97 226.15 229.28 227.81 223.36 223.86 227.64 228.96 233.73 242.62 251.46 256.61 262.48 277.79 297.78 349.68 373.60 421.04 446.10 469.89 426.30 420.07 426.61 408.07 368.91 329.29 301.32 271.93 262.17 255.99 263.77 271.51 286.40 292.18 307.41 325.31 343.37 380.28 404.36 426.30 464.23 493.36 512.93 552.95 571.68 604.59 644.30 676.01 729.14 744.83 743.40 711.15 733.57 700.60 895.66 1043.60 677.77 499.90 316.84 309.22 263.53 231.45 126.56 46.90 -53.14 -131.43 -314.55 -595.67 -1123.58 -1334.20 -1325.02 -1273.35 -957.68 -75.65 61.10 180.20 164.98 53.52 -57.46 -124.55 -161.17 -225.61 -346.44 -448.43 -701.77 -995.91 -1127.50 -1293.68 -1630.14 -1850.58 -2034.23 -2105.01 -2221.43 -2372.66 -2563.18 -2718.94 -2884.49 -2884.57
-1505.73 -1505.81 -1480.94 -1454.75 -1458.76 -1476.83 -1507.12 -1530.54 -1585.07 -1616.03 -1635.31 -1674.25 -1720.56 -1765.20 -1795.43 -1830.59 -1792.98 -1647.58 -1197.18 -706.25 -371.25 -194.53 -179.35 -187.77 -158.49 -18.36 33.28 63.49 154.23 213.83 238.04 243.03 250.76 260.45 290.90 265.88 265.86 269.74 266.81 261.10 253.61 238.48 229.22 216.70 213.76 206.25 210.28 212.65 211.30 215.69 223.96 228.19 239.60 241.98 248.44 259.40 269.12 295.78 325.43 346.32 396.56 421.87 421.12 421.11 409.66 394.19 389.29 345.14 314.87 288.94 264.44 256.21 258.21 263.83 272.15 286.61 293.28 310.62 323.35 356.62 375.49 402.93 428.56 459.72 484.94 507.65 558.62 571.92 573.39 643.65 679.98 720.94 747.21 709.65 619.18 567.76 745.42 1083.27 687.08 534.08 356.87 285.76 269.58 238.53 143.16 58.53 -13.25 -69.45 -119.32 -273.80 -433.77 -1111.65 -1227.48 -1370.72 -1317.21 -964.35 -423.28 -94.97 110.55 120.75 21.81 -62.80 -135.62 -177.73 -241.99 -326.26 -506.39 -712.72 -981.56 -1099.16 -1387.48 -1582.12 -1816.62 -2001.45 -2084.81 -2176.06 -2318.98 -2606.89 -2763.89 -2893.40 -2893.01
-1566.86 -1566.88 -1542.89 -1536.86 -1523.16 -1532.19 -1541.57 -1583.74 -1622.29 -1645.06 -1683.77 -1734.18 -1764.42 -1788.81 -1820.30 -1832.70 -1782.21 -1567.71 -964.62 -626.33 -355.07 -185.06 -160.55 -189.96 -191.80 -73.32 -14.27 14.71 119.18 184.50 206.14 235.79 238.04 245.33 258.38 261.66 257.17 252.62 243.13 238.19 235.98 228.56 217.26 200.84 194.25 163.20 163.99 175.42 173.41 182.34 208.99 223.43 234.65 236.79 245.31 255.67 264.01 281.57 310.16 332.80 369.25 387.24 376.28 363.61 354.32 326.79 313.74 314.47 292.55 267.67 255.99 256.08 262.35 268.98 275.40 287.16 299.53 317.99 327.28 344.50 373.14 388.14 421.87 433.19 483.62 502.60 536.54 572.48 592.92 637.10 661.18 713.53 735.69 699.57 608.75 526.37 773.24 783.28 402.66 349.01 307.75 257.28 219.90 153.52 109.58 51.21 -19.40 -58.05 -138.25 -319.45 -608.44 -1104.99 -1379.31 -1394.82 -1344.39 -1131.04 -757.55 -319.03 -169.14 95.70 -17.30 -97.66 -152.21 -198.68 -241.95 -371.21 -569.93 -808.01 -987.45 -1159.70 -1414.22 -1632.41 -1793.39 -1949.36 -2067.05 -2231.32 -2491.71 -2802.35 -2974.89 -3068.45 -3068.23
-1624.50 -1624.49 -1603.25 -1605.52 -1595.98 -1584.56 -1579.49 -1602.13 -1641.68 -1648.88 -1705.37 -1748.64 -1787.22 -1823.76 -1834.78 -1844.98 -1772.37 -1623.43 -1081.65 -692.72 -422.21 -232.28 -175.15 -169.48 -195.08 -106.12 -66.84 6.42 16.91 48.74 112.63 188.13 225.87 233.57 237.72 243.55 246.16 241.64 232.39 228.13 185.38 173.53 182.79 196.95 128.19 112.90 120.20 123.56 132.19 150.73 178.78 209.30 225.20 233.64 244.40 253.94 271.38 284.87 297.50 316.63 332.48 332.35 329.71 329.03 318.41 309.68 300.69 277.39 268.60 256.63 256.13 259.64 269.57 273.75 278.79 290.86 303.01 319.35 331.46 354.92 378.21 398.80 425.93 440.22 467.58 505.90 546.14 571.83 581.95 632.06 661.81 704.25 719.75 648.82 559.39 592.79 623.21 430.10 402.23 337.24 289.01 255.82 200.97 151.50 110.41 54.60 -6.92 -73.31 -141.48 -471.77 -814.00 -1118.39 -1377.98 -1391.50 -1378.17 -1319.69 -1165.49 -624.04 -322.43 -163.73 -98.92 -137.00 -174.33 -234.55 -316.07 -459.71 -699.57 -929.47 -1031.27 -1223.34 -1494.11 -1625.49 -1821.95 -1972.17 -2086.00 -2300.84 -2557.44 -2843.08 -3113.79 -3232.78 -3232.84
-1681.85 -1681.83 -1669.21 -1650.52 -1636.05 -1634.53 -1642.06 -1658.06 -1684.25 -1703.82 -1751.09 -1728.96 -1719.60 -1801.17 -1853.86 -1859.70 -1822.04 -1752.49 -1424.60 -1126.19 -644.10 -395.89 -251.52 -181.89 -207.16 -196.01 -91.80 -35.46 -4.09 12.88 25.66 136.76 183.87 201.22 222.73 200.39 231.54 215.23 210.41 147.07 119.19 130.44 152.06 108.82 109.69 110.20 111.91 113.37 125.06 136.47 161.15 191.67 224.69 232.95 245.29 260.10 275.87 297.45 328.86 316.71 293.53 297.37 310.75 317.59 290.88 273.46 262.70 263.70 255.54 255.91 257.13 263.33 269.89 280.29 287.29 298.79 310.14 325.91 338.28 355.11 384.58 398.18 423.57 451.04 467.73 504.71 548.15 561.82 580.65 634.81 664.22 705.25 741.33 709.64 779.44 815.25 436.99 399.64 376.78 323.90 296.75 240.17 189.62 142.78 94.91 43.48 -25.29 -105.20 -149.90 -444.82 -885.52 -1306.50 -1369.67 -1388.67 -1390.36 -1384.71 -1354.03 -1159.69 -681.76 -419.48 -162.42 -165.01 -195.66 -232.83 -394.15 -606.78 -686.40 -1081.90 -1154.97 -1284.41 -1543.47 -1731.98 -1877.02 -1950.94 -2054.19 -2249.90 -2548.60 -2817.91 -3133.42 -3254.08 -3254.23
-1737.06 -1738.01 -1730.88 -1680.06 -1655.63 -1704.75 -1701.94 -1723.88 -1778.02 -1770.01 -1788.00 -1784.76 -1798.84 -1841.74 -1859.08 -1871.85 -1852.65 -1779.42 -1591.51 -1371.44 -1128.85 -692.28 -408.94 -220.58 -196.57 -203.10 -172.56 -124.30 -91.93 -29.14 14.46 29.97 105.19 132.17 136.74 122.21 167.78 147.82 104.34 108.30 93.98 81.72 57.48 29.11 38.12 54.42 92.01 104.64 120.89 131.19 162.81 203.70 223.32 230.67 240.77 259.81 292.80 308.97 339.74 295.39 278.36 276.15 276.12 276.48 262.12 243.03 247.04 250.79 255.14 255.57 257.52 262.59 272.58 285.16 295.36 307.76 323.89 331.40 350.36 368.13 385.73 401.32 427.01 455.97 468.99 489.77 547.75 563.00 568.84 620.79 648.46 685.76 730.38 753.39 674.98 546.26 396.16 351.93 341.69 296.93 271.46 227.93 184.84 120.97 60.66 19.69 -58.40 -137.23 -223.56 -537.40 -1031.53 -1283.72 -1377.95 -1390.67 -1405.47 -1422.95 -1395.14 -1308.27 -899.44 -495.40 -211.10 -186.72 -222.13 -277.49 -377.27 -553.56 -723.68 -1062.43 -1338.75 -1515.03 -1621.29 -1732.42 -1852.12 -1929.99 -2011.59 -2183.61 -2464.85 -2673.21 -3013.63 -3199.29 -3199.37
-1787.30 -1787.25 -1735.49 -1764.28 -1748.78 -1750.64 -1786.55 -1786.36 -1797.38 -1822.17 -1840.98 -1842.22 -1846.85 -1847.83 -1857.99 -1872.59 -1879.14 -1882.49 -1795.47 -1730.64 -1404.63 -938.42 -593.74 -319.14 -221.93 -197.80 -220.10 -214.30 -143.74 -91.12 -60.41 -31.46 -31.88 36.66 65.19 57.48 86.19 52.26 27.38 11.24 10.45 18.86 -1.62 -12.88 -0.87 22.22 53.19 93.81 113.64 137.51 175.34 216.30 226.91 239.67 281.53 288.28 313.22 346.41 339.35 294.44 272.88 259.14 251.35 240.32 239.48 239.65 241.30 248.16 252.84 253.87 257.05 261.81 273.15 281.44 296.40 311.73 326.17 342.14 353.74 374.04 392.26 410.07 435.34 462.40 475.24 491.32 534.18 558.09 575.71 616.12 636.28 658.98 687.92 785.87 657.80 387.23 333.06 314.89 302.88 274.02 250.51 198.87 111.85 50.08 -0.53 -31.28 -94.75 -162.98 -358.71 -633.08 -1109.24 -1293.95 -1371.37 -1392.70 -1419.94 -1439.94 -1437.10 -1375.65 -989.23 -663.05 -249.99 -202.21 -236.85 -325.48 -423.80 -627.91 -946.12 -1178.42 -1468.73 -1601.35 -1690.40 -1764.74 -1886.86 -1940.73 -2024.91 -2185.30 -2437.41 -2733.80 -2927.31 -3198.41 -3198.49
-1828.76 -1830.14 -1803.67 -1783.55 -1793.79 -1810.28 -1826.32 -1820.70 -1830.71 -1833.64 -1857.51 -1861.18 -1862.29 -1873.42 -1864.80 -1832.11 -1880.90 -1884.00 -1871.28 -1763.77 -1656.52 -1281.67 -613.51 -405.53 -222.89 -196.81 -212.99 -242.46 -237.80 -179.15 -127.82 -134.59 -75.98 -33.40 -11.48 10.24 25.92 -16.50 -44.81 -58.89 -59.97 -38.57 -19.35 -20.80 -8.97 22.65 41.62 84.36 128.41 164.10 198.47 220.97 235.21 249.47 292.58 307.04 328.48 356.58 341.99 297.77 270.68 245.19 239.87 233.85 233.23 234.59 237.92 238.13 247.27 247.89 251.32 261.04 272.45 277.88 292.35 310.55 325.69 347.71 359.76 378.37 396.05 415.68 428.07 462.09 482.79 499.33 526.72 556.69 576.63 605.76 603.96 606.22 685.98 618.49 460.33 327.10 280.26 278.98 276.00 258.06 224.82 142.28 72.55 22.74 -11.97 -59.35 -125.82 -174.55 -311.46 -726.37 -1229.72 -1319.33 -1369.79 -1389.23 -1423.22 -1458.96 -1455.75 -1416.76 -1054.72 -667.42 -293.59 -214.91 -254.67 -371.46 -559.79 -737.26 -857.99 -1166.20 -1452.49 -1638.80 -1748.88 -1819.25 -1887.30 -1989.25 -2100.16 -2283.93 -2409.77 -2917.89 -3085.58 -3241.38 -3241.20
-1859.31 -1859.26 -1848.06 -1839.43 -1876.25 -1878.83 -1864.85 -1866.41 -1861.74 -1855.89 -1868.28 -1877.89 -1877.77 -1885.68 -1885.56 -1822.18 -1867.09 -1896.37 -1897.46 -1855.55 -1767.17 -1377.39 -920.66 -541.85 -266.98 -201.64 -202.41 -224.13 -236.17 -231.23 -226.23 -222.36 -204.14 -170.07 -101.65 -85.02 -70.88 -81.70 -86.22 -92.19 -113.81 -88.01 -59.33 -25.40 13.80 51.91 101.69 143.25 167.18 208.03 228.54 239.95 249.85 280.42 330.32 346.74 375.49 372.66 347.17 294.21 263.89 239.57 232.73 221.96 220.46 223.48 229.25 237.16 236.91 242.83 246.64 261.89 270.82 284.01 296.98 314.42 331.50 365.97 372.27 389.80 403.28 419.23 436.33 459.78 483.21 501.81 516.08 538.80 580.40 588.92 586.07 566.76 699.70 510.05 335.41 300.86 276.80 245.66 243.63 201.50 129.47 93.69 45.44 -23.41 -63.74 -88.06 -130.87 -151.05 -454.62 -807.49 -1158.84 -1360.24 -1372.25 -1390.17 -1424.71 -1464.40 -1459.22 -1396.33 -955.47 -599.63 -252.10 -207.48 -293.95 -460.04 -582.54 -806.69 -1145.80 -1252.02 -1541.55 -1726.69 -1800.05 -1868.45 -1931.14 -2001.83 -2079.29 -2330.13 -2697.27 -3042.92 -3260.85 -3559.50 -3559.58
-1890.90 -1890.80 -1888.68 -1897.99 -1898.61 -1893.55 -1895.71 -1887.83 -1882.31 -1883.42 -1892.04 -1895.55 -1902.14 -1915.32 -1899.60 -1852.90 -1864.90 -1902.10 -1902.20 -1887.97 -1709.15 -1408.29 -916.10 -483.26 -229.79 -207.70 -212.59 -244.36 -256.49 -254.84 -273.04 -275.69 -300.93 -268.82 -198.57 -164.20 -166.97 -176.13 -169.66 -170.01 -165.66 -141.49 -93.11 -51.46 1.61 84.25 112.15 152.02 214.81 230.07 240.23 256.47 267.01 307.64 354.90 370.81 389.73 384.39 323.75 284.84 247.99 239.17 225.37 219.52 212.08 212.95 220.60 225.91 231.37 236.75 243.83 254.82 270.14 283.66 303.46 315.11 343.37 367.91 379.76 395.34 413.07 424.18 447.90 461.55 484.62 498.14 511.36 555.25 576.43 583.42 584.44 523.61 435.99 370.72 319.42 291.64 279.90 205.65 190.65 154.16 111.98 52.72 18.56 -27.21 -82.31 -103.55 -129.88 -233.45 -467.14 -718.39 -1064.78 -1291.78 -1370.92 -1385.80 -1427.18 -1460.90 -1431.81 -1351.39 -856.12 -562.45 -186.78 -225.38 -364.81 -583.57 -779.63 -956.50 -1296.45 -1571.48 -1667.11 -1791.96 -1843.42 -1935.26 -1996.48 -2006.79 -2192.18 -2482.73 -2809.70 -3215.50 -3472.46 -3574.94 -3574.83
-1857.89 -1857.84 -1887.21 -1921.72 -1952.04 -1943.80 -1935.94 -1923.17 -1910.19 -1903.39 -1913.84 -1929.02 -1937.76 -1942.79 -1924.47 -1905.85 -1886.62 -1915.11 -1907.50 -1864.06 -1604.34 -1369.09 -843.10 -436.56 -281.53 -317.46 -441.58 -379.85 -378.17 -408.07 -381.61 -381.96 -453.94 -305.31 -299.08 -237.85 -223.05 -214.50 -216.81 -216.12 -208.11 -175.27 -122.66 -76.19 -7.72 37.22 125.99 180.79 232.23 244.17 251.46 259.75 293.96 335.88 382.65 377.59 360.19 337.65 303.75 261.58 238.49 234.69 211.61 170.17 169.37 180.94 210.14 217.20 227.78 230.28 239.41 251.52 267.87 282.09 305.39 315.65 353.88 372.47 386.57 407.92 418.45 435.22 447.75 456.74 480.76 492.63 514.52 530.55 571.52 586.08 594.15 540.17 416.76 340.32 294.85 288.70 258.01 198.04 154.75 119.55 75.86 51.36 37.69 -37.89 -62.32 -109.94 -149.47 -305.32 -608.74 -918.02 -1101.82 -1319.72 -1365.88 -1388.77 -1422.43 -1460.99 -1447.65 -1272.59 -811.35 -418.23 -238.48 -343.18 -583.97 -795.19 -1093.33 -1350.74 -1576.85 -1744.33 -1803.70 -1888.25 -1911.47 -1955.82 -2017.25 -2074.81 -2197.55 -2350.61 -2734.01 -3283.23 -3589.68 -3697.23 -3697.30
-1907.03 -1918.47 -1955.69 -1958.48 -1977.38 -1980.65 -1966.22 -1947.54 -1943.80 -1946.45 -1945.52 -1951.31 -1965.94 -1956.24 -1943.66 -1929.82 -1922.33 -1937.19 -1919.03 -1836.52 -1619.55 -1224.09 -811.17 -561.35 -571.67 -600.97 -637.31 -714.36 -826.02 -753.04 -814.77 -843.60 -847.94 -739.31 -448.34 -273.64 -249.65 -248.09 -254.52 -250.51 -245.19 -227.88 -152.16 -85.43 0.97 50.44 146.61 203.68 238.11 247.24 268.46 283.39 310.66 353.82 333.38 332.91 322.38 288.33 282.43 250.25 236.96 224.20 194.09 155.59 151.67 169.08 186.50 212.68 224.95 225.76 233.39 248.16 261.37 276.62 304.80 326.11 349.96 376.64 390.99 409.42 422.46 438.26 446.84 459.56 476.88 488.05 521.42 535.05 566.46 583.95 564.23 540.05 407.89 330.73 296.16 266.10 220.14 138.77 118.61 80.28 49.65 27.25 -10.83 -9.88 -58.81 -113.44 -150.72 -321.44 -567.18 -1036.61 -1268.64 -1351.08 -1377.38 -1396.43 -1440.81 -1462.12 -1412.92 -1344.83 -648.86 -233.95 -220.81 -522.65 -720.62 -975.69 -1401.38 -1750.04 -1815.98 -1897.27 -1910.21 -1934.66 -1964.52 -1990.75 -2023.29 -2122.73 -2347.65 -2558.81 -2934.74 -3283.17 -3590.31 -3697.69 -3697.76
-1997.48 -1997.40 -1969.69 -1969.31 -1996.37 -2019.75 -2010.06 -1992.75 -1981.23 -1984.62 -1998.80 -1986.65 -1995.25 -1989.18 -1963.30 -1924.01 -1925.10 -1953.94 -1957.87 -1887.07 -1726.30 -1322.15 -1033.00 -894.67 -903.10 -1029.89 -1105.38 -1203.36 -1228.21 -1397.82 -1368.64 -1258.31 -1331.72 -837.94 -468.07 -311.71 -284.91 -271.03 -278.76 -288.15 -331.07 -302.30 -228.45 -150.96 -38.40 84.75 175.39 225.76 240.36 254.27 292.37 317.70 350.16 334.96 326.68 308.76 280.75 263.66 251.66 237.51 232.89 211.11 176.53 145.23 144.29 157.06 191.76 213.39 221.43 222.62 231.53 242.60 249.11 266.55 289.88 312.16 345.06 372.93 395.80 409.21 425.95 430.85 449.13 455.16 474.27 489.67 515.11 533.66 573.25 588.83 615.84 544.75 415.04 308.01 289.23 264.25 200.51 129.76 84.21 57.71 13.03 9.26 -32.79 -35.09 -77.27 -145.32 -256.25 -439.68 -700.87 -1029.44 -1297.22 -1326.61 -1379.60 -1412.57 -1452.11 -1460.18 -1413.58 -1113.37 -514.10 -261.04 -217.58 -506.36 -889.35 -1070.78 -1401.93 -1766.03 -1858.22 -1944.86 -1959.78 -1961.22 -1965.13 -1990.53 -2155.90 -2253.81 -2572.23 -2776.87 -3146.74 -3418.77 -3600.82 -3701.19 -3701.26
-1993.41 -1993.39 -2002.47 -2022.51 -2034.31 -2040.77 -2049.30 -2033.37 -2019.64 -2035.25 -2047.60 -2026.06 -2024.31 -2018.85 -1990.99 -1969.36 -1975.21 -2013.82 -2001.97 -1937.90 -1836.74 -1654.57 -1500.67 -1457.51 -1436.58 -1706.95 -1757.40 -1760.78 -1865.22 -1824.29 -1875.28 -1901.61 -1847.74 -1108.14 -645.19 -452.63 -328.60 -314.94 -360.57 -387.61 -392.25 -296.65 -254.09 -168.65 -87.31 36.67 179.61 231.07 247.46 264.28 309.00 326.72 335.79 317.55 307.43 274.39 245.63 245.51 240.76 228.98 218.68 172.41 150.97 146.00 144.71 153.65 184.99 188.61 216.61 221.46 223.98 229.67 246.46 276.36 289.98 306.98 341.42 377.61 397.09 416.15 426.88 437.50 449.87 455.12 475.92 482.34 512.88 534.04 576.94 590.69 659.34 529.24 392.41 312.66 295.09 273.66 221.59 121.68 75.74 38.42 8.73 -14.31 -50.90 -82.68 -130.50 -238.66 -344.32 -595.93 -848.43 -1031.36 -1177.09 -1294.10 -1385.48 -1417.97 -1461.92 -1472.51 -1400.42 -946.92 -464.52 -238.76 -295.21 -521.06 -910.73 -1339.20 -1509.30 -1733.41 -1907.29 -1953.55 -1960.92 -1971.73 -1988.72 -2067.50 -2202.84 -2327.04 -2623.74 -3068.07 -3311.27 -3618.53 -3691.19 -3719.35 -3719.37
-2059.24 -2059.18 -2023.92 -2006.66 -2028.91 -2061.52 -2066.62 -2056.18 -2059.99 -2060.01 -2064.17 -2059.03 -2055.95 -2052.13 -2034.12 -2028.04 -2030.34 -2034.73 -2028.26 -2024.28 -1991.10 -1890.57 -1837.98 -1807.61 -1863.60 -1913.94 -1973.26 -1979.55 -2062.31 -2092.74 -2138.94 -2137.30 -2073.01 -1936.21 -1338.80 -732.53 -414.19 -366.62 -418.56 -426.34 -429.99 -334.33 -252.19 -218.67 -104.59 37.67 159.39 233.30 245.26 257.39 307.24 317.44 304.54 279.51 265.03 244.52 242.35 238.42 234.23 217.04 200.56 161.00 152.32 149.08 145.18 145.54 152.97 158.97 197.87 218.41 222.79 224.95 245.70 267.62 276.41 323.64 343.81 379.97 402.34 416.35 425.16 435.84 449.22 455.36 482.47 496.09 508.94 549.78 579.64 607.66 571.72 410.86 357.46 308.75 288.29 266.89 188.71 118.82 72.56 35.71 -6.07 -100.67 -119.74 -219.42 -274.42 -333.40 -602.95 -733.94 -871.93 -966.11 -1126.72 -1231.63 -1364.32 -1424.77 -1460.55 -1475.45 -1290.48 -1074.07 -514.81 -231.29 -464.27 -781.62 -1048.02 -1425.86 -1573.46 -1766.68 -1898.17 -1941.27 -1946.99 -1956.86 -2005.41 -2243.64 -2316.23 -2469.13 -2858.74 -3127.78 -3492.28 -3710.60 -3755.57 -3790.74 -3790.80
-2077.16 -2077.10 -2059.91 -2027.59 -2018.85 -2061.23 -2082.56 -2086.78 -2085.82 -2083.29 -2088.03 -2065.90 -2056.50 -2045.70 -2072.41 -2073.85 -2064.30 -2063.83 -2065.75 -2055.41 -2071.11 -2072.14 -2030.39 -2034.36 -2051.98 -2078.38 -2088.80 -2123.74 -2135.25 -2164.85 -2185.46 -2193.42 -2189.35 -2053.76 -1476.03 -1041.77 -594.89 -495.29 -423.44 -411.82 -424.45 -339.63 -267.00 -229.90 -140.62 -13.73 121.66 227.90 245.20 258.27 278.06 278.34 265.25 240.28 240.41 240.07 236.03 231.86 211.38 174.90 166.86 160.00 155.21 152.13 147.46 144.66 146.98 153.06 178.13 202.62 221.91 223.76 251.60 264.23 285.13 316.06 340.51 360.10 390.23 418.32 426.26 436.81 444.27 458.43 473.96 487.61 519.90 537.32 621.13 596.83 472.11 373.18 325.74 284.92 268.60 248.10 199.27 107.73 58.34 29.27 -125.71 -168.08 -220.40 -304.13 -434.56 -562.35 -708.27 -831.27 -888.77 -920.67 -967.80 -1114.93 -1297.33 -1376.97 -1472.75 -1483.02 -1367.86 -797.71 -483.68 -274.07 -618.34 -922.77 -1110.04 -1505.04 -1705.11 -1847.89 -1943.86 -1932.10 -1926.39 -1953.72 -2121.84 -2334.52 -2522.14 -2816.41 -2973.31 -3342.24 -3680.45 -3755.34 -3794.21 -3805.39 -3805.45
-2093.02 -2092.96 -2096.78 -2081.99 -2069.41 -2060.11 -2079.12 -2091.80 -2086.55 -2098.14 -2089.31 -2051.21 -2062.15 -2043.71 -2093.73 -2095.39 -2090.69 -2085.42 -2085.01 -2096.67 -2094.27 -2094.96 -2087.11 -2105.05 -2104.37 -2131.66 -2143.90 -2152.79 -2169.83 -2189.17 -2202.56 -2212.57 -2206.58 -2124.85 -1687.15 -1376.47 -928.11 -593.80 -428.27 -410.98 -409.48 -320.01 -278.16 -239.30 -194.21 -56.93 125.32 225.60 237.84 246.35 259.46 254.11 243.40 238.49 233.43 232.17 232.65 214.42 179.74 142.87 146.22 155.08 160.41 155.41 152.67 147.91 149.66 150.76 162.91 184.23 214.56 223.54 233.37 258.54 281.35 299.05 334.83 357.42 390.61 404.59 421.31 435.54 442.48 448.25 470.49 489.24 486.28 507.77 618.59 688.80 438.55 329.01 300.77 262.54 233.70 196.82 174.97 94.07 20.37 -95.71 -394.03 -366.89 -467.34 -627.40 -645.75 -743.89 -820.05 -882.93 -889.21 -903.01 -957.39 -1015.59 -1174.78 -1348.24 -1424.94 -1419.21 -1193.18 -741.97 -319.22 -300.83 -632.46 -967.75 -1273.60 -1519.39 -1765.72 -1895.73 -1939.80 -1935.08 -1918.75 -1923.38 -2063.28 -2451.08 -2762.71 -3055.07 -3331.67 -3643.34 -3764.62 -3793.05 -3817.92 -3820.58 -3820.65
-2105.58 -2105.52 -2110.24 -2113.87 -2119.06 -2106.72 -2102.14 -2094.50 -2081.00 -2101.42 -2104.68 -2083.76 -2091.39 -2124.03 -2128.17 -2120.57 -2118.07 -2114.91 -2119.09 -2114.54 -2129.11 -2129.74 -2130.95 -2139.02 -2137.18 -2154.58 -2162.07 -2173.36 -2187.33 -2198.46 -2212.98 -2223.30 -2219.80 -2186.62 -1989.05 -1681.79 -1006.78 -714.61 -462.77 -410.30 -372.92 -313.70 -302.49 -279.53 -200.35 -111.75 59.54 207.75 234.01 239.82 248.30 245.80 235.03 234.13 226.85 205.26 197.11 173.07 156.55 124.17 130.60 144.83 160.49 162.67 165.34 154.10 153.69 155.12 160.76 175.51 202.51 217.47 224.86 251.79 277.52 294.64 327.28 358.40 381.94 402.12 411.76 423.52 430.32 450.33 469.93 474.62 452.77 594.86 585.70 452.02 324.04 294.28 264.30 229.51 182.02 168.84 117.64 -10.25 -115.40 -285.48 -518.57 -678.16 -760.71 -826.00 -807.12 -849.15 -887.65 -871.31 -868.07 -880.36 -899.91 -899.26 -987.92 -1083.56 -1136.60 -1070.54 -1035.22 -555.59 -236.72 -523.52 -813.42 -1271.90 -1598.65 -1749.20 -1898.54 -1955.03 -1951.47 -1936.42 -1911.88 -1923.39 -2061.96 -2458.10 -2914.17 -3312.40 -3581.82 -3731.49 -3816.26 -3817.46 -3818.91 -3820.55 -3820.62
-2104.89 -2104.81 -2107.48 -2108.06 -2112.25 -2113.60 -2114.03 -2110.46 -2098.20 -2120.79 -2133.58 -2131.54 -2135.23 -2132.66 -2141.89 -2144.62 -2145.51 -2149.15 -2145.98 -2150.94 -2158.76 -2156.01 -2163.93 -2171.95 -2171.85 -2193.47 -2189.04 -2195.76 -2204.57 -2214.27 -2223.65 -2241.90 -2226.47 -2203.91 -2094.86 -1797.57 -1320.60 -744.50 -545.63 -431.12 -393.97 -316.55 -282.18 -269.68 -212.46 -96.10 49.52 111.01 211.89 225.97 214.86 200.77 186.22 170.70 151.12 115.15 105.30 115.27 65.32 38.02 73.27 104.67 154.91 180.78 201.64 173.14 160.53 164.22 162.52 159.41 187.59 212.66 224.38 251.23 266.24 284.16 308.45 340.82 363.43 400.39 400.31 412.72 424.33 436.19 450.50 446.31 404.91 743.91 436.12 305.19 278.76 256.52 221.11 189.72 167.88 118.40 -25.23 -205.20 -308.42 -596.69 -787.32 -834.10 -885.54 -890.95 -889.60 -889.80 -889.60 -857.87 -821.06 -789.32 -730.88 -719.30 -703.32 -567.60 -534.90 -538.48 -414.16 -268.78 -295.22 -582.60 -967.87 -1415.88 -1643.18 -1856.11 -1948.55 -1958.06 -1943.55 -1926.73 -1908.77 -1916.26 -1995.81 -2217.99 -2913.85 -3386.72 -3710.61 -3780.27 -3814.15 -3815.73 -3817.77 -3819.05 -3819.12
-2088.79 -2090.23 -2095.91 -2099.29 -2104.75 -2105.46 -2110.96 -2107.91 -2125.69 -2137.09 -2137.06 -2137.80 -2138.99 -2144.81 -2159.11 -2177.06 -2178.70 -2190.39 -2188.26 -2190.45 -2195.53 -2188.50 -2192.28 -2196.34 -2209.25 -2209.57 -2221.31 -2219.57 -2224.48 -2231.79 -2242.78 -2230.80 -2189.88 -2177.12 -2194.39 -1930.59 -1460.42 -991.24 -597.19 -456.26 -422.28 -328.67 -271.24 -263.14 -214.49 -95.40 -35.17 9.66 139.09 169.21 174.60 73.95 88.33 0.86 64.61 -35.52 -27.46 63.48 -13.36 -6.18 -8.18 82.41 155.61 186.07 216.09 218.21 207.96 196.40 179.20 160.68 180.67 211.15 223.28 239.82 259.37 283.56 307.70 327.23 346.06 368.10 370.69 384.36 411.39 421.22 428.07 430.34 465.01 430.40 296.84 291.72 230.19 195.14 127.88 122.01 111.52 54.30 -255.80 -379.94 -474.76 -557.76 -844.09 -885.24 -893.67 -892.99 -878.80 -871.14 -764.81 -720.10 -641.90 -607.34 -422.91 -291.27 -62.82 -147.62 -165.22 -213.64 -168.32 -192.10 -283.71 -638.73 -947.24 -1384.16 -1619.98 -1846.52 -1950.28 -1954.74 -1937.79 -1917.63 -1900.82 -1908.10 -1954.70 -2152.06 -2882.27 -3194.38 -3566.56 -3784.95 -3814.37 -3816.01 -3815.55 -3818.91 -3819.57
-2101.39 -2101.33 -2101.21 -2106.75 -2110.90 -2111.00 -2118.66 -2128.64 -2142.80 -2145.93 -2152.75 -2153.10 -2155.51 -2159.23 -2178.32 -2195.13 -2195.70 -2207.85 -2211.10 -2215.57 -2220.83 -2219.19 -2226.06 -2228.19 -2233.50 -2234.78 -2244.85 -2248.98 -2237.62 -2245.60 -2236.44 -2213.86 -2208.33 -2194.46 -2153.61 -1922.80 -1699.75 -1122.15 -644.65 -470.94 -434.27 -340.92 -291.65 -265.54 -205.79 -131.38 -106.93 -54.77 35.92 43.06 51.32 -23.30 -87.68 -97.08 -93.78 -79.09 -0.67 6.45 -33.87 -37.52 -36.80 19.90 98.49 193.33 218.30 236.89 245.89 220.03 204.59 185.54 175.63 178.23 222.08 233.45 245.83 273.31 296.06 313.95 324.08 333.64 348.73 352.69 382.26 387.21 408.67 411.91 566.50 702.68 299.18 253.11 189.43 165.58 69.18 43.35 -66.15 -143.76 -521.33 -584.20 -628.46 -727.59 -874.38 -886.52 -889.64 -868.37 -831.15 -732.78 -535.98 -445.37 -218.21 -105.73 -103.78 64.28 37.29 93.53 15.70 -24.46 -177.15 -341.85 -504.35 -685.76 -1099.85 -1313.25 -1634.97 -1855.27 -1932.72 -1934.74 -1926.20 -1910.48 -1896.78 -1905.02 -1936.90 -2093.79 -2567.04 -2867.48 -3455.38 -3785.18 -3810.13 -3814.16 -3816.78 -3822.60 -3822.67
-2115.96 -2115.90 -2116.99 -2119.91 -2127.99 -2126.49 -2130.84 -2140.80 -2157.28 -2166.36 -2165.25 -2167.91 -2170.31 -2175.96 -2191.09 -2214.79 -2221.90 -2228.45 -2232.31 -2242.38 -2240.69 -2246.54 -2244.80 -2249.44 -2257.84 -2257.30 -2261.49 -2266.54 -2262.14 -2256.15 -2243.35 -2218.47 -2207.22 -2145.88 -2078.70 -1936.98 -1824.13 -1455.12 -774.95 -597.13 -447.87 -361.37 -317.38 -283.54 -231.48 -156.39 -120.63 -55.47 -19.68 -40.24 -64.32 -107.26 -102.83 -97.89 -89.94 -70.84 -53.95 -50.62 -42.19 -41.32 -41.77 16.65 131.11 184.12 208.07 228.66 258.58 256.56 239.13 202.09 175.55 168.34 208.87 225.39 237.21 259.19 285.16 313.65 305.31 313.48 319.84 336.63 344.30 342.69 364.12 388.58 547.97 1287.94 283.74 226.21 171.04 125.68 41.18 -33.06 -122.98 -420.29 -672.58 -811.89 -797.31 -864.38 -869.30 -847.29 -802.11 -693.71 -576.50 -371.22 -166.44 -28.89 50.06 112.50 117.70 149.74 138.09 127.50 84.74 -37.55 -210.76 -475.24 -616.90 -892.69 -1112.89 -1430.63 -1633.38 -1837.08 -1930.84 -1925.13 -1916.36 -1906.99 -1904.61 -1923.64 -1974.55 -2097.69 -2400.58 -2722.54 -3301.98 -3766.55 -3784.43 -3807.91 -3813.87 -3822.83 -3822.89
-2129.44 -2129.39 -2129.63 -2135.33 -2135.30 -2144.60 -2144.31 -2156.51 -2167.18 -2177.20 -2181.14 -2185.60 -2191.49 -2197.46 -2211.02 -2232.84 -2246.85 -2253.11 -2255.05 -2264.30 -2263.58 -2265.76 -2267.15 -2269.89 -2279.93 -2284.62 -2281.23 -2273.19 -2265.94 -2261.24 -2256.65 -2236.85 -2176.63 -2115.65 -1943.63 -1842.15 -1702.82 -1559.28 -1065.83 -673.41 -550.28 -442.90 -393.39 -309.16 -267.75 -217.87 -155.81 -123.11 -111.89 -101.52 -105.61 -111.37 -106.07 -95.84 -86.79 -68.52 -58.32 -50.20 -40.60 -37.78 -23.72 6.41 60.46 132.70 198.98 221.75 239.72 249.55 247.70 231.81 199.18 167.71 176.51 203.28 235.61 242.34 246.67 271.38 280.04 292.86 296.99 311.91 317.96 308.73 321.22 367.75 390.03 973.11 442.39 214.03 146.44 105.91 34.09 -42.71 -268.93 -463.70 -699.30 -707.28 -753.92 -696.77 -734.87 -728.62 -599.03 -450.91 -336.63 -219.04 -2.26 90.14 168.22 162.95 163.80 155.94 132.05 91.77 58.82 -41.58 -346.13 -570.97 -770.90 -955.81 -1244.98 -1410.66 -1676.05 -1893.27 -1931.36 -1919.49 -1908.59 -1903.95 -1909.00 -1942.04 -2023.23 -2182.82 -2399.65 -2603.75 -3082.69 -3611.04 -3770.14 -3795.39 -3807.55 -3824.62 -3824.69
