-4965.86 -4967.04 -5051.54 -5114.10 -5138.05 -5149.24 -5159.83 -5174.30 -5196.78 -5205.09 -5212.61 -5217.91 -5223.20 -5230.62 -5244.43 -5265.78 -5276.88 -5286.54 -5295.93 -5304.97 -5310.10 -5303.37 -5291.62 -5290.35 -5295.98 -5302.45 -5308.70 -5315.16 -5322.93 -5331.07 -5336.42 -5341.22 -5345.92 -5351.78 -5363.34 -5386.90 -5417.11 -5429.02 -5435.12 -5440.47 -5445.22 -5449.98 -5453.24 -5457.76 -5465.58 -5475.43 -5485.79 -5495.89 -5496.01 -5491.43 -5486.30 -5490.91 -5498.92 -5506.06 -5514.32 -5532.26 -5533.25 -5524.67 -5512.28 -5496.78 -5478.74 -5464.42 -5450.87 -5438.93 -5430.33 -5424.02 -5419.99 -5417.74 -5415.32 -5411.75 -5411.53 -5412.22 -5413.43 -5414.35 -5417.72 -5415.30 -5416.46 -5359.15 -5216.18 -4905.79 -4168.18 -3671.23 -3127.53 -2529.66 -2277.82 -2248.45 -3196.44 -5628.48 -6484.50 -6463.07 -6316.25 -6115.36 -5901.82 -5667.85 -5333.36 -5330.49 -5095.86 -4017.39 -2597.01 -1922.96 -1440.18 -1092.58 -1069.30 -1584.70 -2169.51 -3310.23 -5347.80 -7076.52 -8673.25 -8971.10 -8827.82 -8848.90 -8858.68 -8818.89 -8349.45 -5787.95 -3284.13 -2368.10 -2207.24 -2208.77 -2243.90 -2274.02 -2290.76 -2299.68 -2305.22 -2295.94 -2292.36 -2290.80 -2289.23 -2300.33 -2348.26 -2631.03 -3414.71 -3830.84 -4141.57 -4155.01 -4205.80 -4225.48 -4205.08 -4171.85 -4171.38
-4965.68 -4967.25 -5051.68 -5114.07 -5137.99 -5149.16 -5160.58 -5174.24 -5196.70 -5205.02 -5213.75 -5217.84 -5223.13 -5230.56 -5247.57 -5265.72 -5276.82 -5286.47 -5295.87 -5307.11 -5310.02 -5303.29 -5291.55 -5292.20 -5295.92 -5302.39 -5308.64 -5315.10 -5322.88 -5331.01 -5336.36 -5343.20 -5345.86 -5351.72 -5363.29 -5391.84 -5417.03 -5428.95 -5435.05 -5440.41 -5445.16 -5450.80 -5453.17 -5457.69 -5465.51 -5475.85 -5485.71 -5496.27 -5498.30 -5493.32 -5486.24 -5490.83 -5498.84 -5505.98 -5514.73 -5532.17 -5533.18 -5524.60 -5513.83 -5496.71 -5480.50 -5464.36 -5450.80 -5438.85 -5430.26 -5423.94 -5419.91 -5417.65 -5415.23 -5411.67 -5411.44 -5412.12 -5413.34 -5414.27 -5417.63 -5415.22 -5416.31 -5358.94 -5215.87 -4905.08 -4167.73 -3670.77 -3126.99 -2529.40 -2277.64 -2248.73 -3198.25 -5764.66 -6484.44 -6462.91 -6316.04 -6115.12 -5875.36 -5667.43 -5333.30 -5330.42 -5095.17 -4015.89 -2596.34 -1922.42 -1439.83 -1092.20 -1118.68 -1585.01 -2170.18 -3596.88 -5346.12 -7075.01 -8671.83 -8971.42 -8825.57 -8848.82 -8858.61 -8818.87 -8349.92 -5790.58 -3568.52 -2368.37 -2207.22 -2206.34 -2243.81 -2271.60 -2290.68 -2299.60 -2305.15 -2297.89 -2292.29 -2290.78 -2289.15 -2300.04 -2348.14 -2630.69 -3413.87 -3830.39 -4119.91 -4154.94 -4205.61 -4225.34 -4205.07 -4172.66 -4171.90
-4954.01 -4953.89 -5023.33 -5098.31 -5136.76 -5154.52 -5169.81 -5183.43 -5201.17 -5213.55 -5220.47 -5226.03 -5233.27 -5239.65 -5258.48 -5271.94 -5286.49 -5297.46 -5306.28 -5317.42 -5317.38 -5315.89 -5303.34 -5300.66 -5303.20 -5310.94 -5315.84 -5322.86 -5329.87 -5338.89 -5347.96 -5350.24 -5356.67 -5359.24 -5376.93 -5401.70 -5420.46 -5434.59 -5445.26 -5449.73 -5453.49 -5457.17 -5462.63 -5467.31 -5475.40 -5483.26 -5494.88 -5503.06 -5505.97 -5499.17 -5493.43 -5500.54 -5507.35 -5514.23 -5524.88 -5541.66 -5541.08 -5529.73 -5516.80 -5501.86 -5487.56 -5472.53 -5459.75 -5450.07 -5440.81 -5438.29 -5435.24 -5430.38 -5428.80 -5426.82 -5422.72 -5423.00 -5424.53 -5424.52 -5424.66 -5401.95 -5352.34 -5224.15 -5151.60 -4712.80 -4176.27 -3504.44 -2960.15 -2465.42 -2323.90 -2506.42 -3802.69 -6075.23 -6427.16 -6490.90 -6287.24 -6053.52 -5741.14 -5540.26 -5183.33 -5089.20 -4873.70 -3934.37 -2620.90 -2067.16 -1364.19 -1178.58 -1121.12 -1359.63 -2019.97 -3021.24 -4400.86 -7017.86 -8521.65 -8801.09 -8824.47 -8837.78 -8852.55 -8783.77 -8187.66 -5854.66 -4096.18 -2509.50 -2240.24 -2203.10 -2237.40 -2267.93 -2292.34 -2302.03 -2307.21 -2306.02 -2293.10 -2290.75 -2291.70 -2322.08 -2489.98 -2938.57 -3376.93 -3651.05 -3932.94 -4051.89 -4170.47 -4216.30 -4224.62 -4206.29 -4206.28
-4945.82 -4945.74 -5017.40 -5075.22 -5132.49 -5155.00 -5178.85 -5192.13 -5211.57 -5227.03 -5231.00 -5235.87 -5242.13 -5250.79 -5263.74 -5283.92 -5299.09 -5302.81 -5314.54 -5323.13 -5327.03 -5322.50 -5309.30 -5307.53 -5312.65 -5319.41 -5326.03 -5331.05 -5337.55 -5345.29 -5351.68 -5357.49 -5360.68 -5365.72 -5388.49 -5408.00 -5424.09 -5443.95 -5450.52 -5452.92 -5458.04 -5463.97 -5466.06 -5473.30 -5482.25 -5490.58 -5500.08 -5507.87 -5517.13 -5506.29 -5498.54 -5505.62 -5511.07 -5520.80 -5531.96 -5547.26 -5548.65 -5536.73 -5521.61 -5505.19 -5491.19 -5479.62 -5467.07 -5457.25 -5449.39 -5447.30 -5445.53 -5447.27 -5447.19 -5438.95 -5435.79 -5435.31 -5433.57 -5432.98 -5405.83 -5336.96 -5257.69 -5056.77 -4889.72 -4493.80 -3899.78 -3328.50 -2706.13 -2368.42 -2289.36 -2756.19 -4932.14 -6004.41 -6463.70 -6480.64 -6130.02 -5850.53 -5430.32 -5135.57 -4958.68 -4826.77 -4675.62 -3540.27 -2511.55 -1808.11 -1459.57 -981.84 -1056.58 -1315.49 -1845.46 -2489.64 -4211.23 -6482.93 -8198.65 -8794.06 -8817.12 -8840.24 -8846.93 -8827.20 -8425.73 -6290.75 -4426.47 -2838.10 -2299.07 -2199.05 -2222.51 -2265.42 -2291.04 -2304.00 -2311.49 -2307.82 -2296.89 -2297.01 -2301.18 -2391.58 -2536.59 -2741.79 -3142.82 -3308.91 -3512.89 -3757.10 -4076.99 -4209.18 -4255.48 -4241.91 -4241.95
-4953.15 -4954.90 -4992.82 -5052.65 -5130.36 -5151.68 -5187.53 -5202.53 -5219.55 -5236.01 -5243.80 -5251.28 -5255.23 -5260.23 -5278.48 -5296.00 -5306.27 -5319.51 -5328.70 -5336.03 -5337.44 -5331.46 -5317.93 -5316.33 -5322.25 -5324.51 -5332.19 -5336.51 -5347.48 -5353.52 -5357.98 -5364.41 -5369.24 -5372.55 -5392.65 -5410.34 -5437.19 -5446.84 -5455.71 -5460.82 -5466.41 -5470.24 -5472.89 -5480.20 -5486.54 -5500.15 -5505.07 -5513.03 -5520.03 -5512.44 -5507.06 -5510.65 -5517.66 -5524.84 -5536.12 -5547.39 -5553.77 -5542.43 -5525.49 -5512.38 -5495.02 -5484.91 -5470.87 -5465.80 -5455.22 -5452.63 -5455.41 -5457.07 -5457.95 -5454.69 -5446.11 -5446.24 -5444.55 -5442.44 -5401.75 -5278.99 -5159.98 -4987.76 -4585.06 -4431.74 -3888.37 -3409.17 -2774.53 -2367.05 -2351.58 -3384.21 -5457.59 -6102.26 -6471.10 -6470.68 -5330.60 -4871.72 -4583.53 -4778.21 -4802.86 -4582.05 -4427.72 -4041.69 -2662.36 -1898.57 -1364.02 -866.93 -839.26 -1433.53 -1895.13 -2374.72 -3763.82 -6376.68 -8493.56 -8772.75 -8808.96 -8825.28 -8837.21 -8835.39 -8688.93 -7728.71 -5191.99 -3323.55 -2352.99 -2221.93 -2223.37 -2274.01 -2290.44 -2306.91 -2313.36 -2309.33 -2306.34 -2301.71 -2329.73 -2428.07 -2512.53 -2672.07 -2805.75 -3017.12 -3306.19 -3625.29 -3820.17 -4122.24 -4251.61 -4271.73 -4271.12
-4961.65 -4962.57 -4975.76 -5014.59 -5121.27 -5138.75 -5190.51 -5214.89 -5234.64 -5253.49 -5255.87 -5262.11 -5267.51 -5274.41 -5290.61 -5308.49 -5319.22 -5327.81 -5335.35 -5343.21 -5342.92 -5337.51 -5325.85 -5322.43 -5327.00 -5332.25 -5338.76 -5344.51 -5351.63 -5357.14 -5362.91 -5369.80 -5372.57 -5379.57 -5393.25 -5412.03 -5439.20 -5449.20 -5457.44 -5461.27 -5463.61 -5469.58 -5476.78 -5483.38 -5489.89 -5499.19 -5507.32 -5514.36 -5522.09 -5518.53 -5512.82 -5516.72 -5523.50 -5527.20 -5537.41 -5548.38 -5560.26 -5547.59 -5522.53 -5509.96 -5498.43 -5486.62 -5479.54 -5470.21 -5465.06 -5465.03 -5466.27 -5467.64 -5468.32 -5464.74 -5463.78 -5457.86 -5458.92 -5443.27 -5331.23 -5125.10 -5044.42 -4843.41 -4495.92 -4119.68 -3692.72 -3357.19 -2750.41 -2383.97 -2516.94 -4081.65 -5070.28 -6341.26 -6300.30 -6089.73 -4640.31 -3063.03 -3336.79 -4554.74 -4438.07 -4316.15 -4332.04 -4069.85 -3250.84 -1954.64 -1252.75 -844.85 -853.09 -1387.80 -1949.35 -2572.35 -3687.70 -5739.86 -7747.77 -8727.33 -8803.00 -8811.46 -8825.60 -8827.81 -8812.28 -8308.32 -5883.84 -3567.06 -2541.90 -2292.51 -2238.63 -2265.98 -2298.24 -2313.36 -2318.47 -2316.37 -2316.62 -2327.08 -2358.43 -2403.20 -2467.92 -2536.10 -2644.01 -2854.50 -3120.79 -3358.90 -3816.94 -4023.35 -4212.13 -4288.87 -4289.38
-4974.41 -4974.35 -4986.51 -5024.31 -5070.66 -5147.77 -5199.81 -5231.59 -5248.90 -5266.84 -5280.36 -5284.23 -5283.66 -5296.46 -5303.29 -5315.93 -5324.64 -5332.60 -5338.60 -5347.56 -5348.30 -5341.20 -5330.53 -5327.90 -5330.60 -5335.16 -5341.79 -5346.30 -5352.21 -5360.58 -5364.92 -5370.38 -5375.16 -5380.44 -5390.63 -5415.78 -5429.99 -5442.52 -5451.98 -5453.75 -5457.72 -5465.78 -5472.00 -5483.01 -5491.03 -5493.89 -5500.80 -5514.87 -5519.63 -5523.14 -5519.89 -5523.44 -5528.99 -5534.90 -5538.06 -5546.39 -5556.18 -5537.03 -5528.49 -5516.87 -5501.55 -5489.03 -5483.44 -5475.01 -5472.18 -5471.31 -5476.27 -5476.21 -5474.19 -5474.18 -5469.40 -5467.71 -5468.36 -5452.83 -5337.42 -4984.25 -4865.70 -4578.32 -4025.07 -3863.98 -3481.17 -3132.18 -2642.81 -2564.61 -2932.99 -4394.11 -5990.84 -5937.71 -5026.92 -4262.85 -2286.11 -1949.33 -3327.55 -3892.68 -4237.19 -4212.51 -4179.13 -4030.48 -3943.67 -2254.94 -1333.65 -1004.67 -904.24 -1171.18 -1665.48 -2478.96 -3569.64 -4710.33 -7056.71 -8178.83 -8651.76 -8802.06 -8817.11 -8827.46 -8807.26 -8287.87 -6511.51 -3839.75 -2794.67 -2309.05 -2251.87 -2276.97 -2304.74 -2316.59 -2327.27 -2331.68 -2336.24 -2342.20 -2361.15 -2391.17 -2429.12 -2448.73 -2524.22 -2608.63 -2906.97 -3273.97 -3638.20 -3944.53 -4137.93 -4302.42 -4302.56
-4999.87 -4999.80 -5009.75 -5027.36 -5073.97 -5142.27 -5207.90 -5246.33 -5275.23 -5291.86 -5297.52 -5304.89 -5319.89 -5319.62 -5318.52 -5321.51 -5324.92 -5335.19 -5342.43 -5347.05 -5348.39 -5342.11 -5332.80 -5332.32 -5334.42 -5339.73 -5342.75 -5347.84 -5352.81 -5360.72 -5365.31 -5369.48 -5375.70 -5380.02 -5387.77 -5401.33 -5422.35 -5435.47 -5439.34 -5443.21 -5451.84 -5459.06 -5458.55 -5456.94 -5471.56 -5481.84 -5492.01 -5505.81 -5510.64 -5519.46 -5527.84 -5533.80 -5535.69 -5540.85 -5542.06 -5545.35 -5549.26 -5539.22 -5529.84 -5517.42 -5505.19 -5497.27 -5490.16 -5485.22 -5482.72 -5484.60 -5486.58 -5488.15 -5483.75 -5479.26 -5475.06 -5474.77 -5475.01 -5463.04 -5371.27 -5128.49 -4508.40 -4275.79 -3902.70 -3635.13 -3110.82 -2832.86 -2504.55 -2946.40 -3278.01 -5993.86 -6197.23 -4980.19 -3482.84 -2068.07 -1650.57 -1752.05 -3006.12 -3745.19 -4015.29 -3987.44 -4000.39 -3839.82 -3425.70 -2187.23 -1559.06 -1135.56 -965.75 -1188.70 -1681.15 -2339.53 -2995.17 -3517.68 -6543.00 -7914.07 -8685.08 -8803.11 -8816.94 -8821.77 -8788.56 -8578.60 -7313.40 -5515.30 -2915.47 -2391.85 -2271.53 -2288.97 -2314.52 -2324.65 -2336.67 -2348.65 -2352.91 -2365.41 -2373.25 -2389.56 -2400.13 -2437.32 -2543.76 -2669.04 -2868.09 -3147.55 -3568.37 -3857.93 -4154.37 -4247.47 -4247.61
-5009.63 -5011.22 -5022.49 -5039.67 -5077.25 -5133.26 -5204.19 -5249.37 -5285.37 -5306.52 -5315.35 -5322.29 -5328.89 -5335.32 -5332.13 -5331.23 -5331.37 -5336.46 -5342.95 -5347.36 -5350.73 -5348.97 -5336.75 -5336.06 -5338.08 -5341.03 -5345.02 -5351.85 -5354.44 -5359.40 -5365.29 -5369.10 -5375.98 -5379.40 -5388.13 -5401.67 -5416.62 -5422.81 -5426.26 -5434.07 -5441.38 -5449.57 -5448.98 -5455.89 -5468.22 -5475.51 -5486.78 -5497.91 -5511.01 -5523.29 -5530.53 -5537.04 -5545.07 -5545.60 -5544.19 -5543.65 -5539.89 -5536.17 -5531.37 -5522.62 -5509.33 -5498.65 -5496.07 -5491.94 -5490.68 -5492.97 -5495.05 -5492.71 -5488.01 -5483.95 -5481.41 -5480.35 -5473.34 -5461.90 -5386.41 -5147.83 -4701.15 -4031.06 -3722.77 -3463.85 -3028.41 -2623.84 -2444.64 -3429.15 -4920.64 -6771.70 -6249.98 -4234.89 -2673.06 -1177.18 -1024.48 -2207.52 -2849.49 -3506.69 -3897.80 -3800.48 -3803.00 -3587.27 -2883.02 -2255.62 -1584.23 -1167.56 -991.60 -1150.46 -1881.74 -2466.93 -3537.77 -4444.68 -7059.46 -8448.23 -8765.88 -8803.16 -8816.19 -8819.12 -8805.04 -8637.87 -7638.77 -5448.76 -3144.38 -2442.39 -2299.98 -2311.42 -2327.35 -2344.77 -2360.76 -2367.89 -2372.48 -2378.16 -2382.12 -2398.73 -2412.24 -2445.14 -2541.56 -2667.63 -2851.09 -3075.61 -3466.56 -3838.91 -4083.21 -4171.71 -4171.86
-5015.58 -5015.50 -5027.79 -5042.51 -5073.10 -5110.16 -5184.09 -5244.30 -5292.07 -5310.48 -5326.73 -5333.48 -5345.24 -5346.15 -5342.89 -5340.89 -5341.92 -5343.19 -5349.72 -5353.70 -5356.03 -5346.95 -5339.43 -5339.48 -5341.68 -5345.56 -5348.70 -5352.25 -5356.20 -5362.24 -5365.34 -5370.13 -5375.75 -5382.15 -5386.78 -5403.57 -5411.31 -5421.14 -5427.59 -5434.68 -5441.51 -5448.17 -5453.88 -5459.64 -5471.25 -5479.55 -5492.66 -5496.25 -5518.12 -5523.96 -5537.77 -5544.83 -5548.87 -5550.05 -5548.56 -5543.88 -5536.20 -5533.11 -5531.44 -5525.69 -5515.74 -5515.61 -5513.17 -5506.58 -5508.69 -5505.78 -5504.49 -5498.80 -5495.16 -5491.29 -5491.95 -5489.73 -5460.04 -5381.74 -5317.95 -5115.61 -4748.14 -4253.99 -3561.65 -3213.27 -2923.28 -2644.02 -2614.69 -3233.76 -4412.40 -7207.60 -7351.83 -3850.40 -1977.63 -827.17 -1074.34 -1929.61 -3083.48 -3444.21 -3654.10 -3461.29 -3418.92 -3397.48 -3023.76 -2268.27 -1525.84 -1097.57 -888.57 -1108.78 -1757.61 -2617.47 -3855.11 -5904.24 -7767.97 -8341.02 -8748.64 -8796.25 -8814.90 -8818.84 -8821.11 -8791.74 -7786.01 -6101.18 -3558.95 -2469.73 -2346.01 -2316.92 -2337.19 -2359.91 -2381.01 -2389.14 -2392.13 -2399.55 -2405.02 -2415.38 -2424.61 -2469.43 -2495.83 -2616.48 -2764.66 -2982.56 -3460.77 -3787.03 -3941.12 -4094.49 -4094.55
-5019.48 -5021.12 -5034.07 -5050.53 -5064.04 -5101.69 -5164.55 -5228.72 -5270.88 -5315.49 -5329.86 -5345.21 -5348.60 -5352.67 -5351.31 -5349.56 -5346.89 -5351.89 -5356.73 -5359.21 -5365.00 -5355.79 -5346.65 -5346.34 -5346.95 -5348.12 -5352.63 -5354.92 -5359.31 -5362.39 -5368.14 -5371.94 -5377.70 -5382.90 -5390.21 -5404.03 -5413.51 -5423.52 -5429.90 -5436.80 -5445.28 -5454.19 -5459.06 -5467.05 -5476.70 -5485.96 -5497.78 -5506.58 -5524.35 -5529.16 -5542.76 -5546.68 -5553.37 -5553.65 -5550.20 -5545.74 -5538.62 -5534.97 -5532.41 -5525.67 -5521.60 -5522.21 -5517.06 -5516.59 -5516.42 -5516.36 -5510.43 -5506.34 -5501.54 -5501.66 -5495.00 -5493.71 -5421.41 -5302.78 -5232.10 -4853.51 -4687.00 -4248.27 -3751.59 -3080.59 -2965.05 -2501.58 -2317.63 -4026.78 -5330.09 -7372.52 -6954.83 -3965.55 -1847.66 -943.20 -1194.04 -1905.99 -2529.86 -3490.88 -3454.33 -3219.95 -2995.86 -2914.87 -2700.21 -2243.83 -1498.59 -1039.78 -877.43 -1309.79 -1677.11 -2435.15 -3607.60 -5550.65 -7317.55 -8366.83 -8686.61 -8796.14 -8811.83 -8820.22 -8822.66 -8740.18 -8342.62 -6195.75 -3799.43 -2597.63 -2358.79 -2334.42 -2354.72 -2378.16 -2392.74 -2404.13 -2404.01 -2415.41 -2421.42 -2430.17 -2442.13 -2464.35 -2501.95 -2690.24 -2850.24 -3053.32 -3274.67 -3633.63 -3945.61 -4099.24 -4099.39
-5023.24 -5023.17 -5036.30 -5053.72 -5068.31 -5092.19 -5118.94 -5211.58 -5279.20 -5314.68 -5339.93 -5347.06 -5349.10 -5354.88 -5358.74 -5356.09 -5356.02 -5361.44 -5367.42 -5372.12 -5373.18 -5366.58 -5354.01 -5356.83 -5356.75 -5359.17 -5362.69 -5369.30 -5363.88 -5366.98 -5370.14 -5382.60 -5385.20 -5388.35 -5394.99 -5410.54 -5415.30 -5429.51 -5436.24 -5443.63 -5457.97 -5464.63 -5468.39 -5476.51 -5485.64 -5496.30 -5505.80 -5517.41 -5528.32 -5539.39 -5548.70 -5554.19 -5557.07 -5558.07 -5554.93 -5553.37 -5550.71 -5551.67 -5540.45 -5534.13 -5526.07 -5519.53 -5526.51 -5524.53 -5520.56 -5522.21 -5523.96 -5519.60 -5518.27 -5513.40 -5500.20 -5492.96 -5429.45 -5191.92 -4910.60 -4657.97 -4363.06 -4283.53 -3879.90 -3168.62 -2911.39 -2392.98 -2281.68 -2844.12 -4272.78 -7140.51 -7066.08 -4723.76 -1655.66 -1127.43 -1274.34 -1947.26 -2872.09 -3292.35 -3105.42 -2649.72 -2615.65 -2676.37 -2621.67 -2104.17 -1522.86 -1182.78 -1018.91 -1273.59 -1698.28 -2390.84 -3626.97 -4430.47 -7172.36 -8198.66 -8592.81 -8770.08 -8822.99 -8829.54 -8828.39 -8804.93 -8684.32 -6904.06 -4856.61 -2699.88 -2415.51 -2352.38 -2364.00 -2390.43 -2406.70 -2418.01 -2431.05 -2435.10 -2437.20 -2450.24 -2459.96 -2495.58 -2558.73 -2667.28 -2869.39 -3048.24 -3289.36 -3598.04 -3928.91 -3979.09 -3990.06
-5029.23 -5029.16 -5044.96 -5064.09 -5074.90 -5095.86 -5115.42 -5154.00 -5228.38 -5285.09 -5319.75 -5337.90 -5346.69 -5356.13 -5364.53 -5366.44 -5375.39 -5383.01 -5383.08 -5387.86 -5395.94 -5391.18 -5387.32 -5390.19 -5386.64 -5394.40 -5401.20 -5389.53 -5386.44 -5395.34 -5396.38 -5402.65 -5408.25 -5409.06 -5416.22 -5424.37 -5444.77 -5449.40 -5452.77 -5459.36 -5469.97 -5479.68 -5489.00 -5492.32 -5494.83 -5512.50 -5520.74 -5529.96 -5538.04 -5549.90 -5554.66 -5558.31 -5560.65 -5561.16 -5560.12 -5561.80 -5567.29 -5562.23 -5547.04 -5537.91 -5527.81 -5524.25 -5524.35 -5523.91 -5528.78 -5526.73 -5521.76 -5519.57 -5517.21 -5508.16 -5498.42 -5482.69 -5374.93 -5033.65 -4701.15 -4295.07 -4094.00 -3895.53 -3487.06 -3017.12 -2644.56 -2279.24 -2264.84 -2685.89 -5094.71 -6560.76 -6802.00 -4849.95 -1456.69 -1146.53 -1319.95 -1922.17 -2741.71 -2957.04 -2624.64 -2371.34 -2353.58 -2301.66 -2258.97 -1895.45 -1670.88 -1095.40 -1129.29 -1356.58 -1767.47 -2366.81 -2881.38 -4288.54 -6454.16 -7606.03 -8342.30 -8802.64 -8828.88 -8837.13 -8838.87 -8821.55 -8578.58 -7701.90 -4496.61 -3008.23 -2419.89 -2375.32 -2381.57 -2403.21 -2430.23 -2440.14 -2443.20 -2454.70 -2462.17 -2476.13 -2492.89 -2511.67 -2592.22 -2649.03 -2861.61 -3090.08 -3344.30 -3605.44 -3846.15 -3884.67 -3884.85
-5040.61 -5040.54 -5055.15 -5063.55 -5086.69 -5096.25 -5115.83 -5149.32 -5186.81 -5266.93 -5291.56 -5307.20 -5323.63 -5333.06 -5361.42 -5377.21 -5393.59 -5399.25 -5405.82 -5410.09 -5410.21 -5410.66 -5413.02 -5415.08 -5416.08 -5415.11 -5416.62 -5419.45 -5418.54 -5418.78 -5420.54 -5421.06 -5418.01 -5425.47 -5427.83 -5442.43 -5454.88 -5465.43 -5472.22 -5484.43 -5492.50 -5499.59 -5505.30 -5502.23 -5508.26 -5526.50 -5538.24 -5546.23 -5553.37 -5557.66 -5560.84 -5563.55 -5563.80 -5565.44 -5566.75 -5572.05 -5575.59 -5563.66 -5546.80 -5537.72 -5533.68 -5531.28 -5528.20 -5525.07 -5527.99 -5527.18 -5520.57 -5517.88 -5517.68 -5511.35 -5474.37 -5399.63 -5258.12 -4932.69 -4548.63 -4093.97 -3933.93 -3795.52 -3489.37 -3066.41 -2632.45 -2375.24 -2346.57 -2723.02 -4903.20 -6752.34 -6508.22 -4190.76 -1409.68 -1068.03 -1321.21 -1805.80 -2364.94 -2006.30 -2007.94 -2050.05 -2052.53 -1922.80 -1896.02 -1950.20 -1643.58 -1052.81 -1065.43 -1619.37 -1959.31 -2666.92 -3324.18 -4578.36 -5726.52 -7458.77 -8619.13 -8797.29 -8843.81 -8845.98 -8851.29 -8836.96 -8638.93 -7386.32 -5733.03 -3080.07 -2525.39 -2417.68 -2398.15 -2416.92 -2444.59 -2452.37 -2460.55 -2466.94 -2479.05 -2491.48 -2535.53 -2555.75 -2605.05 -2676.89 -2863.21 -3066.93 -3409.09 -3572.42 -3712.12 -3730.47 -3730.59
-5046.46 -5048.68 -5059.12 -5077.33 -5092.09 -5108.12 -5128.98 -5142.25 -5179.70 -5229.04 -5262.27 -5279.85 -5292.46 -5324.87 -5357.16 -5390.56 -5405.63 -5415.93 -5415.89 -5422.28 -5426.54 -5428.47 -5428.65 -5429.90 -5430.60 -5432.51 -5431.58 -5430.71 -5427.66 -5425.74 -5427.16 -5427.74 -5432.62 -5436.44 -5441.16 -5449.95 -5461.11 -5467.19 -5481.97 -5492.62 -5500.62 -5511.19 -5510.80 -5518.16 -5524.39 -5536.39 -5551.74 -5557.30 -5564.62 -5568.65 -5568.89 -5568.17 -5570.16 -5571.25 -5575.21 -5574.85 -5573.12 -5565.53 -5548.15 -5540.35 -5532.37 -5530.33 -5530.08 -5526.47 -5525.41 -5526.01 -5526.87 -5521.54 -5517.67 -5511.70 -5486.82 -5378.68 -5154.42 -4848.87 -4308.23 -4065.35 -3794.74 -3718.35 -3271.44 -3031.30 -2623.91 -2401.01 -2351.33 -2770.73 -4755.21 -6584.98 -6100.64 -3503.91 -1538.22 -897.11 -1014.28 -1412.31 -1617.58 -1920.25 -1773.05 -1724.12 -1835.73 -1762.92 -1702.57 -1694.63 -1589.36 -1045.93 -1243.16 -1637.34 -2073.66 -2589.74 -3622.85 -4680.85 -6089.66 -7444.85 -8529.43 -8789.38 -8846.30 -8847.06 -8847.12 -8844.37 -8804.99 -8302.78 -5625.75 -3376.78 -2601.34 -2423.21 -2403.41 -2435.63 -2453.26 -2475.19 -2478.03 -2486.70 -2494.25 -2544.01 -2593.98 -2663.76 -2677.01 -2806.76 -2931.66 -3054.87 -3293.38 -3466.66 -3622.21 -3645.36 -3645.50
-5051.08 -5051.01 -5064.34 -5080.75 -5099.86 -5111.31 -5126.30 -5132.91 -5148.37 -5178.30 -5210.66 -5233.43 -5256.09 -5298.25 -5351.04 -5390.35 -5412.09 -5417.78 -5436.59 -5438.47 -5436.86 -5436.00 -5439.08 -5439.22 -5439.40 -5438.89 -5439.11 -5437.88 -5436.03 -5433.03 -5431.41 -5431.82 -5434.79 -5438.89 -5445.05 -5451.58 -5462.19 -5472.66 -5485.27 -5494.06 -5505.47 -5517.35 -5520.06 -5522.26 -5532.26 -5544.04 -5552.31 -5567.48 -5571.82 -5572.23 -5573.26 -5574.09 -5577.47 -5578.89 -5580.35 -5571.03 -5563.80 -5559.93 -5551.30 -5538.59 -5533.52 -5530.03 -5529.69 -5525.79 -5525.43 -5525.97 -5527.20 -5522.46 -5516.58 -5487.64 -5406.92 -5220.68 -5070.92 -4921.15 -4547.61 -3833.67 -3778.11 -3471.42 -3189.90 -2864.36 -2724.54 -2616.88 -2458.38 -2683.94 -4968.70 -6454.36 -5591.48 -2333.65 -839.72 -603.79 -754.12 -1131.41 -1178.47 -1335.49 -1580.14 -1575.88 -1603.18 -1546.28 -1643.85 -1664.85 -1286.92 -1071.70 -1314.80 -1627.16 -2093.77 -2544.31 -3530.57 -4687.87 -5863.47 -7675.19 -8579.65 -8788.53 -8843.69 -8853.14 -8863.94 -8867.76 -8835.42 -8197.41 -5451.25 -3485.60 -2813.43 -2431.41 -2417.27 -2454.10 -2475.74 -2489.82 -2493.66 -2497.94 -2530.29 -2589.28 -2684.15 -2728.04 -2809.73 -2931.59 -3006.00 -3121.35 -3231.97 -3418.03 -3522.03 -3542.29 -3542.39
-5055.95 -5055.88 -5070.80 -5087.49 -5103.96 -5115.08 -5128.48 -5132.53 -5134.90 -5157.04 -5165.60 -5183.16 -5203.87 -5284.02 -5318.39 -5382.14 -5414.23 -5448.17 -5450.28 -5443.02 -5441.99 -5444.26 -5446.07 -5444.09 -5442.96 -5441.77 -5441.42 -5439.03 -5436.98 -5434.30 -5431.66 -5430.96 -5433.02 -5435.89 -5443.52 -5451.77 -5459.56 -5472.38 -5482.31 -5490.93 -5508.32 -5518.84 -5523.91 -5526.56 -5537.88 -5548.75 -5560.44 -5576.36 -5582.83 -5583.55 -5580.62 -5584.26 -5584.61 -5578.62 -5575.38 -5567.69 -5565.35 -5560.98 -5548.29 -5541.78 -5534.43 -5532.08 -5527.93 -5523.80 -5526.26 -5528.03 -5526.05 -5521.12 -5518.47 -5482.61 -5379.50 -5231.79 -4943.40 -4818.77 -4417.47 -3964.88 -3592.94 -3223.33 -3005.52 -2875.66 -2717.70 -2529.34 -2520.84 -2824.20 -4427.38 -5328.16 -4452.69 -1463.20 -604.77 -374.11 -528.05 -741.76 -926.84 -1128.20 -1379.57 -1439.92 -1495.79 -1526.27 -1616.23 -1552.95 -1111.36 -935.99 -1271.77 -1591.18 -2414.48 -3811.66 -4457.68 -6020.75 -7132.06 -8276.11 -8637.51 -8804.89 -8850.22 -8869.03 -8874.50 -8878.91 -8842.42 -8268.95 -6468.59 -4071.80 -2883.41 -2465.26 -2426.09 -2454.80 -2481.96 -2498.65 -2504.04 -2501.57 -2536.59 -2604.11 -2680.86 -2709.49 -2825.43 -2919.94 -3050.05 -3102.01 -3239.16 -3376.61 -3451.15 -3487.74 -3487.83
-5058.85 -5058.78 -5072.00 -5087.55 -5100.34 -5117.00 -5128.41 -5132.50 -5133.81 -5140.04 -5151.50 -5157.48 -5182.06 -5218.84 -5302.54 -5359.62 -5425.59 -5451.22 -5436.37 -5441.04 -5443.68 -5446.54 -5446.52 -5444.25 -5442.41 -5438.70 -5439.82 -5435.39 -5434.42 -5431.46 -5429.58 -5428.28 -5429.56 -5432.34 -5435.63 -5448.55 -5457.06 -5465.31 -5478.09 -5490.05 -5505.57 -5518.87 -5528.85 -5533.36 -5542.41 -5558.72 -5573.29 -5588.37 -5588.68 -5587.08 -5592.48 -5596.17 -5592.34 -5581.64 -5576.61 -5569.71 -5561.16 -5555.41 -5549.99 -5545.70 -5536.85 -5533.67 -5529.28 -5528.48 -5529.60 -5530.47 -5523.78 -5516.28 -5518.42 -5484.24 -5363.52 -5071.91 -4714.96 -4465.41 -4291.35 -3897.66 -3493.72 -3156.34 -2951.39 -2777.91 -2678.39 -2526.46 -2394.11 -2582.83 -3113.10 -4025.04 -2252.71 -752.80 -213.03 -178.64 -269.63 -603.30 -896.27 -1122.77 -1288.63 -1408.02 -1424.87 -1478.61 -1549.20 -1279.50 -982.58 -843.02 -1122.10 -1753.72 -2755.37 -5288.58 -5212.07 -6794.74 -7881.51 -8281.97 -8753.74 -8843.22 -8852.92 -8879.41 -8884.62 -8887.95 -8870.06 -8729.60 -7753.74 -4575.97 -2945.65 -2527.02 -2429.79 -2459.70 -2484.08 -2506.37 -2507.51 -2512.95 -2518.05 -2564.21 -2603.67 -2674.43 -2815.61 -2869.15 -2961.06 -3037.74 -3191.03 -3326.61 -3419.39 -3450.77 -3450.87
-5050.58 -5051.10 -5064.50 -5078.72 -5093.24 -5112.19 -5118.93 -5127.43 -5132.94 -5137.37 -5148.49 -5157.46 -5172.71 -5189.31 -5273.28 -5328.24 -5388.38 -5426.17 -5432.67 -5442.86 -5445.59 -5441.96 -5438.48 -5435.99 -5433.22 -5432.74 -5431.01 -5431.33 -5423.80 -5421.69 -5418.71 -5424.97 -5419.43 -5416.70 -5419.93 -5433.15 -5439.77 -5457.69 -5463.61 -5481.47 -5497.00 -5513.61 -5535.91 -5544.94 -5557.38 -5571.88 -5583.17 -5589.31 -5594.81 -5594.77 -5597.54 -5597.14 -5593.69 -5588.73 -5576.60 -5571.19 -5563.39 -5558.17 -5549.83 -5545.21 -5539.12 -5535.63 -5529.74 -5529.43 -5527.01 -5525.36 -5521.96 -5516.42 -5511.72 -5483.81 -5338.77 -4947.17 -4661.83 -4354.78 -3985.42 -3678.35 -3472.77 -3156.01 -2913.83 -2719.18 -2602.46 -2511.67 -2290.92 -2311.82 -2763.88 -2904.93 -1398.43 -371.79 -11.51 2.66 -87.29 -568.35 -992.11 -1262.96 -1323.65 -1377.72 -1396.96 -1438.16 -1448.05 -1263.20 -817.40 -789.84 -1268.28 -2086.42 -2974.30 -4525.12 -5603.27 -6655.90 -7470.71 -8051.42 -8452.50 -8810.69 -8849.43 -8883.56 -8885.16 -8886.89 -8870.25 -8528.60 -7470.29 -5185.48 -3192.07 -2506.63 -2430.48 -2451.37 -2488.50 -2506.05 -2517.17 -2519.28 -2527.90 -2548.21 -2571.89 -2602.27 -2687.80 -2813.10 -2869.59 -2903.30 -3004.87 -3257.03 -3298.60 -3387.06 -3387.18
-5033.61 -5033.54 -5049.22 -5063.68 -5075.67 -5091.09 -5102.92 -5114.66 -5125.36 -5135.75 -5146.69 -5154.19 -5165.24 -5178.88 -5214.90 -5279.31 -5359.93 -5401.23 -5425.88 -5439.90 -5445.65 -5437.26 -5418.64 -5416.75 -5420.25 -5421.86 -5419.65 -5414.03 -5406.78 -5403.08 -5399.01 -5400.82 -5403.48 -5400.47 -5408.62 -5417.62 -5429.19 -5441.18 -5444.85 -5460.45 -5475.16 -5494.89 -5535.37 -5556.32 -5573.02 -5583.82 -5592.65 -5597.64 -5604.94 -5600.28 -5602.04 -5598.96 -5594.98 -5587.83 -5578.87 -5571.35 -5565.89 -5556.27 -5551.55 -5545.79 -5543.03 -5536.22 -5529.39 -5526.92 -5525.28 -5523.01 -5514.83 -5507.69 -5504.71 -5431.97 -5249.94 -4932.45 -4448.28 -4337.58 -3857.21 -3483.25 -3307.07 -2986.98 -2808.01 -2609.82 -2263.52 -2229.08 -2149.45 -1938.86 -1798.83 -1418.64 -911.67 -98.83 -0.51 -13.07 -45.07 -525.34 -1095.80 -1289.86 -1336.77 -1329.96 -1365.15 -1392.90 -1365.57 -1206.86 -933.31 -1076.96 -1406.28 -2073.72 -3452.29 -4005.26 -5189.62 -5659.56 -5997.30 -7373.42 -8461.18 -8794.96 -8834.77 -8876.63 -8878.96 -8894.60 -8869.43 -8586.68 -7752.09 -5615.32 -3371.15 -2563.21 -2410.73 -2437.32 -2488.67 -2507.78 -2522.42 -2524.10 -2524.81 -2540.64 -2563.11 -2580.85 -2636.17 -2698.41 -2752.41 -2871.70 -2953.63 -3100.93 -3260.64 -3321.28 -3322.93
-5035.66 -5038.13 -5049.40 -5060.70 -5074.93 -5091.60 -5100.69 -5116.14 -5125.44 -5137.77 -5146.76 -5156.28 -5166.12 -5179.75 -5215.76 -5236.93 -5295.34 -5353.55 -5407.84 -5442.84 -5448.96 -5440.72 -5420.30 -5415.85 -5414.83 -5413.13 -5409.61 -5407.61 -5403.42 -5399.04 -5397.29 -5395.26 -5396.22 -5398.71 -5401.84 -5411.50 -5422.09 -5435.85 -5447.71 -5457.10 -5473.91 -5499.82 -5526.81 -5566.48 -5584.59 -5593.46 -5598.65 -5604.65 -5609.59 -5609.95 -5603.00 -5601.77 -5598.34 -5588.14 -5581.47 -5573.25 -5568.31 -5557.98 -5553.55 -5549.45 -5541.57 -5536.71 -5529.04 -5525.25 -5522.25 -5511.71 -5504.87 -5503.24 -5500.36 -5453.76 -5342.80 -4971.76 -4489.39 -4120.72 -3877.10 -3501.88 -3269.32 -3054.51 -2698.04 -2213.14 -2065.88 -2110.93 -2035.47 -1611.44 -1419.62 -1122.08 -446.00 -148.54 -21.54 -43.15 -166.76 -427.91 -643.94 -1080.51 -1270.44 -1312.44 -1338.59 -1378.00 -1394.06 -1072.55 -944.29 -1188.37 -1532.21 -2024.99 -2759.37 -3654.56 -4448.31 -5044.60 -5998.70 -8087.09 -8615.10 -8788.34 -8816.85 -8844.60 -8865.91 -8877.35 -8877.18 -8737.79 -8334.50 -5529.40 -3420.57 -2554.39 -2402.49 -2438.39 -2486.36 -2508.19 -2520.77 -2523.96 -2522.11 -2524.30 -2538.11 -2565.82 -2608.98 -2638.82 -2720.80 -2825.17 -2872.98 -3036.36 -3202.36 -3315.51 -3315.58
-5045.50 -5048.16 -5057.24 -5069.97 -5082.47 -5091.77 -5107.44 -5116.98 -5131.45 -5140.24 -5151.55 -5160.76 -5169.17 -5183.52 -5209.05 -5235.14 -5267.94 -5319.08 -5373.90 -5419.55 -5443.21 -5445.42 -5425.80 -5419.18 -5417.03 -5415.47 -5412.77 -5410.58 -5408.01 -5404.80 -5401.93 -5401.56 -5402.38 -5406.84 -5407.27 -5417.32 -5428.90 -5439.27 -5452.51 -5465.07 -5478.17 -5514.68 -5536.76 -5572.45 -5592.15 -5606.49 -5611.37 -5613.72 -5616.83 -5616.79 -5610.39 -5604.10 -5602.58 -5594.06 -5590.01 -5579.29 -5574.89 -5561.60 -5558.20 -5549.74 -5544.21 -5538.13 -5530.13 -5523.25 -5517.92 -5506.50 -5501.92 -5498.17 -5495.43 -5457.20 -5365.79 -4959.30 -4641.14 -4132.19 -3763.96 -3397.43 -3216.03 -2819.23 -2492.76 -2179.58 -1793.14 -1377.58 -1511.83 -1270.57 -1039.21 -816.64 -401.06 -69.08 -45.93 -50.68 -52.43 -49.81 -236.88 -693.94 -1225.43 -1251.60 -1285.62 -1356.97 -1200.22 -961.52 -854.20 -930.23 -1268.04 -1946.90 -2677.52 -3708.60 -4231.15 -5560.76 -7337.89 -8304.20 -8747.29 -8770.05 -8785.87 -8820.23 -8858.90 -8868.30 -8861.92 -8833.42 -8249.73 -6620.95 -3479.83 -2574.84 -2421.83 -2442.25 -2479.32 -2498.60 -2516.71 -2522.78 -2517.09 -2512.67 -2525.47 -2537.21 -2551.11 -2591.91 -2656.93 -2701.08 -2838.33 -2998.83 -3120.19 -3305.15 -3305.23
-5057.45 -5057.39 -5065.41 -5076.75 -5091.74 -5101.36 -5114.20 -5123.96 -5137.68 -5141.85 -5155.71 -5165.92 -5172.70 -5193.42 -5211.99 -5234.22 -5252.76 -5283.57 -5329.16 -5388.57 -5439.33 -5443.36 -5431.74 -5424.41 -5423.70 -5421.79 -5420.59 -5418.73 -5415.72 -5415.64 -5414.25 -5409.91 -5410.69 -5412.61 -5419.20 -5425.82 -5440.11 -5445.71 -5463.88 -5472.58 -5485.46 -5517.20 -5538.53 -5578.50 -5593.35 -5614.40 -5621.88 -5624.90 -5621.59 -5617.10 -5617.75 -5611.03 -5607.74 -5602.80 -5592.45 -5587.05 -5579.14 -5571.97 -5566.03 -5554.35 -5546.31 -5541.26 -5532.85 -5524.37 -5515.18 -5508.98 -5500.63 -5495.56 -5476.53 -5428.05 -5317.54 -5042.79 -4670.88 -4241.94 -3770.84 -3532.90 -2956.76 -2708.30 -2215.70 -1849.72 -1570.45 -1279.18 -1167.83 -942.91 -904.05 -689.93 -283.06 -27.59 -24.18 -31.87 -18.34 -17.19 -80.32 -220.58 -537.91 -577.68 -1073.36 -1319.59 -1207.83 -537.56 -371.84 -606.90 -1442.59 -1859.13 -2567.63 -3609.60 -4555.87 -5880.61 -7862.80 -8314.25 -8747.94 -8755.03 -8748.69 -8802.50 -8840.36 -8833.91 -8824.01 -8814.54 -8259.01 -6362.56 -4239.21 -2600.28 -2446.84 -2445.73 -2462.56 -2492.32 -2519.92 -2520.59 -2511.89 -2508.65 -2504.25 -2508.90 -2526.05 -2543.83 -2588.23 -2582.36 -2713.79 -2751.50 -3090.13 -3248.68 -3293.77
-5070.24 -5070.18 -5082.78 -5089.13 -5098.07 -5106.34 -5121.93 -5132.20 -5143.31 -5153.97 -5169.01 -5174.17 -5182.42 -5193.75 -5219.84 -5234.67 -5249.10 -5272.59 -5299.96 -5359.92 -5415.12 -5431.47 -5431.09 -5428.27 -5428.37 -5428.25 -5427.37 -5427.09 -5428.12 -5424.46 -5422.07 -5422.96 -5425.91 -5429.47 -5430.07 -5438.60 -5445.67 -5458.28 -5466.88 -5480.96 -5494.75 -5523.01 -5547.44 -5578.55 -5598.17 -5613.56 -5624.25 -5623.37 -5623.76 -5624.96 -5627.47 -5619.93 -5616.95 -5610.04 -5601.11 -5593.09 -5587.34 -5575.69 -5566.25 -5555.11 -5548.67 -5542.92 -5535.13 -5526.69 -5516.63 -5511.03 -5501.88 -5492.43 -5458.34 -5406.44 -5300.65 -5058.14 -4766.76 -4281.21 -3971.74 -3739.13 -3247.51 -2953.67 -2245.94 -1795.95 -1361.98 -1065.69 -963.05 -667.92 -443.72 -99.28 -112.11 -12.43 15.58 3.49 2.07 1.21 -11.55 -64.94 -98.74 -386.64 -598.26 -1063.21 -1025.68 -479.93 -394.14 -742.21 -1207.69 -2247.80 -2870.74 -3323.10 -4690.81 -6000.80 -7494.74 -8277.09 -8707.25 -8724.72 -8736.50 -8718.02 -8767.98 -8743.89 -8737.54 -8741.49 -8353.01 -6621.71 -3754.96 -2556.22 -2380.14 -2358.19 -2415.39 -2496.51 -2519.85 -2517.51 -2509.70 -2499.48 -2492.78 -2494.65 -2504.70 -2510.56 -2521.32 -2556.87 -2612.10 -2758.04 -2975.75 -3234.04 -3234.23
-5083.76 -5086.92 -5093.36 -5100.60 -5108.61 -5116.93 -5134.40 -5147.96 -5163.46 -5183.12 -5187.60 -5194.68 -5205.58 -5217.12 -5229.99 -5233.13 -5241.80 -5255.38 -5271.92 -5301.75 -5358.85 -5412.75 -5423.06 -5428.40 -5431.18 -5431.67 -5431.92 -5432.93 -5437.87 -5438.46 -5449.70 -5449.95 -5447.66 -5448.82 -5455.77 -5451.67 -5455.64 -5463.64 -5472.59 -5485.27 -5502.90 -5527.83 -5541.33 -5576.09 -5598.66 -5614.01 -5624.45 -5630.87 -5636.43 -5639.38 -5633.99 -5631.00 -5624.35 -5617.08 -5603.70 -5599.83 -5589.20 -5580.04 -5568.46 -5561.48 -5554.54 -5546.18 -5536.42 -5527.41 -5516.90 -5509.78 -5503.95 -5494.90 -5433.21 -5360.56 -5223.88 -5145.88 -4759.64 -4369.65 -3969.33 -3685.65 -3247.59 -2789.39 -2423.91 -1799.40 -1219.93 -1032.17 -797.49 -338.71 -72.22 -20.50 -9.60 11.96 35.97 36.47 39.67 29.28 -7.57 -11.66 -21.19 -40.60 -199.09 -331.48 -605.98 -381.82 -530.69 -837.97 -1423.82 -2119.90 -2809.41 -3714.95 -4783.34 -6077.14 -7470.34 -8319.06 -8593.51 -8654.78 -8670.03 -8648.96 -8660.86 -8634.67 -8594.41 -8545.28 -8365.50 -6741.60 -3954.53 -2438.63 -2257.29 -2276.05 -2406.59 -2480.51 -2503.16 -2508.40 -2503.12 -2492.38 -2484.86 -2482.48 -2482.51 -2477.89 -2493.40 -2518.23 -2605.87 -2706.99 -2960.44 -3050.60 -3074.50
-5097.63 -5098.08 -5101.81 -5110.03 -5121.28 -5128.96 -5141.12 -5154.17 -5190.55 -5202.51 -5209.63 -5214.18 -5221.03 -5228.92 -5233.83 -5230.92 -5236.55 -5250.78 -5258.29 -5268.31 -5302.10 -5372.10 -5408.42 -5425.12 -5432.11 -5434.06 -5434.73 -5439.87 -5454.52 -5463.32 -5464.01 -5465.75 -5472.39 -5474.37 -5468.54 -5468.48 -5467.05 -5469.02 -5477.89 -5492.44 -5504.32 -5527.30 -5553.40 -5570.08 -5596.35 -5603.63 -5618.12 -5625.96 -5630.64 -5643.76 -5654.76 -5648.82 -5630.87 -5625.64 -5606.45 -5603.29 -5594.41 -5578.97 -5574.88 -5569.79 -5562.66 -5548.95 -5541.54 -5532.53 -5523.56 -5512.44 -5507.09 -5493.36 -5456.79 -5405.56 -5169.96 -5091.20 -4942.53 -4565.59 -4277.96 -3692.60 -3097.68 -2690.51 -2253.45 -1685.43 -1205.28 -1086.66 -506.59 -155.81 -10.45 5.29 35.83 54.03 73.52 66.94 63.26 61.94 32.38 2.52 -12.00 -22.50 -28.18 -39.22 -316.18 -368.64 -480.63 -1010.73 -1402.13 -2236.38 -3172.81 -3926.52 -4659.46 -6421.78 -7467.75 -8148.43 -8410.73 -8492.75 -8576.50 -8524.13 -8553.04 -8550.11 -8490.30 -8377.65 -8243.79 -4927.85 -3638.59 -2296.73 -2179.71 -2263.51 -2409.83 -2479.11 -2502.92 -2502.17 -2497.02 -2483.60 -2473.49 -2467.14 -2461.73 -2466.75 -2479.94 -2534.85 -2598.78 -2729.83 -2901.01 -2948.23 -2948.37
-5109.82 -5111.87 -5116.82 -5122.93 -5129.57 -5137.33 -5147.76 -5172.35 -5198.79 -5211.21 -5217.09 -5222.19 -5230.16 -5233.99 -5234.22 -5227.83 -5229.90 -5239.54 -5247.61 -5259.40 -5273.43 -5330.62 -5380.73 -5423.85 -5437.78 -5439.39 -5441.69 -5448.51 -5463.61 -5472.48 -5474.82 -5477.43 -5486.40 -5490.39 -5490.24 -5477.39 -5473.53 -5472.59 -5484.87 -5501.57 -5515.25 -5545.99 -5563.24 -5582.47 -5597.71 -5607.41 -5621.08 -5621.73 -5636.90 -5648.33 -5657.03 -5647.59 -5640.12 -5628.27 -5619.38 -5609.88 -5601.24 -5593.94 -5589.27 -5578.51 -5569.58 -5558.30 -5541.40 -5537.54 -5524.70 -5514.98 -5503.20 -5494.43 -5449.75 -5383.53 -5161.16 -5042.12 -4848.00 -4424.64 -3789.01 -3169.43 -2811.71 -2275.32 -1901.45 -1395.66 -960.58 -628.34 -303.55 -72.63 9.24 27.95 65.47 80.65 81.98 86.16 101.31 94.71 63.61 48.74 17.74 1.99 -13.47 -23.37 -28.16 -61.00 -341.91 -1031.74 -1633.91 -2141.42 -2897.26 -3908.10 -4872.86 -6233.39 -7633.23 -8140.86 -8223.80 -8080.97 -8381.72 -8435.54 -8449.95 -8394.17 -8285.06 -8268.47 -7893.29 -5589.60 -3258.21 -2251.22 -2138.65 -2245.02 -2354.33 -2474.20 -2490.34 -2493.31 -2489.40 -2475.12 -2465.26 -2451.27 -2452.19 -2466.34 -2488.79 -2519.62 -2607.37 -2676.05 -2777.14 -2870.63 -2870.71
-5121.55 -5121.50 -5123.66 -5130.64 -5135.97 -5146.81 -5158.42 -5175.70 -5205.96 -5214.45 -5221.93 -5227.97 -5233.13 -5237.40 -5236.70 -5229.09 -5231.47 -5238.99 -5247.98 -5256.92 -5267.23 -5302.59 -5339.44 -5413.34 -5436.02 -5445.13 -5448.05 -5450.69 -5470.83 -5478.68 -5482.40 -5488.20 -5496.01 -5497.35 -5492.75 -5467.94 -5449.42 -5463.76 -5476.63 -5499.38 -5514.64 -5544.83 -5571.18 -5595.50 -5613.87 -5621.53 -5629.37 -5635.09 -5642.65 -5653.92 -5661.25 -5657.81 -5646.52 -5640.04 -5638.10 -5628.40 -5607.90 -5600.37 -5597.61 -5588.00 -5579.00 -5570.23 -5555.10 -5538.94 -5527.90 -5519.85 -5503.94 -5493.74 -5464.74 -5412.11 -5112.03 -4797.20 -4337.87 -4180.10 -3545.19 -2898.34 -2554.47 -2131.78 -1670.44 -1384.54 -701.35 -343.74 -86.63 10.50 44.35 69.69 80.83 85.03 102.69 116.92 114.17 111.07 103.52 81.33 41.87 45.08 33.85 9.39 -1.01 -40.31 -122.40 -637.18 -1615.08 -1882.66 -2406.45 -3644.93 -4143.73 -5831.81 -5913.26 -6727.83 -7503.73 -7653.71 -8060.21 -8220.98 -8243.46 -8189.13 -8114.06 -8086.03 -7564.32 -5289.86 -3135.65 -2288.10 -2091.19 -2205.20 -2307.94 -2436.73 -2479.21 -2488.25 -2480.58 -2470.25 -2453.38 -2445.70 -2445.99 -2450.01 -2475.16 -2536.95 -2593.13 -2681.75 -2746.88 -2854.33 -2854.41
-5133.74 -5133.69 -5136.92 -5147.52 -5150.74 -5155.68 -5162.90 -5178.85 -5203.32 -5220.91 -5225.32 -5231.50 -5236.10 -5240.93 -5241.53 -5235.15 -5234.25 -5241.49 -5250.34 -5259.60 -5266.41 -5279.94 -5339.03 -5366.02 -5427.07 -5446.64 -5453.22 -5460.61 -5468.11 -5482.89 -5490.92 -5492.48 -5493.61 -5486.56 -5449.04 -5407.92 -5355.23 -5311.86 -5368.58 -5404.08 -5485.99 -5522.30 -5555.30 -5594.68 -5617.77 -5637.39 -5651.98 -5649.21 -5655.38 -5665.84 -5669.57 -5657.61 -5658.16 -5647.27 -5644.10 -5640.56 -5641.27 -5608.05 -5596.78 -5591.01 -5588.86 -5570.67 -5560.68 -5541.50 -5532.79 -5523.35 -5513.07 -5496.63 -5461.61 -5321.96 -5031.79 -4510.30 -4178.74 -3739.80 -3513.95 -2639.16 -2225.97 -1943.81 -1713.59 -1125.31 -372.44 -13.85 1.49 31.25 41.63 72.36 105.11 125.43 146.67 148.15 146.90 138.45 134.33 131.62 98.73 80.99 73.72 41.78 10.30 -43.46 -88.51 -157.27 -516.20 -1424.51 -2058.69 -1942.73 -2050.62 -3429.78 -2539.70 -4902.32 -6844.00 -7331.75 -7732.33 -7942.09 -7985.39 -7818.96 -7814.87 -7768.31 -7166.34 -5035.06 -3132.18 -2108.72 -2060.60 -2179.46 -2296.80 -2392.90 -2473.36 -2489.12 -2479.64 -2461.50 -2445.64 -2436.24 -2426.89 -2432.29 -2483.28 -2535.88 -2581.47 -2707.15 -2789.59 -2830.96 -2839.23
-5150.62 -5150.58 -5165.38 -5166.71 -5165.52 -5168.33 -5174.35 -5186.63 -5218.88 -5220.66 -5229.25 -5234.02 -5239.50 -5243.11 -5242.03 -5237.15 -5238.59 -5249.61 -5256.25 -5267.02 -5276.80 -5286.38 -5300.01 -5355.91 -5411.05 -5434.67 -5439.17 -5459.70 -5470.90 -5476.41 -5468.13 -5474.54 -5427.59 -5391.86 -5327.91 -5063.94 -4708.76 -4891.95 -4994.61 -5019.78 -5271.94 -5366.55 -5448.41 -5537.98 -5593.93 -5619.57 -5656.75 -5677.37 -5672.73 -5683.94 -5681.08 -5679.82 -5671.86 -5659.40 -5652.37 -5652.81 -5650.77 -5627.43 -5607.52 -5596.32 -5593.88 -5575.40 -5563.58 -5551.53 -5537.62 -5529.25 -5522.73 -5505.70 -5437.18 -5300.28 -4956.78 -4511.60 -4177.29 -3651.33 -3303.69 -2665.20 -2226.98 -2058.45 -1561.15 -703.35 -132.88 -5.09 13.70 47.64 71.73 86.88 119.25 144.85 159.63 173.27 180.78 200.14 183.44 143.10 132.49 119.15 89.85 36.05 4.73 -36.73 -93.24 -171.89 -412.91 -256.08 -285.06 -685.51 -1024.37 -1101.48 -1173.92 -2601.42 -5046.27 -7040.34 -7352.19 -7580.00 -7633.38 -7641.02 -7367.29 -7392.36 -6710.57 -4968.22 -2536.55 -2045.11 -2052.85 -2186.79 -2314.32 -2413.73 -2471.37 -2484.71 -2467.13 -2456.04 -2441.17 -2432.24 -2426.06 -2432.84 -2479.48 -2528.98 -2601.15 -2688.67 -2748.43 -2825.65 -2825.72
-5189.00 -5195.18 -5196.38 -5198.65 -5185.19 -5198.28 -5201.45 -5210.06 -5221.26 -5216.35 -5217.08 -5223.32 -5227.41 -5231.09 -5237.81 -5246.66 -5249.69 -5266.22 -5269.21 -5279.08 -5288.32 -5290.88 -5264.34 -5224.01 -5273.15 -5330.69 -5398.42 -5423.08 -5455.19 -5457.43 -5428.74 -5388.25 -5109.06 -4859.58 -4621.44 -4272.30 -3640.71 -3493.23 -3833.57 -4069.47 -4384.24 -4384.19 -4928.02 -5368.18 -5331.01 -5602.60 -5656.61 -5680.99 -5685.28 -5691.84 -5688.44 -5683.22 -5675.71 -5669.12 -5660.28 -5655.96 -5652.48 -5633.22 -5618.82 -5595.78 -5596.94 -5580.85 -5567.92 -5564.12 -5543.18 -5530.42 -5521.28 -5501.94 -5422.91 -5318.00 -5074.56 -4703.86 -4260.17 -3613.91 -3391.15 -2635.86 -2196.12 -2044.83 -1089.40 -419.28 -13.54 0.48 27.40 72.41 113.07 117.85 178.93 314.54 381.57 431.95 383.47 278.55 315.87 365.07 398.08 346.49 78.47 54.67 28.90 -30.23 -83.23 -1102.72 -1911.57 -633.37 -811.64 -646.98 -471.89 -460.77 -518.69 -761.32 -1408.36 -5478.31 -6972.91 -7316.32 -7396.99 -7351.96 -7083.39 -6928.01 -6485.86 -4042.37 -2837.36 -1897.15 -1980.98 -2166.54 -2279.51 -2416.35 -2459.06 -2480.36 -2465.49 -2448.28 -2439.19 -2438.41 -2440.14 -2442.55 -2469.41 -2524.68 -2641.70 -2753.32 -2788.32 -2860.04 -2860.01
-5250.21 -5250.20 -5256.51 -5236.10 -5246.38 -5272.85 -5255.56 -5244.94 -5222.16 -5212.62 -5212.17 -5214.55 -5219.79 -5224.53 -5241.85 -5259.19 -5272.52 -5284.01 -5291.01 -5301.39 -5300.94 -5280.33 -5234.64 -4985.62 -4676.26 -4587.07 -4976.88 -5166.57 -5155.99 -5352.45 -5226.74 -4860.96 -4585.75 -4145.15 -3595.43 -3054.25 -2733.01 -2723.35 -2920.39 -2902.38 -3247.29 -3723.14 -3663.94 -4329.10 -4663.95 -5048.96 -5619.51 -5628.67 -5665.77 -5667.47 -5674.96 -5675.40 -5668.94 -5668.39 -5661.70 -5652.76 -5639.63 -5626.00 -5611.03 -5596.47 -5591.23 -5584.24 -5576.44 -5569.48 -5562.64 -5539.96 -5527.29 -5482.45 -5380.81 -5120.13 -4838.59 -4361.56 -4048.72 -3676.04 -2964.09 -2353.52 -1811.50 -1054.80 -483.25 -145.73 2.94 13.27 48.89 113.17 124.86 200.83 413.06 574.17 678.70 840.70 683.95 610.73 760.47 735.71 705.18 518.83 175.06 75.66 33.56 -31.83 -90.06 -591.95 -3789.23 -2424.08 -2021.25 -1658.59 -1805.02 -726.18 -640.39 -564.65 -1248.46 -3541.63 -6729.42 -6817.70 -7012.59 -6639.25 -6584.17 -6403.91 -5830.56 -4799.79 -2384.74 -1892.89 -1922.27 -2089.07 -2203.25 -2348.98 -2454.37 -2476.38 -2466.59 -2444.33 -2430.80 -2429.73 -2434.39 -2477.39 -2509.99 -2534.82 -2652.59 -2743.11 -2838.47 -2923.32 -2923.39
-5326.92 -5335.85 -5341.78 -5332.43 -5316.09 -5296.74 -5293.49 -5265.45 -5250.71 -5250.01 -5230.52 -5239.97 -5246.92 -5243.83 -5262.44 -5282.11 -5311.84 -5314.73 -5328.05 -5325.80 -5318.31 -5238.59 -4880.42 -4322.67 -3599.55 -3739.37 -3751.18 -4448.89 -4547.20 -4853.19 -4628.04 -3908.87 -3283.14 -2979.86 -2664.95 -2306.84 -2165.54 -2169.62 -2282.63 -2341.34 -2536.97 -2543.90 -2784.87 -3132.82 -3929.16 -4369.40 -5015.78 -5421.71 -5502.19 -5407.06 -5486.71 -5571.28 -5646.24 -5626.02 -5652.62 -5651.99 -5638.96 -5619.22 -5603.51 -5593.17 -5584.03 -5572.95 -5572.18 -5573.80 -5565.67 -5546.90 -5536.07 -5515.08 -5345.18 -4995.64 -4567.94 -4208.37 -3935.41 -3646.91 -2902.98 -1733.35 -681.49 -246.03 -104.97 -11.69 21.34 56.46 72.45 121.24 159.77 286.68 479.15 745.46 1075.90 1257.68 1085.63 1100.38 1329.11 1162.81 1339.07 880.06 364.51 94.38 33.68 -26.47 -68.54 -1032.50 -5430.14 -4499.98 -3639.81 -3250.50 -2485.89 -1833.86 -1053.42 -999.39 -1555.83 -4993.80 -6278.14 -6083.37 -6073.75 -6027.50 -6008.49 -6144.36 -5812.23 -4785.18 -2419.72 -1876.34 -1900.78 -2133.59 -2262.04 -2348.08 -2445.10 -2467.48 -2456.46 -2439.66 -2422.97 -2418.06 -2422.30 -2445.58 -2490.50 -2600.16 -2704.49 -2821.67 -2937.05 -2957.06 -2975.06
-5457.53 -5442.42 -5419.43 -5421.13 -5395.85 -5382.00 -5363.96 -5340.94 -5289.03 -5291.44 -5281.87 -5277.47 -5288.72 -5300.18 -5359.93 -5353.61 -5388.83 -5378.51 -5375.36 -5364.14 -5340.73 -5196.30 -4497.89 -3464.82 -2755.68 -2641.53 -3074.54 -3406.40 -3343.83 -3781.02 -3974.57 -3316.89 -2452.69 -2184.96 -2101.78 -1942.56 -1714.46 -1834.54 -1746.30 -2096.05 -2024.20 -2280.31 -2374.07 -2607.48 -3018.54 -3364.44 -4369.25 -4849.35 -4871.92 -4951.12 -5120.53 -5371.55 -5355.04 -5514.97 -5603.05 -5643.93 -5623.03 -5613.99 -5597.85 -5585.20 -5575.83 -5568.65 -5561.76 -5559.08 -5540.45 -5529.65 -5362.44 -5368.82 -5246.12 -4833.89 -4466.82 -4031.21 -3710.11 -3368.49 -2446.14 -534.69 -176.87 -50.43 -6.37 34.34 68.61 91.24 109.47 137.99 169.78 263.07 341.34 628.47 1009.63 1087.81 1367.31 1450.81 1529.91 1463.75 1434.91 758.96 511.21 108.41 40.90 -9.57 -234.92 -1193.39 -5630.57 -5207.15 -4700.15 -4326.05 -3670.16 -3036.73 -2396.60 -1940.60 -1527.27 -2658.44 -2820.08 -2778.29 -3030.68 -2659.73 -4232.45 -4535.53 -4594.95 -5024.46 -2432.48 -2076.30 -1957.53 -2095.22 -2327.70 -2419.44 -2446.00 -2454.72 -2442.75 -2421.11 -2406.21 -2405.60 -2410.90 -2440.36 -2496.97 -2598.13 -2713.10 -2864.02 -2928.34 -3007.20 -3007.25
-5560.62 -5560.48 -5516.75 -5505.15 -5496.19 -5504.27 -5495.35 -5454.14 -5426.41 -5388.84 -5368.80 -5347.10 -5395.83 -5404.39 -5428.73 -5438.45 -5441.16 -5486.06 -5484.61 -5465.93 -5385.21 -5157.18 -4307.68 -3480.27 -2326.63 -2222.83 -2231.50 -2414.80 -2576.62 -2890.32 -2916.47 -2625.02 -2221.85 -1902.33 -1544.92 -912.96 -953.97 -878.03 -1022.54 -1304.84 -1563.46 -2148.16 -2262.73 -2345.98 -2438.34 -2601.98 -3155.08 -3604.59 -4034.10 -3774.64 -3908.74 -4248.01 -4589.43 -4868.52 -5281.32 -5396.23 -5586.64 -5555.24 -5471.55 -5537.86 -5531.62 -5545.20 -5492.54 -5450.36 -5362.77 -5137.81 -5112.21 -4499.15 -4178.61 -3845.62 -3294.49 -3447.06 -3569.90 -2928.35 -1953.61 -443.04 -0.86 32.00 29.68 52.20 95.05 111.35 141.08 166.33 222.06 238.63 287.10 424.35 516.46 722.64 893.43 1114.18 1270.95 1486.73 1522.95 886.61 697.95 129.24 75.98 1.24 -48.02 -462.64 -3604.56 -5587.80 -5398.23 -4822.49 -4664.19 -4495.50 -3981.64 -2945.98 -2149.25 -1489.83 -1335.29 -1375.30 -1483.37 -1740.62 -2200.33 -2399.99 -3063.27 -4167.99 -3132.89 -2307.05 -1910.42 -2060.80 -2269.68 -2384.84 -2440.72 -2439.58 -2422.78 -2408.24 -2390.53 -2392.56 -2419.21 -2427.41 -2473.34 -2609.12 -2702.00 -2899.09 -2985.49 -2995.96 -2993.89
-5622.27 -5622.17 -5625.49 -5593.24 -5576.43 -5569.76 -5555.86 -5526.24 -5534.68 -5509.40 -5496.51 -5473.91 -5479.33 -5501.93 -5520.48 -5581.67 -5589.68 -5639.92 -5586.06 -5574.62 -5508.59 -5142.80 -4112.74 -3168.97 -2333.21 -2241.59 -2262.99 -2273.66 -2212.22 -2300.84 -2379.25 -2305.50 -1941.06 -1398.31 -826.33 -478.23 -190.41 -152.87 -346.86 -362.56 -507.38 -1466.76 -2134.73 -2360.93 -2075.88 -2423.28 -2548.38 -2599.80 -2786.74 -2809.51 -3042.71 -3178.38 -3573.73 -3886.36 -4441.84 -5040.37 -5172.89 -5290.46 -5322.41 -5386.11 -5331.54 -5067.79 -5227.85 -5181.38 -4892.18 -4559.92 -4471.34 -3641.53 -3488.56 -2715.80 -2693.65 -2487.15 -2068.64 -1508.13 -596.97 -108.04 39.85 65.72 74.42 82.93 113.20 130.51 174.43 209.48 223.60 260.19 309.54 345.91 403.56 472.99 570.38 679.13 911.14 1189.07 1426.96 1171.47 736.24 546.24 244.65 9.91 -57.54 -244.27 -2835.94 -5225.50 -4959.36 -5135.26 -4816.21 -4813.77 -4716.81 -4153.45 -3386.60 -2734.45 -1671.00 -1255.93 -1102.60 -1076.93 -1516.04 -1401.66 -2055.33 -3161.10 -2758.17 -2201.41 -1937.36 -2034.74 -2166.31 -2328.64 -2402.24 -2416.86 -2406.07 -2392.13 -2388.38 -2388.06 -2405.61 -2431.80 -2479.70 -2562.10 -2665.03 -2831.60 -2932.93 -2978.95 -2979.00
-5639.01 -5638.95 -5642.52 -5634.40 -5635.06 -5636.04 -5623.05 -5614.57 -5634.94 -5625.95 -5601.41 -5619.03 -5593.84 -5634.77 -5662.63 -5649.70 -5652.65 -5682.08 -5682.54 -5672.57 -5575.21 -5298.50 -4195.96 -3442.83 -2578.01 -2585.65 -2695.83 -2644.86 -2324.44 -2211.73 -2195.66 -2062.79 -1904.33 -791.11 -338.61 -61.21 -56.70 -55.95 -64.86 -105.82 -123.79 -344.76 -1190.75 -1042.15 -1244.36 -2030.01 -2196.94 -2357.99 -2335.70 -2451.00 -2531.68 -2459.30 -2428.64 -3308.52 -3314.19 -3758.85 -4144.13 -4448.73 -4487.86 -4613.98 -4342.78 -4554.39 -4324.33 -4404.31 -3921.17 -3350.87 -2826.84 -2671.21 -2373.59 -2310.77 -2180.33 -1935.90 -1402.52 -1035.64 29.43 48.04 63.95 88.89 100.55 118.42 146.47 159.37 193.42 217.78 258.88 290.50 313.48 351.92 371.78 398.68 454.70 500.73 646.62 922.83 1028.65 1081.04 900.60 819.21 325.47 117.64 22.79 -53.39 -334.43 -1218.99 -3554.98 -4634.29 -4976.41 -4828.67 -4897.14 -5006.52 -4548.35 -3651.82 -2898.90 -1908.70 -1338.62 -1140.79 -1063.44 -1072.95 -1345.01 -1981.79 -2435.27 -2250.57 -1978.14 -2104.07 -2226.25 -2319.18 -2380.31 -2390.09 -2391.03 -2383.94 -2389.83 -2401.52 -2446.88 -2495.60 -2513.34 -2648.79 -2729.57 -2892.31 -3007.84 -3076.35 -3076.54
-5646.37 -5645.57 -5647.97 -5649.48 -5649.84 -5648.42 -5650.06 -5665.24 -5666.14 -5675.16 -5672.79 -5681.06 -5690.21 -5696.15 -5707.31 -5723.72 -5730.41 -5737.36 -5744.98 -5723.45 -5639.77 -5491.49 -4770.45 -3850.51 -3788.56 -3417.25 -3665.37 -3694.75 -2923.10 -2586.48 -2284.38 -2035.79 -1557.19 -532.50 -176.08 -42.26 -12.73 -14.96 -7.98 -22.17 -41.88 -99.83 -351.82 -418.33 -435.60 -1295.77 -1605.87 -1812.23 -1968.74 -2176.63 -2159.76 -2194.55 -2281.48 -2250.69 -2549.50 -2900.12 -3036.91 -3109.26 -3194.26 -3113.88 -3136.08 -3332.86 -3047.46 -3218.88 -2933.79 -2602.60 -2580.32 -2347.43 -2300.46 -2262.96 -2041.42 -986.30 -118.56 36.93 51.95 79.10 99.14 109.86 110.93 137.30 180.47 198.87 223.83 260.64 289.71 299.21 305.92 341.53 367.81 397.02 429.26 435.95 436.70 534.79 701.68 986.81 1143.90 886.62 455.65 132.65 78.55 27.92 -190.24 -504.16 -1409.12 -3571.12 -5219.78 -4942.72 -4909.35 -5127.61 -5184.44 -5073.92 -3876.81 -3419.57 -2524.73 -1517.86 -1254.54 -1060.62 -1103.13 -1315.65 -1632.37 -1939.99 -1963.79 -2042.27 -2227.82 -2280.84 -2356.20 -2371.23 -2364.97 -2363.53 -2378.23 -2392.14 -2460.00 -2528.18 -2613.02 -2854.50 -2954.01 -3072.96 -3109.61 -3159.69 -3159.79
-5660.41 -5659.20 -5661.14 -5664.33 -5661.49 -5664.89 -5670.38 -5678.91 -5695.58 -5693.92 -5702.35 -5711.14 -5710.67 -5721.24 -5730.17 -5734.95 -5743.30 -5747.84 -5756.63 -5754.70 -5726.38 -5618.11 -5256.43 -4945.72 -4841.42 -5067.62 -4959.19 -4478.30 -3470.92 -2769.21 -2462.34 -2311.37 -1854.28 -893.14 -87.45 -48.60 -9.86 14.73 16.22 0.92 -25.18 -58.02 -65.58 -103.45 -114.84 -219.93 -374.76 -519.14 -787.96 -1154.78 -1485.46 -1678.86 -2149.69 -2235.10 -2290.33 -2338.93 -2468.87 -2545.74 -2444.80 -2520.48 -2496.92 -2443.87 -2510.32 -2525.08 -2533.77 -2388.40 -2344.85 -2328.30 -2159.00 -2001.45 -1445.69 14.14 40.15 54.78 72.65 94.55 116.31 147.54 155.30 166.86 180.58 213.61 232.24 265.13 286.82 297.64 302.18 328.35 358.49 380.69 413.23 425.52 437.24 453.99 525.27 721.99 1034.77 1036.06 747.58 357.49 82.79 69.21 36.47 5.40 -627.84 -3467.21 -5258.87 -5193.62 -4968.70 -5043.99 -5129.40 -5238.95 -5148.97 -4756.53 -3706.81 -3043.35 -2545.54 -1527.11 -1367.95 -1309.12 -1341.59 -1474.64 -1757.41 -1950.50 -2099.33 -2203.41 -2235.70 -2314.94 -2340.61 -2344.04 -2343.27 -2379.20 -2459.15 -2574.15 -2685.17 -2857.31 -3092.75 -3244.07 -3281.98 -3319.62 -3352.28
-5676.68 -5675.26 -5676.59 -5676.94 -5680.54 -5680.84 -5681.87 -5688.58 -5717.18 -5720.35 -5724.27 -5727.45 -5735.38 -5737.61 -5742.44 -5750.86 -5753.88 -5762.84 -5763.32 -5766.25 -5757.25 -5737.28 -5676.27 -5582.11 -5585.90 -5606.64 -5444.24 -5254.83 -4611.05 -3778.13 -2994.77 -2581.58 -1677.53 -658.92 -84.96 -62.24 -13.69 9.77 26.20 21.42 9.65 -24.18 -9.43 -23.36 -42.32 -75.56 -97.71 -87.47 -293.32 -512.29 -475.44 -559.47 -1299.44 -1911.14 -1905.19 -1931.63 -2090.67 -2110.06 -2157.80 -2156.60 -2102.27 -2172.43 -2255.16 -2242.91 -2349.63 -2355.05 -2452.88 -2356.74 -1762.93 -1294.58 -529.40 35.50 54.04 68.72 83.25 107.66 157.32 181.27 182.10 185.71 199.43 222.16 246.21 271.45 288.84 294.66 303.98 328.56 348.76 353.84 367.64 410.29 432.27 440.66 472.73 645.72 874.81 1114.93 962.65 750.48 158.88 131.83 81.71 13.04 -24.99 -1595.69 -4527.21 -4979.61 -5177.36 -4930.94 -4919.96 -5061.06 -5222.61 -5254.92 -4962.36 -4363.35 -3860.83 -3162.36 -2228.10 -1437.67 -1242.40 -1150.62 -1459.21 -1679.87 -1893.24 -1966.23 -2180.80 -2256.22 -2319.74 -2320.31 -2328.17 -2382.85 -2476.23 -2559.74 -2713.25 -2838.55 -2977.77 -3162.19 -3384.59 -3456.02 -3475.17
-5693.25 -5693.17 -5697.58 -5696.31 -5692.51 -5698.73 -5699.72 -5704.30 -5729.99 -5735.46 -5732.65 -5741.82 -5744.67 -5747.40 -5758.29 -5766.55 -5766.10 -5772.03 -5771.80 -5771.87 -5767.52 -5754.75 -5730.20 -5729.14 -5718.79 -5711.34 -5706.06 -5573.03 -5365.37 -5030.41 -3923.54 -2922.72 -1729.83 -634.81 -95.38 -69.94 -12.19 5.22 21.43 34.08 34.11 29.23 27.46 24.78 10.54 -21.28 -23.83 -19.07 -57.18 -77.15 -89.87 -162.45 -526.06 -901.50 -1377.65 -1557.25 -1610.64 -1629.37 -1754.74 -1894.34 -1830.84 -1788.96 -1865.55 -2013.40 -2119.04 -2259.19 -2493.04 -1522.53 -137.73 25.01 34.44 48.79 83.47 93.01 109.73 152.34 220.68 238.30 226.83 226.05 239.39 254.22 261.15 273.14 278.16 285.85 299.38 325.70 341.81 349.91 352.03 367.58 395.29 433.51 440.13 459.02 683.18 941.67 987.83 550.83 244.50 187.23 137.04 46.33 18.75 -7.09 -1182.72 -4006.17 -5280.17 -5217.09 -5051.31 -5061.94 -5211.95 -5387.51 -5448.52 -5309.17 -5191.67 -4718.42 -3567.47 -2247.65 -1481.85 -1085.90 -1184.92 -1464.42 -1574.84 -1852.17 -1934.25 -2119.80 -2174.99 -2273.88 -2300.88 -2341.70 -2415.02 -2471.37 -2621.27 -2824.31 -3029.37 -3162.82 -3341.36 -3473.30 -3473.35
-5711.44 -5709.81 -5711.72 -5714.32 -5721.05 -5711.52 -5722.46 -5724.79 -5739.00 -5746.24 -5751.27 -5754.89 -5760.86 -5764.05 -5769.17 -5773.45 -5781.26 -5780.81 -5781.00 -5780.98 -5778.42 -5772.15 -5762.84 -5759.20 -5758.41 -5754.41 -5740.19 -5720.88 -5675.29 -5453.55 -3857.01 -2247.15 -1391.26 -141.52 -108.17 -80.82 -16.87 6.49 22.29 50.92 45.86 43.29 40.62 42.01 33.80 28.04 21.11 12.72 -6.58 -39.23 -76.33 -94.44 -117.80 -353.92 -584.46 -859.31 -748.14 -1133.42 -1212.46 -1369.18 -1499.93 -1412.01 -1369.21 -1565.67 -1376.71 -1917.91 -1050.63 -295.65 -61.09 32.32 46.64 71.91 84.71 106.69 129.01 159.01 215.18 235.14 238.40 244.92 262.64 262.93 270.42 274.44 277.25 277.07 287.08 317.99 338.83 348.97 351.89 353.26 384.80 428.31 437.58 439.36 520.39 655.28 882.22 829.93 991.33 609.77 252.78 107.01 72.57 -9.00 -28.21 -498.40 -2259.56 -5333.43 -5072.63 -4938.05 -5095.07 -5321.69 -5475.55 -5495.78 -5435.84 -5186.04 -4448.69 -3244.12 -1558.44 -963.80 -961.29 -1145.84 -1273.05 -1491.77 -1707.96 -1984.21 -2098.15 -2138.14 -2272.85 -2288.06 -2340.32 -2383.03 -2483.64 -2649.25 -2866.99 -3186.18 -3310.60 -3412.98 -3426.19
-5742.05 -5741.96 -5746.12 -5741.20 -5737.77 -5741.18 -5740.19 -5745.79 -5750.21 -5753.96 -5756.33 -5759.48 -5763.35 -5768.73 -5772.83 -5788.09 -5788.17 -5791.70 -5789.64 -5789.93 -5786.12 -5783.35 -5779.36 -5777.64 -5772.52 -5768.55 -5767.01 -5759.77 -5682.84 -5487.78 -3868.82 -2189.42 -866.46 -129.38 -98.70 -56.51 -11.74 8.34 37.34 59.70 58.99 60.61 61.16 52.89 49.68 50.93 32.90 15.90 12.92 -1.68 -48.98 -92.26 -116.19 -134.34 -166.03 -293.13 -330.19 -320.55 -647.40 -1051.35 -885.38 -799.77 -920.14 -805.31 -441.16 -710.48 -564.14 13.85 23.09 39.14 51.02 77.98 102.06 110.81 149.87 179.87 210.92 245.04 258.15 267.51 265.59 264.71 270.17 275.20 277.18 276.73 273.80 292.78 334.89 343.63 347.17 349.92 348.27 395.64 429.40 437.81 482.07 577.28 751.66 1043.59 1134.48 699.49 289.34 166.85 86.89 51.96 6.30 -814.35 -2679.22 -5020.07 -4924.57 -4786.78 -5022.69 -5239.21 -5460.92 -5505.51 -5507.62 -5362.60 -4847.05 -3007.86 -1655.34 -846.49 -827.81 -901.83 -1134.24 -1264.25 -1488.06 -1841.35 -1986.51 -2114.31 -2211.36 -2278.68 -2302.17 -2386.04 -2555.74 -2733.10 -2921.32 -3027.03 -3229.62 -3392.28 -3392.33
-5762.43 -5762.36 -5765.54 -5767.74 -5770.63 -5770.63 -5773.95 -5768.73 -5762.16 -5759.20 -5764.54 -5767.90 -5768.84 -5774.92 -5783.49 -5796.71 -5801.17 -5801.84 -5803.97 -5802.41 -5799.65 -5794.65 -5793.72 -5786.90 -5784.85 -5781.86 -5784.45 -5785.74 -5759.19 -5510.93 -4372.51 -1839.86 -155.11 -122.82 -74.50 -48.27 -0.18 17.15 33.42 71.32 92.30 81.15 73.83 87.91 74.70 71.23 64.14 44.66 23.38 12.59 -23.20 -52.71 -96.48 -123.14 -165.75 -184.98 -199.48 -229.75 -294.88 -384.10 -367.46 -403.66 -296.93 -150.25 -130.61 -44.93 -9.56 17.33 27.55 36.65 51.67 67.50 106.87 122.63 170.01 185.07 229.98 252.38 266.72 272.30 272.38 268.37 269.91 276.22 279.17 279.80 275.92 286.65 319.35 342.23 346.01 346.97 347.05 404.03 427.05 435.45 467.93 501.27 592.87 875.66 1173.63 1054.31 702.03 292.57 103.45 88.94 57.69 -1182.77 -3161.33 -4825.51 -4946.34 -4779.28 -4921.58 -5098.09 -5399.89 -5489.80 -5512.42 -5460.93 -4944.13 -3317.05 -1763.93 -633.43 -601.79 -658.75 -902.57 -1121.00 -1418.06 -1618.93 -1710.59 -1946.94 -2157.05 -2194.52 -2242.46 -2384.33 -2559.20 -2748.87 -2869.63 -3063.70 -3203.02 -3365.68 -3365.72
-5774.24 -5774.17 -5779.19 -5780.95 -5780.23 -5780.51 -5784.42 -5778.55 -5771.11 -5774.20 -5776.42 -5778.14 -5783.63 -5788.29 -5797.55 -5812.74 -5818.21 -5823.47 -5818.28 -5815.86 -5812.23 -5807.03 -5804.61 -5802.21 -5794.69 -5792.39 -5785.61 -5724.17 -5660.94 -4264.15 -2858.09 -753.02 -161.88 -92.70 -41.02 -5.99 2.78 18.49 42.07 54.66 70.55 84.30 99.60 112.64 126.17 84.51 93.15 65.58 40.59 13.23 9.95 -7.67 -85.82 -118.68 -144.71 -161.62 -190.32 -204.74 -228.81 -216.48 -211.97 -189.20 -165.08 -124.86 -84.35 -55.04 1.00 18.35 35.10 43.06 47.97 69.10 91.67 126.15 166.44 184.45 216.00 235.74 258.13 269.42 272.84 269.05 270.47 277.31 281.78 283.52 279.97 278.81 310.37 337.28 344.88 349.98 363.45 390.97 419.19 434.46 443.17 483.93 582.36 884.86 1183.36 1109.79 877.37 444.29 147.06 98.60 76.07 29.74 -1315.54 -3989.88 -5078.00 -4832.43 -4828.08 -5077.64 -5232.74 -5475.98 -5490.69 -5444.46 -4950.49 -3829.05 -2162.43 -642.65 -488.08 -537.03 -718.96 -836.67 -1126.95 -1376.84 -1596.10 -1841.35 -2039.89 -2126.81 -2185.35 -2302.30 -2436.70 -2658.77 -2880.46 -3088.45 -3215.91 -3340.65 -3340.70
-5782.75 -5782.70 -5786.65 -5789.87 -5792.73 -5793.83 -5793.95 -5795.96 -5786.78 -5783.88 -5787.75 -5792.78 -5795.94 -5797.03 -5810.21 -5822.46 -5825.44 -5829.33 -5830.60 -5832.69 -5829.79 -5826.29 -5826.29 -5815.22 -5805.26 -5775.14 -5701.08 -5066.49 -4446.89 -3629.53 -1396.53 -594.34 -191.63 -113.24 -28.55 -2.05 9.90 25.10 37.26 54.49 68.65 104.22 110.35 143.89 173.14 159.87 122.03 97.81 51.85 27.35 14.24 -0.37 -50.74 -107.21 -126.76 -150.60 -171.65 -195.93 -203.22 -206.48 -193.90 -155.93 -136.32 -100.11 -37.64 -10.20 5.13 22.06 40.10 46.67 53.04 69.08 89.32 123.10 145.37 185.23 210.33 231.29 251.06 264.70 268.56 264.64 271.55 275.24 280.46 282.20 279.84 285.00 306.59 329.52 346.72 356.44 369.46 386.87 393.45 426.27 424.32 439.44 492.36 660.50 1073.49 1146.58 966.90 471.76 271.24 185.22 110.60 7.09 -625.42 -3969.62 -5228.75 -4828.81 -4837.25 -5008.34 -5196.41 -5459.12 -5476.42 -5445.31 -5236.55 -3994.51 -1909.13 -584.67 -407.20 -408.61 -443.96 -705.06 -855.93 -1195.98 -1422.60 -1663.15 -1811.70 -1978.02 -2089.87 -2162.49 -2273.42 -2501.09 -2716.50 -2904.26 -3138.46 -3295.10 -3317.04
-5788.70 -5788.62 -5794.58 -5795.25 -5801.11 -5803.20 -5808.78 -5805.28 -5799.54 -5798.40 -5802.37 -5804.06 -5810.79 -5817.73 -5829.77 -5837.84 -5845.89 -5843.80 -5846.77 -5846.26 -5847.45 -5843.77 -5836.41 -5815.26 -5742.12 -5686.00 -5502.14 -4319.02 -3769.14 -2481.83 -969.08 -235.90 -126.19 -87.23 -50.34 -7.80 9.12 29.63 45.14 65.88 94.06 112.78 130.62 165.27 195.14 184.13 154.18 92.20 51.43 35.96 12.06 4.81 -27.25 -83.48 -109.14 -138.88 -162.03 -183.06 -185.15 -165.88 -140.50 -114.47 -86.97 -53.75 -24.08 0.51 15.74 37.68 44.73 50.68 59.28 74.76 94.64 120.87 149.40 169.57 197.64 224.68 238.39 249.21 248.31 252.29 260.34 270.97 279.36 280.15 279.97 288.87 311.65 329.57 347.99 369.01 383.68 388.23 390.78 391.63 398.92 426.19 499.41 531.33 927.46 1205.98 1241.72 741.93 370.91 207.90 147.74 69.39 -835.16 -4575.10 -5473.36 -4902.68 -4832.02 -5041.76 -5225.55 -5414.26 -5468.52 -5441.94 -5122.56 -4675.84 -1874.13 -691.12 -304.37 -302.00 -313.03 -628.05 -851.22 -1188.80 -1438.49 -1473.46 -1698.27 -1841.86 -1970.43 -2098.48 -2228.94 -2450.70 -2630.40 -2959.56 -3172.88 -3295.44 -3295.49
-5792.53 -5792.46 -5798.82 -5802.74 -5807.77 -5811.71 -5816.08 -5812.53 -5807.78 -5813.23 -5815.55 -5817.59 -5820.74 -5824.76 -5835.43 -5850.10 -5855.22 -5858.53 -5861.43 -5860.81 -5860.79 -5847.90 -5772.49 -5744.51 -5494.55 -4964.57 -4414.34 -3435.38 -2642.49 -1143.93 -389.54 -155.07 -112.30 -70.63 -27.91 -0.39 13.28 23.15 43.47 81.09 99.34 116.99 153.81 163.06 203.27 196.50 132.81 86.76 47.32 32.73 17.47 6.39 -7.24 -57.45 -97.64 -119.55 -150.16 -168.01 -153.12 -136.08 -111.19 -88.86 -43.69 -21.54 -3.80 13.13 23.33 36.77 45.66 53.38 63.71 86.22 94.05 119.45 136.43 156.71 183.07 207.35 225.85 232.99 242.63 249.13 258.44 266.01 274.23 282.35 286.93 292.41 302.20 320.08 345.64 375.52 382.71 387.33 390.21 397.54 413.19 446.08 505.64 517.09 783.96 1182.52 1298.54 774.11 418.87 290.63 132.12 75.59 -400.68 -3216.26 -5305.32 -4906.87 -4819.09 -4982.78 -5278.84 -5392.03 -5460.16 -5425.50 -5267.61 -3769.48 -2084.87 -715.21 -324.24 -245.00 -320.46 -477.14 -907.78 -1065.31 -1185.13 -1424.57 -1672.75 -1782.42 -1962.27 -2072.95 -2211.41 -2309.81 -2647.26 -2900.07 -3030.49 -3116.98 -3116.91
-5794.73 -5794.66 -5802.31 -5806.71 -5813.99 -5817.17 -5820.85 -5822.24 -5819.58 -5820.61 -5823.67 -5828.54 -5835.63 -5837.50 -5843.57 -5848.75 -5850.54 -5850.55 -5851.47 -5838.17 -5818.69 -5766.40 -5667.99 -5377.47 -4644.17 -4390.88 -3235.64 -2379.49 -1141.53 -287.01 -185.84 -146.46 -115.41 -58.85 -16.32 9.15 22.15 29.34 47.26 77.24 98.90 122.11 154.09 176.63 208.43 200.25 128.96 85.30 51.32 28.33 17.40 3.81 -26.10 -62.77 -95.76 -105.70 -130.57 -137.71 -138.97 -116.19 -87.49 -62.59 -44.17 -12.10 5.55 15.78 27.91 37.63 44.45 50.28 68.96 80.22 94.77 106.35 129.71 157.83 182.54 191.35 205.90 218.42 224.40 232.25 251.39 263.99 271.55 281.83 295.99 298.52 305.08 314.63 329.47 348.98 372.03 384.32 385.88 398.37 412.89 426.69 459.36 492.23 659.53 1040.10 1225.14 925.94 443.73 239.41 107.08 72.65 13.25 -2299.30 -4257.37 -4828.59 -4796.35 -4860.97 -5301.56 -5408.34 -5432.87 -5372.91 -5151.40 -3795.53 -2161.85 -575.69 -260.83 -213.63 -266.74 -488.22 -749.06 -923.96 -1071.75 -1296.28 -1610.11 -1724.67 -1874.68 -2070.21 -2187.98 -2302.21 -2421.37 -2729.84 -2875.82 -3055.54 -3055.60
-5795.90 -5796.69 -5801.70 -5812.44 -5816.21 -5820.25 -5826.83 -5826.13 -5825.90 -5830.04 -5836.97 -5844.03 -5848.17 -5853.84 -5855.13 -5845.80 -5845.24 -5845.94 -5844.23 -5764.50 -5664.77 -5417.38 -4891.18 -4353.42 -3866.41 -3196.60 -2849.63 -1565.97 -810.94 -205.47 -171.71 -141.43 -99.89 -44.21 -16.39 18.89 28.41 45.05 57.39 71.72 97.86 135.17 162.91 190.11 221.10 208.36 145.69 108.87 66.13 33.51 16.43 6.93 -12.04 -49.13 -84.82 -95.51 -107.49 -117.26 -104.00 -80.91 -66.10 -46.95 -16.21 -3.30 10.35 18.54 29.40 37.62 45.47 48.87 61.36 71.40 83.73 104.32 116.37 144.44 157.97 172.68 189.93 203.32 219.42 224.21 235.79 262.41 271.08 279.95 297.93 303.44 307.47 309.48 315.97 321.11 348.50 366.78 373.65 384.61 398.78 426.23 455.29 494.63 561.91 1017.25 1186.72 899.28 540.96 200.07 102.58 41.99 -57.56 -740.95 -4405.56 -4747.63 -4580.13 -4730.04 -5040.30 -5413.17 -5407.21 -5367.92 -5104.92 -3779.23 -2019.87 -495.93 -230.42 -184.61 -239.09 -373.53 -472.71 -748.04 -1129.78 -1275.52 -1434.91 -1655.57 -1863.30 -1980.15 -2094.24 -2218.45 -2400.49 -2634.58 -2757.11 -2853.33 -2853.24
-5797.04 -5796.97 -5804.70 -5812.48 -5817.11 -5827.10 -5829.46 -5834.01 -5834.35 -5839.89 -5843.78 -5850.29 -5857.58 -5862.91 -5862.39 -5842.46 -5834.09 -5816.86 -5645.21 -5582.24 -5174.00 -4716.73 -4153.35 -3280.36 -2875.91 -2589.44 -2535.93 -1664.92 -467.52 -180.27 -146.84 -110.27 -82.23 -25.41 6.70 17.50 29.53 47.55 58.08 69.42 104.69 144.29 177.76 196.99 205.77 183.41 135.80 106.50 51.08 40.71 23.29 10.51 -11.12 -41.55 -74.18 -87.89 -97.48 -95.40 -80.98 -63.93 -34.63 -28.12 -19.01 -6.02 14.79 22.66 30.66 39.06 44.30 49.99 58.82 73.73 81.70 94.72 114.75 128.53 147.67 166.21 180.52 200.26 203.05 225.51 242.36 254.79 268.07 275.43 290.43 303.42 307.33 309.35 310.40 316.08 325.81 341.39 354.14 347.27 382.74 416.17 441.76 486.02 526.97 774.62 1011.52 782.54 466.28 220.25 123.16 36.48 -18.67 -1097.55 -3737.78 -4654.39 -4588.21 -4754.83 -5003.83 -5304.82 -5373.19 -5327.03 -5002.31 -3830.94 -1505.11 -710.20 -238.70 -166.29 -173.05 -372.55 -587.08 -684.13 -942.03 -1187.90 -1412.06 -1584.01 -1833.68 -1960.14 -2090.72 -2202.31 -2385.13 -2541.62 -2693.83 -2801.18 -2801.25
-5798.99 -5798.92 -5806.66 -5813.51 -5820.54 -5829.95 -5835.42 -5838.07 -5838.53 -5845.14 -5850.99 -5858.05 -5866.04 -5864.89 -5844.14 -5803.03 -5673.66 -5536.87 -5187.10 -4619.83 -4083.90 -3835.07 -3000.92 -2550.33 -2494.58 -2352.76 -1650.41 -713.64 -194.52 -157.56 -104.38 -72.15 -42.79 -5.06 10.39 20.06 31.34 54.20 75.73 90.64 144.50 166.34 187.82 187.02 147.08 137.07 128.21 94.81 56.07 37.86 22.90 12.89 -17.03 -44.43 -73.70 -83.30 -93.28 -91.67 -84.87 -59.18 -38.36 -36.73 -22.36 -6.07 8.73 22.92 31.14 42.22 46.22 50.91 54.66 64.57 74.45 84.62 107.70 120.04 136.31 147.47 169.31 184.95 191.89 212.57 230.67 248.06 258.41 274.16 289.75 302.07 308.40 311.18 311.89 312.72 313.04 322.38 329.83 336.12 379.93 399.70 414.16 459.21 479.24 647.74 920.24 793.00 310.22 164.18 119.54 66.34 -10.90 -2730.92 -4558.11 -4759.30 -4720.37 -4891.17 -5110.62 -5312.68 -5374.77 -5284.21 -4780.77 -3791.85 -1403.33 -527.20 -195.24 -171.09 -179.39 -292.31 -463.92 -549.12 -825.88 -1219.88 -1456.19 -1500.17 -1796.39 -2023.64 -2130.41 -2240.45 -2331.87 -2519.00 -2592.47 -2675.20 -2675.18
-5802.69 -5803.27 -5809.45 -5818.62 -5827.40 -5835.27 -5841.26 -5846.68 -5844.27 -5852.26 -5858.72 -5858.10 -5846.43 -5817.56 -5773.38 -5512.62 -5203.58 -4537.04 -4038.57 -3697.69 -3572.14 -2643.08 -2516.72 -2306.86 -2267.22 -1756.15 -965.27 -242.56 -180.98 -129.01 -91.60 -48.69 -17.79 12.32 18.03 30.40 44.05 72.87 94.30 111.69 149.63 181.88 182.87 159.01 124.14 98.91 87.43 75.27 51.41 36.28 16.13 11.14 -2.10 -35.07 -66.07 -78.94 -84.97 -83.04 -74.44 -64.40 -51.93 -42.25 -11.44 2.33 12.83 20.80 30.42 40.04 44.91 49.84 54.43 67.00 73.16 85.00 96.95 111.75 122.67 140.19 158.90 177.79 191.62 209.00 220.35 238.56 255.94 273.79 282.99 300.99 307.25 313.53 316.12 316.36 316.60 319.92 326.47 337.43 357.25 385.36 400.55 422.25 459.25 460.00 629.43 747.23 427.35 184.85 122.37 70.96 10.07 -2296.51 -4745.28 -4885.35 -4822.08 -4947.87 -5178.33 -5312.32 -5351.27 -5272.87 -4809.16 -3174.80 -1367.82 -440.67 -219.88 -181.68 -222.04 -286.35 -371.46 -563.29 -761.00 -1120.70 -1309.24 -1538.17 -1856.09 -2048.64 -2165.89 -2227.82 -2327.49 -2413.63 -2542.40 -2654.00 -2654.08
-5807.96 -5807.88 -5814.56 -5822.86 -5827.86 -5839.73 -5849.13 -5854.11 -5869.21 -5868.20 -5859.98 -5823.10 -5772.82 -5564.96 -5139.06 -4672.30 -4006.33 -3634.05 -3116.80 -2727.51 -2376.09 -2199.94 -2196.84 -2143.33 -1933.50 -1367.51 -555.92 -221.04 -166.33 -140.53 -73.94 -26.15 -8.37 8.18 22.41 32.69 54.30 74.62 91.82 117.42 154.44 187.27 186.32 166.85 124.78 89.72 72.36 54.66 39.52 32.45 17.00 11.05 -1.28 -22.32 -67.53 -72.70 -75.28 -67.81 -55.08 -55.99 -52.26 -44.57 -27.62 0.13 13.94 17.42 30.87 36.00 43.40 49.63 54.12 63.24 67.31 80.52 94.77 106.28 118.48 134.93 154.25 160.27 190.89 200.31 211.40 237.20 248.18 266.28 280.95 294.03 307.03 318.42 323.88 325.51 326.02 327.20 328.15 339.16 350.39 363.73 390.80 392.65 377.71 376.43 424.40 438.18 355.01 182.10 111.50 65.20 15.55 -2380.41 -4234.01 -4983.03 -4850.42 -4880.26 -5105.18 -5186.32 -5241.16 -5078.71 -4743.70 -2777.56 -1653.22 -356.88 -195.37 -178.62 -225.11 -278.23 -372.49 -547.96 -694.74 -976.60 -1335.51 -1530.12 -1902.03 -2054.28 -2164.35 -2273.47 -2340.56 -2454.71 -2553.86 -2656.44 -2664.28
-5804.50 -5804.42 -5815.75 -5823.26 -5829.32 -5838.34 -5853.11 -5865.73 -5886.20 -5874.05 -5835.95 -5688.03 -5322.74 -5157.47 -4623.42 -3918.53 -3427.85 -2860.08 -2526.98 -2388.41 -2172.90 -2086.08 -2099.76 -2119.31 -1888.19 -967.71 -438.39 -229.77 -159.56 -124.62 -64.90 -21.00 -0.39 7.96 30.61 38.34 54.63 77.29 87.13 127.15 160.23 191.87 170.84 152.89 119.78 85.26 59.05 48.27 34.14 24.22 14.21 6.06 -2.63 -28.84 -64.34 -63.95 -65.24 -60.30 -53.88 -46.41 -43.94 -42.06 -23.96 1.30 11.14 19.14 30.93 34.66 40.96 47.91 53.06 60.52 68.38 81.64 88.35 99.76 116.75 135.06 151.22 161.54 175.24 197.73 210.09 229.50 241.74 262.14 273.04 292.82 308.04 323.64 330.19 332.16 332.80 332.30 334.75 340.97 347.17 354.63 365.97 374.96 341.96 312.26 334.30 321.82 260.13 149.36 108.74 39.63 8.24 -515.06 -3820.37 -5109.33 -4823.45 -4903.28 -5019.10 -5087.64 -5180.10 -4904.83 -4225.25 -2477.25 -705.17 -290.77 -182.26 -171.42 -202.01 -267.21 -365.77 -510.58 -694.13 -874.38 -1198.72 -1536.55 -1779.41 -2035.28 -2165.59 -2278.02 -2418.74 -2478.74 -2621.46 -2688.57 -2688.67
-5821.90 -5821.81 -5828.79 -5832.96 -5844.82 -5852.26 -5860.16 -5872.37 -5892.06 -5877.48 -5783.92 -5496.67 -4843.95 -4108.93 -3299.96 -3111.99 -2810.50 -2654.69 -2446.76 -2295.95 -2141.14 -2054.67 -2084.20 -2123.02 -1620.16 -881.08 -445.34 -213.60 -160.47 -123.50 -56.72 -12.95 -4.39 14.30 33.30 43.14 64.89 100.04 113.69 142.03 165.07 194.48 159.06 135.82 102.42 80.88 56.98 38.77 29.44 16.85 6.35 -1.78 -11.58 -35.02 -57.69 -56.50 -55.53 -47.40 -38.22 -34.23 -33.28 -34.21 -15.79 4.07 12.15 19.78 28.66 34.55 39.40 43.34 54.11 57.18 64.46 79.34 86.11 95.93 106.09 125.37 141.01 152.98 175.26 189.76 208.95 220.66 251.32 264.47 277.60 297.58 311.18 325.55 332.94 335.54 338.91 341.03 340.19 345.40 348.59 350.65 355.01 365.31 354.95 309.51 298.69 243.72 184.80 161.17 105.74 44.97 -0.36 -249.09 -2373.86 -5110.53 -5017.26 -4926.36 -4995.73 -5047.66 -5058.69 -4684.74 -3545.00 -1912.41 -592.02 -209.12 -159.73 -163.70 -191.27 -259.05 -343.00 -447.79 -633.65 -897.32 -1191.82 -1394.33 -1758.89 -1974.84 -2162.67 -2360.64 -2542.98 -2632.66 -2770.99 -2826.67 -2826.85
-5849.74 -5849.63 -5854.20 -5854.10 -5859.52 -5861.11 -5862.17 -5873.61 -5860.23 -5826.62 -5602.42 -5203.50 -4111.79 -3457.09 -2904.16 -2609.59 -2589.23 -2582.37 -2458.40 -2277.98 -2161.54 -2100.54 -2106.17 -2175.89 -1196.76 -321.82 -269.84 -191.21 -149.75 -121.80 -63.66 -22.21 7.08 21.52 34.43 45.54 70.87 108.96 142.31 163.13 188.23 182.86 149.22 116.85 68.83 52.41 45.57 35.81 26.82 10.22 6.04 -7.69 -25.18 -43.26 -49.11 -42.72 -33.74 -24.09 -14.76 -6.70 -9.98 -21.75 -7.95 1.06 11.94 20.08 28.82 33.53 37.06 41.56 51.36 54.22 61.01 71.41 81.79 89.27 97.99 118.66 131.48 146.40 165.51 186.81 210.74 229.52 246.00 260.34 275.07 295.93 313.20 322.78 331.17 339.65 345.65 352.58 352.70 353.13 358.05 350.32 350.91 353.83 350.80 307.57 296.55 224.70 187.90 135.75 105.90 70.18 19.68 -25.07 -2320.17 -4985.51 -4752.99 -4840.06 -4961.57 -4974.09 -4834.41 -4243.45 -2289.27 -866.36 -330.96 -203.44 -157.61 -159.89 -188.12 -262.71 -425.67 -523.57 -694.57 -879.41 -1254.45 -1503.40 -1790.42 -2000.80 -2170.89 -2343.34 -2552.59 -2755.06 -2972.96 -3030.92 -3031.15
-5882.38 -5882.27 -5880.47 -5859.88 -5846.89 -5831.01 -5760.68 -5731.69 -5712.48 -5303.55 -4818.36 -4307.45 -3601.50 -2715.82 -2462.23 -2312.80 -2395.84 -2449.75 -2381.50 -2165.17 -2108.84 -2120.68 -2137.37 -2114.02 -1236.67 -334.20 -287.47 -218.04 -154.00 -122.59 -57.38 -13.72 6.01 16.89 35.06 59.93 92.72 111.12 145.80 181.09 177.92 129.46 95.70 88.21 55.40 43.70 30.84 23.13 19.90 12.89 2.94 -20.88 -32.22 -45.25 -49.48 -43.55 -23.65 -8.92 1.07 10.72 9.89 -2.95 0.62 9.37 12.90 19.72 25.82 32.00 35.59 39.88 44.49 50.20 59.13 65.10 74.67 86.16 97.34 114.50 124.52 144.46 158.54 184.70 203.31 224.30 238.48 258.13 277.79 289.63 312.49 320.80 331.67 342.84 352.57 370.00 371.73 371.89 371.12 358.23 350.21 324.23 312.05 267.06 241.30 203.77 130.60 95.18 90.44 48.57 -8.26 -647.24 -2711.05 -4637.96 -4464.55 -4744.11 -4882.39 -4851.29 -4454.38 -3779.59 -1644.83 -464.91 -254.34 -164.00 -171.17 -190.75 -206.85 -305.66 -418.50 -648.58 -762.01 -993.19 -1427.97 -1668.76 -1907.91 -2087.70 -2216.10 -2287.88 -2563.54 -2674.56 -3093.12 -3186.45 -3186.65
-5873.66 -5872.46 -5785.97 -5592.53 -5548.71 -5535.14 -5353.35 -4971.70 -4786.17 -4385.77 -3708.98 -2980.54 -2860.72 -2537.34 -2357.10 -2293.63 -2303.84 -2280.81 -2119.38 -1800.34 -1882.93 -1856.36 -1920.46 -1818.98 -1212.87 -452.59 -278.28 -217.84 -164.21 -129.97 -56.21 -11.53 1.48 27.68 55.40 70.70 119.16 138.75 158.75 151.43 142.77 119.66 65.44 53.37 48.02 35.44 20.71 17.38 13.82 0.80 -4.63 -21.06 -35.84 -51.57 -55.32 -51.81 -22.64 4.17 28.65 39.12 21.52 6.96 6.17 11.21 15.16 20.51 23.04 29.63 31.64 35.98 37.44 44.97 55.01 61.86 69.56 79.02 92.01 101.41 125.43 144.96 159.43 177.66 194.84 212.41 237.25 255.39 276.73 286.17 307.07 320.54 334.51 348.71 361.39 382.18 388.85 385.22 378.30 361.90 342.02 311.89 294.61 243.91 203.43 141.49 96.49 82.88 48.52 29.05 -54.61 -801.28 -2401.39 -4104.80 -4307.48 -4604.23 -4877.87 -4865.29 -3788.26 -2720.54 -900.88 -423.00 -179.65 -177.40 -188.89 -208.96 -267.29 -385.02 -556.05 -714.48 -831.89 -1106.22 -1524.30 -1878.71 -2053.35 -2121.76 -2266.08 -2373.09 -2548.92 -2751.48 -3087.35 -3429.44 -3429.76
-5372.30 -5372.80 -4992.83 -4920.48 -4779.31 -4399.40 -4185.07 -3746.20 -3328.56 -2995.74 -2939.94 -2676.65 -2506.09 -2419.27 -2389.74 -2368.24 -2319.68 -2179.32 -1926.99 -1610.67 -1307.98 -1178.05 -1459.37 -1471.83 -753.77 -344.56 -292.07 -234.93 -169.19 -135.38 -69.85 -18.80 6.56 33.80 61.98 111.56 149.99 166.31 158.99 140.72 117.62 97.38 58.60 43.58 34.90 20.39 19.17 9.74 2.15 -10.70 -19.57 -28.33 -42.77 -57.34 -59.56 -45.96 -24.93 0.95 34.53 43.66 29.23 16.56 10.07 12.43 15.55 22.68 25.11 27.06 28.99 31.55 34.20 44.91 49.83 60.45 67.57 80.46 93.92 101.43 115.86 133.35 154.71 176.33 194.32 209.45 240.26 254.69 271.59 284.81 303.26 319.17 331.33 353.28 368.54 384.08 390.12 387.98 377.21 360.76 333.17 293.98 264.97 219.47 173.35 140.11 95.73 71.31 23.19 -60.54 -230.30 -1467.90 -2851.37 -3459.46 -4256.89 -4675.77 -4839.67 -4804.40 -3653.12 -1931.42 -642.19 -310.59 -152.02 -177.85 -200.89 -225.63 -266.23 -353.92 -558.28 -778.81 -1021.71 -1361.46 -1507.20 -1799.88 -2013.46 -2217.45 -2368.09 -2509.06 -2766.59 -2928.66 -3224.41 -3442.93 -3443.01
-3901.59 -3903.61 -3870.83 -3561.69 -3616.38 -3031.19 -2971.09 -2737.70 -2703.48 -2541.62 -2439.84 -2420.03 -2407.74 -2402.08 -2403.42 -2411.49 -2380.44 -2239.52 -1857.80 -1536.03 -1051.75 -952.37 -969.86 -946.72 -438.79 -315.80 -283.74 -214.01 -169.69 -140.54 -102.30 -25.65 -3.76 38.45 73.65 119.17 145.09 117.20 115.03 110.52 88.30 76.97 41.01 29.45 20.61 16.66 11.84 2.61 -3.49 -29.49 -32.96 -48.08 -48.70 -64.84 -65.39 -55.39 -47.23 -7.81 11.62 33.06 36.45 18.06 15.71 16.37 18.65 22.19 24.59 26.04 27.93 28.62 29.93 37.18 44.76 50.48 66.65 73.38 82.85 102.88 108.47 131.82 150.46 181.61 200.59 214.02 235.76 254.43 268.46 285.21 293.08 316.94 327.13 347.10 369.64 377.87 382.03 377.09 365.68 340.21 309.15 284.26 240.79 206.36 165.60 115.96 85.01 38.66 -4.54 -288.30 -640.58 -2167.42 -3089.21 -3554.22 -4666.43 -4873.69 -4871.60 -4406.06 -3263.58 -1613.65 -569.15 -188.31 -159.94 -187.62 -203.01 -227.02 -252.15 -344.45 -559.27 -856.20 -1117.79 -1410.22 -1653.99 -1757.46 -2110.13 -2307.20 -2476.21 -2645.10 -2875.80 -3183.86 -3277.77 -3458.98 -3459.10
-2712.95 -2715.02 -2758.51 -2864.60 -2708.98 -2636.71 -2540.60 -2463.98 -2425.17 -2403.65 -2398.23 -2394.09 -2397.48 -2404.89 -2416.85 -2439.47 -2437.33 -2349.45 -2151.35 -1651.58 -1094.65 -762.07 -672.29 -598.43 -345.80 -309.26 -263.28 -214.65 -186.53 -147.52 -123.41 -56.90 -3.06 13.25 39.09 76.47 67.35 80.44 71.57 68.03 56.36 56.10 31.33 16.37 13.81 10.46 4.40 -4.35 -18.45 -47.84 -45.79 -64.82 -68.16 -65.61 -69.20 -66.57 -59.15 -31.60 11.39 27.46 31.44 20.11 19.82 20.74 23.02 23.73 24.08 24.12 25.26 26.49 28.97 32.49 40.95 48.77 60.36 71.52 75.22 94.84 104.03 133.95 152.85 175.68 193.10 208.42 239.39 247.65 262.56 279.01 295.23 307.31 326.15 336.06 358.49 370.77 373.18 371.79 347.34 335.62 300.66 260.92 235.72 194.46 146.59 115.61 73.91 34.69 -122.82 -431.88 -855.93 -1979.13 -2780.31 -4312.96 -5355.07 -5200.23 -5149.93 -4635.76 -2805.97 -1013.43 -305.21 -190.68 -165.33 -209.05 -233.98 -253.39 -261.01 -381.78 -582.12 -925.37 -1200.68 -1403.20 -1642.07 -1963.84 -2243.10 -2382.35 -2521.85 -2682.63 -2981.67 -3189.13 -3385.37 -3480.04 -3480.17
-2431.37 -2431.95 -2469.50 -2476.40 -2449.42 -2430.71 -2428.25 -2423.86 -2410.96 -2405.40 -2403.76 -2407.18 -2414.95 -2419.94 -2436.09 -2466.64 -2455.04 -2400.61 -2261.21 -1612.35 -1425.22 -924.21 -668.41 -457.99 -348.12 -320.60 -274.81 -225.39 -198.18 -175.70 -127.40 -73.40 -18.79 -4.03 20.84 42.47 37.23 30.30 29.20 33.97 31.05 15.57 15.55 5.92 -6.89 -10.49 -12.51 -27.00 -47.57 -53.90 -59.77 -72.36 -73.15 -69.56 -74.03 -65.47 -57.33 -43.70 -3.12 23.03 34.72 35.71 23.56 24.60 24.47 23.87 23.28 23.02 22.55 23.89 27.21 29.16 36.79 42.26 50.74 71.09 80.68 96.80 108.35 135.58 153.23 163.53 190.98 207.43 224.23 240.47 260.00 273.53 287.15 308.62 312.15 343.99 353.21 360.73 361.09 344.52 335.91 317.60 271.86 247.21 212.63 170.71 129.21 100.39 70.71 25.18 -141.61 -627.01 -1700.51 -1931.14 -3588.98 -4652.99 -5288.46 -5399.43 -5238.93 -4168.54 -1815.86 -756.03 -262.58 -183.27 -200.63 -236.68 -260.62 -266.71 -304.60 -417.30 -673.25 -890.43 -1291.35 -1513.52 -1884.32 -2149.34 -2239.51 -2378.71 -2535.26 -2612.96 -2940.05 -3185.33 -3307.72 -3389.14 -3388.96
-2430.21 -2430.08 -2438.96 -2440.65 -2440.80 -2439.84 -2436.74 -2428.35 -2427.10 -2424.49 -2421.10 -2421.66 -2429.00 -2435.55 -2447.42 -2474.20 -2468.15 -2442.24 -2237.56 -1820.76 -1235.63 -906.48 -678.98 -393.54 -347.63 -330.11 -285.19 -249.80 -208.39 -188.79 -143.76 -86.78 -57.19 -22.69 -14.83 4.43 19.82 16.04 11.30 10.48 2.27 -2.41 0.98 -5.08 -25.57 -45.75 -51.07 -67.38 -72.94 -73.57 -74.74 -80.48 -80.72 -78.71 -79.38 -72.00 -59.27 -44.44 -21.69 11.27 26.74 35.08 28.55 25.81 24.87 23.03 21.76 21.80 20.15 20.11 22.49 26.81 35.69 39.29 48.28 70.78 78.05 94.66 109.46 128.43 142.89 162.59 186.86 209.57 229.68 249.54 258.41 265.89 284.41 299.04 306.07 335.90 349.73 352.64 353.55 331.31 314.84 288.56 260.31 223.01 172.79 148.86 112.46 88.04 59.26 27.41 -488.50 -1284.67 -1633.51 -2039.48 -3400.39 -4249.17 -5442.44 -5521.08 -5019.47 -3759.66 -2022.64 -609.12 -260.90 -177.89 -224.27 -248.94 -274.80 -299.71 -361.02 -457.84 -705.25 -874.43 -1171.93 -1624.78 -1925.42 -2178.19 -2303.96 -2387.98 -2508.93 -2618.91 -2808.44 -3063.09 -3227.03 -3402.67 -3402.85
-2450.74 -2450.75 -2453.35 -2458.15 -2455.59 -2453.70 -2451.49 -2459.16 -2447.36 -2443.38 -2446.33 -2440.47 -2441.49 -2444.06 -2462.99 -2479.74 -2475.47 -2373.93 -2166.96 -1803.44 -1311.58 -929.82 -724.90 -446.94 -376.91 -335.08 -324.77 -271.94 -222.61 -200.89 -165.71 -144.45 -116.31 -73.81 -49.14 -13.60 -11.56 -11.71 -10.88 -13.57 -12.59 -32.14 -40.38 -33.56 -49.00 -72.72 -72.00 -84.60 -85.01 -83.28 -86.26 -86.41 -86.21 -85.17 -83.91 -74.38 -60.11 -38.92 -28.80 7.26 30.72 36.83 38.08 30.67 28.56 22.13 19.11 18.21 18.06 17.85 19.67 23.78 28.63 38.62 44.54 59.07 71.12 88.01 107.41 125.10 149.22 168.34 188.89 200.62 233.70 244.23 253.49 264.84 280.48 290.90 298.39 326.00 344.56 340.46 331.43 315.87 283.72 259.55 231.49 186.40 152.44 127.54 101.03 68.48 44.45 -332.82 -1342.02 -1561.09 -1742.18 -2036.29 -3335.87 -4695.86 -5288.82 -5489.57 -4974.40 -3337.15 -1675.58 -340.69 -140.26 -142.70 -219.82 -252.58 -283.85 -315.71 -399.30 -501.55 -611.18 -866.36 -1213.35 -1527.94 -1818.90 -2098.36 -2234.17 -2302.58 -2452.31 -2612.78 -2770.56 -3019.57 -3181.00 -3416.34 -3416.37
-2480.17 -2480.84 -2487.07 -2485.77 -2495.62 -2483.71 -2480.66 -2477.59 -2460.54 -2455.57 -2476.17 -2480.25 -2475.24 -2473.30 -2476.57 -2486.43 -2450.60 -2310.48 -2079.70 -1665.16 -1014.69 -811.41 -692.29 -668.64 -522.07 -362.62 -327.50 -289.52 -244.20 -212.70 -176.39 -175.12 -153.93 -123.72 -82.27 -68.33 -54.72 -55.92 -52.94 -49.91 -52.57 -86.95 -93.91 -83.78 -95.22 -90.57 -94.52 -96.95 -95.11 -94.17 -95.10 -93.47 -90.33 -88.13 -86.05 -78.56 -62.51 -48.03 -20.85 -3.43 25.96 26.05 42.19 42.01 33.10 22.41 18.61 15.28 14.36 15.71 17.29 19.57 24.42 35.76 42.46 56.40 65.12 77.99 99.23 116.83 145.98 163.98 178.59 198.03 217.06 236.42 249.23 255.27 272.48 287.54 296.59 313.77 324.48 321.39 307.36 284.76 265.55 235.64 194.85 167.12 141.64 100.91 90.83 57.34 36.99 -706.48 -1323.21 -1536.93 -1574.41 -2112.94 -3312.40 -4903.65 -5391.73 -5437.11 -5220.39 -4141.80 -1093.72 -615.38 -168.66 -160.68 -221.65 -259.45 -291.27 -319.74 -385.65 -527.03 -663.02 -958.80 -1295.12 -1466.27 -1631.40 -1933.58 -2131.26 -2323.28 -2407.60 -2549.30 -2736.08 -2975.64 -3181.52 -3434.95 -3434.96
-2530.94 -2530.90 -2525.31 -2525.49 -2529.79 -2532.44 -2532.87 -2531.65 -2540.94 -2536.45 -2516.29 -2504.07 -2498.09 -2511.98 -2509.44 -2498.22 -2439.12 -2261.31 -1783.87 -1271.44 -919.88 -730.56 -705.58 -701.34 -646.06 -383.42 -336.62 -309.76 -284.02 -246.02 -226.29 -213.42 -193.21 -164.50 -123.97 -108.73 -96.94 -95.25 -99.54 -100.19 -92.62 -101.63 -118.22 -121.74 -104.13 -103.64 -107.58 -103.79 -105.52 -105.73 -103.55 -105.11 -102.95 -97.44 -90.66 -82.30 -69.61 -51.75 -31.41 -14.23 6.47 14.02 25.78 31.47 26.29 23.10 15.28 9.89 9.46 10.88 14.58 15.54 23.84 27.14 35.84 48.67 64.38 76.99 90.12 122.01 135.95 160.17 178.27 194.75 210.30 226.58 242.67 254.11 261.02 281.02 293.83 301.89 310.67 307.35 287.11 250.70 227.65 209.78 181.31 160.58 112.05 93.84 62.58 31.90 -355.01 -1204.08 -1394.62 -1474.62 -1532.96 -2283.50 -3146.58 -5218.25 -5380.60 -5545.84 -5365.48 -4173.57 -2282.51 -1140.81 -396.08 -236.35 -256.36 -270.72 -302.44 -337.10 -403.15 -507.49 -736.58 -974.11 -1275.16 -1432.04 -1729.97 -1904.97 -2127.82 -2308.76 -2403.02 -2510.09 -2688.32 -3029.80 -3242.75 -3456.72 -3456.44
-2549.48 -2549.41 -2548.92 -2553.08 -2551.79 -2553.90 -2544.33 -2545.40 -2558.90 -2552.66 -2549.67 -2543.43 -2539.83 -2533.84 -2525.64 -2503.08 -2427.45 -2185.63 -1548.70 -1197.24 -908.39 -725.02 -687.04 -708.76 -696.89 -470.69 -374.04 -343.56 -298.31 -267.28 -259.54 -238.94 -217.03 -197.58 -156.59 -135.88 -145.57 -145.63 -149.99 -155.21 -146.95 -144.42 -134.68 -137.53 -132.17 -125.40 -122.40 -117.27 -120.90 -120.72 -117.00 -112.47 -108.83 -103.21 -95.29 -87.41 -75.61 -62.50 -45.45 -28.95 -10.73 1.29 11.32 5.49 2.98 8.92 1.82 4.49 4.88 7.26 9.95 13.59 18.54 23.77 33.33 45.31 59.47 76.86 83.83 99.81 132.63 143.37 174.86 182.63 209.50 219.54 231.49 247.48 257.38 269.46 285.03 294.46 296.85 289.40 272.15 242.31 210.24 181.96 168.71 133.20 100.64 76.09 47.09 -14.06 -595.29 -1512.00 -1488.79 -1442.06 -1628.87 -2551.07 -3732.09 -5103.50 -5515.55 -5556.03 -5442.52 -4704.46 -3411.99 -1840.08 -1285.96 -256.39 -295.57 -298.74 -319.29 -362.15 -407.43 -567.34 -810.19 -1081.35 -1274.80 -1515.05 -1776.68 -1981.01 -2124.35 -2273.48 -2401.68 -2593.91 -2907.17 -3268.64 -3472.88 -3591.01 -3590.75
-2562.37 -2562.30 -2565.48 -2572.15 -2571.54 -2562.01 -2544.75 -2511.90 -2540.80 -2516.79 -2533.39 -2544.58 -2550.15 -2544.80 -2540.46 -2511.25 -2411.04 -2242.53 -1669.93 -1266.24 -978.90 -773.81 -704.89 -695.73 -700.35 -592.42 -529.74 -342.30 -327.03 -309.16 -290.47 -268.69 -239.16 -232.32 -218.01 -189.63 -173.97 -175.71 -174.29 -175.06 -183.22 -183.97 -176.28 -163.34 -155.83 -148.41 -139.81 -141.92 -136.82 -137.13 -128.80 -127.76 -119.89 -110.00 -102.94 -93.12 -76.69 -65.88 -56.66 -40.38 -30.67 -22.90 -12.41 -10.02 -10.92 -11.91 0.95 1.44 0.06 3.50 5.15 9.34 12.41 18.91 31.50 41.25 52.60 67.37 81.23 106.10 128.57 148.72 168.49 178.71 196.02 214.78 226.29 239.56 254.43 268.35 277.22 282.12 277.29 268.74 254.55 232.38 200.59 155.31 133.57 107.71 95.01 59.60 39.22 -55.77 -785.94 -1517.79 -1473.26 -1433.91 -1584.56 -2761.27 -4098.32 -4937.84 -5530.51 -5575.87 -5568.80 -5329.64 -4726.62 -2836.09 -1765.25 -880.14 -355.70 -322.23 -340.92 -400.38 -498.88 -677.31 -952.36 -1211.90 -1368.68 -1610.98 -1860.06 -1980.92 -2162.70 -2312.45 -2440.66 -2688.32 -2994.35 -3337.28 -3645.13 -3773.94 -3773.93
-2575.65 -2575.58 -2579.94 -2580.55 -2552.03 -2554.88 -2558.24 -2536.88 -2551.47 -2548.90 -2552.20 -2501.57 -2462.78 -2520.15 -2543.33 -2523.92 -2461.80 -2370.15 -2018.67 -1706.96 -1200.42 -937.72 -783.54 -707.86 -713.05 -691.53 -547.48 -456.11 -370.91 -322.85 -313.37 -279.23 -262.42 -246.72 -229.82 -232.96 -209.50 -212.70 -198.41 -203.72 -212.33 -195.54 -185.51 -192.29 -174.37 -168.18 -163.77 -162.96 -156.65 -154.90 -144.03 -135.79 -125.52 -116.81 -109.24 -98.48 -80.10 -66.61 -53.14 -48.43 -44.36 -37.57 -32.91 -26.37 -29.23 -23.88 -10.28 -5.05 -4.64 -2.58 1.34 5.66 9.33 20.51 26.05 37.09 48.40 60.75 74.82 100.89 130.53 142.18 154.72 170.97 188.06 211.39 226.42 239.01 254.61 266.67 272.40 267.86 259.11 232.21 216.91 169.40 152.28 129.44 110.87 97.87 77.98 35.33 -6.80 -108.60 -1198.48 -1475.54 -1413.99 -1434.42 -1568.92 -2685.93 -4047.04 -5265.27 -5517.62 -5585.40 -5598.48 -5520.08 -5335.47 -4611.64 -2871.84 -1769.77 -572.08 -391.66 -367.23 -400.65 -597.13 -855.94 -944.50 -1360.20 -1463.44 -1644.99 -1911.42 -2091.43 -2229.44 -2306.22 -2423.17 -2645.33 -2997.18 -3321.56 -3699.17 -3836.83 -3837.02
-2589.25 -2590.13 -2594.78 -2557.07 -2536.82 -2576.48 -2577.85 -2583.66 -2602.39 -2589.43 -2570.20 -2547.84 -2528.45 -2546.37 -2540.82 -2530.50 -2488.15 -2391.16 -2184.63 -1951.27 -1692.80 -1234.18 -945.35 -747.35 -714.60 -713.18 -648.84 -591.59 -531.58 -433.89 -317.77 -307.53 -287.55 -273.07 -267.63 -266.18 -241.29 -242.28 -246.37 -233.82 -235.59 -228.44 -221.83 -225.35 -214.74 -201.73 -174.69 -179.58 -173.11 -164.55 -152.00 -138.33 -133.49 -119.60 -113.77 -92.96 -75.83 -64.03 -53.08 -55.19 -53.57 -50.51 -44.62 -38.36 -36.86 -35.02 -25.43 -19.58 -6.81 -5.84 -3.86 -1.10 5.34 14.86 24.51 35.90 49.60 59.96 78.38 93.95 116.83 135.62 151.02 170.52 183.10 195.78 234.42 248.54 260.46 268.80 268.09 251.22 231.92 211.21 175.95 149.38 123.10 98.35 89.72 67.66 51.13 35.14 13.65 -492.17 -1245.77 -1435.58 -1397.15 -1466.24 -1724.72 -2816.92 -4397.32 -5195.76 -5534.12 -5585.15 -5609.97 -5607.05 -5423.73 -5055.59 -3555.74 -1847.48 -674.76 -401.19 -395.38 -454.77 -580.13 -804.30 -994.86 -1363.65 -1665.62 -1876.92 -1993.47 -2100.06 -2219.43 -2299.53 -2391.34 -2588.70 -2924.30 -3162.38 -3551.65 -3748.70 -3748.77
-2601.52 -2601.45 -2556.92 -2599.10 -2583.82 -2590.20 -2612.89 -2609.49 -2604.33 -2601.29 -2597.17 -2583.19 -2563.74 -2548.29 -2529.81 -2527.30 -2507.24 -2497.09 -2389.50 -2314.54 -1971.47 -1488.63 -1134.27 -849.54 -742.95 -709.29 -721.74 -709.84 -640.16 -534.33 -416.74 -360.57 -360.86 -295.54 -284.27 -280.36 -272.33 -267.27 -267.32 -268.67 -268.15 -263.58 -257.93 -249.03 -237.37 -222.20 -200.46 -194.40 -189.69 -175.47 -159.05 -147.42 -141.08 -121.81 -104.08 -90.37 -70.80 -50.12 -52.68 -61.42 -62.91 -60.26 -54.39 -48.86 -50.05 -48.43 -40.46 -35.66 -28.46 -19.31 -6.92 -4.39 3.08 7.59 20.99 33.85 45.24 61.81 72.13 92.25 110.57 124.35 147.00 173.82 186.88 201.40 237.73 258.64 267.87 268.89 264.23 238.77 203.93 175.13 159.15 123.96 117.37 94.24 76.95 47.67 29.00 -92.34 -453.41 -1036.65 -1373.91 -1409.80 -1395.09 -1546.84 -2205.42 -3179.76 -4720.47 -5312.90 -5547.28 -5587.26 -5609.71 -5631.90 -5552.61 -5248.40 -3665.17 -2372.44 -749.90 -437.44 -410.67 -493.58 -606.19 -855.36 -1238.89 -1489.21 -1805.03 -1963.28 -2063.81 -2138.82 -2277.23 -2330.55 -2420.74 -2598.52 -2885.98 -3230.40 -3448.06 -3759.11 -3759.18
-2608.70 -2609.55 -2591.58 -2584.18 -2603.51 -2621.78 -2625.28 -2608.62 -2609.41 -2590.79 -2594.98 -2587.52 -2565.73 -2558.53 -2533.50 -2479.90 -2505.03 -2497.04 -2469.27 -2343.13 -2228.45 -1839.41 -1153.48 -938.47 -744.61 -710.00 -722.62 -744.53 -742.61 -640.60 -543.54 -550.91 -424.12 -360.79 -335.75 -315.53 -297.69 -300.31 -309.35 -307.85 -305.20 -298.08 -280.02 -263.32 -251.40 -235.07 -222.87 -212.31 -199.65 -177.20 -167.44 -151.11 -137.64 -120.77 -92.87 -75.89 -52.02 -40.09 -42.37 -61.83 -69.07 -69.07 -66.51 -61.32 -57.50 -53.14 -51.26 -52.96 -40.31 -28.62 -13.77 -12.79 -1.37 5.47 15.23 29.21 41.53 59.60 67.56 84.85 99.72 116.54 124.21 159.12 178.06 200.59 229.58 254.68 264.58 265.01 226.02 196.74 168.26 155.32 134.05 103.22 83.47 75.10 57.78 35.31 -38.80 -291.63 -844.19 -1284.22 -1330.09 -1387.81 -1453.31 -1579.39 -1966.08 -3411.19 -5091.63 -5397.06 -5547.82 -5578.40 -5608.38 -5644.40 -5569.90 -5352.86 -3823.77 -2321.09 -885.54 -435.76 -425.84 -525.53 -723.83 -938.17 -1104.19 -1490.60 -1802.98 -2005.18 -2124.99 -2206.65 -2282.79 -2383.81 -2503.54 -2711.33 -2850.42 -3447.17 -3642.74 -3809.22 -3809.03
-2606.48 -2606.40 -2609.69 -2601.86 -2636.62 -2638.43 -2635.69 -2626.19 -2608.54 -2593.53 -2591.34 -2582.32 -2570.87 -2560.36 -2544.28 -2463.90 -2489.51 -2510.80 -2497.23 -2440.55 -2343.49 -1936.67 -1464.17 -1080.14 -792.93 -717.80 -710.45 -723.30 -732.85 -722.20 -723.03 -726.63 -653.95 -576.81 -461.56 -458.47 -432.60 -419.40 -407.27 -392.70 -442.05 -352.25 -312.48 -288.69 -282.30 -266.97 -243.79 -222.03 -210.06 -187.93 -175.97 -155.63 -138.78 -115.14 -79.15 -67.46 -35.07 -32.18 -43.36 -67.36 -78.56 -80.03 -78.55 -72.80 -65.55 -61.76 -60.22 -53.01 -47.64 -32.20 -27.87 -16.91 -5.85 8.54 16.48 29.27 37.12 50.68 57.34 73.79 87.24 107.55 120.25 142.84 169.62 192.06 213.75 238.49 262.15 260.73 231.13 217.59 146.26 112.27 106.86 100.11 68.61 50.79 38.32 -106.54 -431.42 -704.85 -1181.97 -1369.46 -1362.34 -1367.24 -1455.08 -1508.33 -2459.45 -3684.41 -4936.79 -5550.23 -5555.81 -5575.51 -5609.64 -5635.87 -5567.45 -5199.21 -3423.32 -2043.11 -693.58 -418.88 -459.00 -622.31 -744.01 -993.63 -1447.88 -1597.49 -1932.53 -2115.27 -2180.83 -2262.91 -2329.21 -2408.94 -2490.92 -2761.35 -3185.38 -3601.44 -3842.63 -4142.07 -4142.15
-2602.62 -2602.50 -2616.76 -2633.44 -2638.00 -2634.00 -2631.12 -2620.42 -2608.05 -2593.37 -2591.19 -2588.41 -2583.23 -2581.36 -2555.30 -2492.48 -2491.26 -2518.90 -2499.03 -2478.17 -2285.00 -1974.63 -1467.24 -1025.89 -756.39 -728.75 -720.75 -745.32 -751.30 -744.29 -759.21 -762.68 -791.32 -750.55 -644.68 -608.53 -614.98 -651.12 -648.89 -632.94 -600.11 -477.46 -332.21 -319.41 -302.67 -281.10 -264.27 -245.68 -220.93 -197.09 -179.32 -156.20 -135.08 -104.59 -73.60 -53.28 -31.71 -34.67 -66.50 -76.66 -88.60 -90.20 -90.67 -84.28 -74.45 -69.61 -67.60 -66.83 -57.64 -45.99 -35.12 -24.69 -5.12 8.03 15.32 22.20 32.53 40.46 44.48 61.20 74.63 92.92 114.18 132.72 164.25 183.88 204.11 235.45 248.59 219.41 202.25 186.21 134.11 81.64 67.20 48.24 37.38 27.73 -51.83 -623.58 -1421.61 -1390.38 -1323.25 -1304.86 -1358.68 -1387.53 -1447.70 -1767.02 -2673.16 -3703.57 -4835.83 -5454.44 -5559.00 -5571.58 -5606.01 -5606.24 -5399.07 -4954.33 -3033.86 -1918.55 -511.87 -413.88 -500.28 -776.59 -995.70 -1184.54 -1625.08 -1957.41 -2077.13 -2203.96 -2237.09 -2329.69 -2403.77 -2419.30 -2614.68 -2935.13 -3332.39 -3806.12 -4062.40 -4163.48 -4163.80
-2552.64 -2552.57 -2591.93 -2629.03 -2662.34 -2656.41 -2648.75 -2632.37 -2609.99 -2600.46 -2599.54 -2605.71 -2607.23 -2600.99 -2570.19 -2538.57 -2506.94 -2529.55 -2508.33 -2455.42 -2181.86 -1941.06 -1400.22 -981.22 -814.89 -844.85 -958.32 -887.92 -876.56 -900.28 -866.07 -862.73 -934.65 -795.86 -776.02 -686.04 -672.90 -695.48 -691.22 -684.34 -656.57 -533.62 -420.94 -358.77 -323.94 -313.35 -286.11 -254.81 -228.88 -204.68 -181.75 -156.19 -117.56 -91.97 -57.31 -51.57 -52.27 -68.38 -82.56 -93.69 -100.55 -101.49 -95.10 -98.77 -96.61 -90.71 -81.68 -82.00 -72.76 -65.20 -46.19 -36.55 -15.09 -2.39 10.80 17.04 27.67 33.52 39.16 52.17 67.78 80.73 92.90 104.00 133.39 153.30 181.28 216.30 224.76 216.56 208.24 137.19 102.17 59.64 35.87 32.53 18.62 -39.05 -388.16 -1221.46 -1421.53 -1383.83 -1339.81 -1318.59 -1352.55 -1420.56 -1504.37 -1974.68 -3017.74 -4259.59 -4953.88 -5487.48 -5552.91 -5566.26 -5591.75 -5605.03 -5486.62 -4592.00 -2866.33 -1401.62 -548.73 -467.92 -671.31 -945.32 -1322.83 -1638.89 -1941.43 -2141.58 -2198.64 -2276.23 -2292.76 -2340.38 -2423.94 -2487.71 -2620.94 -2797.76 -3253.59 -3880.73 -4176.78 -4257.00 -4257.07
-2580.98 -2592.17 -2636.22 -2646.45 -2669.19 -2676.28 -2656.95 -2639.24 -2626.85 -2622.15 -2615.65 -2616.05 -2622.87 -2608.27 -2585.37 -2560.55 -2546.28 -2553.50 -2521.13 -2428.92 -2200.72 -1794.04 -1370.52 -1110.54 -1110.23 -1132.15 -1158.11 -1224.89 -1328.04 -1249.49 -1302.50 -1322.32 -1318.41 -1191.71 -910.91 -730.65 -704.65 -704.28 -709.34 -704.52 -698.07 -659.71 -559.60 -494.61 -356.49 -319.23 -290.32 -267.35 -223.68 -212.67 -172.06 -146.08 -115.09 -83.67 -71.50 -74.96 -76.94 -94.00 -94.73 -104.71 -105.62 -112.76 -113.97 -108.53 -107.81 -101.11 -97.84 -88.13 -77.77 -75.88 -58.48 -42.64 -27.49 -8.51 8.37 10.54 15.41 22.39 29.00 36.70 54.64 72.63 82.37 95.17 115.30 124.88 171.38 193.10 205.36 199.04 210.46 165.95 83.88 41.50 33.48 7.92 -35.48 -254.23 -1081.97 -1510.88 -1417.57 -1345.51 -1346.56 -1329.04 -1385.92 -1462.89 -1541.06 -2210.68 -3030.67 -4651.27 -5360.75 -5530.43 -5540.61 -5560.57 -5590.65 -5580.98 -5263.93 -4905.76 -2259.09 -732.72 -485.80 -626.32 -781.85 -1097.09 -1557.11 -1992.11 -2123.48 -2258.33 -2273.91 -2303.40 -2330.25 -2361.38 -2407.41 -2531.07 -2797.87 -3051.79 -3493.43 -3881.70 -4185.45 -4263.43 -4263.50
-2654.62 -2654.52 -2633.14 -2639.40 -2668.32 -2687.04 -2682.58 -2665.89 -2648.95 -2647.96 -2656.45 -2640.23 -2643.68 -2634.33 -2600.71 -2551.16 -2547.91 -2567.34 -2564.94 -2482.04 -2311.75 -1894.55 -1595.60 -1448.22 -1445.07 -1561.25 -1632.37 -1719.11 -1735.44 -1898.89 -1863.14 -1740.27 -1835.17 -1382.88 -957.65 -778.72 -746.40 -728.51 -729.01 -735.31 -776.66 -754.90 -674.03 -597.06 -431.46 -339.22 -306.64 -272.98 -238.51 -208.08 -163.82 -135.24 -104.34 -74.24 -68.53 -87.58 -103.17 -113.65 -119.08 -124.89 -126.22 -129.55 -128.87 -124.16 -119.07 -109.70 -100.85 -91.10 -83.78 -80.95 -63.86 -50.37 -44.19 -19.57 -0.17 4.75 8.40 12.83 18.90 28.54 44.72 53.51 67.35 77.38 86.42 106.09 143.74 157.22 181.39 187.16 161.67 106.33 82.57 27.68 18.28 -10.65 -72.05 -482.45 -1488.68 -1508.36 -1399.15 -1363.29 -1385.47 -1392.23 -1476.37 -1611.41 -2025.80 -2837.07 -3830.79 -4905.75 -5427.95 -5488.12 -5536.12 -5561.71 -5592.47 -5514.41 -5235.23 -4022.30 -1784.85 -760.65 -501.22 -611.93 -930.47 -1147.47 -1519.18 -1948.21 -2062.43 -2229.74 -2294.17 -2322.65 -2340.95 -2364.68 -2543.36 -2674.92 -3069.83 -3315.72 -3747.10 -4022.57 -4195.14 -4266.12 -4266.20
-2629.82 -2629.79 -2647.85 -2669.36 -2685.43 -2696.02 -2701.32 -2687.87 -2674.81 -2682.63 -2693.92 -2670.02 -2665.37 -2655.21 -2618.70 -2594.57 -2598.32 -2619.28 -2607.87 -2531.87 -2423.15 -2230.41 -2067.91 -2012.42 -1983.76 -2243.02 -2287.07 -2281.45 -2377.96 -2332.50 -2374.04 -2389.07 -2342.16 -1652.04 -1166.88 -952.87 -803.25 -785.39 -809.64 -828.13 -833.95 -752.05 -702.28 -617.50 -511.86 -356.25 -321.23 -294.75 -250.03 -216.90 -181.69 -142.04 -106.40 -95.90 -97.71 -132.65 -146.11 -143.24 -145.01 -145.43 -146.79 -151.56 -145.36 -134.08 -128.75 -110.50 -104.34 -99.90 -87.76 -86.38 -81.88 -73.88 -50.88 -27.00 -21.28 -9.65 4.26 7.94 16.96 28.65 38.03 41.47 54.03 59.18 72.53 83.00 112.73 130.53 141.88 130.90 109.18 89.02 39.63 12.43 -293.11 -145.56 -294.40 -984.87 -1499.85 -1422.10 -1393.38 -1425.93 -1496.01 -1539.53 -1651.02 -2086.16 -2414.86 -3594.67 -4681.73 -5206.68 -5392.10 -5467.50 -5524.02 -5557.41 -5589.47 -5504.00 -5132.08 -3373.64 -1661.52 -733.54 -497.80 -592.83 -940.75 -1389.73 -1608.85 -1875.58 -2110.37 -2228.61 -2307.42 -2344.90 -2381.50 -2449.39 -2573.78 -2731.55 -3105.88 -3621.71 -3852.55 -4113.92 -4205.94 -4263.48 -4263.55
-2685.94 -2685.87 -2657.61 -2639.37 -2665.66 -2699.03 -2706.27 -2699.63 -2700.81 -2696.44 -2699.63 -2696.18 -2688.99 -2681.13 -2660.29 -2650.19 -2650.79 -2646.61 -2634.47 -2623.03 -2585.66 -2467.93 -2407.16 -2365.59 -2411.85 -2454.12 -2505.65 -2502.12 -2581.43 -2604.61 -2645.57 -2624.89 -2545.85 -2398.86 -1840.25 -1266.59 -917.50 -845.10 -880.73 -875.94 -879.87 -799.44 -724.62 -706.59 -466.23 -357.24 -331.19 -303.14 -266.66 -233.10 -198.38 -165.32 -123.04 -142.79 -157.99 -184.22 -173.41 -176.81 -166.16 -176.22 -165.10 -161.91 -160.90 -153.46 -137.45 -129.51 -115.63 -110.93 -99.50 -93.85 -88.54 -86.40 -70.60 -65.27 -48.96 -21.42 -6.47 4.81 12.08 21.98 27.77 30.53 37.20 37.53 51.28 59.61 75.99 94.76 96.24 88.70 77.85 40.00 21.15 -54.21 -486.61 -830.78 -1132.17 -1388.79 -1449.89 -1411.95 -1485.90 -1768.23 -1780.91 -2224.35 -2432.49 -2685.74 -3981.25 -4480.06 -5103.71 -5363.93 -5468.15 -5493.26 -5538.39 -5567.63 -5588.44 -5473.60 -4574.95 -3775.98 -1839.56 -726.95 -579.62 -833.44 -1075.72 -1480.96 -1668.65 -1913.42 -2102.01 -2235.79 -2312.19 -2359.71 -2418.55 -2599.71 -2663.68 -2802.01 -3186.78 -3545.39 -3894.67 -4111.75 -4213.67 -4268.21 -4268.27
