-5024.13 -5024.00 -5087.27 -5154.19 -5187.04 -5198.86 -5207.64 -5217.38 -5231.97 -5240.47 -5243.78 -5246.35 -5249.72 -5252.53 -5267.32 -5278.53 -5289.80 -5297.86 -5304.60 -5313.81 -5313.64 -5311.93 -5299.97 -5298.85 -5302.77 -5312.16 -5317.77 -5326.88 -5332.37 -5339.99 -5344.88 -5345.43 -5346.36 -5346.34 -5358.18 -5381.09 -5396.95 -5412.20 -5421.93 -5427.23 -5432.64 -5436.58 -5439.81 -5443.78 -5448.35 -5451.97 -5456.37 -5457.90 -5452.33 -5434.99 -5416.34 -5413.92 -5413.70 -5415.13 -5419.94 -5433.54 -5434.42 -5429.40 -5423.46 -5416.58 -5410.53 -5402.80 -5397.69 -5392.49 -5388.92 -5387.75 -5385.01 -5384.20 -5382.77 -5378.03 -5375.39 -5374.87 -5375.02 -5375.01 -5374.92 -5360.06 -5320.93 -5217.15 -5155.30 -4756.49 -4208.73 -3485.12 -2913.92 -2369.09 -2236.37 -2449.90 -3744.17 -5892.02 -6170.67 -6187.25 -5973.48 -5728.04 -5392.10 -5180.29 -4818.99 -4727.98 -4460.44 -3598.06 -2346.13 -1748.01 -997.21 -784.27 -716.42 -967.33 -1655.72 -2668.35 -3948.83 -6587.90 -8284.88 -8583.20 -8611.01 -8630.70 -8661.54 -8614.15 -8043.99 -5723.77 -3968.70 -2371.31 -2112.67 -2078.26 -2109.36 -2137.39 -2152.89 -2155.49 -2149.95 -2143.63 -2115.27 -2106.65 -2095.30 -2123.82 -2292.99 -2687.13 -3024.60 -3309.84 -3608.29 -3735.46 -3867.14 -3943.19 -3967.97 -3948.02 -3948.03
-5011.88 -5011.79 -5075.44 -5127.28 -5176.99 -5197.46 -5213.19 -5222.97 -5238.89 -5249.97 -5251.82 -5254.08 -5256.49 -5262.41 -5271.63 -5288.00 -5299.84 -5302.32 -5311.11 -5318.35 -5321.04 -5316.70 -5303.71 -5303.50 -5309.66 -5317.08 -5325.14 -5330.31 -5336.42 -5342.25 -5345.59 -5347.31 -5346.96 -5348.01 -5364.60 -5382.83 -5397.71 -5415.61 -5421.59 -5425.23 -5431.84 -5437.04 -5438.08 -5443.74 -5447.80 -5451.77 -5454.85 -5456.74 -5455.42 -5432.24 -5417.35 -5413.95 -5413.52 -5415.35 -5421.44 -5430.53 -5434.64 -5429.29 -5419.68 -5411.74 -5405.59 -5402.29 -5395.83 -5389.55 -5385.32 -5384.23 -5382.47 -5381.05 -5380.66 -5378.82 -5374.55 -5374.63 -5375.12 -5374.82 -5360.55 -5295.87 -5239.96 -5068.06 -4902.40 -4534.35 -3904.50 -3288.49 -2648.19 -2290.54 -2216.99 -2706.54 -4836.35 -5849.88 -6219.37 -6164.55 -5823.77 -5531.76 -5077.39 -4784.42 -4622.66 -4505.03 -4363.00 -3231.71 -2224.39 -1467.61 -1094.47 -563.45 -641.98 -910.19 -1462.42 -2118.13 -3748.11 -6072.00 -7985.10 -8567.12 -8596.95 -8632.36 -8647.68 -8640.70 -8270.71 -6158.67 -4290.62 -2695.03 -2166.11 -2074.75 -2098.89 -2137.98 -2160.82 -2164.64 -2160.80 -2151.66 -2131.38 -2122.96 -2118.77 -2212.34 -2348.84 -2500.13 -2814.64 -2952.13 -3168.78 -3421.12 -3752.25 -3918.61 -3987.70 -3975.00 -3975.05
-5013.11 -5014.38 -5046.64 -5099.01 -5171.02 -5186.74 -5217.69 -5229.18 -5244.23 -5256.91 -5261.93 -5266.19 -5267.37 -5269.93 -5284.09 -5298.41 -5305.89 -5315.47 -5322.16 -5327.73 -5328.88 -5322.15 -5309.15 -5308.56 -5315.09 -5318.91 -5326.70 -5330.61 -5338.34 -5342.76 -5345.15 -5346.17 -5345.96 -5347.88 -5362.99 -5376.84 -5402.24 -5413.15 -5420.93 -5424.79 -5428.24 -5433.15 -5436.17 -5440.78 -5444.73 -5447.14 -5450.27 -5453.33 -5450.84 -5427.44 -5415.96 -5412.04 -5411.40 -5413.62 -5418.74 -5427.61 -5433.40 -5426.79 -5419.02 -5408.66 -5400.85 -5397.00 -5387.93 -5382.92 -5380.89 -5379.88 -5376.20 -5378.53 -5380.42 -5374.23 -5371.56 -5371.38 -5369.52 -5366.85 -5352.95 -5221.72 -5110.26 -5001.74 -4596.03 -4469.04 -3895.87 -3374.86 -2711.20 -2303.82 -2290.70 -3346.48 -5341.17 -5912.41 -6238.04 -6240.47 -5123.02 -4671.45 -4352.75 -4453.80 -4490.97 -4310.36 -4200.36 -3737.79 -2320.25 -1546.08 -984.81 -430.48 -400.80 -1019.25 -1500.68 -2006.28 -3443.02 -6091.05 -8319.33 -8565.17 -8583.16 -8605.10 -8626.33 -8636.77 -8515.74 -7581.02 -5056.77 -3183.50 -2213.26 -2095.68 -2101.08 -2149.26 -2165.62 -2173.06 -2166.04 -2164.30 -2153.30 -2135.98 -2158.14 -2251.07 -2308.81 -2414.13 -2515.08 -2692.01 -2978.97 -3292.29 -3478.21 -3802.07 -3961.99 -3995.51 -3995.37
-5016.49 -5016.84 -5025.97 -5057.51 -5156.01 -5169.63 -5217.71 -5238.22 -5255.36 -5270.49 -5271.73 -5275.22 -5277.63 -5281.99 -5293.94 -5308.48 -5315.84 -5321.58 -5326.43 -5332.03 -5331.69 -5325.18 -5314.12 -5310.48 -5315.74 -5320.22 -5325.06 -5330.41 -5336.06 -5337.65 -5339.98 -5340.13 -5342.29 -5343.01 -5356.11 -5371.44 -5395.53 -5405.51 -5411.76 -5417.68 -5418.33 -5426.69 -5426.26 -5429.15 -5434.80 -5440.35 -5443.33 -5442.05 -5437.41 -5428.88 -5413.97 -5409.44 -5410.11 -5411.47 -5414.05 -5421.78 -5431.65 -5425.25 -5411.76 -5403.62 -5397.41 -5388.34 -5383.34 -5378.97 -5372.46 -5369.58 -5370.04 -5373.11 -5376.72 -5372.72 -5367.53 -5368.55 -5370.58 -5361.42 -5293.89 -5131.26 -4982.54 -4813.28 -4476.34 -4138.82 -3703.96 -3340.91 -2696.18 -2325.20 -2457.33 -4056.14 -4992.40 -6131.94 -6104.09 -5896.87 -4506.62 -2998.53 -3210.92 -4287.67 -4207.03 -4105.28 -4097.73 -3739.03 -2825.07 -1555.12 -867.80 -401.52 -407.27 -979.81 -1581.51 -2328.74 -3379.01 -5447.73 -6958.39 -8096.88 -8574.25 -8583.89 -8607.35 -8623.81 -8617.05 -8149.04 -5741.89 -3425.18 -2390.45 -2156.57 -2114.89 -2144.22 -2173.89 -2185.91 -2185.40 -2180.13 -2171.14 -2176.00 -2196.55 -2221.20 -2256.08 -2300.43 -2376.75 -2551.87 -2809.32 -3032.44 -3474.09 -3679.18 -3898.87 -3998.73 -3998.75
-5023.17 -5023.11 -5030.23 -5060.61 -5102.30 -5173.77 -5220.70 -5249.58 -5266.24 -5281.19 -5291.88 -5294.30 -5291.42 -5299.98 -5304.07 -5313.16 -5317.67 -5323.07 -5327.41 -5333.33 -5332.50 -5324.56 -5312.83 -5309.94 -5312.73 -5316.61 -5320.18 -5323.71 -5331.42 -5332.21 -5331.89 -5334.13 -5335.12 -5335.15 -5341.25 -5365.29 -5378.72 -5389.25 -5397.35 -5397.95 -5402.78 -5403.09 -5411.98 -5427.84 -5425.53 -5422.80 -5426.86 -5425.90 -5427.03 -5422.59 -5410.01 -5408.42 -5408.48 -5407.58 -5408.30 -5416.90 -5425.99 -5420.85 -5411.84 -5401.23 -5390.49 -5383.66 -5381.03 -5372.60 -5368.78 -5367.15 -5366.62 -5368.04 -5370.87 -5365.42 -5361.93 -5364.93 -5367.39 -5365.64 -5297.70 -5028.91 -4857.68 -4544.48 -3992.11 -3839.36 -3468.12 -3089.57 -2570.70 -2490.43 -2883.43 -4312.97 -5814.16 -5807.91 -4974.74 -4197.39 -2272.25 -1960.89 -3151.90 -3671.10 -4025.84 -4034.62 -3994.36 -3693.48 -3585.91 -1870.42 -956.49 -569.55 -474.93 -769.01 -1351.30 -2221.39 -3034.51 -3968.86 -5489.34 -7099.32 -8207.62 -8568.70 -8592.23 -8615.28 -8609.34 -8116.75 -6357.14 -3698.23 -2646.98 -2171.01 -2126.01 -2153.16 -2180.32 -2188.11 -2197.44 -2202.68 -2197.55 -2195.54 -2202.46 -2211.78 -2226.31 -2230.25 -2283.28 -2348.04 -2606.60 -2938.46 -3283.86 -3592.08 -3808.64 -4000.21 -4000.38
-5041.42 -5041.33 -5045.27 -5058.87 -5097.88 -5160.50 -5224.47 -5259.09 -5286.91 -5301.37 -5305.57 -5310.96 -5321.60 -5319.40 -5316.35 -5313.89 -5313.56 -5319.84 -5322.62 -5327.86 -5328.05 -5318.38 -5310.25 -5306.34 -5307.74 -5311.39 -5313.64 -5316.48 -5315.75 -5319.10 -5322.40 -5323.70 -5323.69 -5325.87 -5330.04 -5335.35 -5358.19 -5371.82 -5373.40 -5376.70 -5382.89 -5390.36 -5386.42 -5380.39 -5392.28 -5398.74 -5401.46 -5406.86 -5406.07 -5409.37 -5406.45 -5406.11 -5406.76 -5405.73 -5405.73 -5410.84 -5417.96 -5412.79 -5403.77 -5396.13 -5388.32 -5382.17 -5376.70 -5369.10 -5365.02 -5363.41 -5363.80 -5361.34 -5359.97 -5359.54 -5356.63 -5360.85 -5358.10 -5354.44 -5311.65 -5143.48 -4553.40 -4311.12 -3888.01 -3592.14 -3039.34 -2750.09 -2414.16 -2879.63 -3225.28 -5835.58 -6023.78 -4939.48 -3475.68 -2029.40 -1621.81 -1734.52 -2814.93 -3489.47 -3785.89 -3891.08 -3892.06 -3613.56 -3332.02 -2076.23 -1225.14 -706.10 -553.33 -789.39 -1328.95 -1999.92 -2549.68 -2992.03 -4949.67 -6855.20 -8308.44 -8564.84 -8583.15 -8601.70 -8584.89 -8395.17 -7156.12 -5365.57 -2757.85 -2239.60 -2140.23 -2161.99 -2188.32 -2202.04 -2214.67 -2221.46 -2216.61 -2223.13 -2221.23 -2219.00 -2214.73 -2229.50 -2307.20 -2406.27 -2562.75 -2800.26 -3207.48 -3492.25 -3800.59 -3909.90 -3910.05
-5042.61 -5043.20 -5049.30 -5061.45 -5094.75 -5144.68 -5211.73 -5256.10 -5289.93 -5308.91 -5316.96 -5322.49 -5327.21 -5330.08 -5323.32 -5316.29 -5314.14 -5316.19 -5320.65 -5322.07 -5324.16 -5320.20 -5302.75 -5301.60 -5303.00 -5305.01 -5305.07 -5306.43 -5308.34 -5309.55 -5313.17 -5314.82 -5310.68 -5311.26 -5323.94 -5330.71 -5343.66 -5346.18 -5348.06 -5355.06 -5360.90 -5368.08 -5362.91 -5367.93 -5371.91 -5376.93 -5381.37 -5388.66 -5395.71 -5399.15 -5402.10 -5403.19 -5403.11 -5403.89 -5402.43 -5401.58 -5401.36 -5401.50 -5401.71 -5395.04 -5387.31 -5380.65 -5373.74 -5367.10 -5363.22 -5360.96 -5358.07 -5358.18 -5354.56 -5348.42 -5350.32 -5355.68 -5358.13 -5354.26 -5314.68 -5145.54 -4773.46 -4112.85 -3733.57 -3416.92 -2942.21 -2521.69 -2355.27 -3362.04 -4828.43 -6571.27 -6056.12 -4177.79 -2647.33 -1140.81 -982.41 -2095.90 -2642.97 -3262.20 -3667.65 -3645.43 -3665.04 -3407.90 -3147.56 -2475.21 -1380.44 -762.69 -563.49 -737.13 -1427.80 -2069.77 -2880.85 -3607.58 -5722.04 -7646.10 -8535.01 -8556.73 -8578.31 -8587.62 -8587.28 -8446.57 -7473.81 -5295.81 -2974.48 -2281.57 -2157.35 -2177.41 -2197.58 -2217.84 -2234.95 -2240.53 -2241.08 -2235.23 -2233.83 -2228.70 -2229.24 -2236.94 -2299.07 -2401.89 -2551.58 -2722.85 -3094.53 -3466.86 -3723.08 -3817.90 -3818.03
-5038.31 -5038.23 -5045.50 -5053.87 -5077.09 -5111.21 -5183.41 -5238.35 -5285.59 -5304.88 -5319.93 -5325.21 -5330.50 -5331.53 -5322.55 -5319.67 -5314.72 -5313.75 -5317.25 -5319.37 -5320.36 -5308.84 -5299.66 -5296.96 -5297.61 -5296.10 -5297.63 -5297.85 -5299.19 -5295.28 -5296.93 -5299.06 -5299.24 -5303.04 -5305.19 -5316.38 -5327.06 -5332.87 -5335.47 -5342.58 -5345.93 -5351.78 -5353.40 -5357.87 -5364.69 -5368.05 -5373.48 -5379.06 -5388.48 -5390.65 -5395.45 -5399.16 -5400.37 -5399.59 -5397.65 -5395.68 -5392.86 -5393.22 -5398.07 -5394.98 -5386.85 -5383.26 -5378.38 -5371.13 -5364.68 -5359.25 -5356.11 -5350.89 -5347.35 -5344.49 -5347.34 -5350.51 -5342.64 -5295.83 -5264.63 -5111.84 -4806.44 -4338.66 -3599.11 -3203.98 -2888.74 -2546.84 -2520.59 -3153.29 -4341.20 -7045.95 -7130.48 -3776.36 -1921.85 -773.92 -1018.98 -1810.45 -2811.86 -3123.23 -3378.36 -3167.57 -3164.06 -3192.96 -2979.93 -2375.41 -1247.01 -694.51 -435.44 -675.50 -1273.62 -1984.63 -2812.40 -4294.64 -6243.08 -7981.44 -8522.63 -8539.39 -8567.10 -8576.08 -8582.50 -8568.30 -7603.35 -5941.48 -3384.55 -2294.85 -2188.22 -2174.85 -2202.09 -2229.41 -2250.49 -2258.59 -2258.48 -2257.51 -2252.94 -2247.37 -2235.96 -2246.01 -2256.10 -2332.75 -2418.48 -2603.17 -3065.96 -3412.52 -3586.31 -3757.70 -3757.77
-5030.21 -5030.62 -5037.10 -5049.12 -5061.10 -5091.59 -5153.16 -5212.45 -5252.58 -5299.05 -5312.44 -5321.92 -5327.35 -5326.26 -5323.42 -5318.41 -5311.95 -5312.66 -5313.96 -5316.91 -5315.91 -5304.65 -5295.65 -5293.27 -5290.55 -5291.86 -5291.27 -5290.20 -5290.01 -5289.54 -5290.08 -5291.93 -5291.54 -5291.96 -5298.48 -5310.79 -5313.52 -5323.55 -5328.24 -5332.96 -5339.62 -5344.11 -5347.93 -5351.51 -5356.95 -5363.75 -5370.02 -5371.97 -5380.64 -5384.98 -5392.63 -5395.50 -5396.66 -5396.95 -5395.96 -5394.24 -5392.10 -5392.39 -5394.32 -5388.34 -5383.64 -5379.70 -5376.78 -5371.56 -5363.16 -5358.46 -5355.97 -5349.11 -5346.00 -5344.20 -5345.08 -5346.27 -5282.24 -5227.05 -5185.45 -4887.51 -4740.27 -4326.92 -3795.00 -3066.27 -2948.47 -2417.23 -2207.95 -3944.12 -5251.71 -7235.22 -6815.72 -3903.31 -1776.04 -875.69 -1136.05 -1789.07 -2353.87 -3154.44 -3101.52 -2849.86 -2654.43 -2678.46 -2481.49 -1972.45 -1117.70 -614.58 -434.76 -927.65 -1325.14 -2004.06 -2963.45 -4391.44 -6506.07 -8104.45 -8425.35 -8535.10 -8553.96 -8567.40 -8578.68 -8518.51 -8142.82 -6022.49 -3609.80 -2414.49 -2190.65 -2178.12 -2210.69 -2240.04 -2257.27 -2269.12 -2268.47 -2269.60 -2267.41 -2257.20 -2249.24 -2245.47 -2254.22 -2367.25 -2483.50 -2652.00 -2861.76 -3242.77 -3584.75 -3743.59 -3743.75
-5020.16 -5020.08 -5031.02 -5040.50 -5049.87 -5067.71 -5091.86 -5185.02 -5251.55 -5284.09 -5307.04 -5312.78 -5313.55 -5319.70 -5318.19 -5311.76 -5309.77 -5311.32 -5314.67 -5315.74 -5314.05 -5307.10 -5293.94 -5292.15 -5289.07 -5287.79 -5289.27 -5292.61 -5283.55 -5282.57 -5284.53 -5289.04 -5288.42 -5286.69 -5291.26 -5302.46 -5309.41 -5317.08 -5322.50 -5327.80 -5338.02 -5343.19 -5344.04 -5347.14 -5353.34 -5360.29 -5366.46 -5371.33 -5378.51 -5384.81 -5390.42 -5392.05 -5394.04 -5394.04 -5394.88 -5396.42 -5400.77 -5402.98 -5394.16 -5385.68 -5380.04 -5378.10 -5369.78 -5365.79 -5360.10 -5356.57 -5350.83 -5345.03 -5338.96 -5337.01 -5336.41 -5321.81 -5262.41 -5080.98 -4879.39 -4672.21 -4394.10 -4317.93 -3892.01 -3124.07 -2859.95 -2289.04 -2149.68 -2720.14 -4166.37 -6953.61 -6912.49 -4649.49 -1574.36 -1060.20 -1221.77 -1843.27 -2637.92 -2940.66 -2741.48 -2302.62 -2285.31 -2421.33 -2365.61 -1776.99 -1147.15 -781.58 -603.17 -887.07 -1352.45 -2044.68 -3099.84 -3706.23 -6476.76 -7602.72 -8193.16 -8477.64 -8550.32 -8559.98 -8574.51 -8562.48 -8461.10 -6718.19 -4664.61 -2508.74 -2233.44 -2187.98 -2210.73 -2245.31 -2264.28 -2277.24 -2284.07 -2282.49 -2276.86 -2268.01 -2257.40 -2260.31 -2280.43 -2342.56 -2485.55 -2610.44 -2865.72 -3188.20 -3543.73 -3597.77 -3611.04
-5010.44 -5010.37 -5022.27 -5031.97 -5042.25 -5057.29 -5073.27 -5108.53 -5184.98 -5235.69 -5271.29 -5291.77 -5296.15 -5303.97 -5310.22 -5308.97 -5314.13 -5318.32 -5319.59 -5320.98 -5323.22 -5318.88 -5313.45 -5312.03 -5307.27 -5309.98 -5311.43 -5302.08 -5296.16 -5297.77 -5296.11 -5297.73 -5298.66 -5298.04 -5301.13 -5307.08 -5321.85 -5325.73 -5327.05 -5333.03 -5339.76 -5346.20 -5350.37 -5350.46 -5352.86 -5362.75 -5369.25 -5374.01 -5378.14 -5384.56 -5386.47 -5389.31 -5391.44 -5392.34 -5394.28 -5403.51 -5402.51 -5402.47 -5393.41 -5382.39 -5377.00 -5375.79 -5364.14 -5361.22 -5354.17 -5350.11 -5344.37 -5337.73 -5333.33 -5328.28 -5327.47 -5294.44 -5167.02 -4883.73 -4643.31 -4244.94 -4090.61 -3908.10 -3465.57 -2952.15 -2539.21 -2130.68 -2112.02 -2540.75 -4977.46 -6415.51 -6649.81 -4754.79 -1372.53 -1071.64 -1263.30 -1794.84 -2452.31 -2611.59 -2294.53 -2049.91 -2019.75 -2028.55 -2001.17 -1622.17 -1336.94 -699.30 -726.29 -957.45 -1394.68 -2001.46 -2499.57 -3642.50 -5602.37 -6801.72 -7812.35 -8504.76 -8541.25 -8562.92 -8572.49 -8565.78 -8342.61 -7492.04 -4297.24 -2805.70 -2229.92 -2199.47 -2216.31 -2244.56 -2274.59 -2285.58 -2289.10 -2289.88 -2287.01 -2279.57 -2274.76 -2268.23 -2298.07 -2327.33 -2465.60 -2658.69 -2910.69 -3185.74 -3448.75 -3487.59 -3487.77
-5004.40 -5004.32 -5014.46 -5022.21 -5034.41 -5045.69 -5058.29 -5087.14 -5124.72 -5206.28 -5222.67 -5239.42 -5258.93 -5267.18 -5288.91 -5304.47 -5318.10 -5322.92 -5324.83 -5326.63 -5327.54 -5326.54 -5325.59 -5326.20 -5325.30 -5322.62 -5320.11 -5319.45 -5314.01 -5311.15 -5309.31 -5305.77 -5302.45 -5304.59 -5306.20 -5315.48 -5326.62 -5332.94 -5335.99 -5346.08 -5351.66 -5355.75 -5357.08 -5354.37 -5356.36 -5367.72 -5374.76 -5378.69 -5382.73 -5384.13 -5384.54 -5386.08 -5389.23 -5392.05 -5399.06 -5411.09 -5405.94 -5395.33 -5389.73 -5383.35 -5377.21 -5368.59 -5361.91 -5353.49 -5351.65 -5344.82 -5340.54 -5333.50 -5328.14 -5320.59 -5282.80 -5183.17 -5028.39 -4720.76 -4386.50 -4038.19 -3900.06 -3810.55 -3491.03 -2988.70 -2478.36 -2206.73 -2180.22 -2565.07 -4767.87 -6593.97 -6374.71 -4089.04 -1315.27 -988.10 -1238.99 -1677.34 -2100.46 -1755.62 -1746.14 -1769.95 -1769.85 -1673.06 -1643.52 -1700.21 -1311.99 -652.91 -660.91 -1238.09 -1598.79 -2289.51 -2911.22 -4114.65 -5131.72 -6746.91 -8258.69 -8471.16 -8544.65 -8561.13 -8571.19 -8563.29 -8383.47 -7173.41 -5534.68 -2849.81 -2310.77 -2219.74 -2216.74 -2241.98 -2276.05 -2288.50 -2294.64 -2293.18 -2288.82 -2285.47 -2294.72 -2290.74 -2311.65 -2337.75 -2468.07 -2644.95 -2981.62 -3150.93 -3295.37 -3312.03 -3312.16
-4991.55 -4991.70 -4999.23 -5010.67 -5021.85 -5025.10 -5046.80 -5063.91 -5099.69 -5147.74 -5181.17 -5198.22 -5205.55 -5240.53 -5268.34 -5300.49 -5314.72 -5321.13 -5324.68 -5327.21 -5328.43 -5329.51 -5329.30 -5328.65 -5327.91 -5327.27 -5324.11 -5320.77 -5316.09 -5311.85 -5310.11 -5307.20 -5307.47 -5305.81 -5308.91 -5316.64 -5324.06 -5330.79 -5337.37 -5345.81 -5351.90 -5357.99 -5357.62 -5353.95 -5359.39 -5364.51 -5374.86 -5379.92 -5382.89 -5383.25 -5382.79 -5384.55 -5387.79 -5393.11 -5395.57 -5400.79 -5397.13 -5392.66 -5387.79 -5383.58 -5376.99 -5371.70 -5360.11 -5347.73 -5345.70 -5334.43 -5330.18 -5324.45 -5321.61 -5309.28 -5279.44 -5162.12 -4922.64 -4623.07 -4140.62 -3977.22 -3752.18 -3701.36 -3238.37 -2947.80 -2467.84 -2227.87 -2172.67 -2594.15 -4593.63 -6405.82 -5963.88 -3378.98 -1419.23 -791.21 -911.31 -1311.02 -1473.00 -1677.87 -1545.36 -1514.88 -1609.16 -1540.26 -1475.38 -1438.90 -1249.11 -652.15 -860.47 -1253.43 -1710.50 -2224.12 -3209.30 -4185.27 -5423.24 -6878.37 -8171.55 -8473.70 -8546.80 -8548.11 -8555.22 -8559.22 -8525.70 -8054.74 -5398.02 -3127.64 -2366.16 -2210.06 -2208.53 -2249.26 -2267.98 -2289.73 -2294.49 -2294.20 -2289.95 -2310.98 -2333.48 -2371.07 -2367.99 -2443.48 -2532.22 -2638.04 -2861.32 -3013.41 -3181.67 -3201.25 -3201.42
-4976.74 -4976.66 -4988.54 -4997.63 -5006.82 -5016.97 -5031.85 -5037.14 -5047.42 -5078.94 -5109.91 -5131.71 -5154.47 -5192.81 -5246.56 -5285.51 -5305.56 -5316.36 -5328.50 -5328.22 -5325.33 -5327.37 -5327.03 -5327.65 -5326.48 -5323.12 -5320.38 -5317.71 -5312.80 -5309.97 -5305.95 -5304.05 -5302.74 -5302.55 -5304.20 -5305.81 -5315.98 -5319.59 -5329.83 -5335.69 -5343.30 -5351.26 -5350.71 -5349.59 -5355.23 -5362.25 -5369.42 -5377.73 -5381.49 -5382.32 -5381.52 -5384.04 -5386.74 -5390.92 -5393.29 -5395.28 -5393.43 -5391.33 -5385.38 -5378.47 -5374.38 -5364.90 -5354.33 -5342.47 -5333.33 -5328.77 -5322.86 -5313.05 -5307.00 -5263.59 -5180.64 -4990.84 -4835.38 -4694.34 -4334.76 -3637.13 -3569.23 -3226.34 -3014.76 -2743.64 -2576.99 -2452.97 -2281.19 -2499.37 -4781.29 -6253.35 -5412.62 -2202.67 -713.15 -487.72 -645.63 -1032.74 -1097.37 -1208.93 -1375.67 -1385.32 -1410.50 -1354.51 -1434.07 -1438.71 -923.94 -679.45 -928.33 -1240.44 -1732.17 -2181.54 -3118.63 -4245.72 -5331.75 -7178.75 -8289.71 -8506.78 -8534.54 -8545.42 -8549.04 -8563.14 -8540.89 -7924.51 -5203.80 -3222.92 -2554.22 -2193.65 -2195.40 -2239.89 -2266.01 -2285.04 -2291.62 -2287.48 -2299.66 -2343.00 -2408.95 -2433.93 -2472.23 -2546.51 -2601.16 -2694.34 -2783.93 -2941.65 -3041.26 -3058.36 -3058.48
-4961.32 -4961.24 -4972.64 -4984.01 -4993.91 -5004.44 -5010.56 -5010.51 -5018.57 -5039.92 -5045.67 -5064.37 -5086.02 -5167.08 -5197.66 -5265.66 -5297.46 -5319.09 -5325.02 -5321.53 -5320.10 -5321.44 -5320.90 -5321.11 -5320.74 -5315.79 -5314.41 -5310.73 -5307.66 -5303.58 -5297.64 -5295.59 -5291.29 -5292.88 -5297.84 -5302.30 -5305.97 -5314.13 -5320.82 -5326.50 -5333.61 -5345.17 -5344.65 -5342.21 -5347.90 -5357.41 -5365.19 -5375.20 -5379.47 -5380.72 -5379.61 -5381.66 -5382.28 -5387.02 -5389.11 -5389.46 -5390.55 -5389.44 -5379.98 -5375.29 -5369.80 -5363.75 -5350.59 -5342.59 -5331.68 -5320.79 -5308.25 -5305.94 -5297.48 -5249.11 -5137.58 -4995.66 -4701.83 -4591.55 -4200.84 -3726.18 -3348.88 -2970.97 -2776.28 -2677.95 -2563.06 -2356.97 -2353.56 -2644.94 -4254.96 -5142.23 -4279.70 -1326.09 -475.06 -249.52 -425.72 -661.00 -853.62 -1044.45 -1206.19 -1240.57 -1297.05 -1327.64 -1404.55 -1275.03 -718.66 -532.29 -882.00 -1203.18 -2057.71 -3518.94 -4049.55 -5709.31 -6702.25 -7844.54 -8335.04 -8504.94 -8531.18 -8547.83 -8552.47 -8556.39 -8530.30 -7974.70 -6206.00 -3794.89 -2600.54 -2206.59 -2190.32 -2228.15 -2260.54 -2279.13 -2280.93 -2283.12 -2288.39 -2351.11 -2405.88 -2402.18 -2485.38 -2557.36 -2635.09 -2667.07 -2766.64 -2897.83 -2967.88 -2991.14 -2991.23
-4943.51 -4943.43 -4955.13 -4962.38 -4977.33 -4985.90 -4993.80 -4996.96 -4995.09 -5004.77 -5015.44 -5020.01 -5044.66 -5083.34 -5170.33 -5229.78 -5297.99 -5316.49 -5297.86 -5306.00 -5309.94 -5311.69 -5314.29 -5309.26 -5308.79 -5303.54 -5306.79 -5300.04 -5298.37 -5291.17 -5288.72 -5285.24 -5284.07 -5285.59 -5283.27 -5292.35 -5297.85 -5302.39 -5309.49 -5317.46 -5328.30 -5338.08 -5340.12 -5340.34 -5344.18 -5356.62 -5367.67 -5376.43 -5374.19 -5376.45 -5374.51 -5378.23 -5377.99 -5380.54 -5382.01 -5383.53 -5383.40 -5382.18 -5378.51 -5372.72 -5363.05 -5359.46 -5349.59 -5342.30 -5330.60 -5314.66 -5301.93 -5293.14 -5287.67 -5240.27 -5109.91 -4821.14 -4475.96 -4238.91 -4065.11 -3646.80 -3233.02 -2897.64 -2703.92 -2569.64 -2477.79 -2334.06 -2217.56 -2404.74 -2921.89 -3838.56 -2116.05 -626.00 -99.93 -53.29 -157.32 -521.10 -816.04 -1043.68 -1129.71 -1201.36 -1209.22 -1267.85 -1345.40 -960.65 -583.56 -427.15 -721.56 -1382.28 -2388.42 -5155.41 -4945.95 -6547.19 -7704.12 -8049.96 -8492.92 -8534.79 -8539.61 -8551.33 -8554.25 -8551.72 -8542.07 -8415.12 -7465.34 -4298.24 -2659.65 -2237.74 -2168.66 -2217.87 -2241.55 -2275.69 -2276.15 -2268.53 -2264.07 -2302.12 -2322.43 -2358.96 -2466.27 -2506.54 -2567.93 -2618.81 -2739.86 -2876.27 -2953.59 -2962.44 -2962.52
-4915.01 -4913.35 -4922.95 -4936.10 -4947.71 -4965.79 -4969.95 -4973.16 -4978.08 -4984.63 -4994.03 -5007.50 -5020.89 -5036.94 -5117.58 -5169.58 -5228.18 -5281.55 -5286.48 -5297.25 -5302.44 -5296.46 -5294.37 -5293.45 -5289.92 -5289.39 -5289.14 -5291.74 -5282.50 -5278.00 -5273.53 -5277.96 -5268.65 -5263.44 -5263.95 -5272.96 -5275.99 -5289.93 -5290.88 -5302.38 -5312.43 -5322.10 -5338.94 -5342.37 -5349.45 -5359.90 -5368.49 -5372.00 -5371.76 -5370.84 -5371.52 -5372.33 -5373.58 -5373.15 -5375.81 -5376.13 -5375.55 -5375.63 -5372.65 -5368.97 -5359.94 -5353.64 -5342.66 -5335.76 -5320.52 -5303.52 -5297.00 -5284.05 -5272.00 -5227.37 -5082.07 -4691.41 -4401.87 -4084.55 -3722.97 -3414.09 -3197.72 -2871.40 -2639.69 -2454.57 -2349.71 -2292.13 -2117.32 -2136.17 -2572.79 -2716.29 -1264.17 -241.26 124.81 139.12 48.55 -468.41 -851.27 -1083.45 -1100.84 -1157.03 -1175.62 -1221.02 -1193.33 -909.98 -412.27 -370.88 -872.49 -1724.74 -2603.14 -4257.59 -5331.22 -6570.45 -7521.67 -7985.25 -8266.20 -8544.94 -8533.87 -8549.89 -8545.07 -8545.65 -8534.65 -8213.12 -7186.70 -4858.24 -2859.08 -2207.71 -2141.92 -2180.05 -2232.79 -2262.34 -2267.08 -2264.75 -2264.40 -2268.48 -2279.85 -2281.75 -2335.73 -2441.48 -2487.07 -2501.76 -2586.84 -2822.09 -2860.59 -2923.50 -2923.64
-4877.30 -4877.22 -4893.57 -4902.24 -4906.12 -4920.59 -4934.33 -4944.19 -4954.86 -4961.51 -4976.57 -4985.81 -4999.27 -5014.32 -5045.03 -5102.46 -5185.11 -5243.20 -5267.04 -5281.56 -5290.75 -5282.81 -5265.34 -5262.98 -5267.90 -5271.65 -5270.77 -5261.19 -5253.89 -5252.82 -5246.79 -5247.49 -5248.58 -5241.29 -5247.25 -5253.45 -5258.84 -5267.99 -5266.29 -5276.02 -5283.19 -5296.91 -5331.26 -5346.44 -5358.65 -5365.55 -5368.51 -5367.46 -5369.94 -5368.73 -5368.84 -5370.61 -5370.02 -5371.44 -5371.39 -5371.66 -5372.37 -5371.59 -5369.27 -5361.61 -5356.70 -5348.99 -5337.35 -5325.64 -5312.38 -5300.50 -5290.25 -5276.84 -5264.25 -5161.51 -4979.08 -4659.33 -4162.01 -4046.76 -3568.39 -3194.66 -3023.72 -2701.64 -2516.85 -2315.84 -1953.70 -1942.64 -1937.19 -1747.61 -1597.30 -1217.51 -764.44 29.79 151.53 150.37 145.53 -401.58 -854.61 -988.42 -1083.61 -1099.61 -1134.91 -1145.01 -1100.51 -884.38 -567.77 -712.85 -1027.06 -1716.45 -3130.71 -3769.83 -4948.86 -5488.72 -5848.90 -6777.07 -8256.93 -8522.31 -8515.78 -8536.69 -8537.59 -8553.34 -8531.45 -8282.47 -7469.53 -5314.55 -3061.84 -2252.43 -2115.43 -2159.28 -2233.96 -2257.52 -2260.61 -2258.67 -2249.65 -2250.60 -2255.11 -2252.45 -2276.20 -2321.04 -2357.30 -2463.85 -2550.88 -2669.58 -2798.65 -2838.78 -2839.14
-4859.27 -4859.59 -4868.26 -4876.76 -4887.75 -4901.17 -4910.72 -4923.87 -4932.73 -4948.40 -4959.76 -4974.24 -4978.94 -4998.82 -5035.67 -5059.73 -5105.98 -5176.67 -5236.08 -5271.18 -5278.78 -5272.50 -5254.03 -5253.68 -5255.23 -5253.14 -5250.63 -5249.52 -5246.35 -5242.71 -5241.19 -5238.14 -5235.90 -5235.17 -5236.35 -5242.50 -5249.72 -5257.34 -5262.73 -5267.26 -5277.15 -5296.40 -5316.51 -5348.33 -5359.05 -5368.07 -5370.27 -5367.68 -5370.17 -5369.51 -5368.55 -5368.12 -5366.58 -5367.42 -5367.69 -5369.03 -5367.47 -5365.55 -5363.11 -5357.78 -5348.21 -5340.60 -5326.67 -5316.21 -5304.73 -5290.01 -5278.46 -5270.35 -5255.43 -5164.21 -5048.03 -4673.27 -4202.38 -3827.19 -3561.99 -3186.39 -2963.25 -2755.18 -2405.32 -1909.71 -1758.47 -1819.34 -1768.92 -1381.60 -1206.32 -900.06 -274.22 2.63 175.78 175.44 40.13 -380.51 -649.09 -835.28 -923.34 -1001.73 -1055.54 -1079.06 -1139.64 -765.83 -619.99 -888.20 -1205.93 -1683.48 -2381.39 -3345.15 -4187.30 -4773.67 -5432.41 -6647.81 -7734.57 -8488.01 -8483.32 -8506.86 -8527.32 -8538.07 -8538.76 -8423.41 -8052.43 -5248.79 -3125.52 -2250.29 -2116.83 -2161.55 -2222.54 -2241.30 -2254.63 -2249.77 -2240.63 -2225.82 -2226.18 -2222.30 -2239.66 -2255.49 -2322.26 -2412.05 -2447.49 -2596.83 -2739.58 -2836.37 -2836.43
-4848.96 -4849.35 -4856.17 -4866.41 -4875.83 -4887.76 -4907.31 -4914.06 -4922.58 -4936.20 -4948.38 -4956.10 -4966.81 -4986.45 -5015.39 -5052.41 -5079.96 -5130.92 -5189.62 -5237.90 -5267.47 -5267.71 -5251.44 -5245.70 -5246.58 -5248.25 -5248.79 -5247.65 -5244.54 -5242.23 -5239.86 -5238.23 -5237.52 -5238.64 -5238.60 -5244.85 -5251.61 -5257.48 -5264.43 -5270.44 -5277.71 -5301.85 -5318.70 -5347.78 -5360.82 -5369.55 -5371.60 -5370.24 -5368.25 -5367.20 -5367.04 -5366.80 -5365.61 -5366.07 -5365.71 -5364.72 -5363.48 -5362.53 -5360.41 -5352.39 -5346.45 -5336.19 -5320.86 -5308.54 -5298.41 -5286.24 -5270.32 -5250.36 -5235.15 -5155.71 -5047.89 -4651.54 -4319.11 -3805.02 -3423.88 -3041.35 -2865.72 -2472.96 -2166.67 -1858.72 -1472.46 -1104.19 -1235.01 -1003.06 -795.19 -582.72 -243.60 87.37 155.48 162.32 85.21 -412.89 -585.00 -710.04 -828.90 -839.92 -873.07 -971.84 -847.92 -611.99 -520.32 -586.78 -881.09 -1579.27 -2294.80 -3403.60 -3958.73 -4876.33 -5974.99 -6982.08 -8199.58 -8479.63 -8462.12 -8493.05 -8532.44 -8536.95 -8525.86 -8496.26 -7960.56 -6375.14 -3190.88 -2280.60 -2139.87 -2163.40 -2204.74 -2228.28 -2243.20 -2244.33 -2226.33 -2209.54 -2203.55 -2190.76 -2188.58 -2216.56 -2265.81 -2295.04 -2419.46 -2558.20 -2658.12 -2837.88 -2837.94
-4840.41 -4840.34 -4847.91 -4856.47 -4865.10 -4874.69 -4890.62 -4896.32 -4910.38 -4922.21 -4936.43 -4948.43 -4956.98 -4982.90 -5001.43 -5032.84 -5051.92 -5084.54 -5125.32 -5195.14 -5249.40 -5254.30 -5242.99 -5242.32 -5243.23 -5245.11 -5246.65 -5246.73 -5245.75 -5244.86 -5244.43 -5241.98 -5241.35 -5241.80 -5245.31 -5249.54 -5258.22 -5261.04 -5270.49 -5274.84 -5282.26 -5302.46 -5318.60 -5348.67 -5356.86 -5368.65 -5370.56 -5373.84 -5371.70 -5368.78 -5365.66 -5367.90 -5367.68 -5365.95 -5363.55 -5360.71 -5359.81 -5358.57 -5356.39 -5349.92 -5342.33 -5331.31 -5316.52 -5302.96 -5291.16 -5282.89 -5266.87 -5234.22 -5201.09 -5127.95 -4980.13 -4711.31 -4318.98 -3885.58 -3402.87 -3161.19 -2585.10 -2348.76 -1876.85 -1512.50 -1243.46 -993.50 -878.88 -709.73 -665.83 -510.53 -247.71 70.16 120.11 117.49 -179.01 -439.87 -484.49 -495.15 -687.01 -678.22 -762.74 -856.75 -782.09 -117.95 -8.84 -215.03 -1074.42 -1512.00 -2254.62 -3287.70 -4102.17 -5095.90 -6669.23 -7514.76 -8277.82 -8462.94 -8461.57 -8491.18 -8519.44 -8510.70 -8489.17 -8480.14 -7957.52 -6098.36 -3966.49 -2321.84 -2166.71 -2167.60 -2184.88 -2212.67 -2238.26 -2235.73 -2218.07 -2204.86 -2184.81 -2176.54 -2175.98 -2183.15 -2201.85 -2192.11 -2306.18 -2335.31 -2637.76 -2796.84 -2840.25
-4832.24 -4832.17 -4840.09 -4845.63 -4855.53 -4864.35 -4881.34 -4889.07 -4903.60 -4912.26 -4931.78 -4937.35 -4949.64 -4962.68 -5000.47 -5014.39 -5034.06 -5057.13 -5084.78 -5147.84 -5209.44 -5230.98 -5233.54 -5234.79 -5237.74 -5240.59 -5242.53 -5244.45 -5247.40 -5247.73 -5247.67 -5249.15 -5250.86 -5253.20 -5252.59 -5257.82 -5261.58 -5267.99 -5272.22 -5279.44 -5286.30 -5302.55 -5316.46 -5343.40 -5357.00 -5364.92 -5374.13 -5383.28 -5380.45 -5370.82 -5368.93 -5369.86 -5364.30 -5364.67 -5364.38 -5359.25 -5358.05 -5354.70 -5351.16 -5345.48 -5336.13 -5326.34 -5315.55 -5300.55 -5286.10 -5276.39 -5262.67 -5241.03 -5192.90 -5104.73 -4961.25 -4700.73 -4396.14 -3915.38 -3613.21 -3382.02 -2888.92 -2595.86 -1892.87 -1464.51 -1051.52 -755.32 -621.28 -562.40 -577.89 -413.95 -246.95 -107.00 -19.27 -29.43 -179.37 -158.47 -212.27 -183.82 -388.48 -547.00 -461.78 -645.45 -511.48 -15.71 77.18 -300.19 -910.13 -2076.88 -2666.56 -2987.99 -4306.00 -5421.68 -6811.11 -8049.97 -8450.71 -8452.28 -8459.60 -8426.27 -8456.32 -8433.59 -8409.89 -8416.06 -8064.43 -6370.92 -3488.28 -2284.26 -2108.62 -2090.61 -2144.49 -2217.21 -2237.18 -2230.63 -2217.76 -2202.21 -2183.11 -2169.61 -2162.41 -2157.67 -2155.04 -2174.23 -2215.78 -2343.78 -2548.79 -2799.24 -2799.41
-4824.18 -4823.70 -4829.54 -4835.98 -4845.27 -4849.46 -4868.87 -4882.83 -4903.00 -4922.00 -4932.70 -4940.18 -4951.37 -4964.92 -4982.99 -4994.86 -5005.93 -5025.48 -5043.75 -5076.26 -5140.14 -5202.10 -5212.83 -5223.34 -5230.57 -5236.25 -5237.70 -5242.39 -5250.19 -5254.88 -5264.63 -5266.80 -5266.01 -5267.04 -5271.19 -5267.14 -5266.32 -5269.94 -5273.58 -5279.45 -5287.98 -5301.25 -5308.12 -5333.88 -5352.19 -5360.19 -5363.15 -5374.01 -5375.44 -5369.74 -5370.83 -5369.51 -5366.79 -5364.72 -5361.17 -5360.00 -5356.91 -5353.34 -5347.86 -5344.18 -5332.95 -5319.42 -5308.01 -5295.76 -5279.85 -5271.14 -5262.85 -5249.25 -5170.77 -5089.69 -4904.49 -4752.50 -4370.04 -4000.97 -3609.95 -3328.81 -2895.17 -2433.54 -2063.49 -1451.90 -895.03 -671.74 -562.91 -508.54 -511.27 -337.86 -136.11 -84.99 1.29 20.91 50.74 -2.86 9.85 3.34 -149.34 -289.32 -224.16 -127.45 -182.05 16.78 -49.14 -349.99 -1062.01 -1781.77 -2473.30 -3389.57 -4472.79 -5797.32 -7137.21 -8109.65 -8376.60 -8395.59 -8391.28 -8359.91 -8357.75 -8329.59 -8284.99 -8238.08 -8076.86 -6507.71 -3708.20 -2174.97 -1995.77 -2020.36 -2141.63 -2204.98 -2224.15 -2223.08 -2213.62 -2195.31 -2181.48 -2170.28 -2150.53 -2141.08 -2142.60 -2162.31 -2227.26 -2318.24 -2560.11 -2643.85 -2664.30
-4815.52 -4816.40 -4821.46 -4827.24 -4832.72 -4841.76 -4853.06 -4870.33 -4911.62 -4924.29 -4935.60 -4945.99 -4955.73 -4968.85 -4973.15 -4973.80 -4986.60 -5008.42 -5017.64 -5030.69 -5068.75 -5148.28 -5186.21 -5205.20 -5220.79 -5226.23 -5231.49 -5239.77 -5260.62 -5268.79 -5272.12 -5276.38 -5282.80 -5285.03 -5280.57 -5276.10 -5270.19 -5268.19 -5273.46 -5281.88 -5287.28 -5299.59 -5313.96 -5324.47 -5343.37 -5344.82 -5354.07 -5361.02 -5366.86 -5384.28 -5382.98 -5375.46 -5373.13 -5370.10 -5364.46 -5362.77 -5357.65 -5351.58 -5348.22 -5342.83 -5333.80 -5313.85 -5304.73 -5294.23 -5283.25 -5271.57 -5265.88 -5245.38 -5203.70 -5143.90 -4922.83 -4773.96 -4571.87 -4188.67 -3930.36 -3361.87 -2754.61 -2332.76 -1876.86 -1326.83 -858.83 -652.76 -544.80 -529.32 -426.21 -104.04 5.57 45.20 101.96 107.76 110.34 117.62 120.72 116.56 2.11 -93.46 24.15 52.30 -18.29 -39.82 -105.10 -565.50 -1022.33 -1898.00 -2855.34 -3595.09 -4289.14 -6002.60 -7034.09 -7869.63 -8188.48 -8269.24 -8313.46 -8233.81 -8255.68 -8250.91 -8186.73 -8091.12 -7985.00 -4707.05 -3405.10 -2043.56 -1929.98 -2018.30 -2148.63 -2201.24 -2216.22 -2221.43 -2209.44 -2192.97 -2177.60 -2168.04 -2147.52 -2142.67 -2149.74 -2193.30 -2245.89 -2357.63 -2515.04 -2562.27 -2562.39
-4803.77 -4803.17 -4806.97 -4812.19 -4819.90 -4826.96 -4844.41 -4870.88 -4898.99 -4913.87 -4924.75 -4932.61 -4944.71 -4955.54 -4961.84 -4958.58 -4962.45 -4977.09 -4992.24 -5010.25 -5028.05 -5093.59 -5147.70 -5195.34 -5215.11 -5221.58 -5227.31 -5235.66 -5253.54 -5269.17 -5275.06 -5280.31 -5287.84 -5291.99 -5293.26 -5277.69 -5270.94 -5267.60 -5275.49 -5285.64 -5293.05 -5310.31 -5320.62 -5335.70 -5342.37 -5347.48 -5355.86 -5356.13 -5374.21 -5386.15 -5389.33 -5386.00 -5384.13 -5378.28 -5371.84 -5366.97 -5359.75 -5356.04 -5352.16 -5341.74 -5331.01 -5321.13 -5298.80 -5295.59 -5272.82 -5265.78 -5254.22 -5240.24 -5197.06 -5135.57 -4918.72 -4760.84 -4503.33 -4089.37 -3392.60 -2783.99 -2438.51 -1891.70 -1523.06 -1028.02 -718.95 -572.37 -590.88 -552.58 -229.52 26.70 111.27 118.61 123.71 124.55 132.25 130.74 135.51 147.28 149.43 106.65 110.68 123.74 112.76 90.58 -0.54 -384.28 -1143.45 -1803.71 -2566.79 -3530.78 -4410.99 -5750.92 -7275.96 -7968.08 -8068.71 -7902.59 -8120.61 -8147.57 -8157.57 -8097.94 -7989.58 -7988.85 -7682.31 -5395.87 -3027.63 -2009.79 -1904.34 -2011.47 -2110.88 -2202.73 -2210.54 -2219.03 -2210.28 -2191.82 -2182.84 -2166.33 -2161.93 -2161.73 -2174.14 -2196.55 -2269.31 -2333.41 -2425.70 -2513.17 -2513.23
-4789.69 -4789.62 -4797.07 -4800.54 -4809.08 -4811.66 -4826.16 -4847.04 -4886.54 -4897.89 -4911.91 -4924.61 -4934.88 -4943.41 -4945.66 -4942.30 -4953.81 -4960.06 -4981.11 -4992.69 -5005.89 -5050.26 -5089.70 -5170.20 -5198.99 -5211.46 -5221.11 -5227.87 -5251.93 -5264.50 -5274.27 -5281.10 -5287.08 -5291.15 -5286.79 -5260.81 -5242.86 -5253.45 -5262.28 -5278.17 -5289.10 -5309.30 -5328.69 -5345.07 -5356.99 -5359.64 -5365.10 -5370.14 -5378.61 -5397.44 -5405.37 -5401.70 -5398.59 -5390.85 -5380.99 -5373.86 -5366.99 -5357.37 -5352.62 -5343.60 -5334.16 -5321.91 -5302.20 -5282.28 -5259.92 -5259.14 -5241.64 -5226.33 -5199.44 -5153.54 -4868.63 -4571.47 -4127.04 -3938.12 -3297.70 -2709.42 -2251.02 -1739.06 -1285.55 -977.70 -596.28 -348.71 -230.37 -149.98 74.58 115.04 126.69 130.49 144.02 157.60 179.43 162.74 167.58 178.39 177.46 170.43 165.19 139.53 123.60 111.15 123.39 -22.87 -804.20 -932.97 -1959.00 -3457.67 -3784.48 -5389.12 -5732.03 -6430.54 -7299.79 -7441.38 -7841.64 -7978.98 -7980.24 -7914.93 -7830.70 -7814.48 -7327.96 -5093.97 -2922.39 -2067.61 -1874.10 -1983.42 -2080.92 -2190.39 -2219.94 -2221.80 -2204.95 -2198.95 -2183.63 -2173.82 -2165.41 -2167.46 -2181.23 -2236.31 -2286.47 -2375.59 -2428.96 -2522.31 -2522.37
-4773.96 -4773.88 -4779.73 -4777.01 -4785.79 -4793.51 -4810.68 -4829.34 -4860.67 -4882.96 -4897.26 -4906.68 -4917.94 -4929.98 -4930.94 -4931.19 -4938.69 -4952.75 -4960.92 -4981.95 -4995.53 -5015.24 -5078.52 -5106.67 -5176.61 -5202.67 -5212.04 -5225.09 -5239.25 -5258.73 -5270.45 -5273.03 -5276.14 -5270.36 -5233.21 -5193.46 -5140.64 -5093.10 -5146.79 -5179.50 -5251.72 -5281.42 -5309.47 -5340.88 -5359.72 -5374.96 -5388.10 -5385.32 -5394.30 -5410.73 -5414.30 -5404.16 -5405.85 -5402.59 -5390.98 -5379.43 -5377.19 -5361.31 -5353.41 -5343.04 -5337.59 -5318.06 -5304.39 -5285.32 -5267.79 -5256.82 -5245.68 -5223.90 -5193.79 -5059.45 -4781.58 -4298.54 -3979.73 -3599.78 -3383.33 -2555.17 -2030.94 -1569.73 -1224.34 -972.99 -487.82 30.93 62.04 61.68 91.48 126.37 135.15 143.03 188.75 195.37 196.92 207.68 210.66 221.90 220.91 194.40 181.32 142.59 121.82 11.57 70.86 123.73 -22.29 -453.33 -1315.98 -2177.28 -2030.53 -3325.71 -2859.17 -4220.74 -5642.00 -6846.18 -7561.94 -7752.82 -7769.93 -7592.37 -7570.17 -7526.59 -6950.21 -4857.28 -2937.33 -1906.26 -1853.95 -1972.13 -2079.98 -2166.28 -2224.75 -2226.89 -2216.16 -2204.52 -2185.59 -2177.22 -2168.13 -2169.10 -2216.77 -2258.87 -2298.81 -2416.66 -2493.01 -2527.99 -2532.26
-4760.70 -4760.63 -4770.26 -4769.90 -4772.93 -4782.43 -4795.42 -4809.92 -4846.00 -4864.04 -4876.97 -4887.28 -4902.79 -4913.21 -4916.93 -4919.56 -4930.92 -4942.99 -4959.46 -4972.66 -4987.41 -5004.80 -5025.18 -5088.68 -5150.36 -5178.16 -5185.80 -5214.83 -5229.73 -5236.72 -5235.22 -5245.72 -5200.62 -5164.65 -5102.67 -4841.15 -4483.90 -4668.07 -4765.10 -4786.25 -5031.90 -5121.37 -5198.35 -5282.99 -5334.07 -5357.09 -5393.81 -5416.56 -5414.83 -5432.24 -5428.03 -5420.39 -5403.41 -5404.14 -5390.10 -5383.40 -5375.31 -5364.24 -5360.44 -5356.06 -5333.40 -5317.89 -5306.83 -5295.75 -5284.71 -5267.43 -5256.76 -5238.52 -5175.59 -5041.84 -4703.51 -4264.91 -3942.46 -3486.29 -3146.85 -2555.08 -2034.40 -1691.28 -1280.96 -1090.49 -534.79 34.60 87.84 112.40 126.69 134.97 178.77 183.23 205.94 221.19 239.59 268.98 265.27 246.22 259.95 229.63 171.01 121.72 98.27 -22.04 -195.99 -148.62 44.54 77.95 -54.23 -530.30 -873.04 -1067.53 -1086.79 -2131.66 -4163.05 -6168.57 -6947.82 -7436.97 -7462.49 -7428.32 -7162.91 -7217.09 -6556.88 -4819.82 -2353.85 -1850.33 -1854.69 -1989.40 -2110.12 -2191.86 -2228.84 -2231.90 -2217.70 -2209.11 -2192.44 -2180.36 -2177.32 -2185.94 -2229.64 -2278.86 -2345.86 -2419.57 -2466.92 -2543.74 -2543.79
-4766.20 -4768.55 -4769.19 -4776.89 -4772.73 -4783.66 -4794.18 -4807.35 -4829.05 -4836.72 -4841.23 -4856.70 -4869.32 -4880.83 -4898.79 -4913.58 -4923.36 -4945.97 -4955.51 -4975.30 -4988.61 -4998.04 -4974.87 -4939.20 -4999.35 -5065.52 -5137.72 -5165.24 -5204.66 -5210.40 -5184.22 -5151.56 -4871.22 -4629.58 -4390.52 -4038.90 -3406.31 -3260.41 -3596.73 -3831.03 -4142.21 -4137.26 -4673.49 -5109.95 -5071.92 -5340.93 -5396.38 -5422.09 -5431.19 -5442.56 -5441.84 -5436.35 -5417.15 -5415.87 -5395.82 -5387.86 -5377.69 -5366.25 -5361.67 -5350.19 -5322.00 -5316.79 -5310.67 -5303.90 -5290.52 -5275.95 -5257.36 -5238.63 -5165.05 -5064.08 -4810.03 -4420.36 -4010.69 -3342.08 -3142.68 -2474.44 -2090.45 -1742.95 -1394.91 -1003.11 -461.42 -119.54 113.02 126.73 167.47 186.08 214.28 243.10 262.82 280.77 303.62 316.07 330.71 330.36 322.38 344.16 151.33 117.32 96.88 -455.23 -1340.22 -1460.74 -1123.76 -212.12 -561.45 -494.08 -319.14 -328.54 -400.40 -579.96 -1141.08 -4530.61 -6357.01 -7299.67 -7223.37 -7133.69 -6889.51 -6799.79 -6386.56 -3896.30 -2691.64 -1714.92 -1797.82 -1976.42 -2085.28 -2209.95 -2244.35 -2244.54 -2232.48 -2215.23 -2205.20 -2199.77 -2199.68 -2203.39 -2228.58 -2284.95 -2402.86 -2518.74 -2536.50 -2609.85 -2609.79
-4791.48 -4791.43 -4792.46 -4784.65 -4793.89 -4819.88 -4817.67 -4809.28 -4801.23 -4804.81 -4817.03 -4830.65 -4846.90 -4860.73 -4883.69 -4912.04 -4931.22 -4947.04 -4963.12 -4979.23 -4985.05 -4972.00 -4935.15 -4691.98 -4386.57 -4306.12 -4705.95 -4899.33 -4889.57 -5096.60 -4974.41 -4611.98 -4341.12 -3905.17 -3352.29 -2812.97 -2491.27 -2481.83 -2678.42 -2657.72 -3006.94 -3472.40 -3407.29 -4069.08 -4409.79 -4792.05 -5362.14 -5375.49 -5414.49 -5421.43 -5435.42 -5435.72 -5429.67 -5422.08 -5408.32 -5400.40 -5379.68 -5358.67 -5337.09 -5318.62 -5314.48 -5311.25 -5308.73 -5305.51 -5303.83 -5283.14 -5266.22 -5222.29 -5116.82 -4864.66 -4565.55 -4084.62 -3786.68 -3400.30 -2689.95 -2317.99 -1967.54 -1568.50 -1273.34 -1088.66 -90.78 87.42 135.89 182.47 191.48 227.43 318.50 349.01 438.14 484.28 461.95 451.34 469.82 424.99 493.88 554.39 248.94 109.51 -880.34 -3384.14 -3105.78 -2673.45 -2494.50 -1603.01 -1798.36 -1502.40 -1663.07 -603.95 -509.41 -422.99 -994.62 -2829.98 -5842.10 -6670.36 -6938.35 -6544.72 -6512.96 -6383.93 -5868.29 -4773.47 -2281.34 -1757.34 -1774.83 -1938.87 -2035.59 -2166.31 -2242.22 -2244.89 -2242.77 -2227.74 -2215.85 -2218.02 -2230.50 -2245.72 -2289.64 -2330.00 -2440.89 -2525.90 -2631.39 -2712.03 -2712.07
-4829.07 -4834.60 -4838.28 -4829.80 -4822.15 -4820.68 -4824.06 -4816.75 -4806.39 -4812.63 -4813.15 -4825.71 -4846.98 -4858.65 -4892.36 -4918.63 -4954.78 -4964.57 -4983.89 -4989.20 -4987.19 -4916.66 -4566.75 -4015.24 -3298.86 -3447.97 -3461.79 -4171.63 -4273.47 -4585.65 -4363.39 -3648.28 -3026.51 -2726.36 -2411.48 -2056.66 -1911.48 -1914.90 -2029.50 -2086.47 -2283.52 -2287.58 -2525.90 -2869.82 -3667.91 -4109.80 -4766.01 -5177.61 -5257.89 -5170.01 -5253.45 -5335.95 -5407.47 -5382.23 -5404.28 -5397.07 -5375.85 -5347.44 -5326.73 -5312.88 -5303.60 -5294.47 -5297.34 -5308.08 -5308.15 -5299.43 -5286.55 -5261.63 -5063.93 -4738.39 -4289.70 -3944.66 -3687.83 -3417.80 -2675.54 -2136.50 -1560.81 -1162.14 -578.22 -618.70 61.13 147.87 155.90 197.02 234.29 284.12 379.95 611.15 778.95 813.87 773.96 724.16 800.44 640.90 790.02 688.84 328.61 -179.29 -835.51 -2242.96 -3410.15 -3708.09 -3537.16 -3405.14 -3318.07 -3060.81 -2327.75 -1674.47 -919.58 -835.72 -1259.96 -3432.23 -4804.20 -5487.54 -5451.81 -5393.54 -5347.79 -6000.84 -6000.15 -4887.14 -2388.78 -1809.30 -1801.96 -2000.09 -2119.69 -2184.59 -2261.68 -2269.55 -2253.63 -2235.95 -2219.58 -2230.39 -2239.87 -2261.78 -2321.94 -2432.29 -2548.05 -2651.30 -2762.63 -2775.15 -2798.28
-4910.73 -4900.37 -4883.77 -4885.32 -4870.36 -4868.08 -4861.75 -4855.67 -4825.31 -4835.92 -4839.52 -4848.22 -4874.23 -4895.70 -4961.91 -4971.02 -5010.58 -5015.45 -5020.97 -5017.71 -5001.60 -4863.21 -4173.77 -3148.46 -2447.29 -2337.86 -2778.78 -3118.72 -3057.89 -3502.30 -3703.12 -3047.73 -2184.22 -1917.22 -1838.99 -1682.63 -1452.32 -1568.89 -1503.47 -1829.95 -1741.60 -2010.65 -2107.43 -2346.61 -2751.00 -3102.74 -4116.77 -4605.11 -4633.27 -4724.18 -4892.78 -5137.18 -5113.36 -5263.17 -5347.81 -5383.02 -5352.75 -5338.63 -5318.13 -5302.26 -5292.04 -5285.53 -5281.12 -5287.74 -5283.80 -5286.06 -5133.60 -5154.86 -5021.92 -4631.61 -4211.15 -3756.95 -3518.98 -3226.79 -2671.49 -1536.75 -615.62 -324.28 56.06 124.74 163.03 178.86 202.28 216.66 228.10 283.57 326.64 589.23 799.76 821.29 928.04 931.02 937.51 909.72 917.36 667.37 474.18 220.75 130.88 -357.30 -1558.74 -4154.41 -4034.22 -4027.41 -4100.65 -4091.36 -3489.86 -2852.16 -2222.65 -1779.44 -1314.82 -1988.36 -2163.19 -2563.30 -2780.36 -2448.44 -3755.22 -3958.04 -3631.41 -4206.55 -2588.36 -2115.64 -1899.85 -1997.03 -2192.75 -2264.87 -2279.44 -2277.47 -2260.32 -2240.66 -2226.35 -2235.17 -2239.91 -2282.09 -2344.99 -2454.60 -2579.89 -2727.09 -2780.52 -2855.07 -2855.14
-4970.45 -4970.35 -4940.42 -4935.21 -4934.18 -4946.58 -4952.01 -4934.11 -4922.71 -4906.41 -4900.79 -4903.64 -4960.57 -4982.14 -5017.96 -5040.12 -5056.23 -5106.48 -5114.09 -5102.68 -5033.20 -4810.58 -3969.74 -3147.81 -2005.24 -1907.64 -1923.44 -2113.28 -2283.42 -2602.23 -2630.60 -2343.94 -1942.57 -1627.93 -1285.57 -683.56 -718.57 -657.63 -829.18 -1075.70 -1262.08 -1845.24 -1962.68 -2050.35 -2170.13 -2350.44 -2915.40 -3363.33 -3795.17 -3548.83 -3683.61 -4012.40 -4354.58 -4628.30 -5028.50 -5135.91 -5312.28 -5268.46 -5176.72 -5247.96 -5243.44 -5258.77 -5208.27 -5188.44 -5115.03 -4897.70 -4881.26 -4279.38 -3975.49 -3655.28 -3099.18 -3191.58 -3352.51 -2750.58 -2138.05 -1082.61 13.77 159.29 161.31 183.33 194.94 201.95 236.93 248.40 272.69 305.01 361.26 444.99 452.14 557.67 622.31 795.12 835.05 886.64 869.75 748.17 643.53 215.16 144.69 -243.47 -2009.12 -4546.70 -4484.11 -4520.91 -4326.79 -4285.09 -4322.47 -4330.97 -3871.28 -2794.63 -2005.62 -1463.29 -1310.49 -1350.48 -1457.30 -1701.62 -2084.24 -2174.20 -2354.90 -2902.98 -2770.80 -2387.64 -1927.88 -2005.31 -2165.71 -2261.56 -2298.33 -2287.65 -2266.23 -2251.06 -2237.88 -2236.71 -2274.99 -2302.14 -2350.59 -2488.88 -2592.65 -2794.03 -2859.77 -2883.24 -2891.57
-4988.61 -4988.55 -4983.67 -4982.96 -4980.69 -4988.64 -4987.09 -4986.90 -5000.84 -5000.58 -5003.56 -5007.25 -5028.21 -5060.14 -5096.87 -5166.56 -5185.20 -5240.62 -5203.49 -5198.02 -5138.44 -4785.94 -3766.01 -2829.30 -2002.38 -1914.83 -1944.24 -1962.14 -1907.43 -2003.74 -2086.77 -2013.58 -1651.21 -1127.68 -594.75 -229.79 50.82 87.30 -139.29 -126.85 -227.39 -1159.56 -1939.07 -2038.68 -1828.88 -2157.47 -2302.06 -2359.30 -2552.06 -2586.64 -2827.20 -2956.68 -3344.37 -3648.16 -4194.99 -4788.13 -4912.54 -4998.70 -5017.24 -5072.81 -5033.22 -4781.09 -4948.57 -4914.58 -4641.18 -4313.06 -4237.10 -3419.75 -3283.59 -2518.78 -2481.59 -2248.86 -1821.85 -1282.39 -609.32 -156.86 151.49 184.05 199.66 208.11 227.70 244.35 263.46 283.96 304.77 338.87 385.17 395.78 428.26 494.20 506.25 577.84 625.92 728.25 708.66 661.22 548.46 448.60 268.27 -83.79 -1757.30 -1992.75 -3804.99 -4566.05 -4336.21 -4282.60 -4411.48 -4642.98 -4709.47 -4090.76 -3283.11 -2659.98 -1641.58 -1243.75 -1102.81 -1097.89 -1536.93 -1425.49 -1638.22 -2197.83 -2333.19 -2254.57 -2046.54 -2041.60 -2127.31 -2243.35 -2298.01 -2294.23 -2274.59 -2265.00 -2258.83 -2273.45 -2307.97 -2345.35 -2398.87 -2495.59 -2585.27 -2740.66 -2857.35 -2926.56 -2926.64
-4959.80 -4959.77 -4957.00 -4978.46 -4986.73 -4997.27 -5017.71 -5041.91 -5073.83 -5085.41 -5086.58 -5123.27 -5122.62 -5178.77 -5217.73 -5225.04 -5234.34 -5277.29 -5284.12 -5280.56 -5195.20 -4929.31 -3836.72 -3090.79 -2238.71 -2254.15 -2368.31 -2326.93 -2011.62 -1905.25 -1892.70 -1759.56 -1604.84 -521.73 -71.17 240.29 238.12 241.24 178.92 150.49 121.16 -137.52 -1290.56 -1142.19 -1134.39 -1791.05 -1964.78 -2119.07 -2107.02 -2288.15 -2316.55 -2229.36 -2188.90 -3052.63 -3035.60 -3445.34 -3864.11 -4145.40 -4134.32 -4279.46 -4027.38 -4268.64 -4044.59 -4132.94 -3663.10 -3104.13 -2594.98 -2449.08 -2153.98 -2090.48 -1951.40 -1846.96 -1309.40 -849.31 149.58 154.04 180.68 221.76 240.91 235.74 264.70 282.31 286.05 310.98 338.20 348.86 393.72 403.05 427.49 475.47 490.30 505.07 521.28 556.58 572.82 594.57 601.49 721.01 346.95 139.21 -241.69 -517.26 -1397.48 -3231.37 -4622.71 -4400.69 -4347.31 -4627.97 -4875.49 -5006.60 -4461.55 -3594.42 -2866.77 -1896.67 -1335.66 -1148.16 -1113.99 -1106.39 -1226.92 -1467.51 -1680.70 -1985.87 -1936.18 -2061.91 -2181.68 -2243.26 -2290.56 -2292.52 -2280.97 -2273.10 -2293.04 -2300.94 -2338.43 -2412.16 -2453.27 -2597.94 -2706.57 -2905.41 -3010.99 -3052.57 -3052.78
-4922.56 -4926.70 -4927.10 -4941.20 -4960.08 -4984.83 -5007.86 -5044.87 -5080.32 -5115.61 -5136.79 -5168.85 -5190.17 -5218.64 -5244.93 -5276.53 -5297.88 -5314.37 -5334.91 -5318.39 -5253.01 -5112.69 -4401.54 -3492.64 -3434.68 -3078.38 -3335.40 -3368.63 -2600.80 -2275.76 -1965.66 -1721.98 -1269.59 -311.89 112.86 258.20 300.97 275.94 259.06 241.13 203.20 136.78 -238.92 -325.55 -235.11 -1077.64 -1397.13 -1588.62 -1750.56 -2015.33 -1979.75 -1967.72 -2016.50 -1959.38 -2262.57 -2599.85 -2754.72 -2775.99 -2830.93 -2755.35 -2849.37 -3046.58 -2754.19 -2938.73 -2668.54 -2357.55 -2341.15 -2106.43 -2058.82 -2010.59 -1815.69 -835.47 -38.32 146.42 185.04 223.80 229.01 232.22 250.48 275.53 291.01 314.61 321.80 332.22 343.41 379.75 395.32 409.45 429.95 460.74 463.07 489.97 491.88 507.55 530.82 609.83 709.76 768.62 442.40 161.72 138.07 114.97 -474.86 -1474.49 -3385.94 -4487.02 -4450.53 -4444.41 -4635.63 -5033.40 -5068.29 -4988.54 -3841.26 -3401.89 -2514.80 -1491.15 -1247.77 -1059.06 -1076.70 -1197.95 -1424.67 -1676.65 -1768.52 -1986.86 -2163.21 -2204.86 -2269.00 -2283.77 -2284.81 -2287.39 -2294.07 -2307.80 -2364.37 -2428.88 -2539.76 -2772.25 -2912.30 -3065.18 -3156.76 -3182.46 -3182.60
-4892.91 -4896.21 -4898.29 -4914.94 -4931.63 -4972.03 -4991.83 -5026.45 -5075.43 -5107.35 -5153.67 -5174.26 -5200.77 -5228.35 -5255.20 -5275.45 -5298.76 -5316.45 -5333.31 -5341.86 -5326.75 -5228.26 -4878.36 -4576.23 -4480.52 -4716.32 -4623.92 -4146.87 -3148.75 -2463.43 -2140.98 -1976.52 -1577.48 -685.66 196.73 251.55 300.46 335.47 332.69 265.02 208.80 186.13 176.79 167.31 160.04 32.65 -147.89 -289.96 -565.83 -943.31 -1280.20 -1464.85 -1861.18 -1933.98 -2004.17 -2042.02 -2162.96 -2188.34 -2085.96 -2232.22 -2233.99 -2179.95 -2210.73 -2236.09 -2260.82 -2128.22 -2081.17 -2058.31 -1960.36 -1785.74 -1375.69 -97.73 153.98 171.32 233.13 314.65 299.26 272.54 292.41 300.04 298.59 337.53 337.19 355.80 377.43 408.15 413.87 420.19 423.57 439.49 445.37 442.00 455.50 464.90 508.50 522.27 606.95 851.27 571.73 209.79 161.09 151.12 75.71 -286.25 -1715.89 -3927.32 -4502.04 -4386.06 -4536.96 -4816.34 -4959.48 -5128.29 -5068.37 -4723.80 -3693.52 -3029.05 -2544.52 -1530.41 -1359.79 -1261.72 -1249.46 -1327.65 -1526.84 -1806.31 -1949.11 -2116.65 -2166.56 -2246.32 -2285.58 -2291.42 -2296.55 -2329.31 -2401.25 -2516.57 -2622.98 -2783.59 -2978.99 -3103.93 -3275.62 -3334.13 -3360.60
-4867.31 -4870.20 -4875.00 -4888.72 -4909.82 -4940.53 -4972.43 -5025.74 -5078.68 -5102.20 -5143.97 -5170.10 -5197.52 -5229.18 -5252.16 -5279.48 -5293.97 -5324.29 -5330.01 -5341.35 -5348.43 -5337.59 -5288.18 -5202.90 -5216.09 -5245.92 -5096.48 -4912.38 -4277.91 -3441.51 -2657.35 -2244.43 -1396.73 -360.82 195.21 203.86 271.86 322.62 343.88 312.26 279.97 236.01 219.96 181.21 191.10 167.64 152.88 147.68 -57.85 -284.22 -251.64 -350.72 -1111.84 -1617.16 -1597.66 -1584.68 -1714.98 -1724.77 -1807.25 -1886.58 -1885.07 -1967.68 -2000.28 -1946.16 -2041.20 -2046.85 -2101.86 -2076.16 -1714.89 -1198.75 -509.76 71.66 169.39 183.03 235.29 346.49 365.92 312.23 319.11 324.80 341.21 378.48 377.12 388.18 399.51 407.94 421.57 423.39 424.01 424.26 427.87 440.13 442.52 443.28 473.93 499.06 520.41 617.78 363.03 409.79 280.72 199.96 167.19 -111.23 -347.45 -1840.05 -4395.43 -4440.96 -4343.02 -4616.90 -4628.23 -4906.43 -5108.54 -5219.90 -4965.57 -4384.43 -3880.77 -3191.47 -2259.83 -1461.89 -1247.74 -1133.87 -1360.56 -1578.70 -1835.40 -1983.34 -2137.60 -2206.48 -2274.65 -2284.02 -2304.87 -2353.00 -2443.71 -2531.12 -2679.50 -2793.48 -2913.43 -3051.32 -3281.84 -3403.01 -3433.15
-4845.26 -4845.21 -4849.21 -4866.47 -4896.69 -4924.85 -4954.52 -5001.91 -5068.55 -5101.97 -5132.69 -5169.70 -5200.64 -5222.98 -5254.91 -5276.77 -5294.12 -5316.83 -5326.70 -5343.32 -5351.74 -5346.89 -5335.14 -5343.26 -5343.12 -5345.76 -5347.17 -5222.09 -5017.09 -4678.68 -3583.69 -2626.93 -1602.91 -386.05 190.63 196.50 255.45 293.02 320.55 349.15 332.15 266.14 268.93 237.25 220.07 197.54 179.03 178.71 154.38 147.28 140.17 51.59 -464.09 -816.15 -1112.47 -1209.34 -1198.73 -1202.51 -1341.38 -1582.22 -1595.08 -1579.81 -1632.40 -1734.35 -1813.34 -1898.52 -2086.63 -1696.81 -343.73 127.95 140.12 138.06 201.74 232.73 291.86 349.25 381.01 338.62 343.88 360.31 373.97 383.79 384.82 395.03 404.02 411.98 425.11 425.82 426.64 424.83 427.95 427.50 429.25 437.48 442.09 440.85 447.30 459.67 504.98 622.58 437.61 279.14 204.57 151.53 108.98 -452.10 -3034.95 -4439.62 -4306.16 -4429.73 -4638.23 -4946.80 -5178.16 -5359.81 -5441.02 -5339.70 -5235.63 -4780.94 -3624.30 -2313.25 -1532.44 -1117.95 -1250.74 -1487.75 -1639.83 -1915.48 -1960.33 -2113.35 -2180.33 -2258.99 -2295.71 -2340.65 -2408.65 -2465.12 -2610.09 -2801.79 -3001.19 -3110.82 -3276.66 -3434.64 -3434.71
-4828.87 -4831.09 -4839.49 -4853.96 -4876.34 -4910.64 -4942.07 -4996.85 -5053.17 -5099.81 -5126.03 -5166.25 -5204.59 -5226.34 -5250.12 -5273.28 -5295.81 -5313.60 -5329.88 -5339.27 -5351.58 -5355.78 -5360.69 -5365.81 -5374.26 -5379.76 -5377.06 -5363.49 -5324.88 -5086.72 -3548.61 -2052.57 -1234.13 169.50 188.40 209.92 247.24 286.62 315.53 354.22 358.14 328.97 303.32 289.12 271.95 252.69 238.17 211.09 186.24 161.81 149.49 142.53 128.64 -174.00 -365.40 -579.25 -487.74 -776.73 -831.67 -971.34 -1210.07 -1135.04 -1094.77 -1275.38 -1098.08 -1570.23 -1403.91 -745.97 -110.68 149.79 166.39 202.99 247.28 299.81 333.61 343.70 360.45 350.73 351.87 371.45 386.63 390.38 402.85 404.55 411.50 422.53 431.44 434.47 440.72 437.04 440.34 434.41 427.44 428.22 428.62 430.29 439.47 464.99 523.91 710.79 751.72 460.43 268.56 159.36 139.27 -367.33 -2544.03 -4392.39 -4400.56 -4364.80 -4693.02 -4822.85 -5061.23 -5326.59 -5488.65 -5503.00 -5457.26 -5250.12 -4543.67 -3336.80 -1653.09 -1070.34 -1111.15 -1296.74 -1412.16 -1607.71 -1807.49 -2042.68 -2128.45 -2160.58 -2275.96 -2303.84 -2360.13 -2409.29 -2509.40 -2669.98 -2870.98 -3195.46 -3278.14 -3406.48 -3433.33
-4830.87 -4830.80 -4840.72 -4859.92 -4878.13 -4923.33 -4941.12 -4999.85 -5034.50 -5089.16 -5125.08 -5161.67 -5183.42 -5221.75 -5243.74 -5280.41 -5294.37 -5311.52 -5328.11 -5339.47 -5351.34 -5358.54 -5367.08 -5373.01 -5383.37 -5387.46 -5396.58 -5394.08 -5319.45 -5104.72 -3539.47 -1977.05 -654.38 165.67 195.91 243.85 266.52 287.66 311.87 337.91 358.21 365.87 355.34 337.12 306.60 328.70 287.98 230.49 214.46 192.88 169.68 158.19 144.12 135.78 126.79 -7.30 -117.63 -159.40 -433.36 -636.67 -474.30 -407.05 -554.53 -514.04 -206.45 -475.64 -608.51 126.33 126.86 158.15 169.71 216.13 268.13 295.06 309.77 326.25 343.21 355.28 363.63 380.43 387.21 396.35 408.83 414.60 429.15 436.58 446.00 452.36 457.81 453.03 452.95 444.43 435.37 425.67 424.48 431.13 458.02 481.15 519.50 710.47 812.64 593.63 311.81 209.67 166.82 -58.96 -1514.28 -3813.15 -4168.41 -4160.76 -4419.46 -4597.05 -4986.47 -5253.43 -5500.29 -5520.57 -5525.55 -5425.32 -4939.52 -3117.93 -1766.56 -976.39 -975.08 -1063.48 -1297.36 -1453.16 -1654.27 -1942.53 -2046.46 -2145.44 -2256.12 -2330.95 -2365.72 -2431.76 -2604.62 -2769.95 -2959.99 -3060.18 -3273.84 -3433.37 -3433.43
-4829.56 -4829.50 -4841.10 -4863.98 -4885.21 -4926.47 -4956.73 -5009.25 -5051.41 -5074.76 -5115.13 -5158.05 -5177.53 -5211.86 -5241.82 -5273.04 -5298.75 -5314.93 -5330.37 -5340.46 -5352.82 -5362.33 -5370.91 -5378.35 -5384.92 -5391.40 -5399.30 -5402.45 -5378.26 -5119.03 -4000.19 -1581.38 155.48 173.38 212.49 234.34 265.07 303.70 319.69 346.24 362.88 364.38 371.66 381.39 354.99 388.96 374.69 301.23 248.37 210.99 192.44 186.21 171.50 152.85 127.05 122.17 120.25 75.57 -59.40 -55.95 24.08 -2.99 60.30 91.27 98.37 159.44 170.25 149.40 164.85 171.56 229.39 240.93 255.84 272.78 314.77 325.15 346.59 355.99 368.20 381.60 387.94 401.93 412.22 421.52 435.15 440.67 458.94 466.95 471.56 470.60 463.93 451.57 442.51 430.46 429.96 447.72 464.41 480.37 533.77 569.67 826.66 799.90 556.92 291.24 176.96 137.02 -430.90 -2457.19 -4190.49 -4198.79 -4276.76 -4539.04 -4857.04 -5068.92 -5444.41 -5517.75 -5536.81 -5506.80 -5052.45 -3451.12 -1889.92 -780.94 -762.32 -858.10 -1119.59 -1345.84 -1615.45 -1774.87 -1855.47 -2059.98 -2233.25 -2273.98 -2328.07 -2461.88 -2632.42 -2820.22 -2926.74 -3130.51 -3270.69 -3432.11 -3432.17
-4827.34 -4827.28 -4840.06 -4860.34 -4893.00 -4921.09 -4971.58 -5002.37 -5046.83 -5074.66 -5122.52 -5145.34 -5184.37 -5215.54 -5241.69 -5279.29 -5299.98 -5319.37 -5335.65 -5350.34 -5356.34 -5366.91 -5373.73 -5382.99 -5389.56 -5393.79 -5392.33 -5328.09 -5264.87 -3982.95 -2576.64 -504.60 177.95 191.21 234.73 257.30 272.88 309.14 333.69 346.83 363.10 375.01 390.21 401.25 425.81 435.03 457.50 343.80 279.01 232.67 208.99 198.53 188.32 184.14 164.56 149.69 137.97 130.91 93.07 140.28 137.37 146.54 151.71 166.78 173.70 182.60 222.50 216.40 222.68 221.62 251.06 245.98 264.36 283.97 312.59 323.92 338.01 351.21 364.25 377.99 387.01 403.72 419.89 432.58 443.27 456.87 468.59 476.58 486.23 492.56 480.00 466.44 460.58 437.86 429.52 448.72 459.66 490.02 540.21 593.33 705.62 783.53 712.83 432.13 224.18 189.67 160.49 70.65 -2451.29 -4321.35 -4355.00 -4603.64 -4703.91 -5044.90 -5239.99 -5515.82 -5537.35 -5508.39 -5070.46 -3982.28 -2306.74 -801.51 -683.65 -750.64 -959.91 -1097.82 -1376.51 -1601.46 -1795.66 -1995.43 -2152.67 -2230.58 -2287.37 -2395.77 -2529.19 -2760.33 -2981.94 -3180.17 -3314.53 -3432.49 -3432.56
-4832.18 -4833.20 -4846.87 -4866.97 -4895.69 -4930.02 -4977.71 -5019.77 -5043.86 -5078.92 -5121.10 -5152.76 -5188.56 -5213.81 -5252.69 -5280.95 -5305.75 -5323.53 -5340.74 -5353.90 -5366.04 -5376.16 -5382.39 -5387.28 -5389.91 -5370.79 -5300.53 -4733.57 -4232.03 -3367.35 -1122.11 -424.89 99.01 185.81 247.57 268.30 288.64 318.11 334.08 355.52 368.06 390.16 403.68 424.96 468.62 529.26 465.88 410.66 295.06 254.40 231.39 212.41 197.93 188.39 181.98 167.62 162.00 153.35 153.39 149.70 154.27 161.49 184.48 202.90 211.21 234.93 274.24 265.10 275.36 252.41 241.51 250.54 268.57 288.97 301.04 326.73 337.69 349.75 364.02 381.43 389.37 406.42 420.67 435.27 447.78 464.39 474.22 486.37 496.21 503.59 496.81 491.59 479.91 441.82 441.49 448.09 455.05 470.15 526.76 548.78 637.11 803.70 822.95 476.12 302.74 225.25 188.22 -452.40 -2025.02 -4765.35 -4530.71 -4579.12 -4710.31 -4967.99 -5207.95 -5508.48 -5531.91 -5516.37 -5349.89 -4170.48 -2073.91 -756.47 -604.08 -644.23 -692.87 -1005.67 -1158.28 -1453.34 -1660.15 -1868.80 -1989.18 -2121.51 -2216.25 -2286.32 -2389.53 -2620.24 -2831.36 -3016.62 -3258.58 -3405.33 -3425.87
-4844.93 -4844.85 -4865.90 -4872.75 -4920.32 -4947.47 -5007.89 -5029.42 -5060.57 -5101.62 -5139.58 -5165.83 -5202.97 -5227.16 -5270.80 -5287.10 -5317.42 -5330.92 -5349.03 -5363.46 -5374.12 -5385.58 -5386.55 -5382.76 -5319.79 -5281.71 -5106.05 -3957.47 -3433.30 -1961.56 -692.79 39.74 190.13 204.20 234.37 269.16 289.71 328.17 344.32 358.18 392.46 402.74 414.98 441.12 473.43 548.26 484.37 376.56 324.85 292.09 241.34 225.89 212.94 203.85 193.16 179.75 175.14 167.03 162.57 172.81 201.33 216.74 230.60 253.57 233.36 261.72 286.56 277.91 276.94 270.36 263.74 267.52 280.84 290.91 308.35 321.18 333.48 349.56 357.56 378.40 390.77 406.85 421.59 437.66 453.46 470.64 481.86 491.92 512.91 518.80 515.65 502.41 489.18 485.06 465.37 455.16 457.29 480.04 528.01 541.23 596.69 778.99 911.00 625.25 354.22 224.42 187.71 123.49 -2059.74 -4773.69 -4631.21 -4571.06 -4840.16 -5119.85 -5283.90 -5456.48 -5516.44 -5502.08 -5254.35 -4834.74 -2040.03 -875.27 -519.21 -539.20 -579.84 -947.10 -1144.69 -1447.48 -1690.50 -1692.88 -1902.62 -2026.75 -2130.29 -2238.10 -2360.65 -2579.73 -2752.66 -3079.77 -3301.72 -3419.09 -3419.15
-4864.78 -4864.70 -4887.27 -4900.82 -4933.21 -4973.29 -5008.73 -5044.22 -5069.31 -5122.43 -5145.68 -5181.60 -5205.88 -5230.40 -5264.53 -5299.43 -5316.44 -5337.59 -5351.78 -5370.45 -5379.22 -5377.64 -5315.76 -5299.33 -5070.92 -4526.79 -3966.09 -2962.48 -2251.94 -772.40 -114.06 168.25 189.57 217.39 253.16 277.82 299.44 322.36 348.81 367.86 396.23 421.68 425.15 449.58 483.97 528.52 456.58 412.56 331.66 295.76 264.72 246.08 231.49 213.43 204.79 192.80 189.12 182.70 206.75 219.46 244.75 262.01 280.69 293.63 277.48 285.17 282.34 278.80 277.99 275.67 273.79 280.59 285.13 298.25 305.42 313.87 327.64 348.86 359.16 372.22 392.90 414.13 424.81 439.74 460.30 476.79 489.99 505.17 518.49 535.73 541.59 528.72 518.20 502.80 479.35 466.96 473.78 497.51 535.27 538.76 571.99 679.08 876.76 769.70 433.66 275.83 182.38 62.43 -815.87 -3823.29 -4467.56 -4519.75 -4882.76 -5098.62 -5322.80 -5410.43 -5474.14 -5455.24 -5345.44 -3926.86 -2249.16 -897.37 -528.34 -482.03 -598.61 -772.48 -1144.10 -1285.60 -1380.14 -1618.03 -1888.55 -1975.69 -2107.85 -2206.38 -2363.67 -2457.37 -2779.02 -3028.16 -3161.75 -3254.00 -3253.94
-4889.78 -4889.69 -4911.28 -4927.86 -4964.72 -4989.69 -5030.38 -5063.46 -5100.10 -5127.27 -5155.93 -5195.66 -5221.65 -5245.14 -5272.01 -5292.20 -5306.04 -5322.72 -5335.31 -5336.20 -5330.55 -5289.56 -5200.11 -4925.61 -4213.22 -3954.51 -2733.38 -1908.90 -826.54 28.22 161.18 175.02 196.94 237.12 261.63 294.06 327.61 337.47 352.82 379.04 407.39 428.33 454.07 484.09 496.36 546.02 498.36 437.24 366.15 302.48 278.64 259.64 246.13 226.29 220.80 216.45 214.14 221.61 232.02 257.45 279.77 295.66 309.45 306.48 294.52 284.41 281.28 278.69 277.83 275.64 277.57 280.82 288.75 296.20 304.77 316.62 334.34 345.58 360.33 373.04 397.10 413.92 427.64 449.66 467.06 483.07 508.28 515.19 530.95 562.53 561.57 557.78 537.30 522.62 489.72 476.78 472.14 487.72 510.34 530.42 558.36 615.12 913.15 916.12 381.12 192.62 128.49 15.86 -2072.02 -4241.69 -4156.60 -4419.41 -4757.72 -4804.09 -5303.61 -5401.46 -5426.32 -5385.12 -5206.37 -3952.37 -2326.23 -758.51 -464.43 -445.52 -533.83 -756.41 -957.83 -1090.76 -1236.06 -1485.68 -1819.12 -1899.85 -2025.29 -2214.13 -2351.14 -2461.38 -2574.16 -2872.39 -3022.12 -3205.64 -3205.71
-4918.06 -4917.87 -4932.01 -4964.48 -4982.57 -5007.74 -5056.70 -5085.06 -5109.34 -5152.09 -5181.30 -5215.00 -5237.19 -5256.98 -5277.70 -5285.20 -5299.15 -5311.33 -5323.60 -5256.52 -5169.33 -4929.17 -4420.73 -3902.56 -3423.29 -2754.21 -2369.45 -1257.59 -514.40 132.80 159.46 185.43 220.80 253.83 268.28 318.90 341.16 359.86 372.33 378.33 411.85 448.75 491.82 500.25 510.17 525.94 487.89 457.01 384.53 318.61 282.18 265.18 255.30 245.57 231.06 228.14 220.64 230.46 262.79 292.21 296.82 304.74 296.80 289.75 286.51 284.04 280.51 277.88 276.36 275.39 276.74 280.88 286.02 296.46 303.69 314.35 321.48 337.89 356.18 368.25 398.72 408.87 420.68 453.31 469.99 486.95 519.51 533.60 552.23 567.78 575.95 576.75 560.91 541.56 523.52 493.64 475.08 487.04 502.62 507.97 527.67 607.07 801.77 791.85 467.36 191.42 127.96 22.21 -1912.78 -3775.76 -3931.74 -4121.24 -4352.76 -4675.39 -5056.35 -5374.85 -5367.71 -5361.19 -5134.20 -3920.99 -2159.37 -670.16 -442.47 -410.64 -505.28 -663.30 -762.30 -922.65 -1290.52 -1454.32 -1571.24 -1775.98 -1988.34 -2117.76 -2260.44 -2392.20 -2569.76 -2785.78 -2900.09 -2984.54 -2984.44
-4948.37 -4948.28 -4968.82 -4992.24 -5013.38 -5056.80 -5071.63 -5109.93 -5139.38 -5175.82 -5196.44 -5221.94 -5245.41 -5267.85 -5284.62 -5277.60 -5285.56 -5280.33 -5118.42 -5068.40 -4670.92 -4226.32 -3676.63 -2827.64 -2435.33 -2155.70 -2059.24 -1377.09 -127.53 159.00 183.01 218.39 237.31 267.70 303.49 319.20 342.08 361.49 377.63 394.64 434.55 468.41 509.26 521.15 514.42 489.79 447.45 434.08 355.20 329.09 298.12 283.96 262.21 252.63 248.78 247.63 241.50 252.61 283.40 303.94 312.37 308.37 298.73 289.17 286.19 282.41 279.11 277.24 276.28 274.94 277.21 282.29 284.36 291.74 303.13 308.79 323.38 339.19 354.77 374.33 384.42 413.08 433.74 447.86 468.09 490.54 516.13 539.95 559.34 574.61 589.91 593.65 574.59 549.52 534.96 497.78 479.23 478.86 490.92 505.93 518.38 556.50 700.78 805.26 448.43 207.39 147.78 58.52 -1268.92 -3334.59 -3822.50 -4166.83 -4281.80 -4712.75 -5026.45 -5259.24 -5306.04 -5271.59 -4977.59 -3955.55 -1610.30 -846.34 -414.74 -381.04 -400.00 -587.14 -766.89 -857.56 -1064.71 -1254.97 -1495.10 -1710.36 -1964.52 -2093.76 -2252.50 -2380.23 -2561.28 -2700.74 -2833.29 -2929.20 -2929.27
-4979.15 -4979.06 -5001.35 -5016.42 -5042.74 -5082.48 -5106.17 -5133.89 -5154.33 -5185.94 -5210.18 -5235.83 -5260.98 -5275.33 -5267.30 -5239.23 -5120.02 -4997.44 -4658.02 -4102.46 -3579.93 -3341.79 -2514.08 -2087.36 -2040.88 -1909.16 -1260.57 -475.69 164.54 180.17 225.78 250.99 261.76 281.11 315.95 337.65 346.90 367.27 392.43 407.20 465.14 493.62 518.80 509.15 460.07 439.91 428.82 409.91 347.02 317.34 303.95 292.80 265.57 256.00 255.55 256.56 253.16 263.96 299.18 305.39 307.42 299.76 295.08 288.50 286.50 282.33 279.81 277.59 276.38 274.64 275.31 279.61 283.48 288.96 302.73 307.76 322.14 331.41 353.13 369.76 381.93 402.00 423.07 446.00 467.68 492.83 513.79 546.47 568.25 587.01 593.99 601.89 586.16 552.53 530.56 517.56 487.22 465.34 475.42 489.15 492.04 474.95 687.33 789.09 365.36 206.15 179.14 -376.37 -2063.90 -3461.61 -4017.18 -4278.10 -4532.82 -4872.13 -5115.21 -5237.50 -5273.63 -5188.60 -4778.77 -3887.75 -1495.42 -639.26 -335.97 -338.40 -380.06 -494.25 -642.40 -684.66 -919.47 -1297.87 -1550.82 -1617.62 -1931.46 -2169.94 -2285.72 -2404.27 -2498.63 -2679.16 -2741.33 -2812.92 -2812.91
-5009.77 -5009.87 -5025.20 -5052.05 -5080.39 -5110.35 -5131.73 -5160.58 -5172.92 -5200.85 -5224.06 -5244.29 -5246.66 -5227.79 -5196.36 -4945.23 -4648.40 -3994.51 -3504.83 -3180.18 -3059.87 -2138.76 -2037.14 -1832.94 -1799.61 -1254.55 -435.28 143.80 173.91 213.25 239.76 267.58 287.62 313.49 332.29 355.15 362.20 379.38 403.57 422.06 464.54 509.40 507.47 476.85 442.07 409.55 400.37 380.95 337.97 322.65 302.60 293.74 277.78 267.23 263.95 262.29 276.24 299.67 302.15 300.78 298.79 295.71 291.62 288.14 286.34 284.43 281.43 277.82 276.30 275.39 275.54 281.90 284.18 291.26 298.71 307.61 314.78 331.44 353.33 365.84 388.76 408.65 417.81 444.94 471.15 498.59 520.24 562.77 579.13 596.32 604.27 605.90 593.19 554.55 537.01 527.71 501.80 462.22 456.26 460.56 452.29 432.70 598.97 677.94 394.02 196.64 76.65 -448.36 -1661.68 -3350.45 -3975.04 -4357.11 -4653.15 -4908.74 -5128.92 -5205.54 -5223.56 -5158.79 -4790.91 -3256.17 -1445.03 -534.18 -330.03 -316.55 -361.31 -425.90 -504.73 -660.46 -889.96 -1248.19 -1426.52 -1658.07 -1990.57 -2196.53 -2319.59 -2382.38 -2479.53 -2574.65 -2704.47 -2789.60 -2789.68
-5039.72 -5039.63 -5060.06 -5078.84 -5094.55 -5131.15 -5159.80 -5179.83 -5216.42 -5232.75 -5235.04 -5213.25 -5173.91 -4979.29 -4564.71 -4108.81 -3452.56 -3088.31 -2580.37 -2201.86 -1859.80 -1692.01 -1704.49 -1663.67 -1442.47 -826.83 -80.78 179.85 193.80 225.93 259.47 288.63 303.23 323.10 338.12 355.30 371.15 387.84 421.76 447.12 470.42 514.66 508.61 482.50 440.40 399.85 370.31 347.50 330.50 320.47 298.74 291.17 279.80 272.83 270.32 273.85 284.56 300.78 304.42 301.88 301.02 297.14 294.28 290.62 287.37 285.64 281.80 278.72 277.92 275.50 276.10 280.94 283.07 289.07 299.33 305.99 316.72 335.68 353.17 357.87 398.26 406.84 417.98 447.81 465.34 497.24 526.83 553.71 579.64 605.62 610.44 607.93 597.11 572.75 544.16 527.43 488.47 465.74 445.85 428.68 416.84 406.43 409.41 430.47 328.42 192.17 60.97 -110.03 -448.42 -2720.98 -4036.73 -4432.70 -4705.35 -4783.32 -4978.80 -5035.60 -5067.42 -4948.09 -4720.66 -2857.96 -1738.41 -439.58 -284.37 -282.61 -334.12 -377.03 -459.20 -648.52 -826.49 -1109.95 -1448.22 -1641.07 -2036.09 -2199.63 -2314.48 -2414.93 -2473.87 -2594.42 -2707.67 -2790.62 -2792.55
-5058.31 -5058.23 -5080.89 -5101.12 -5118.35 -5145.43 -5180.82 -5208.57 -5242.84 -5246.16 -5219.03 -5080.20 -4733.18 -4574.79 -4049.77 -3355.57 -2872.22 -2315.52 -1990.47 -1859.13 -1653.06 -1574.69 -1595.42 -1617.30 -1393.97 -423.21 26.95 191.65 215.72 239.29 272.15 295.43 318.92 329.07 351.87 363.51 382.37 411.64 424.31 461.13 480.07 526.81 494.69 463.26 424.08 394.70 358.98 339.22 318.34 304.98 294.11 285.15 280.58 275.20 274.21 282.79 288.36 300.41 306.15 307.88 307.48 299.98 295.04 291.72 289.47 285.85 283.61 280.15 278.41 275.66 274.33 278.62 285.58 291.77 297.72 304.86 319.32 333.82 352.44 363.61 385.96 401.45 421.34 447.19 467.05 498.40 517.55 545.15 578.80 610.34 618.77 613.98 601.71 582.61 539.32 523.45 495.88 476.57 452.22 428.09 384.93 366.45 331.43 306.14 264.27 180.74 156.18 77.06 -155.17 -2982.58 -4244.15 -4176.34 -4719.63 -4773.16 -4868.15 -4927.59 -5007.73 -4778.62 -4184.75 -2525.03 -777.31 -359.14 -255.46 -271.89 -318.15 -392.44 -483.53 -632.52 -838.39 -1037.65 -1341.29 -1652.40 -1898.47 -2171.74 -2303.87 -2411.03 -2540.01 -2590.35 -2726.70 -2795.73 -2795.81
-5095.07 -5094.96 -5113.85 -5125.88 -5158.34 -5180.93 -5202.04 -5224.03 -5256.56 -5257.44 -5174.21 -4897.26 -4255.18 -3528.49 -2730.34 -2548.73 -2255.43 -2109.69 -1908.51 -1763.55 -1617.43 -1539.53 -1568.29 -1605.60 -1075.01 -347.85 19.01 200.58 251.53 268.46 287.42 307.70 321.83 343.84 365.30 381.11 410.23 420.11 437.97 476.43 495.55 528.58 475.07 430.47 400.71 388.73 357.31 323.73 305.69 290.25 282.79 278.76 276.32 276.22 281.34 289.84 293.13 307.14 319.25 318.75 315.66 301.72 296.49 292.71 290.62 286.43 284.24 280.61 278.44 276.88 274.38 275.86 284.23 292.07 296.65 305.66 316.09 330.15 346.02 361.99 388.04 402.75 428.63 440.56 480.97 498.31 525.84 555.71 586.98 611.10 617.85 614.72 604.45 581.25 548.95 523.07 500.07 471.65 457.11 417.63 390.56 359.66 336.23 285.01 215.19 188.70 137.82 89.32 -180.88 -1640.76 -3054.02 -4106.47 -4652.48 -4733.22 -4822.07 -4889.74 -4896.27 -4569.90 -3499.35 -1908.67 -606.50 -248.47 -227.08 -275.92 -335.67 -425.39 -522.44 -667.50 -829.84 -1061.00 -1359.58 -1546.73 -1879.15 -2100.11 -2295.71 -2498.40 -2674.25 -2747.01 -2867.98 -2911.67 -2911.83
-5139.89 -5140.56 -5155.22 -5167.98 -5187.54 -5198.89 -5220.02 -5238.80 -5235.68 -5214.00 -4999.44 -4609.49 -3528.11 -2880.63 -2334.99 -2048.02 -2035.15 -2036.33 -1919.75 -1746.25 -1636.52 -1579.64 -1581.12 -1620.24 -857.82 -121.95 152.08 178.05 232.43 283.87 298.32 311.25 334.28 352.48 372.12 389.53 425.14 452.26 471.96 499.87 518.05 510.12 453.17 389.82 370.23 347.26 329.76 316.37 297.68 279.51 277.84 271.05 266.14 278.33 287.48 300.20 305.81 325.49 343.84 329.91 328.22 319.22 303.91 299.01 294.45 287.50 283.07 279.63 278.83 276.94 274.75 275.22 283.52 288.72 296.72 304.07 312.07 327.48 342.04 356.20 378.31 401.09 429.73 450.35 472.35 491.66 517.52 554.78 580.36 602.32 610.90 609.66 600.31 585.62 550.69 531.23 506.54 459.43 441.38 402.67 383.31 350.95 326.61 275.45 225.05 171.74 123.84 109.06 63.97 -248.18 -2222.23 -4080.21 -4327.08 -4596.71 -4753.30 -4789.17 -4686.59 -4126.95 -2246.28 -822.88 -285.46 -189.85 -196.72 -262.46 -349.18 -490.53 -707.08 -825.40 -900.65 -1082.78 -1451.57 -1706.59 -1960.54 -2160.95 -2332.07 -2493.97 -2686.67 -2857.01 -3032.80 -3075.66 -3075.86
-5187.53 -5187.41 -5195.82 -5184.73 -5183.61 -5181.90 -5124.27 -5104.70 -5094.64 -4696.85 -4219.90 -3718.92 -3019.58 -2142.82 -1894.64 -1753.11 -1841.62 -1901.95 -1846.63 -1637.63 -1585.50 -1596.89 -1606.03 -1568.83 -919.03 -216.13 64.29 180.16 221.31 258.38 298.91 337.16 349.88 361.75 382.68 413.80 450.62 468.90 494.84 521.28 507.81 442.75 411.20 399.11 353.83 303.36 299.06 287.04 279.14 273.81 261.47 259.22 259.70 268.50 286.36 295.72 308.81 324.53 361.28 375.45 366.35 336.02 313.58 301.08 295.36 288.04 284.35 280.54 278.95 276.10 274.90 274.81 282.53 286.64 293.78 303.09 314.60 326.81 339.12 357.43 372.74 396.53 424.88 445.95 463.92 495.68 522.03 549.15 578.46 598.83 607.07 605.69 596.65 578.98 549.38 521.91 494.20 452.72 438.71 366.39 348.18 337.09 298.69 249.35 206.32 176.79 139.68 117.94 -11.67 -440.79 -1736.93 -4069.07 -4135.86 -4422.79 -4616.67 -4627.43 -4290.10 -3663.93 -1551.50 -384.06 -180.18 -123.58 -208.52 -267.78 -318.72 -509.11 -649.93 -909.44 -1031.11 -1231.90 -1624.56 -1857.25 -2065.31 -2235.16 -2360.94 -2434.69 -2686.46 -2782.17 -3127.00 -3196.08 -3196.26
-5192.17 -5191.49 -5115.27 -4932.91 -4901.03 -4897.48 -4726.94 -4354.67 -4175.06 -3785.48 -3117.43 -2398.45 -2282.71 -1965.78 -1792.49 -1733.87 -1749.55 -1732.74 -1581.25 -1274.41 -1357.89 -1322.07 -1367.78 -1313.39 -851.85 -118.84 163.32 205.87 231.88 268.13 305.39 343.62 351.53 370.58 401.78 432.00 473.85 489.46 512.89 517.74 493.31 440.58 383.67 363.29 345.72 291.51 280.41 271.43 268.96 252.03 250.59 252.12 257.58 261.69 275.79 281.32 314.51 356.26 407.24 419.26 393.99 344.03 317.10 303.27 298.17 289.54 285.77 281.32 279.02 274.85 274.24 275.85 281.91 288.90 294.60 300.74 310.29 321.90 343.06 363.49 377.52 395.33 417.83 436.66 462.03 493.00 521.27 537.49 570.51 590.72 598.99 597.30 590.17 569.77 536.97 518.00 478.21 442.75 425.10 372.77 347.86 315.97 277.42 225.38 187.70 158.21 135.06 120.71 -39.11 -761.80 -1389.87 -3422.48 -3863.99 -4189.26 -4545.86 -4574.11 -3615.62 -2586.89 -793.60 -319.69 -89.25 -129.26 -182.10 -242.60 -341.51 -536.08 -776.80 -967.53 -1081.70 -1336.55 -1719.65 -2034.86 -2195.84 -2264.21 -2405.36 -2511.43 -2671.28 -2847.14 -3121.10 -3387.17 -3387.43
-4702.82 -4703.31 -4333.46 -4270.90 -4140.54 -3769.96 -3566.21 -3136.16 -2725.71 -2402.07 -2353.46 -2096.77 -1930.96 -1852.00 -1826.99 -1809.36 -1767.81 -1632.83 -1387.53 -1084.02 -788.79 -652.10 -907.96 -970.64 -398.04 148.83 180.02 194.64 233.75 272.87 318.13 347.90 365.96 394.90 415.20 470.48 500.48 512.71 506.38 487.73 465.40 423.62 371.06 337.22 314.24 278.69 272.96 256.29 250.02 243.10 240.76 239.51 246.78 255.64 259.35 275.46 301.12 328.90 378.73 412.30 392.58 338.64 323.22 311.57 302.16 292.61 283.90 282.29 278.36 274.63 273.81 277.99 283.86 290.11 297.17 304.17 314.43 326.01 340.21 357.11 380.88 400.36 418.95 433.57 467.56 491.96 514.24 534.29 560.85 582.15 585.95 589.90 584.11 563.77 531.74 513.51 462.18 432.62 407.79 375.56 360.33 294.38 249.03 223.12 180.87 147.46 135.92 -3.01 -432.23 -1073.67 -2138.84 -2754.26 -3717.43 -4162.31 -4305.60 -4359.96 -3398.33 -1764.64 -514.33 -188.69 -48.40 -110.15 -180.14 -247.84 -321.62 -466.70 -775.07 -996.15 -1259.13 -1591.55 -1713.64 -1961.92 -2160.64 -2349.26 -2496.85 -2615.86 -2838.72 -2981.63 -3214.42 -3315.60 -3315.58
-3243.21 -3245.21 -3220.05 -2922.54 -2983.41 -2411.85 -2359.08 -2135.07 -2104.97 -1952.09 -1857.63 -1843.89 -1837.47 -1838.32 -1842.30 -1855.01 -1829.31 -1693.97 -1318.51 -1004.17 -517.80 -419.94 -431.93 -443.36 17.81 157.03 181.81 227.16 243.66 257.51 293.23 352.15 379.77 426.26 460.95 488.68 504.66 477.60 463.72 446.40 413.62 391.27 342.56 315.98 285.42 275.38 259.33 246.76 242.52 234.54 234.59 231.94 231.70 243.08 251.15 265.32 273.05 302.31 323.65 379.05 401.98 346.49 326.28 313.58 307.78 296.61 284.41 281.85 276.14 274.05 273.67 275.55 282.19 288.12 297.79 306.14 316.48 329.87 342.14 358.91 379.02 407.97 428.38 446.41 469.48 491.72 507.17 530.67 538.85 563.81 568.54 570.39 564.20 551.59 521.51 460.23 446.57 404.86 365.10 358.80 349.65 294.23 240.18 206.96 176.58 141.37 128.75 -412.64 -920.60 -1652.89 -2542.99 -3052.41 -4196.78 -4357.02 -4318.76 -3948.34 -3086.31 -1456.27 -425.36 -57.55 -46.09 -102.39 -166.07 -220.61 -267.78 -433.47 -714.88 -1000.75 -1320.07 -1645.91 -1820.62 -1891.29 -2213.51 -2389.29 -2541.49 -2691.75 -2880.98 -3128.61 -3224.16 -3321.83 -3321.94
-2064.39 -2066.44 -2119.08 -2233.50 -2085.57 -2023.60 -1933.90 -1865.04 -1834.91 -1818.92 -1818.62 -1819.67 -1830.82 -1842.70 -1858.21 -1885.02 -1885.92 -1804.05 -1610.81 -1117.87 -558.39 -224.71 -155.29 -69.67 139.24 152.75 179.36 205.11 237.54 261.19 288.94 328.43 377.32 410.33 455.92 458.67 440.47 442.70 421.73 412.22 395.78 370.67 325.29 293.33 270.81 259.24 246.86 239.53 233.21 225.10 227.81 227.48 226.26 232.22 248.45 253.60 264.69 281.57 319.23 361.53 385.75 369.69 355.16 319.72 302.03 295.53 285.41 281.48 275.80 273.58 273.31 274.75 280.16 288.16 295.65 307.70 314.02 327.66 341.22 362.44 382.78 404.11 422.85 441.59 474.32 487.16 503.97 522.66 536.28 541.80 549.26 543.84 544.81 533.63 512.52 475.58 448.21 424.65 394.22 358.35 291.35 288.18 216.27 196.46 155.64 133.97 -50.49 -594.71 -1009.25 -1604.59 -2316.50 -3854.27 -4968.69 -4815.42 -4748.06 -4230.99 -2575.30 -839.21 -142.07 -43.01 -43.03 -117.06 -167.59 -227.70 -261.40 -454.19 -679.85 -1012.69 -1307.95 -1572.96 -1731.60 -2036.67 -2312.88 -2434.60 -2550.63 -2693.93 -2936.63 -3086.28 -3243.26 -3336.70 -3336.81
-1791.55 -1792.10 -1837.70 -1850.38 -1833.64 -1823.54 -1827.26 -1829.15 -1823.39 -1822.83 -1828.21 -1836.50 -1850.81 -1859.30 -1880.31 -1915.77 -1907.18 -1856.33 -1720.50 -1079.62 -893.50 -390.76 -194.68 24.76 139.75 148.07 175.29 217.00 243.49 246.41 289.09 311.73 351.59 372.60 429.19 421.96 396.57 396.46 382.33 383.84 368.94 337.60 320.50 274.48 241.76 240.27 237.33 231.18 224.58 222.28 222.99 222.09 223.96 230.33 233.00 251.96 262.98 271.95 302.52 336.69 374.68 388.75 350.22 330.39 307.15 296.96 285.54 280.44 274.71 273.17 273.07 273.35 277.75 284.24 292.73 308.91 321.98 337.00 347.44 368.38 390.20 401.73 431.36 446.49 464.01 482.03 506.45 516.02 526.12 532.31 530.42 533.39 535.32 524.93 505.60 460.14 447.98 394.06 372.14 341.99 280.36 259.07 213.84 179.38 138.22 120.66 7.17 -510.32 -1338.56 -1620.80 -3280.25 -4415.69 -5065.58 -5135.53 -4923.01 -3920.20 -1597.89 -549.23 -65.78 -12.80 -79.52 -136.95 -183.06 -225.70 -296.69 -448.77 -687.10 -911.22 -1342.16 -1570.31 -1887.65 -2172.34 -2274.60 -2410.15 -2551.71 -2624.72 -2900.88 -3090.16 -3189.09 -3261.62 -3261.50
-1798.60 -1798.43 -1814.43 -1823.40 -1830.04 -1838.67 -1840.12 -1837.94 -1842.44 -1846.81 -1848.52 -1853.05 -1866.33 -1877.68 -1892.72 -1923.96 -1921.20 -1898.73 -1698.46 -1285.79 -704.87 -383.24 -184.99 95.47 136.80 147.62 178.03 194.19 205.34 236.82 264.91 299.64 320.74 350.91 365.40 354.88 356.95 362.26 353.01 328.93 302.55 301.28 279.41 240.90 234.50 229.19 223.49 221.23 219.92 219.24 218.94 219.20 221.99 228.21 233.91 243.53 258.32 269.47 284.01 315.20 350.97 381.73 350.13 324.26 310.52 299.45 294.18 279.68 275.02 272.51 271.88 272.76 278.13 282.15 291.64 313.96 323.80 339.25 353.73 377.89 391.81 414.36 441.18 460.83 480.54 497.07 507.29 509.75 512.70 514.19 515.34 519.08 515.58 507.11 482.86 456.55 426.95 389.41 341.14 303.55 254.62 230.79 192.07 147.12 125.66 118.75 -176.56 -908.61 -1324.13 -1790.25 -3186.11 -4035.41 -5218.80 -5284.84 -4794.00 -3533.75 -1791.88 -390.51 -44.25 44.74 -46.33 -121.30 -193.17 -245.62 -327.49 -441.54 -699.41 -875.16 -1179.91 -1618.72 -1913.05 -2165.73 -2320.73 -2413.36 -2535.73 -2638.27 -2793.30 -2993.38 -3126.13 -3274.88 -3275.06
-1826.24 -1826.24 -1834.28 -1847.09 -1849.35 -1855.08 -1858.74 -1873.39 -1865.00 -1867.95 -1875.37 -1874.35 -1880.51 -1886.53 -1910.52 -1930.38 -1928.52 -1832.41 -1628.40 -1267.79 -778.32 -396.39 -222.84 47.25 113.85 146.81 154.36 185.02 217.56 229.43 242.89 252.73 279.66 313.18 343.39 348.11 328.59 320.35 312.96 295.61 294.76 276.25 267.10 237.98 229.98 223.03 221.13 216.96 215.68 216.75 217.78 219.08 221.54 226.75 234.10 240.08 253.20 269.17 279.01 319.48 359.98 374.91 375.18 335.07 326.86 309.22 312.24 294.63 273.24 270.74 269.87 271.26 276.22 283.42 291.61 311.38 324.21 336.63 360.54 382.73 404.42 424.97 443.44 455.40 485.41 494.95 502.61 506.84 508.69 505.09 503.40 505.51 501.92 494.78 471.28 446.47 396.01 428.18 344.78 271.86 222.71 194.31 167.44 128.09 115.85 86.99 -680.88 -1057.59 -1511.24 -1853.46 -3106.97 -4519.85 -5081.51 -5255.65 -4737.70 -3107.13 -1445.66 -113.06 77.73 98.83 -8.96 -99.29 -189.77 -240.37 -351.43 -460.47 -592.51 -858.37 -1205.74 -1487.38 -1794.90 -2099.52 -2259.11 -2348.16 -2515.47 -2655.62 -2782.43 -2976.03 -3106.18 -3292.39 -3292.49
-1861.87 -1862.73 -1874.41 -1879.45 -1895.90 -1887.35 -1890.24 -1892.30 -1879.53 -1881.04 -1907.31 -1915.39 -1915.56 -1917.95 -1924.95 -1938.39 -1905.94 -1768.94 -1541.09 -1129.69 -481.81 -281.06 -195.65 -160.14 -22.83 128.54 148.79 172.68 182.97 205.70 233.98 237.61 257.15 283.61 320.56 310.25 292.75 280.84 273.30 265.71 263.66 241.59 235.95 228.31 218.99 218.86 216.52 213.53 214.00 216.26 217.78 220.28 222.93 229.02 233.80 236.05 249.06 258.87 278.11 299.53 359.37 381.39 411.81 372.55 347.59 349.86 330.05 299.59 268.45 268.74 267.67 269.22 277.18 286.38 297.77 314.64 324.51 340.81 364.03 378.13 408.40 425.41 438.42 457.45 470.13 492.64 499.15 501.77 501.15 496.15 492.15 484.89 480.14 471.63 463.05 421.06 395.61 370.27 286.35 246.19 217.35 165.42 158.50 125.65 80.14 -278.23 -872.64 -1195.04 -1309.07 -1866.67 -3003.80 -4620.90 -5166.48 -5187.32 -4977.94 -3899.41 -863.46 -375.73 67.10 103.21 20.59 -103.69 -191.72 -245.17 -333.13 -479.69 -604.34 -891.82 -1216.32 -1366.81 -1560.35 -1929.40 -2165.57 -2381.83 -2468.76 -2603.90 -2768.68 -2975.92 -3136.35 -3310.09 -3310.09
-1918.21 -1918.18 -1916.84 -1924.79 -1933.45 -1941.38 -1949.46 -1952.76 -1965.56 -1963.71 -1948.18 -1941.10 -1940.41 -1957.23 -1958.00 -1951.42 -1894.69 -1720.37 -1246.59 -737.33 -387.99 -198.67 -181.22 -195.95 -159.93 114.63 139.82 154.33 164.00 176.38 189.90 214.29 225.22 242.73 271.46 262.89 264.87 259.07 249.87 237.24 235.23 234.10 226.84 217.18 215.08 211.90 211.75 211.37 211.27 215.82 218.15 220.81 225.11 226.81 232.52 235.89 246.15 254.53 264.89 287.82 333.92 357.03 366.62 350.03 330.35 333.14 308.54 276.31 266.12 263.75 266.32 267.54 279.37 285.50 296.67 315.50 325.53 346.76 362.74 397.16 418.02 434.19 445.78 458.23 473.28 490.92 491.83 490.77 490.75 483.74 476.89 475.32 454.25 444.50 435.77 404.65 362.29 322.64 274.32 250.46 192.60 167.40 130.64 -20.60 -559.26 -1067.53 -1131.14 -1136.46 -1227.79 -1920.45 -2759.41 -4844.30 -5067.10 -5320.26 -5137.40 -3935.71 -2060.79 -914.05 -137.36 55.53 -14.88 -105.37 -202.81 -262.82 -350.93 -452.69 -663.86 -896.75 -1199.57 -1342.81 -1668.91 -1883.80 -2149.07 -2359.80 -2461.13 -2570.22 -2731.39 -3030.02 -3194.19 -3334.18 -3333.75
-1941.81 -1941.75 -1945.63 -1955.63 -1958.69 -1964.63 -1953.46 -1973.74 -1981.72 -1980.73 -1981.37 -1980.96 -1981.15 -1978.58 -1974.80 -1956.14 -1883.31 -1644.76 -1012.30 -662.90 -376.30 -194.42 -160.77 -192.10 -207.49 25.59 119.91 134.65 152.14 165.99 170.46 190.82 219.07 232.03 245.82 245.16 231.94 231.79 223.87 218.37 212.08 212.15 216.13 205.57 204.99 203.28 204.10 207.40 209.46 214.81 218.13 221.36 225.70 228.46 232.42 235.32 242.85 249.14 256.00 275.40 298.67 320.13 325.01 294.25 279.20 279.45 259.70 258.21 252.40 259.11 261.39 265.75 276.75 284.67 296.00 316.48 331.58 354.76 365.36 382.69 415.66 427.59 450.92 459.46 481.90 488.69 491.61 491.42 490.33 485.25 463.53 452.11 410.38 391.49 396.51 395.15 349.68 276.58 261.25 224.63 190.36 152.02 77.59 -435.83 -812.23 -1008.86 -1037.33 -1082.87 -1287.51 -2161.14 -3332.18 -4761.58 -5308.41 -5354.18 -5223.84 -4478.39 -3189.60 -1632.13 -1079.57 5.70 -102.46 -149.74 -216.76 -286.79 -345.98 -507.40 -734.61 -1005.36 -1206.08 -1411.80 -1703.46 -1951.54 -2134.23 -2315.91 -2453.21 -2642.64 -2917.70 -3238.66 -3420.18 -3521.55 -3521.30
-1959.06 -1958.99 -1966.95 -1978.66 -1980.63 -1975.44 -1948.74 -1950.65 -1973.25 -1946.95 -1967.80 -1983.62 -1993.22 -1991.77 -1988.52 -1963.80 -1867.40 -1701.20 -1132.86 -731.54 -447.09 -244.00 -176.08 -166.95 -202.38 -92.88 -24.86 135.54 143.20 154.19 161.42 166.58 196.79 201.45 206.12 210.78 212.51 212.46 211.04 206.36 191.35 187.66 182.83 190.44 193.29 193.04 196.20 201.82 207.33 212.73 216.85 223.28 227.00 230.01 234.86 236.67 242.09 248.26 250.42 256.98 263.07 263.34 279.61 269.00 259.46 252.76 256.94 251.32 247.36 254.59 256.99 261.07 270.94 283.09 298.02 313.05 326.73 348.49 365.90 392.84 417.53 434.48 450.02 459.14 479.16 494.80 499.67 496.35 492.89 469.89 444.45 437.40 420.25 371.28 354.98 345.79 293.05 245.10 221.68 198.55 188.00 142.03 46.01 -621.30 -930.56 -992.75 -1018.14 -1120.00 -1323.16 -2498.51 -3772.10 -4656.08 -5324.85 -5371.40 -5351.64 -5116.87 -4518.76 -2630.17 -1560.50 -701.81 -207.22 -194.79 -241.18 -324.92 -429.08 -602.65 -871.93 -1133.51 -1269.35 -1489.20 -1794.45 -1944.18 -2166.80 -2346.31 -2484.17 -2721.16 -2989.29 -3285.92 -3566.86 -3694.49 -3694.54
-1976.13 -1976.06 -1986.94 -1989.40 -1965.93 -1972.54 -1971.90 -1971.56 -1977.74 -1977.94 -1986.69 -1942.05 -1907.81 -1967.61 -1992.25 -1975.54 -1916.74 -1827.94 -1479.94 -1170.43 -669.13 -409.34 -255.88 -179.58 -206.12 -206.62 -48.24 44.30 110.41 146.16 147.78 159.64 174.35 176.47 189.91 186.25 198.50 194.58 196.50 180.35 178.61 177.29 173.85 172.53 182.56 184.28 186.33 194.78 204.86 209.32 216.33 222.91 226.77 230.95 236.17 241.08 245.13 257.20 263.46 256.62 247.33 253.05 258.92 257.95 243.60 236.67 239.91 243.36 242.39 246.50 253.09 258.38 264.46 284.83 292.61 309.44 324.71 342.23 358.70 391.05 422.97 434.19 449.90 461.25 487.97 498.48 505.17 506.91 500.00 464.68 437.43 401.04 397.57 389.45 339.24 267.59 251.62 217.64 199.77 189.23 167.65 107.92 -189.38 -817.93 -931.49 -951.12 -1012.40 -1168.43 -1325.76 -2425.14 -3807.71 -5074.56 -5312.21 -5381.93 -5389.14 -5310.77 -5135.96 -4425.50 -2688.46 -1584.58 -413.70 -264.50 -268.18 -319.92 -513.07 -752.75 -855.29 -1292.35 -1390.48 -1550.35 -1835.26 -2061.63 -2234.06 -2324.43 -2454.10 -2669.98 -2985.91 -3266.59 -3592.92 -3720.46 -3720.61
-1993.29 -1994.49 -2002.96 -1970.97 -1954.54 -1995.59 -1998.76 -2007.07 -2027.88 -2018.26 -2003.85 -1984.88 -1970.09 -1991.04 -1990.22 -1980.90 -1942.47 -1848.50 -1645.20 -1413.91 -1158.33 -708.44 -416.72 -219.57 -192.94 -200.76 -161.38 -89.30 -38.40 58.46 140.92 143.71 157.87 162.11 163.55 165.86 177.12 171.61 162.42 163.06 163.67 152.58 156.09 157.54 158.86 167.24 189.19 192.85 204.13 210.88 218.27 226.30 228.34 231.91 234.98 247.60 256.97 263.93 271.16 247.90 233.06 236.68 233.32 234.78 231.60 225.46 228.80 230.32 237.35 239.51 244.89 251.94 261.16 275.24 290.12 307.04 325.80 339.77 365.49 388.17 412.05 430.92 452.10 479.55 496.00 500.61 507.19 510.09 500.87 462.54 432.16 370.23 349.28 364.95 313.41 254.08 225.91 196.52 173.49 141.25 134.13 72.45 -93.18 -678.79 -892.95 -937.01 -1031.91 -1202.54 -1459.59 -2560.29 -4200.76 -5012.55 -5337.87 -5387.17 -5410.63 -5406.75 -5237.78 -4883.28 -3376.64 -1680.73 -523.21 -283.35 -300.78 -367.95 -493.94 -704.88 -899.25 -1272.87 -1578.77 -1791.21 -1920.36 -2058.15 -2209.55 -2304.79 -2409.06 -2602.68 -2904.10 -3122.59 -3473.55 -3666.35 -3666.44
-2008.69 -2008.62 -1970.18 -2012.88 -2001.49 -2008.84 -2034.15 -2032.33 -2030.09 -2030.02 -2029.03 -2018.22 -2003.68 -1990.18 -1975.07 -1975.72 -1959.38 -1951.46 -1847.48 -1774.60 -1434.72 -957.93 -603.50 -321.55 -217.57 -190.51 -216.87 -200.87 -137.01 -37.44 50.57 95.47 91.21 148.66 156.46 161.13 163.06 156.27 149.19 144.57 139.57 136.89 136.45 142.03 153.32 160.48 181.57 192.78 198.23 214.64 220.39 230.02 235.64 242.43 261.64 260.14 269.63 289.21 281.15 250.00 233.22 224.72 220.25 215.56 215.82 217.28 222.32 223.78 227.06 230.36 238.04 247.17 257.38 261.65 284.34 303.75 319.10 343.19 358.99 387.17 408.30 431.39 457.05 485.91 497.78 503.20 502.32 498.68 481.26 439.81 416.85 369.97 329.13 298.69 264.83 217.84 206.13 189.30 145.48 112.46 77.99 -186.09 -607.86 -871.14 -936.69 -975.98 -1079.53 -1278.16 -1941.51 -2913.42 -4506.80 -5116.26 -5348.60 -5392.24 -5428.04 -5438.69 -5371.99 -5082.41 -3497.52 -2212.94 -608.38 -322.04 -320.28 -424.30 -542.39 -781.50 -1142.95 -1389.90 -1711.07 -1881.55 -1990.89 -2087.51 -2250.66 -2319.34 -2425.11 -2603.86 -2872.66 -3181.75 -3382.63 -3662.48 -3662.56
-2019.31 -2020.50 -2005.33 -2002.07 -2021.53 -2040.77 -2047.76 -2033.41 -2035.06 -2020.26 -2026.81 -2020.93 -2002.93 -1998.06 -1975.77 -1927.21 -1959.29 -1952.78 -1924.14 -1802.37 -1688.59 -1303.07 -622.35 -409.36 -219.41 -188.70 -205.13 -233.36 -234.55 -144.32 -65.62 -79.12 30.15 89.60 111.61 129.55 143.49 123.22 107.40 113.41 120.33 120.31 125.56 132.64 147.73 154.16 167.64 190.12 202.71 217.44 221.42 231.73 240.15 247.93 273.45 282.33 292.19 308.62 300.34 259.22 228.07 222.56 215.53 210.74 210.65 212.27 218.12 219.92 222.47 223.42 229.06 237.28 249.06 254.96 274.64 297.03 315.77 346.56 360.05 383.45 402.76 435.05 447.71 486.12 502.18 505.71 500.65 473.25 442.69 410.92 378.33 346.89 322.74 277.06 235.72 206.09 160.70 137.10 112.11 99.52 34.38 -437.66 -754.29 -883.46 -931.72 -1008.93 -1151.57 -1283.84 -1685.68 -3239.24 -4943.66 -5204.32 -5352.53 -5387.38 -5430.16 -5465.49 -5401.31 -5187.03 -3663.00 -2168.89 -748.49 -327.85 -339.24 -471.87 -694.51 -896.68 -1038.42 -1383.19 -1695.69 -1911.12 -2052.18 -2149.16 -2241.93 -2365.32 -2496.89 -2702.90 -2835.30 -3360.01 -3535.17 -3699.59 -3699.42
-2024.28 -2024.22 -2026.10 -2021.92 -2058.02 -2061.19 -2059.24 -2052.03 -2036.02 -2023.14 -2022.67 -2015.74 -2005.97 -1998.56 -1983.87 -1907.72 -1937.80 -1960.38 -1947.60 -1894.58 -1799.60 -1399.11 -933.31 -548.71 -265.74 -195.02 -191.87 -210.27 -224.15 -219.86 -224.18 -229.99 -179.97 -120.52 -9.69 -15.15 13.59 23.25 29.27 25.47 -18.82 71.92 114.57 122.63 128.48 142.08 168.20 186.42 199.09 214.21 223.89 236.61 244.72 257.27 289.33 287.38 325.06 322.90 302.79 256.31 226.97 218.36 210.42 202.82 199.34 201.19 205.88 216.38 212.55 216.80 222.89 232.58 238.61 257.20 276.05 295.73 314.29 351.85 363.75 391.34 407.39 431.17 449.37 486.10 506.71 512.51 502.80 483.89 413.46 387.28 359.62 394.61 291.35 225.63 211.70 198.42 133.60 108.51 101.78 -15.25 -225.95 -564.03 -827.14 -937.87 -1010.97 -1063.87 -1169.87 -1214.46 -2126.83 -3541.37 -4805.54 -5354.03 -5367.58 -5389.94 -5430.46 -5467.21 -5405.58 -5047.42 -3276.11 -1901.82 -568.93 -314.20 -380.35 -570.15 -712.78 -969.56 -1345.54 -1472.50 -1795.96 -2005.54 -2106.98 -2198.61 -2278.68 -2378.78 -2473.09 -2738.92 -3120.58 -3478.66 -3704.50 -4009.57 -4009.66
-2033.27 -2033.15 -2040.77 -2056.31 -2061.53 -2059.31 -2058.00 -2048.68 -2037.23 -2024.69 -2023.06 -2021.11 -2017.04 -2015.52 -1992.33 -1933.38 -1932.59 -1961.06 -1946.36 -1928.23 -1738.87 -1430.50 -929.73 -490.51 -228.24 -203.39 -202.02 -230.38 -240.36 -237.44 -256.37 -265.11 -293.08 -268.83 -181.27 -165.28 -154.23 -161.14 -153.21 -151.67 -141.38 -95.36 40.24 115.42 126.24 153.55 169.09 179.01 207.17 219.74 235.28 251.78 250.59 271.52 314.77 318.52 338.78 330.20 274.73 243.49 224.37 219.29 205.36 200.33 196.59 196.14 197.25 199.66 203.74 206.33 217.10 223.83 237.22 255.78 277.24 289.66 314.34 340.82 356.21 389.45 415.14 434.88 464.61 493.57 501.16 502.58 487.98 428.31 404.17 355.70 315.71 358.88 274.06 184.83 168.54 137.57 104.43 85.51 3.09 -476.31 -1049.19 -999.54 -962.66 -962.64 -1049.43 -1113.35 -1186.77 -1450.09 -2206.31 -3134.33 -4536.34 -5267.96 -5371.35 -5388.93 -5432.20 -5443.29 -5244.27 -4811.91 -2883.58 -1771.53 -392.18 -332.04 -449.61 -699.50 -919.25 -1127.15 -1495.79 -1798.50 -1919.90 -2075.45 -2143.49 -2270.75 -2349.17 -2373.51 -2582.86 -2886.23 -3225.32 -3643.91 -3907.02 -4014.30 -4015.33
-1979.39 -1979.32 -2018.68 -2056.28 -2088.57 -2084.13 -2077.10 -2061.87 -2041.58 -2032.14 -2031.38 -2037.13 -2038.75 -2033.19 -2004.37 -1975.37 -1946.52 -1967.14 -1950.09 -1899.85 -1630.40 -1391.28 -857.05 -443.67 -282.95 -315.73 -434.50 -368.93 -363.12 -390.73 -362.44 -363.85 -435.25 -290.20 -283.08 -218.75 -199.30 -183.19 -182.49 -181.47 -176.44 -146.36 -46.11 87.56 125.33 141.66 163.09 186.36 215.94 230.19 241.33 264.95 269.09 297.04 343.57 339.34 314.37 290.08 260.27 232.78 218.50 213.21 203.00 194.42 192.11 190.95 194.07 193.54 196.50 198.31 208.09 215.18 230.41 245.87 274.32 286.73 314.14 330.95 353.75 389.60 413.52 439.15 463.53 478.65 498.70 491.74 469.61 447.00 405.43 369.99 400.25 270.46 226.41 164.89 128.56 116.10 75.07 -24.20 -361.46 -964.54 -1062.93 -1026.42 -1003.26 -1013.06 -1059.29 -1161.43 -1257.41 -1698.90 -2773.25 -3941.86 -4700.62 -5312.48 -5371.62 -5391.30 -5426.62 -5447.45 -5332.76 -4455.74 -2706.96 -1256.16 -454.18 -431.39 -674.66 -910.66 -1241.70 -1526.26 -1783.85 -1974.88 -2052.01 -2174.16 -2214.47 -2285.97 -2372.52 -2441.07 -2581.18 -2745.58 -3138.93 -3701.04 -4016.24 -4127.55 -4127.63
-2011.14 -2022.56 -2067.33 -2076.65 -2098.89 -2105.35 -2088.47 -2070.97 -2059.71 -2054.37 -2047.83 -2047.41 -2052.98 -2038.80 -2016.68 -1992.36 -1978.82 -1986.44 -1957.58 -1870.07 -1644.92 -1243.07 -824.09 -569.00 -574.14 -600.05 -631.87 -705.41 -813.77 -737.77 -796.72 -823.64 -826.22 -716.25 -424.29 -246.95 -218.42 -213.55 -215.18 -209.44 -204.15 -187.70 -111.71 -21.53 109.03 142.84 165.78 188.95 234.42 241.23 248.07 256.96 279.32 320.11 315.02 308.52 295.04 264.53 247.26 230.89 217.71 209.56 198.54 191.52 189.61 188.57 188.42 188.33 190.92 192.06 200.21 211.58 222.77 236.49 269.28 283.05 309.07 328.65 348.12 371.87 399.90 434.53 451.33 471.27 490.44 478.57 432.62 422.04 396.78 358.38 464.37 372.61 213.12 139.60 118.34 93.67 -17.83 -330.18 -878.97 -1158.88 -1044.04 -1018.10 -1045.46 -1037.80 -1103.73 -1201.61 -1283.05 -1864.75 -2663.54 -4508.40 -5226.17 -5356.40 -5376.51 -5397.20 -5444.10 -5439.46 -5125.25 -4772.16 -2116.38 -588.67 -364.56 -611.53 -819.55 -1102.00 -1558.34 -1938.19 -2024.04 -2135.93 -2170.89 -2220.23 -2275.47 -2318.19 -2367.89 -2489.57 -2728.08 -2949.32 -3336.34 -3690.16 -4005.21 -4117.47 -4117.55
-2088.69 -2088.59 -2068.39 -2074.64 -2102.81 -2122.31 -2116.53 -2099.77 -2083.46 -2080.86 -2087.89 -2071.10 -2073.27 -2062.94 -2029.45 -1980.10 -1974.62 -1996.24 -1995.73 -1917.23 -1749.20 -1339.73 -1045.40 -902.76 -906.02 -1028.40 -1102.02 -1195.72 -1217.45 -1384.51 -1353.26 -1240.12 -1312.22 -816.33 -444.18 -285.23 -255.47 -237.96 -241.08 -247.80 -288.78 -259.72 -184.89 -89.27 66.24 148.21 172.55 198.25 233.97 243.93 253.58 274.14 314.12 326.36 320.69 293.73 267.11 256.70 235.52 224.34 213.75 202.36 194.57 189.18 186.54 185.21 184.77 186.22 184.81 185.39 196.29 206.39 211.72 228.36 253.25 268.93 297.62 321.37 346.19 365.56 394.83 411.15 440.86 455.75 462.07 458.10 414.20 372.31 360.11 343.96 342.05 258.79 206.30 118.17 111.17 69.23 -185.82 -489.75 -1127.57 -1105.95 -1043.46 -1039.76 -1081.83 -1096.42 -1192.66 -1357.80 -1753.36 -2572.50 -3550.06 -4741.78 -5292.96 -5333.26 -5378.99 -5414.14 -5450.67 -5378.38 -5098.06 -3909.54 -1649.31 -620.62 -358.90 -598.64 -1000.90 -1204.93 -1567.12 -1960.75 -2073.79 -2192.05 -2226.51 -2248.05 -2281.38 -2317.75 -2504.90 -2613.72 -2946.90 -3158.22 -3538.52 -3815.81 -4007.41 -4110.45 -4110.53
-2074.64 -2074.61 -2089.61 -2110.51 -2125.23 -2134.05 -2139.60 -2125.06 -2110.82 -2117.06 -2125.96 -2101.16 -2094.82 -2082.87 -2045.64 -2020.45 -2021.98 -2050.96 -2035.45 -1962.80 -1857.76 -1670.44 -1512.67 -1463.89 -1440.19 -1706.02 -1754.25 -1754.43 -1856.06 -1813.44 -1861.21 -1886.54 -1830.30 -1087.85 -622.89 -428.56 -301.68 -286.77 -326.80 -350.52 -352.18 -257.81 -224.41 -107.58 6.61 139.22 169.84 191.47 228.94 230.80 252.61 303.55 325.30 319.48 305.17 264.33 231.60 231.34 225.62 217.34 205.74 193.36 188.68 185.15 182.85 182.35 180.48 177.66 177.95 180.94 186.04 195.33 205.23 231.69 238.74 263.94 286.42 318.88 346.16 368.90 388.64 404.38 429.04 436.16 442.53 444.06 393.78 374.32 326.29 290.77 271.24 249.76 202.79 129.73 63.26 -54.61 -521.66 -923.58 -1101.93 -1055.86 -1056.02 -1096.35 -1168.94 -1223.48 -1364.36 -1819.79 -2178.22 -3400.11 -4522.92 -5113.26 -5264.74 -5334.12 -5396.30 -5423.77 -5458.10 -5383.53 -5012.34 -3281.86 -1517.08 -579.83 -411.61 -615.83 -1027.81 -1489.18 -1681.89 -1936.23 -2134.84 -2204.35 -2237.71 -2266.36 -2302.99 -2399.32 -2549.94 -2683.78 -2993.54 -3445.24 -3697.35 -4009.34 -4086.10 -4118.54 -4118.57
-2131.79 -2131.73 -2101.67 -2085.50 -2111.23 -2142.43 -2147.98 -2138.82 -2139.23 -2132.98 -2133.83 -2126.61 -2118.06 -2108.82 -2085.74 -2073.52 -2071.76 -2069.73 -2056.97 -2047.89 -2012.79 -1903.98 -1848.08 -1813.46 -1866.06 -1913.72 -1970.42 -1973.59 -2054.95 -2082.62 -2126.91 -2122.94 -2057.24 -1919.10 -1319.74 -711.37 -390.27 -340.42 -389.14 -393.04 -394.30 -300.26 -229.55 -195.25 49.75 139.32 157.78 188.52 235.08 234.58 267.37 305.05 305.19 280.84 261.71 227.21 219.47 212.93 212.77 200.36 195.00 188.24 184.20 181.55 179.03 175.85 173.91 173.92 173.88 176.91 182.16 190.13 203.81 220.43 227.19 268.29 282.42 313.93 342.32 365.81 381.03 400.25 417.55 414.44 407.16 397.05 387.72 345.31 337.47 319.95 261.75 201.17 183.58 130.24 31.94 -367.80 -1106.79 -1093.44 -1067.72 -1064.42 -1132.07 -1393.64 -1411.11 -1781.92 -2062.12 -2377.64 -3777.90 -4323.84 -4941.33 -5210.15 -5319.25 -5357.95 -5419.79 -5447.44 -5461.52 -5363.09 -4477.66 -3663.86 -1688.22 -577.42 -570.89 -898.76 -1182.68 -1586.90 -1754.51 -1976.04 -2133.25 -2203.53 -2230.31 -2258.98 -2321.77 -2580.20 -2662.71 -2823.23 -3224.49 -3499.90 -3871.12 -4093.31 -4142.98 -4180.69 -4180.76
-2142.49 -2142.43 -2129.19 -2097.53 -2092.15 -2133.09 -2154.20 -2156.50 -2154.59 -2149.77 -2149.99 -2123.85 -2111.70 -2096.16 -2117.35 -2113.34 -2099.03 -2093.88 -2091.55 -2076.62 -2087.03 -2083.89 -2038.65 -2039.89 -2054.29 -2077.37 -2085.76 -2118.05 -2127.94 -2155.34 -2174.07 -2180.23 -2175.08 -2037.75 -1457.74 -1022.27 -573.07 -471.75 -397.07 -383.52 -392.40 -311.25 -245.11 -214.29 81.82 137.80 145.79 180.48 209.09 221.76 256.75 263.59 266.84 233.74 231.28 212.29 201.34 196.61 193.53 183.33 182.99 180.68 179.81 176.38 175.25 173.15 171.25 169.43 170.39 173.20 179.77 185.15 204.21 213.57 225.26 258.70 278.83 296.23 328.22 361.25 378.15 396.41 399.78 400.46 389.48 366.00 340.62 331.83 318.99 278.53 203.40 182.61 182.04 141.27 -17.91 -387.20 -1103.44 -1064.50 -1085.42 -1177.78 -1575.07 -1756.34 -1919.57 -2268.60 -2998.60 -3787.52 -4467.75 -5043.32 -5277.47 -5364.75 -5378.59 -5410.30 -5455.44 -5463.05 -5469.55 -5417.91 -4791.56 -2638.93 -1494.52 -489.10 -737.29 -1044.34 -1255.04 -1683.89 -1904.85 -2069.54 -2196.30 -2204.70 -2219.42 -2264.30 -2446.60 -2670.62 -2869.92 -3170.36 -3335.31 -3710.36 -4052.45 -4131.17 -4173.28 -4187.08 -4187.14
-2152.46 -2152.40 -2160.19 -2146.27 -2133.96 -2124.61 -2144.25 -2155.36 -2147.92 -2157.36 -2144.05 -2101.92 -2110.10 -2087.23 -2133.77 -2130.67 -2122.96 -2112.72 -2107.33 -2114.63 -2107.60 -2105.40 -2094.53 -2108.68 -2106.10 -2129.93 -2140.02 -2147.15 -2162.21 -2179.93 -2191.72 -2200.43 -2192.73 -2109.62 -1669.86 -1358.02 -908.14 -571.75 -403.63 -384.49 -380.38 -294.57 -262.09 -210.62 -80.37 116.75 143.54 170.23 207.78 217.80 232.33 219.22 229.37 213.59 188.97 184.68 189.18 178.59 176.22 175.05 173.20 171.97 174.06 172.39 170.24 169.77 168.21 167.61 166.29 169.62 175.58 184.82 193.28 208.07 224.76 243.33 273.95 296.19 329.29 344.90 375.31 388.98 390.85 385.32 374.47 347.58 327.70 286.91 249.59 221.84 188.75 179.62 176.93 60.77 -331.49 -790.46 -1131.97 -1167.92 -1424.08 -1849.90 -3019.26 -2821.61 -3262.98 -3987.01 -4415.92 -4917.57 -5112.39 -5390.63 -5378.02 -5496.75 -5569.99 -5546.22 -5457.39 -5408.30 -5340.31 -5150.60 -4147.15 -2500.62 -908.87 -541.83 -762.27 -1105.13 -1438.23 -1709.64 -1981.15 -2132.81 -2204.35 -2216.82 -2218.57 -2235.62 -2392.55 -2791.23 -3109.93 -3409.21 -3691.08 -4007.36 -4131.38 -4163.17 -4191.08 -4195.07 -4195.14
