-5607.76 -5607.67 -5601.97 -5573.06 -5554.52 -5537.59 -5523.61 -5486.78 -5486.10 -5453.17 -5435.46 -5407.92 -5407.24 -5421.90 -5432.37 -5478.53 -5482.03 -5518.31 -5464.89 -5442.84 -5365.10 -4942.97 -3739.04 -2647.97 -1684.38 -1579.14 -1583.65 -1596.31 -1506.37 -1533.37 -1550.25 -1462.16 -1138.46 -750.25 -397.50 -161.83 43.78 97.22 -53.60 -184.10 -165.48 -725.62 -1074.47 -1131.38 -1097.15 -1231.34 -1351.18 -1412.82 -1558.64 -1589.79 -1773.03 -1870.90 -2137.59 -2344.09 -2732.10 -3171.55 -3267.99 -3332.32 -3353.42 -3394.80 -3374.11 -3198.29 -3321.23 -3302.09 -3114.49 -2885.57 -2835.76 -2260.07 -2152.23 -1620.85 -1547.00 -1369.35 -1111.89 -899.54 -595.68 -284.85 38.27 105.05 152.54 203.04 201.82 201.50 186.39 191.87 200.75 196.31 189.52 189.29 190.31 195.43 223.10 270.14 298.01 309.13 333.92 338.75 357.42 548.34 2195.40 3337.22 4935.37 5967.27 8762.72 8531.43 6398.08 3678.04 3547.55 2979.39 2165.35 722.01 266.51 239.59 209.69 174.73 105.74 60.69 -172.96 -413.76 -882.81 -1234.83 -1431.65 -1608.72 -1700.17 -1814.89 -1859.45 -1884.26 -1886.39 -1885.60 -1920.25 -1973.42 -2031.65 -2097.16 -2177.35 -2236.75 -2277.32 -2440.86 -2563.74 -2793.67 -2995.55 -3064.55 -3064.65
-5610.25 -5610.20 -5605.49 -5600.58 -5594.29 -5588.09 -5574.21 -5561.68 -5569.75 -5555.03 -5527.58 -5533.26 -5503.55 -5532.93 -5551.63 -5533.38 -5533.16 -5549.99 -5546.50 -5524.08 -5418.90 -5099.23 -3820.99 -2951.35 -1961.13 -1976.86 -2104.85 -2052.84 -1678.51 -1536.07 -1460.00 -1337.71 -1186.34 -430.23 -50.29 271.38 301.14 322.69 253.94 138.34 4.82 -334.34 -795.24 -870.32 -902.15 -1012.71 -1094.35 -1178.47 -1187.32 -1367.19 -1388.92 -1314.95 -1286.04 -1921.53 -1910.26 -2204.36 -2509.00 -2710.76 -2704.72 -2822.96 -2651.56 -2836.51 -2681.60 -2749.54 -2426.14 -2036.16 -1681.19 -1578.64 -1360.74 -1299.67 -1194.31 -1116.93 -895.56 -622.54 -63.02 207.60 266.50 282.94 275.77 226.81 171.84 161.04 150.29 167.74 172.70 175.62 169.84 179.52 180.46 187.82 225.71 261.99 294.56 327.68 333.51 339.15 356.58 393.97 1848.41 2340.66 2904.73 4264.50 7441.09 8519.17 7754.89 5772.65 4532.88 2840.56 2540.95 1443.99 307.44 245.73 232.01 189.40 142.66 87.00 -49.56 -220.73 -604.00 -927.71 -1134.15 -1516.71 -1660.18 -1770.16 -1859.30 -1877.12 -1879.73 -1884.75 -1914.31 -1997.31 -2117.28 -2199.74 -2314.59 -2472.71 -2511.62 -2718.44 -2859.35 -3130.10 -3282.40 -3278.96 -3279.27
-5601.76 -5601.71 -5599.61 -5596.72 -5593.69 -5589.64 -5583.82 -5589.81 -5590.94 -5590.76 -5580.51 -5581.24 -5581.12 -5580.32 -5581.55 -5587.36 -5586.98 -5588.33 -5588.64 -5562.00 -5473.06 -5305.69 -4468.65 -3408.41 -3336.78 -2926.01 -3224.24 -3260.26 -2364.12 -1985.73 -1613.50 -1318.93 -1013.41 -381.89 65.99 281.31 359.89 399.87 408.08 346.12 298.73 98.65 -237.62 -231.55 -331.80 -648.78 -821.43 -896.81 -978.32 -1110.26 -1081.03 -1082.74 -1146.91 -1099.30 -1367.45 -1609.16 -1738.07 -1745.87 -1786.15 -1732.72 -1834.78 -1974.21 -1777.39 -1914.48 -1726.91 -1509.94 -1494.85 -1308.78 -1262.42 -1200.96 -1082.11 -743.93 -577.59 -81.70 205.09 309.67 291.73 292.59 274.26 198.83 141.52 146.13 153.43 164.93 162.61 168.37 168.52 170.96 172.25 185.79 199.92 244.21 268.55 309.55 324.47 321.51 323.11 341.65 597.36 1370.39 2717.96 4460.18 5703.83 6784.38 8598.64 8647.35 6364.59 3609.92 3299.55 3053.68 945.85 318.29 241.96 220.86 177.03 156.22 79.00 -139.13 -289.45 -636.97 -969.54 -1304.94 -1433.29 -1708.72 -1839.01 -1867.58 -1876.70 -1884.12 -1892.73 -1957.62 -2078.67 -2238.79 -2482.77 -2633.72 -2781.26 -3072.58 -3179.48 -3343.81 -3423.98 -3484.58 -3484.75
-5597.83 -5597.54 -5595.45 -5591.75 -5590.95 -5586.11 -5583.75 -5588.41 -5600.40 -5601.06 -5596.00 -5595.44 -5589.40 -5588.90 -5588.14 -5589.43 -5587.27 -5586.13 -5585.27 -5582.24 -5547.45 -5423.31 -5011.56 -4654.52 -4539.77 -4808.82 -4704.66 -4155.14 -2995.89 -2198.46 -1797.29 -1553.52 -1214.60 -686.82 -29.55 207.01 325.23 439.31 453.41 392.46 311.26 279.06 159.79 186.79 169.65 7.66 -230.56 -131.15 -328.65 -509.57 -627.19 -715.78 -1007.87 -1084.83 -1162.45 -1209.85 -1309.93 -1330.30 -1261.64 -1388.32 -1409.79 -1369.44 -1398.01 -1419.32 -1437.55 -1338.33 -1288.02 -1248.87 -1168.37 -1007.93 -824.88 -260.98 57.17 267.40 319.33 382.48 341.95 281.25 233.27 146.16 144.04 137.20 131.95 152.13 162.15 164.61 166.83 168.21 169.56 179.87 194.18 219.36 264.95 286.18 292.18 286.79 280.36 273.80 297.27 1355.92 3498.28 4589.82 4188.38 4856.43 7375.32 8929.49 6767.17 6115.35 4222.71 3355.69 1429.28 349.46 292.84 244.02 222.50 188.96 97.09 -12.41 -170.32 -424.51 -674.42 -844.57 -1126.64 -1507.30 -1692.45 -1820.38 -1866.41 -1880.30 -1893.76 -1917.74 -1996.09 -2199.30 -2524.05 -2768.33 -2915.95 -3152.17 -3446.50 -3546.80 -3610.08 -3651.30 -3680.18
-5594.09 -5593.90 -5591.48 -5589.49 -5585.92 -5583.08 -5581.41 -5588.85 -5602.95 -5601.43 -5597.00 -5593.86 -5589.30 -5586.52 -5585.85 -5584.53 -5582.59 -5580.18 -5579.32 -5576.44 -5566.93 -5544.13 -5476.23 -5372.59 -5383.01 -5414.28 -5242.65 -5028.90 -4295.97 -3311.04 -2356.34 -1808.85 -1185.74 -572.03 56.50 184.31 310.36 341.33 418.03 410.07 421.25 355.08 346.52 324.23 307.09 236.27 210.61 219.66 64.16 -93.87 -59.50 -152.42 -577.69 -814.08 -803.43 -826.03 -957.99 -958.82 -1055.49 -1131.26 -1135.34 -1207.57 -1238.64 -1198.32 -1262.96 -1258.06 -1249.68 -1206.28 -1083.64 -822.47 -477.04 77.74 253.60 295.51 328.74 399.32 336.02 257.37 184.01 146.68 136.25 133.84 129.92 143.52 158.68 158.70 159.22 160.78 165.27 169.48 185.06 208.93 247.15 257.69 259.83 255.19 255.66 257.48 262.52 272.60 2017.82 2433.99 2069.09 3885.93 5545.98 7856.19 7906.35 6113.82 3802.91 2223.64 1357.25 348.84 324.81 271.32 238.44 188.78 141.86 77.73 -46.49 -240.24 -396.72 -626.20 -992.18 -1424.17 -1733.10 -1835.93 -1859.93 -1875.88 -1886.77 -1907.07 -1974.05 -2184.17 -2511.62 -2738.67 -3030.90 -3246.64 -3476.42 -3627.40 -3748.06 -3791.08 -3811.10
-5589.46 -5589.40 -5586.29 -5584.42 -5582.74 -5578.57 -5577.22 -5580.76 -5599.66 -5597.64 -5595.89 -5590.49 -5586.91 -5584.77 -5581.44 -5579.04 -5578.28 -5575.08 -5574.38 -5571.81 -5567.13 -5553.02 -5529.22 -5531.25 -5526.61 -5526.25 -5527.57 -5381.82 -5140.47 -4718.32 -3368.46 -2285.08 -1473.03 -734.83 -146.54 151.00 299.97 314.94 366.80 426.98 435.23 413.48 408.53 331.57 336.50 332.30 367.34 335.21 308.85 263.19 246.61 148.25 -304.42 -393.06 -454.87 -539.72 -539.50 -541.18 -675.83 -894.73 -914.09 -914.67 -964.13 -1026.20 -1075.32 -1117.37 -1201.47 -1088.58 -624.80 -352.20 15.43 209.07 317.46 339.25 340.96 320.93 311.61 241.23 151.39 141.59 141.89 141.29 133.24 131.84 133.57 144.40 144.26 148.36 152.65 161.79 174.37 201.33 230.73 246.58 251.16 254.58 253.97 253.83 254.11 296.04 677.47 1069.81 1349.01 2387.61 4770.59 7217.16 8681.66 4589.47 3280.41 2797.39 2928.68 1314.45 337.62 276.65 223.49 194.29 158.82 90.66 -15.69 -202.57 -347.27 -666.73 -1074.78 -1485.60 -1703.92 -1839.87 -1859.87 -1870.56 -1874.65 -1884.06 -1933.75 -2065.17 -2388.73 -2784.57 -3173.35 -3503.17 -3685.85 -3760.43 -3802.14 -3838.88 -3838.94
-5585.79 -5585.59 -5584.52 -5582.87 -5581.06 -5577.09 -5577.01 -5581.09 -5592.80 -5594.19 -5589.69 -5584.81 -5580.86 -5579.81 -5578.33 -5577.20 -5573.86 -5571.88 -5568.23 -5565.81 -5560.88 -5558.87 -5553.25 -5552.12 -5556.42 -5562.00 -5559.16 -5542.56 -5484.43 -5158.39 -3396.15 -1892.19 -1261.55 -468.22 -109.45 82.60 255.68 322.51 335.21 358.56 406.67 429.03 415.08 391.00 485.69 510.44 568.36 469.26 420.80 321.09 270.70 245.89 35.69 -34.74 -76.21 -227.60 -177.46 -297.21 -345.28 -463.64 -650.99 -604.94 -596.39 -704.46 -629.18 -897.59 -882.02 -657.45 -384.44 -56.45 224.11 316.05 313.24 314.79 282.05 276.30 264.79 202.73 152.11 136.52 128.73 132.39 131.71 131.79 133.88 137.22 143.70 146.47 152.56 162.46 180.25 201.44 225.91 242.96 245.49 252.67 252.62 251.78 251.43 256.63 265.86 540.10 1716.35 2906.43 3613.31 7513.92 8270.18 8220.41 6847.68 3569.22 3188.36 1223.66 477.10 264.29 235.96 223.25 179.82 115.22 5.29 -145.54 -431.69 -803.56 -1189.27 -1470.76 -1678.39 -1823.82 -1863.87 -1867.65 -1869.75 -1880.81 -1935.26 -2033.83 -2586.59 -3008.05 -3411.54 -3676.18 -3760.31 -3832.38 -3838.73 -3847.29 -3850.36
-5595.15 -5595.07 -5592.48 -5588.11 -5584.98 -5583.67 -5581.68 -5582.28 -5579.77 -5574.87 -5577.82 -5573.54 -5569.03 -5566.87 -5567.11 -5573.99 -5572.72 -5569.02 -5564.77 -5561.45 -5559.31 -5557.03 -5554.86 -5555.29 -5562.04 -5567.25 -5576.89 -5570.78 -5458.32 -5165.68 -3380.37 -1822.27 -887.63 -274.99 -5.32 191.23 263.67 311.17 328.34 368.11 397.24 417.55 449.44 455.76 533.09 598.18 646.25 520.21 397.14 348.99 286.00 254.08 210.01 151.13 86.04 -21.93 -56.24 -53.83 -146.76 -255.79 -230.53 -207.80 -282.53 -288.77 -231.11 -335.88 -383.01 -138.13 130.06 235.86 283.16 303.54 272.61 271.18 215.51 226.03 227.80 188.90 149.33 136.35 129.79 130.26 130.50 131.05 131.89 134.49 141.78 147.22 162.53 174.81 190.29 206.93 221.54 239.88 247.00 250.01 250.43 250.19 250.85 252.87 257.21 473.51 1746.10 2386.56 2931.19 5318.43 7241.28 8448.21 7284.80 5656.85 2812.98 2064.17 448.03 267.95 238.69 222.87 185.02 116.39 34.19 -199.21 -427.15 -929.07 -1194.54 -1477.29 -1751.60 -1842.99 -1860.22 -1866.37 -1868.41 -1895.89 -1985.37 -2234.79 -2799.65 -3381.08 -3670.28 -3792.45 -3846.91 -3847.06 -3851.07 -3855.93 -3856.00
-5594.68 -5594.61 -5592.52 -5591.45 -5590.31 -5589.14 -5586.65 -5579.95 -5567.02 -5566.13 -5562.52 -5559.22 -5557.42 -5555.62 -5559.75 -5568.79 -5569.36 -5566.08 -5561.95 -5559.05 -5556.02 -5554.46 -5553.73 -5555.60 -5558.75 -5564.06 -5569.60 -5568.74 -5512.77 -5144.83 -3766.92 -1496.84 -316.40 -141.02 114.72 214.78 284.18 325.83 344.85 381.05 392.81 425.62 465.21 494.60 555.71 623.48 703.47 585.31 468.51 402.13 315.58 267.28 252.11 244.73 166.06 66.41 29.91 41.06 6.17 -11.49 -19.68 -61.61 -25.18 -16.65 -15.99 207.81 201.41 177.79 287.57 320.81 250.26 248.13 202.87 145.95 131.97 161.66 198.25 171.82 133.07 141.70 131.83 129.38 134.20 128.37 129.26 132.04 143.24 152.55 166.80 181.34 192.45 202.20 213.14 239.09 243.04 246.53 247.98 248.49 248.75 249.26 257.22 309.70 786.31 1605.83 2971.77 3907.99 5618.87 7323.60 7273.66 6039.39 2953.99 1996.24 561.80 275.34 245.32 227.85 186.18 145.46 56.92 -124.56 -444.87 -976.28 -1096.80 -1483.87 -1728.45 -1829.38 -1859.64 -1867.95 -1870.67 -1906.18 -2018.05 -2248.82 -2676.80 -3139.55 -3614.54 -3828.10 -3850.78 -3855.85 -3856.27 -3855.83 -3855.89
-5585.65 -5585.59 -5583.17 -5584.09 -5585.60 -5585.33 -5582.29 -5577.90 -5564.13 -5560.77 -5558.46 -5557.03 -5554.07 -5552.58 -5557.19 -5567.28 -5567.74 -5564.97 -5562.01 -5557.79 -5556.34 -5555.24 -5554.76 -5555.97 -5558.52 -5559.50 -5551.92 -5454.75 -5359.10 -3838.55 -2364.39 -823.37 -259.09 41.02 228.82 272.42 292.95 328.34 361.88 379.22 403.50 444.02 468.69 513.90 582.82 684.85 738.29 681.42 606.68 467.71 333.90 309.67 256.91 253.65 227.91 161.05 79.63 75.45 59.48 56.46 65.80 62.91 86.60 135.64 213.77 282.83 301.08 327.25 330.30 242.69 202.80 162.60 97.24 127.46 106.05 99.48 149.09 167.95 126.85 125.63 138.30 136.13 126.49 123.05 126.28 132.26 145.92 157.13 174.00 183.38 193.15 204.97 215.79 234.01 240.08 243.05 245.15 247.34 247.90 248.81 252.40 315.14 538.49 1114.18 1889.05 2465.72 4155.71 6016.47 6564.72 3975.07 2532.49 1689.14 1317.45 291.67 261.23 234.22 209.20 142.83 21.90 -122.67 -315.01 -710.62 -1210.16 -1469.35 -1684.91 -1779.25 -1853.24 -1871.55 -1872.14 -1904.79 -2013.54 -2215.46 -2452.29 -2913.21 -3330.10 -3758.56 -3840.96 -3856.41 -3856.74 -3856.56 -3856.63
-5575.20 -5576.02 -5576.20 -5576.11 -5576.19 -5576.70 -5576.59 -5570.78 -5559.91 -5557.26 -5555.46 -5553.56 -5551.82 -5551.22 -5557.73 -5565.42 -5567.03 -5565.29 -5563.24 -5561.93 -5560.88 -5560.31 -5559.35 -5553.14 -5552.22 -5517.85 -5421.48 -4722.33 -4130.26 -3092.33 -1177.14 -977.66 -287.31 -12.62 253.77 282.37 308.75 338.26 359.63 387.41 421.47 441.02 474.16 512.15 590.21 691.89 757.53 745.52 572.57 408.64 331.03 295.54 257.42 253.28 251.93 202.32 146.69 96.76 112.56 105.29 145.65 188.62 235.47 268.90 297.33 318.56 301.66 292.85 206.75 193.87 152.70 121.47 119.68 120.41 113.58 112.67 142.20 148.36 123.80 122.60 125.72 125.23 121.95 121.89 124.91 133.30 146.58 160.64 175.22 187.23 196.66 205.89 214.38 230.21 236.03 242.12 244.10 245.17 246.51 247.47 251.73 265.52 325.34 716.36 1498.01 3214.15 4177.32 8174.02 8324.71 5139.96 3722.01 3164.27 1973.90 310.15 260.02 241.23 225.30 183.16 73.94 -68.69 -347.12 -921.54 -978.87 -1439.34 -1538.43 -1781.91 -1844.11 -1874.22 -1881.08 -1915.64 -1987.48 -2094.54 -2292.08 -2640.00 -2950.45 -3585.51 -3793.48 -3857.69 -3857.80 -3857.20 -3857.47
-5564.23 -5564.17 -5564.05 -5566.72 -5567.97 -5568.04 -5564.95 -5563.65 -5554.41 -5551.05 -5550.15 -5550.16 -5548.44 -5549.79 -5559.33 -5565.11 -5568.54 -5567.59 -5567.18 -5566.32 -5567.55 -5567.43 -5557.52 -5545.45 -5460.52 -5403.55 -5176.82 -3851.11 -3159.40 -1461.55 -852.77 -341.91 59.93 140.41 218.35 278.54 305.67 336.63 364.81 394.91 439.04 445.96 487.59 536.65 587.66 665.08 729.92 724.86 666.19 544.01 390.27 344.21 283.44 265.07 254.56 232.35 196.35 160.64 167.29 230.24 280.34 304.21 332.01 340.33 338.82 287.45 237.66 128.32 104.09 132.44 131.85 110.57 125.11 112.19 114.22 112.92 126.20 137.82 126.47 124.03 119.53 120.30 119.86 121.25 125.87 130.44 138.74 153.52 182.20 195.60 202.18 212.40 221.50 228.77 234.57 238.91 242.12 244.08 245.48 246.23 249.60 253.53 266.97 705.09 2063.05 3303.42 5307.42 7676.66 8011.81 5280.85 4152.97 3676.71 2083.92 471.65 276.18 247.61 237.10 203.71 77.62 1.41 -285.02 -674.31 -1074.06 -1334.30 -1429.80 -1782.04 -1845.44 -1879.82 -1886.67 -1918.00 -1992.92 -2063.42 -2215.79 -2498.32 -2869.18 -3456.51 -3704.01 -3856.59 -3862.29 -3864.15 -3864.22
-5553.02 -5552.95 -5551.50 -5555.27 -5556.14 -5559.17 -5557.22 -5557.46 -5550.07 -5544.72 -5545.25 -5546.31 -5546.39 -5546.93 -5552.00 -5563.69 -5569.00 -5567.31 -5568.11 -5567.70 -5566.24 -5552.00 -5472.07 -5446.52 -5164.44 -4522.81 -3852.66 -2688.42 -2029.87 -697.28 -317.49 -8.14 152.31 234.34 270.27 286.90 315.26 329.83 362.99 414.43 441.49 473.42 526.69 532.41 580.15 619.90 706.90 752.91 687.12 571.57 458.54 329.48 308.28 281.63 258.62 259.04 232.49 212.95 268.92 296.35 334.94 380.23 415.33 355.20 294.68 240.99 173.42 95.65 106.53 136.13 135.19 115.24 116.62 108.57 109.88 106.00 102.87 129.81 124.28 124.79 120.91 119.13 119.26 120.92 127.42 137.47 143.81 156.65 175.19 193.13 204.22 214.25 219.38 227.37 232.36 234.97 239.00 241.67 242.97 242.90 245.30 248.99 262.02 677.59 1535.92 1912.35 4886.78 7443.71 8089.92 6757.33 3464.49 2200.22 1142.52 843.29 271.13 251.00 231.11 203.25 172.29 52.77 -134.14 -537.46 -770.22 -1085.27 -1461.37 -1674.49 -1861.76 -1877.27 -1884.69 -1918.09 -1968.63 -2058.53 -2271.08 -2501.64 -2880.56 -3150.22 -3689.38 -3852.60 -3857.73 -3866.66 -3866.73
-5542.12 -5542.06 -5543.24 -5544.98 -5546.86 -5549.04 -5551.69 -5548.67 -5542.59 -5541.79 -5542.53 -5545.25 -5546.96 -5548.92 -5549.92 -5553.19 -5550.07 -5544.66 -5548.50 -5529.02 -5507.92 -5450.36 -5345.27 -5017.14 -4162.95 -3851.94 -2397.82 -1569.23 -841.00 -323.51 -52.31 135.33 227.56 278.23 294.47 310.73 341.03 359.86 394.87 450.71 499.94 486.56 531.23 583.11 607.54 662.82 716.28 746.38 699.93 582.67 484.74 360.74 328.21 301.62 287.10 279.26 278.91 283.36 293.25 366.09 409.64 450.04 410.96 313.61 254.42 205.89 128.66 82.41 87.90 110.11 110.50 94.12 104.46 105.96 108.53 108.73 115.65 124.84 122.05 121.34 118.05 116.87 119.13 122.60 130.33 141.05 156.37 160.98 178.65 193.85 199.19 211.29 219.22 225.12 229.78 233.09 235.88 239.36 240.82 241.89 244.45 248.78 257.01 380.01 1216.06 1780.42 3437.55 4233.48 7192.08 7484.38 5369.14 3352.03 2750.58 882.09 271.84 247.99 224.25 182.84 150.51 56.08 -76.89 -434.12 -710.45 -1013.22 -1325.17 -1673.91 -1832.90 -1867.22 -1887.39 -1915.48 -1983.49 -2073.16 -2205.56 -2520.76 -2841.22 -3155.30 -3417.07 -3777.59 -3853.31 -3867.72 -3867.79
-5531.91 -5532.80 -5533.11 -5537.91 -5538.91 -5540.22 -5541.26 -5541.74 -5539.22 -5538.32 -5539.17 -5543.96 -5548.12 -5551.04 -5548.82 -5537.53 -5534.85 -5533.70 -5532.15 -5435.95 -5322.36 -5039.31 -4453.40 -3839.39 -3255.13 -2425.93 -1915.59 -1035.20 -727.87 -319.06 -5.29 183.47 269.10 288.12 306.57 328.14 361.36 409.43 450.18 474.33 561.83 620.95 616.44 621.67 631.82 664.96 676.24 667.37 634.24 577.20 453.67 369.54 343.35 317.40 299.25 294.82 292.07 296.07 339.62 433.16 439.10 408.13 345.41 278.05 184.74 141.36 108.00 96.36 86.86 89.56 94.05 95.99 99.48 104.62 112.94 116.07 117.99 121.61 119.76 117.38 115.56 115.50 116.90 123.76 131.09 139.58 154.13 160.94 177.98 187.60 199.02 206.35 215.58 221.84 228.36 232.08 234.49 237.59 239.05 241.49 244.37 250.19 261.91 447.39 912.12 1614.70 3626.19 5875.19 7997.41 7147.17 4536.68 2921.31 2003.95 791.92 355.14 239.75 217.00 171.31 147.13 56.75 -85.90 -361.87 -767.27 -838.05 -1257.17 -1579.74 -1718.05 -1844.15 -1894.30 -1912.31 -1939.25 -2052.93 -2222.15 -2386.39 -2617.67 -2960.87 -3389.60 -3709.55 -3827.68 -3849.86 -3849.91
-5522.89 -5522.82 -5524.14 -5526.67 -5526.34 -5533.53 -5534.56 -5534.90 -5530.66 -5532.68 -5537.02 -5542.43 -5547.04 -5551.64 -5545.74 -5518.95 -5511.76 -5489.10 -5285.11 -5216.43 -4752.72 -4230.32 -3594.81 -2599.63 -2090.57 -1699.51 -1480.59 -1039.79 -557.25 -19.73 142.67 265.15 277.81 302.71 317.67 324.89 385.37 411.25 456.81 511.63 605.69 653.37 668.62 647.12 640.55 616.75 602.42 592.87 528.32 533.15 453.09 392.59 359.38 331.02 312.84 312.65 308.17 325.40 387.91 414.33 358.58 323.80 312.42 261.74 170.54 127.52 93.21 92.66 95.83 91.98 98.46 102.66 100.56 102.37 111.20 120.76 122.35 117.01 115.42 114.01 113.64 115.23 117.59 121.30 129.35 133.99 143.87 160.62 173.97 184.83 194.25 204.24 215.58 222.05 225.53 230.03 233.02 236.19 238.09 240.83 245.57 248.19 267.92 384.83 1049.84 1872.91 3454.25 6327.84 7700.95 7134.17 5002.98 2608.18 1832.59 672.77 375.01 258.76 218.23 180.85 131.37 -7.29 -225.90 -261.25 -492.86 -817.49 -1029.31 -1574.04 -1768.99 -1817.70 -1875.21 -1907.16 -1932.87 -2015.52 -2229.48 -2391.79 -2630.72 -2930.21 -3372.34 -3637.49 -3795.64 -3845.63 -3845.70
-5515.58 -5515.51 -5516.15 -5519.36 -5521.39 -5524.28 -5525.78 -5528.48 -5525.99 -5530.64 -5535.28 -5539.13 -5546.48 -5541.38 -5514.42 -5467.41 -5313.72 -5152.75 -4753.11 -4102.86 -3501.89 -3215.46 -2248.46 -1730.15 -1645.73 -1356.68 -1036.49 -650.84 -81.51 158.78 278.54 285.25 298.40 311.81 343.76 380.06 398.40 415.57 469.21 498.90 613.71 647.22 655.50 628.45 579.06 562.75 555.86 528.04 496.11 482.52 460.18 415.19 351.17 333.59 331.49 332.72 328.17 353.32 400.41 389.78 344.96 311.19 294.43 254.00 220.85 126.03 102.40 105.86 102.49 100.20 107.92 108.92 105.20 104.62 109.50 115.67 121.83 123.06 116.35 112.43 112.50 113.63 115.03 120.20 128.72 133.97 142.99 160.96 175.72 184.47 190.44 203.36 213.11 219.57 223.14 228.17 232.48 233.99 236.58 238.69 242.94 247.46 285.95 382.55 1230.22 1369.13 2415.96 4121.02 6947.25 8339.32 4705.87 2434.42 2017.72 1134.84 309.19 252.79 229.02 200.08 85.93 -35.01 -300.49 -431.84 -616.99 -913.58 -1127.37 -1476.79 -1714.97 -1792.76 -1868.65 -1901.31 -1930.48 -1963.94 -2153.16 -2442.47 -2628.58 -2882.46 -3209.40 -3613.31 -3703.63 -3786.44 -3786.47
-5510.71 -5511.04 -5511.93 -5513.75 -5517.08 -5519.25 -5523.61 -5525.22 -5523.81 -5528.32 -5533.34 -5530.45 -5513.35 -5477.13 -5425.58 -5121.09 -4757.81 -3981.81 -3408.52 -3041.37 -2902.27 -1841.53 -1675.71 -1416.43 -1273.23 -1044.51 -714.24 -237.22 148.72 286.34 289.88 306.03 323.04 320.90 364.21 413.06 408.72 469.84 490.25 537.44 577.94 635.98 627.44 592.54 554.01 522.59 509.15 503.59 471.39 442.47 422.57 401.71 363.89 349.23 346.57 342.74 344.03 365.55 377.34 352.12 305.71 290.08 288.02 258.37 239.70 165.20 125.42 96.23 94.79 99.04 111.56 108.39 106.72 106.31 107.55 110.49 113.57 116.69 111.72 111.75 112.12 113.00 114.17 120.30 131.18 140.33 146.38 161.27 169.47 183.08 192.40 199.13 208.76 217.89 219.32 226.35 230.84 233.70 235.82 237.75 240.47 243.20 310.32 405.43 831.02 2221.87 3686.26 5572.36 7251.09 7669.22 5659.86 3948.93 2478.22 1315.86 319.82 256.85 238.32 215.25 73.51 -133.27 -317.74 -577.13 -701.05 -1013.45 -1343.37 -1590.64 -1698.68 -1841.61 -1862.87 -1887.37 -1900.72 -1967.78 -2092.55 -2287.73 -2553.49 -2769.92 -3154.05 -3420.81 -3660.62 -3773.64 -3773.71
-5507.79 -5507.72 -5506.76 -5510.02 -5511.61 -5516.24 -5521.46 -5524.58 -5535.13 -5532.70 -5521.40 -5479.64 -5420.33 -5176.12 -4678.81 -4135.32 -3357.83 -2926.74 -2335.09 -1908.80 -1525.29 -1328.17 -1298.05 -1207.60 -1088.35 -915.18 -274.99 151.70 256.69 294.91 310.04 325.69 337.35 375.47 392.96 433.75 473.43 505.44 521.74 570.23 619.42 640.26 623.21 594.64 547.42 508.12 481.43 453.54 434.48 421.96 407.84 390.10 368.63 357.70 358.55 356.43 356.37 363.94 367.54 352.12 323.67 295.51 286.77 263.73 245.26 214.61 147.39 100.95 90.75 105.00 114.12 109.63 107.17 106.72 108.55 109.33 109.77 110.23 111.09 110.97 111.41 112.46 115.37 123.04 130.94 140.43 149.31 155.60 165.40 177.35 186.73 199.07 205.25 212.13 217.45 224.12 230.33 233.13 237.08 238.27 239.62 241.39 288.68 327.54 673.84 1708.99 3467.03 6049.48 7699.93 6295.65 3967.64 3386.97 2113.72 1246.46 312.55 261.39 238.11 177.89 58.65 -138.05 -264.09 -597.78 -857.06 -1059.55 -1414.20 -1576.31 -1732.08 -1825.76 -1858.50 -1878.24 -1903.52 -1933.88 -2095.78 -2284.60 -2520.53 -2836.54 -3044.47 -3426.26 -3662.17 -3772.18 -3771.94
-5496.50 -5496.43 -5500.91 -5502.07 -5504.18 -5507.70 -5518.11 -5527.86 -5546.50 -5531.88 -5486.77 -5313.23 -4891.29 -4697.42 -4080.41 -3261.91 -2684.88 -2027.41 -1658.88 -1513.78 -1289.02 -1194.83 -1169.89 -1141.99 -1041.79 -519.32 -36.24 227.44 291.84 306.69 324.93 335.45 368.24 392.07 416.87 452.02 482.04 520.67 534.50 591.93 623.41 648.24 627.94 595.25 549.64 509.46 459.84 442.53 422.41 409.79 396.99 378.30 371.04 362.88 367.69 370.10 375.25 388.73 388.08 374.28 389.93 361.87 285.59 262.58 260.85 245.82 212.15 129.73 101.61 103.03 108.69 112.32 108.95 108.28 109.59 110.59 109.68 109.83 110.11 110.41 111.14 113.34 117.62 124.27 130.63 136.53 143.25 151.63 162.46 171.03 179.22 194.66 202.48 208.09 215.70 219.54 227.52 233.02 238.75 239.43 241.24 240.65 284.17 342.00 1418.97 2739.24 3210.10 5744.10 7490.54 6961.49 4399.87 3757.60 1338.92 627.62 335.52 250.77 234.29 198.59 97.82 -77.49 -206.42 -495.84 -672.23 -1054.86 -1343.45 -1590.73 -1746.47 -1838.51 -1858.66 -1868.27 -1887.84 -1938.44 -2037.99 -2233.37 -2456.08 -2713.21 -3061.55 -3257.41 -3584.99 -3772.47 -3772.54
-5506.57 -5506.48 -5505.96 -5505.80 -5509.19 -5511.73 -5517.69 -5528.10 -5546.83 -5527.16 -5422.75 -5088.72 -4355.37 -3513.68 -2593.20 -2367.30 -2000.76 -1808.29 -1570.04 -1410.77 -1250.12 -1156.65 -1142.40 -1103.77 -904.57 -422.35 -31.32 241.26 303.08 322.01 343.08 361.19 386.63 415.08 451.40 497.50 545.45 564.75 580.66 615.15 625.29 645.99 640.12 613.04 555.40 523.01 457.97 427.23 411.40 390.01 375.91 368.13 364.39 362.89 369.79 379.13 386.10 414.57 426.79 410.40 424.39 417.99 359.83 295.53 261.78 256.09 223.10 133.00 85.95 81.02 103.55 112.23 106.60 106.77 107.91 110.51 109.47 109.04 109.17 109.74 111.94 114.30 119.44 123.84 133.45 136.08 141.73 149.79 161.42 169.84 180.79 187.58 196.82 202.93 211.13 217.15 227.15 236.17 239.96 241.83 242.15 243.37 269.71 504.57 2436.81 3210.94 5211.25 6342.60 7527.18 6117.49 4458.49 4665.34 1998.95 583.22 320.57 254.15 241.18 194.33 134.31 -0.89 -187.58 -493.17 -682.43 -1109.77 -1409.43 -1653.75 -1763.80 -1830.00 -1849.54 -1866.12 -1887.07 -1920.34 -2037.07 -2173.00 -2392.26 -2776.66 -3204.71 -3390.29 -3654.43 -3774.23 -3774.31
-5527.74 -5527.02 -5524.99 -5518.02 -5517.51 -5515.81 -5511.40 -5522.20 -5508.06 -5471.41 -5227.58 -4795.67 -3619.72 -2873.93 -2262.30 -1943.11 -1861.26 -1779.75 -1606.01 -1402.39 -1279.30 -1194.16 -1170.00 -1105.93 -803.01 -307.99 85.87 283.76 338.30 330.17 357.35 377.51 401.93 422.78 461.80 492.67 573.66 613.27 606.44 608.24 624.43 644.49 633.41 587.17 543.78 484.88 446.28 422.42 405.35 374.00 365.04 356.34 350.09 365.61 376.31 397.41 417.79 452.12 469.77 427.54 465.43 551.42 426.16 358.91 309.80 274.00 195.46 92.65 74.72 112.96 114.91 112.18 105.89 105.14 108.51 110.77 110.32 109.05 108.64 108.95 109.24 112.86 119.74 127.63 132.98 138.44 142.98 149.91 156.69 165.79 174.15 184.32 192.48 199.89 207.03 213.44 224.57 239.07 243.02 242.92 242.82 249.89 282.06 724.53 1854.01 3153.64 5635.50 7655.49 7800.94 5513.06 3005.24 4023.35 1531.52 350.19 304.59 245.24 226.19 203.66 117.90 61.28 -131.26 -293.15 -586.18 -1012.50 -1293.74 -1621.00 -1744.29 -1817.41 -1852.26 -1865.09 -1903.11 -1946.29 -2056.28 -2228.99 -2478.56 -2820.32 -3224.15 -3619.17 -3806.66 -3840.48 -3840.61
-5554.46 -5554.36 -5545.69 -5519.63 -5500.91 -5479.92 -5405.98 -5375.71 -5356.27 -4944.97 -4457.52 -3918.42 -3190.82 -2264.94 -1976.90 -1802.57 -1820.32 -1787.25 -1595.56 -1351.86 -1273.48 -1230.25 -1187.36 -1110.01 -857.29 -440.76 -37.25 237.41 350.08 368.52 394.81 403.06 422.49 453.68 484.99 524.20 570.95 592.55 601.38 626.37 638.33 638.19 597.84 590.72 568.63 482.99 437.39 402.36 388.85 372.72 348.62 339.36 340.79 360.20 385.73 399.96 438.37 473.26 516.50 527.64 540.27 558.63 454.78 384.35 382.57 306.04 257.26 229.23 169.72 142.27 118.09 112.39 108.51 106.39 110.11 110.80 110.15 108.35 108.16 108.19 108.14 111.75 116.40 123.83 130.64 139.85 146.00 149.74 154.60 163.12 171.45 181.83 191.83 202.97 209.81 218.21 228.81 233.54 241.84 248.00 249.91 277.95 493.98 877.94 1881.40 2323.83 3531.12 6085.41 7007.14 4956.26 2238.28 1215.26 803.05 324.60 269.72 244.09 223.47 203.29 139.85 57.52 -53.44 -246.38 -733.37 -1074.90 -1226.74 -1549.71 -1647.42 -1771.92 -1832.28 -1867.92 -1927.68 -1992.95 -2125.11 -2342.32 -2659.42 -2886.65 -3327.31 -3501.68 -3821.20 -3854.20 -3854.29
-5540.66 -5539.02 -5445.51 -5245.96 -5196.03 -5178.67 -4993.47 -4610.00 -4424.40 -4024.33 -3345.79 -2610.06 -2488.89 -2142.87 -1976.61 -1867.48 -1851.90 -1776.16 -1525.98 -1172.39 -1112.17 -1036.29 -1013.12 -973.83 -855.03 -379.80 108.34 266.18 319.78 360.71 402.14 415.06 439.26 475.08 508.06 547.44 595.89 605.21 629.40 625.44 629.60 643.65 596.31 546.16 482.51 457.46 391.61 373.19 369.06 333.53 330.69 328.56 341.48 365.60 403.74 427.49 475.21 529.05 561.98 584.69 594.09 558.32 489.32 464.42 459.40 327.83 269.19 254.40 233.29 144.08 98.60 101.79 108.88 111.01 110.68 109.75 109.77 108.25 107.75 107.48 107.66 109.81 112.91 118.27 129.45 137.19 143.68 149.04 156.11 162.60 168.64 180.25 188.93 202.88 210.22 216.02 227.17 233.82 243.45 250.72 254.85 382.52 668.28 2254.66 3174.94 4058.73 5270.19 6521.34 7232.17 4910.82 2950.82 2032.23 834.62 313.91 273.45 243.00 226.20 198.89 145.50 88.08 -40.17 -328.33 -643.06 -945.76 -1255.22 -1540.15 -1695.32 -1787.05 -1834.74 -1874.47 -1944.58 -2099.32 -2257.28 -2404.99 -2742.06 -3105.80 -3392.43 -3603.94 -3786.62 -3870.07 -3870.17
-5035.09 -5035.60 -4648.95 -4569.94 -4422.82 -4038.74 -3820.95 -3380.12 -2961.27 -2628.68 -2575.07 -2312.48 -2141.18 -2056.52 -2029.43 -2003.83 -1941.30 -1761.80 -1454.71 -1123.45 -750.12 -595.73 -702.49 -754.51 -616.55 -145.92 145.63 249.79 316.85 360.62 399.51 432.40 461.23 516.01 525.34 564.48 597.84 607.83 631.42 598.05 607.71 636.30 595.61 573.03 501.72 414.13 381.00 344.49 328.96 317.31 313.77 311.25 325.55 336.48 357.83 415.17 474.45 506.31 551.95 592.07 579.53 531.69 547.23 538.89 472.17 325.60 277.48 269.54 253.69 213.91 145.25 106.41 110.12 110.95 109.78 109.10 108.40 107.33 107.16 106.75 106.50 107.32 110.71 116.81 129.07 131.67 139.59 148.99 160.08 161.22 169.71 181.22 189.94 203.44 212.87 217.37 228.75 236.44 245.83 255.57 296.12 497.46 1368.77 2154.92 3010.52 4329.12 5847.49 7285.99 6508.29 4718.21 3161.60 2148.50 534.48 279.41 248.14 241.62 233.24 214.91 183.39 102.84 -60.82 -311.64 -616.77 -978.33 -1244.08 -1472.54 -1670.94 -1770.75 -1834.92 -1889.79 -1929.37 -2038.98 -2209.50 -2502.57 -2875.88 -3204.53 -3606.30 -3708.59 -3822.87 -3846.53 -3846.58
-3560.95 -3562.97 -3523.96 -3207.07 -3257.69 -2665.35 -2602.28 -2366.72 -2332.75 -2170.98 -2069.93 -2053.42 -2042.05 -2040.29 -2044.31 -2052.03 -2019.38 -1873.46 -1471.47 -1148.37 -638.50 -454.35 -392.80 -480.67 -357.81 -36.06 148.55 278.01 316.88 347.28 377.81 429.21 458.17 542.70 581.46 601.01 620.01 641.47 605.07 562.92 596.95 612.20 533.13 481.09 446.50 376.14 352.69 334.93 320.68 302.50 303.70 300.34 304.94 313.67 324.14 397.53 435.04 467.77 499.91 558.77 564.48 500.70 474.00 463.04 418.01 366.78 318.69 289.06 255.77 254.66 192.17 101.55 102.79 107.24 108.80 108.70 108.18 106.50 106.21 106.09 105.62 106.06 110.35 115.16 119.40 127.63 136.14 148.04 154.98 169.16 176.32 185.59 200.97 210.04 221.37 228.74 234.39 243.25 272.11 313.96 347.77 1084.54 2008.94 1963.98 3247.39 5091.82 6389.89 6148.58 5347.03 3374.74 3212.91 1046.79 425.55 260.07 249.04 243.47 237.09 217.46 186.32 67.29 -82.50 -331.82 -647.24 -973.25 -1141.32 -1438.27 -1669.00 -1811.55 -1840.41 -1888.24 -1940.03 -2007.44 -2245.93 -2603.16 -3049.29 -3388.97 -3675.15 -3819.64 -3823.98 -3844.18 -3844.27
-2369.51 -2371.58 -2407.66 -2506.48 -2346.12 -2267.62 -2168.77 -2089.47 -2049.45 -2027.51 -2024.64 -2021.36 -2028.83 -2037.84 -2053.04 -2076.74 -2076.28 -1988.94 -1791.85 -1289.20 -708.54 -351.76 -215.28 -210.84 -130.32 90.87 209.73 280.78 302.87 337.85 373.17 432.74 497.28 559.57 616.01 633.13 632.36 638.93 611.21 519.90 580.82 596.26 568.40 466.84 434.87 364.76 346.09 321.67 299.20 286.66 287.94 283.38 279.84 293.24 308.73 349.45 420.50 431.74 478.27 488.28 531.81 510.56 478.03 401.78 377.78 377.70 331.13 314.12 282.00 266.83 216.50 120.55 86.48 102.60 107.40 107.83 108.42 106.37 105.37 105.43 104.78 104.75 105.03 109.43 117.89 121.26 132.49 147.42 159.52 168.13 178.45 186.65 204.65 221.32 230.63 234.03 239.52 243.48 294.69 366.91 394.60 2371.91 3333.22 3432.94 4928.68 6332.31 6490.94 5880.67 4630.34 2121.67 1346.95 570.51 281.77 257.69 249.82 247.29 236.94 210.48 167.97 95.75 -42.74 -284.24 -534.06 -925.28 -1098.31 -1491.03 -1664.89 -1816.78 -1853.16 -1868.92 -1904.39 -2067.12 -2427.17 -2797.89 -3186.81 -3514.79 -3801.08 -3826.03 -3839.01 -3843.89 -3843.99
-2085.51 -2086.10 -2116.34 -2118.10 -2083.18 -2058.36 -2052.31 -2044.86 -2030.43 -2024.72 -2023.37 -2027.14 -2035.87 -2043.22 -2062.09 -2093.29 -2086.59 -2033.78 -1895.73 -1245.05 -1055.69 -527.18 -294.61 -172.20 -74.56 59.78 192.04 277.98 302.66 314.76 383.91 445.31 513.02 559.43 631.81 603.16 589.23 624.13 593.97 537.08 565.83 606.60 591.23 476.14 403.14 336.23 327.65 306.19 285.59 280.21 270.39 262.73 268.19 285.92 286.18 331.36 357.66 380.94 434.97 490.32 559.08 547.76 470.70 441.76 435.09 414.89 373.18 371.76 309.80 283.47 248.50 192.81 117.73 104.49 104.52 107.04 106.25 105.87 104.70 104.69 104.24 104.25 104.62 105.59 109.55 114.60 127.71 145.16 156.92 173.62 175.89 194.47 204.55 219.72 229.23 240.10 239.75 249.25 303.14 409.10 887.09 3143.17 4552.05 5573.33 7381.48 6951.16 5704.60 4281.42 2758.47 2404.08 896.73 352.60 289.33 260.89 250.76 246.89 232.35 200.13 154.31 62.23 -70.48 -312.33 -643.07 -989.64 -1261.72 -1507.93 -1733.37 -1812.54 -1853.99 -1875.82 -1962.47 -2115.20 -2336.55 -2774.30 -3275.87 -3465.62 -3793.57 -3841.52 -3843.88 -3843.71 -3843.80
-2082.07 -2081.95 -2084.10 -2078.23 -2072.60 -2063.43 -2056.69 -2045.02 -2040.75 -2036.20 -2034.00 -2035.38 -2042.53 -2052.16 -2066.71 -2092.75 -2092.04 -2063.36 -1859.16 -1444.12 -852.40 -515.00 -300.75 -110.17 -68.05 26.52 162.62 217.80 290.40 298.48 348.24 404.45 437.11 540.01 590.38 495.28 519.95 598.11 591.63 512.53 494.21 513.00 501.63 476.20 356.96 319.69 302.52 285.94 276.51 259.31 256.99 256.98 264.16 282.94 287.73 310.96 363.09 420.33 499.94 533.56 546.25 549.82 502.75 492.35 427.64 427.82 458.12 379.82 343.25 336.92 307.30 234.70 129.25 104.12 103.48 106.88 106.74 105.71 104.54 103.78 103.77 103.74 103.23 104.89 108.28 114.74 123.04 135.34 156.18 171.02 183.35 196.77 207.79 220.09 230.89 240.62 245.34 255.23 302.97 950.70 2245.94 2616.44 3130.75 5431.12 8155.81 7527.20 5590.52 2839.50 2316.17 1573.89 658.53 366.01 270.80 255.19 251.63 249.13 240.00 203.70 164.93 52.15 -150.14 -270.39 -831.10 -1149.51 -1392.83 -1550.44 -1773.46 -1816.32 -1842.98 -1889.15 -1973.89 -2131.19 -2425.53 -2749.86 -3205.56 -3521.45 -3757.99 -3833.82 -3838.70 -3845.27 -3845.37
-2100.25 -2100.25 -2096.45 -2092.85 -2084.70 -2074.72 -2067.16 -2067.78 -2055.08 -2048.89 -2049.88 -2046.39 -2048.10 -2052.15 -2071.58 -2086.32 -2083.58 -1984.80 -1777.80 -1411.52 -916.12 -514.77 -326.22 -145.88 -123.27 11.75 55.40 115.14 238.76 299.90 338.92 342.50 372.80 507.27 557.53 482.81 431.40 481.10 555.74 458.84 421.39 467.99 423.76 411.85 348.39 313.12 297.09 266.77 253.99 250.97 250.79 255.95 259.98 279.41 287.21 304.93 348.56 421.77 464.11 502.88 538.80 544.94 522.86 499.71 468.66 455.26 507.65 474.47 435.51 423.03 375.31 297.19 208.61 102.33 102.63 104.65 104.52 104.82 103.22 103.01 103.30 103.08 102.71 104.24 109.57 113.48 121.72 135.74 158.16 171.75 185.84 201.96 212.80 219.82 230.42 239.42 250.41 262.11 386.88 1549.85 3407.85 3921.28 4185.17 6327.15 7220.83 5639.79 2971.57 2619.50 1446.12 602.66 344.79 258.95 255.18 252.95 251.16 242.20 234.47 195.59 139.08 43.24 -163.52 -436.76 -924.35 -1110.92 -1445.86 -1606.29 -1723.57 -1814.77 -1846.82 -1871.13 -1924.58 -2075.67 -2309.26 -2478.07 -3019.49 -3481.71 -3775.39 -3819.43 -3826.64 -3846.86 -3846.95
-2126.93 -2127.42 -2127.32 -2117.84 -2118.81 -2102.42 -2090.93 -2082.50 -2064.77 -2056.95 -2069.84 -2071.99 -2068.47 -2067.67 -2074.54 -2084.28 -2049.31 -1907.92 -1676.00 -1261.24 -600.96 -389.58 -287.60 -261.17 -190.03 -59.87 -52.88 35.23 183.61 268.55 335.26 337.86 389.20 455.20 528.13 470.78 390.33 439.85 475.30 480.25 388.58 396.69 368.77 329.57 303.70 293.93 275.53 245.52 227.91 226.73 233.98 252.38 261.72 279.52 289.68 297.13 332.99 367.93 435.95 463.95 540.24 562.61 566.46 533.61 531.99 538.28 531.65 525.59 516.61 476.68 406.37 326.05 261.14 132.02 100.64 105.14 104.70 110.02 105.28 102.47 102.74 102.57 102.25 102.78 105.28 114.49 127.14 141.79 163.62 180.55 195.52 206.73 214.40 222.89 229.46 241.66 253.75 421.94 926.36 1776.14 2260.86 5074.44 6072.45 7519.35 6984.45 4197.32 2684.16 2244.10 944.70 358.55 284.44 270.05 256.67 253.91 250.24 240.28 214.06 190.26 118.98 -1.32 -156.53 -455.91 -853.69 -1044.65 -1352.30 -1653.72 -1757.86 -1834.85 -1850.79 -1856.85 -1877.57 -1977.27 -2142.89 -2544.62 -2814.74 -3303.12 -3763.65 -3797.99 -3822.61 -3849.13 -3849.23
-2174.24 -2174.19 -2163.13 -2152.10 -2148.98 -2140.65 -2132.36 -2126.18 -2126.75 -2118.21 -2100.39 -2086.80 -2082.58 -2091.99 -2089.48 -2077.82 -2020.29 -1845.89 -1362.88 -847.81 -492.89 -294.76 -250.45 -249.38 -244.24 -103.29 -95.33 -27.67 156.96 261.59 299.00 323.37 350.04 389.76 411.83 334.76 338.57 385.24 393.34 384.32 365.24 344.87 323.85 294.41 292.50 273.04 255.65 219.92 189.41 193.99 221.43 239.54 258.60 268.73 286.74 304.24 329.97 380.34 435.32 484.11 530.40 541.29 532.42 533.02 530.78 517.70 512.88 483.85 441.73 385.16 310.75 284.96 259.43 231.09 143.76 102.26 106.56 114.03 107.76 102.32 102.38 102.11 102.12 102.24 105.97 114.06 128.65 143.79 164.54 188.60 199.51 207.10 216.03 224.70 236.21 254.42 355.60 408.99 2330.70 3098.76 3267.65 5237.35 7464.88 6775.23 4646.20 4303.64 2648.44 2006.04 709.55 338.33 285.13 274.79 269.83 253.83 247.58 229.15 199.14 178.74 85.19 -58.12 -203.32 -378.39 -742.30 -964.38 -1376.88 -1608.33 -1795.16 -1838.75 -1846.74 -1853.45 -1891.36 -1955.84 -2114.07 -2458.17 -2742.90 -3168.78 -3626.42 -3815.81 -3837.08 -3849.65 -3849.74
-2187.90 -2187.82 -2180.04 -2173.59 -2163.65 -2156.61 -2140.36 -2134.44 -2132.25 -2125.31 -2115.96 -2106.82 -2102.05 -2097.69 -2092.69 -2069.73 -1989.66 -1751.34 -1109.71 -757.19 -471.47 -276.63 -220.37 -228.21 -248.74 -132.27 -66.48 -36.06 119.64 222.79 254.94 300.06 301.56 357.70 349.81 323.52 315.70 311.34 315.14 301.53 288.75 294.40 302.95 265.98 249.05 248.33 230.78 187.61 172.47 190.06 215.24 240.15 260.18 276.97 290.72 304.77 321.59 365.62 424.36 463.44 499.22 497.57 482.87 458.00 474.22 446.32 422.85 451.37 415.23 333.20 309.29 286.35 262.46 232.23 162.34 107.50 112.37 113.26 103.51 104.28 102.24 101.83 101.44 101.28 106.68 113.88 129.72 146.93 169.56 184.94 198.74 213.23 221.50 225.64 236.94 263.24 407.08 1558.53 2719.79 4097.66 5505.88 7772.69 8021.48 5130.59 3012.65 3885.31 2390.54 1199.36 482.54 331.17 293.69 275.70 265.45 254.84 243.80 218.22 193.98 119.57 46.22 -107.93 -250.27 -409.68 -670.48 -1074.50 -1364.72 -1699.64 -1821.37 -1842.74 -1844.84 -1850.20 -1900.26 -1987.34 -2093.07 -2318.10 -2743.96 -3390.01 -3790.19 -3841.66 -3846.97 -3850.86 -3850.96
-2193.72 -2193.63 -2185.88 -2179.03 -2171.96 -2161.28 -2148.78 -2142.01 -2138.03 -2127.92 -2115.47 -2107.08 -2099.14 -2089.39 -2084.71 -2054.23 -1959.63 -1785.91 -1211.89 -813.38 -516.72 -308.43 -225.73 -205.26 -223.92 -127.63 -71.70 -53.24 -45.95 14.08 154.98 242.97 291.26 310.91 315.10 306.89 299.43 289.01 279.46 269.13 243.97 238.40 249.83 258.91 240.89 232.92 172.04 165.10 182.95 229.03 241.67 261.00 269.09 278.10 299.63 313.59 344.20 377.49 402.83 435.60 452.29 432.34 448.84 415.12 435.61 414.53 397.62 366.48 362.69 312.19 297.90 280.08 244.68 221.90 157.83 136.82 130.21 119.10 98.66 103.06 100.69 101.09 101.06 101.18 104.87 120.14 136.04 146.43 167.79 187.30 200.36 219.72 229.39 236.13 251.02 284.77 803.90 2252.67 2950.71 4770.65 7110.67 8293.65 6819.30 4669.98 2570.88 2067.74 1797.65 442.48 365.24 325.88 290.64 277.15 263.07 255.75 247.32 227.12 186.87 87.61 -10.38 -160.18 -316.58 -563.28 -826.39 -1290.80 -1589.28 -1771.90 -1828.33 -1841.10 -1842.13 -1856.63 -1915.63 -1985.05 -2136.57 -2394.42 -2834.09 -3593.81 -3801.42 -3835.61 -3848.07 -3850.55 -3850.64
-2196.99 -2196.90 -2189.94 -2184.19 -2176.30 -2164.28 -2154.29 -2144.45 -2138.04 -2128.20 -2115.13 -2103.06 -2092.91 -2084.75 -2072.42 -2051.05 -1989.18 -1893.11 -1541.03 -1231.03 -725.00 -456.82 -293.23 -204.29 -204.39 -194.35 -76.64 -51.59 -45.47 -13.88 87.04 210.94 257.76 284.24 287.54 262.03 282.90 267.48 254.06 218.14 193.94 219.36 235.37 225.89 233.37 206.26 154.21 157.31 203.69 236.87 263.14 270.25 280.31 288.77 310.47 326.61 347.90 425.96 452.97 444.69 423.01 405.39 409.92 391.83 371.09 360.58 328.61 335.17 314.68 283.50 272.16 255.62 237.34 189.59 155.00 114.01 125.43 136.32 114.95 102.18 100.11 100.23 100.46 100.66 105.71 121.68 138.58 150.44 169.84 196.55 208.56 234.21 243.05 260.55 284.76 1173.82 2021.92 2221.16 3619.22 6232.21 6608.94 6681.15 5604.05 4484.05 3273.17 1951.91 743.36 358.45 356.91 320.79 288.98 263.27 260.59 253.84 247.60 225.02 196.28 143.49 38.92 -87.55 -281.83 -625.94 -986.06 -1276.74 -1663.39 -1795.14 -1822.39 -1841.55 -1839.22 -1862.13 -1908.14 -2027.52 -2252.20 -2445.10 -2921.28 -3550.42 -3815.04 -3843.63 -3847.63 -3850.42 -3850.51
-2197.94 -2197.46 -2193.09 -2184.76 -2175.46 -2168.20 -2156.72 -2145.69 -2136.64 -2126.47 -2109.43 -2100.63 -2085.45 -2073.87 -2064.26 -2041.76 -2001.83 -1899.77 -1692.84 -1456.94 -1191.92 -734.68 -438.21 -233.81 -190.56 -186.11 -172.14 -123.06 -100.16 -12.40 75.55 98.43 179.95 212.51 199.69 203.75 243.28 237.95 178.53 137.34 141.83 168.04 184.83 176.52 180.40 174.56 150.35 178.10 232.06 254.37 270.27 281.31 287.31 295.13 305.79 376.30 414.50 460.31 477.98 425.46 403.96 376.34 357.93 358.13 331.18 307.86 298.98 289.21 289.18 274.41 259.76 230.74 194.78 153.48 113.94 103.63 109.92 117.44 103.14 96.79 98.46 99.28 99.42 99.48 101.72 112.11 138.52 149.38 166.04 200.10 219.69 244.20 255.83 297.22 603.80 1935.32 2645.75 2722.97 3589.34 7465.47 7128.22 4620.36 2712.23 3460.89 2785.81 1542.50 594.63 344.37 328.03 296.26 271.80 260.83 254.81 251.64 243.14 221.57 173.91 127.07 22.18 -160.54 -338.26 -770.55 -1176.51 -1463.46 -1721.56 -1811.58 -1830.68 -1832.62 -1844.33 -1875.83 -1925.04 -2018.73 -2286.45 -2490.08 -2958.31 -3633.60 -3826.48 -3846.28 -3845.96 -3850.22 -3850.31
-2196.04 -2195.95 -2191.79 -2184.89 -2176.33 -2166.43 -2153.11 -2143.61 -2133.80 -2113.05 -2096.16 -2085.01 -2073.38 -2065.19 -2039.52 -2024.92 -1996.61 -1984.41 -1875.71 -1800.26 -1454.48 -977.06 -610.01 -322.78 -202.35 -167.91 -185.59 -166.94 -128.83 -46.30 9.26 27.44 36.52 96.00 130.71 151.51 178.30 144.60 111.81 92.91 121.96 138.29 138.13 131.59 134.34 137.16 162.98 213.01 232.88 269.67 281.17 303.21 311.73 347.70 354.54 388.75 469.25 509.30 460.55 410.35 368.95 338.45 334.00 311.41 299.46 296.94 285.60 262.89 260.67 256.60 237.48 189.10 137.97 105.07 101.55 101.12 99.22 90.73 93.48 95.65 97.06 97.23 97.00 96.71 101.82 115.32 142.06 150.19 165.84 205.96 226.96 243.68 270.88 596.24 860.62 1842.91 2780.46 3569.49 5309.11 7023.14 6948.51 3927.12 2145.07 1433.32 1657.40 792.64 337.66 332.24 309.38 292.36 274.11 265.67 255.42 250.26 241.89 221.33 183.83 131.80 -11.01 -123.40 -428.67 -824.67 -1182.52 -1561.43 -1711.11 -1813.84 -1816.71 -1813.96 -1842.81 -1872.18 -1929.99 -2012.26 -2386.42 -2722.33 -3289.07 -3771.33 -3828.60 -3843.30 -3845.49 -3850.30 -3850.39
-2190.18 -2189.47 -2187.14 -2178.62 -2173.04 -2163.40 -2149.33 -2135.67 -2114.16 -2093.70 -2075.33 -2063.51 -2047.20 -2032.39 -2018.85 -1999.68 -1988.22 -1973.89 -1940.25 -1815.15 -1693.79 -1304.11 -618.34 -400.11 -197.72 -157.07 -163.36 -174.43 -162.87 -95.69 -40.24 -44.89 8.10 44.49 58.83 92.24 118.40 74.17 34.17 66.57 82.76 104.41 121.74 117.95 119.05 138.34 167.34 225.90 256.40 277.07 289.12 313.21 332.92 371.57 417.37 442.87 493.03 531.46 472.41 415.99 368.76 333.41 315.58 299.76 296.17 285.32 265.76 258.81 253.79 211.18 181.48 127.71 94.02 101.45 98.60 100.00 97.08 89.78 91.29 94.40 94.49 94.99 94.62 95.71 109.34 126.01 152.27 177.68 186.39 212.81 239.12 253.74 341.95 742.64 2348.40 3244.26 4726.89 5986.78 6974.74 6552.21 5540.27 3790.01 3276.83 1847.65 802.79 571.09 317.86 311.90 304.20 284.73 267.55 263.25 254.33 251.70 240.80 219.41 183.52 140.59 11.81 -129.18 -411.22 -964.09 -1263.16 -1538.92 -1711.35 -1800.79 -1809.32 -1837.57 -1841.82 -1851.13 -1898.28 -1991.02 -2206.75 -2743.94 -3340.69 -3788.60 -3815.03 -3847.84 -3848.73 -3850.29 -3850.37
-2184.73 -2184.65 -2181.26 -2174.55 -2164.88 -2157.41 -2147.55 -2132.83 -2104.23 -2087.68 -2070.79 -2051.96 -2039.82 -2022.28 -2003.68 -1981.24 -1966.16 -1960.31 -1945.92 -1889.78 -1791.16 -1387.05 -913.07 -525.95 -234.69 -161.17 -147.87 -156.78 -158.78 -144.61 -129.21 -115.74 -93.24 -63.43 -18.51 8.07 25.29 15.87 2.54 28.51 39.82 62.52 93.44 104.93 120.17 174.33 229.15 255.72 262.33 288.28 314.90 338.56 385.18 426.74 456.80 470.29 526.00 524.56 482.72 420.66 371.20 321.70 302.90 287.26 271.08 255.17 252.11 255.59 210.16 160.60 136.68 96.67 91.76 95.65 90.11 91.64 87.78 88.19 88.63 91.67 92.48 92.15 93.43 99.31 115.23 130.59 168.32 177.86 197.05 210.78 240.50 268.14 473.41 1688.15 2066.05 3048.84 4343.88 7229.25 7482.90 6056.21 3538.51 2997.21 3337.95 1303.44 376.41 300.23 307.58 306.18 284.62 274.81 261.60 254.32 254.60 251.13 240.68 219.92 190.62 135.04 20.99 -104.35 -454.52 -792.22 -1289.27 -1540.50 -1608.04 -1785.69 -1821.84 -1833.15 -1844.67 -1867.66 -1921.60 -2016.18 -2180.59 -2702.76 -3130.44 -3610.25 -3835.50 -3851.72 -3851.63 -3852.25 -3852.34
-2177.99 -2177.91 -2173.77 -2167.27 -2162.23 -2152.65 -2143.07 -2124.93 -2102.62 -2078.20 -2065.10 -2047.18 -2034.60 -2018.03 -2001.50 -1978.34 -1961.56 -1953.71 -1932.08 -1915.36 -1720.63 -1403.97 -899.40 -453.82 -184.93 -159.09 -152.12 -174.31 -177.77 -168.15 -179.00 -171.90 -188.99 -144.05 -77.18 -37.25 -28.74 -38.81 -39.66 -34.05 -20.20 0.71 55.40 86.76 103.31 199.21 234.70 258.32 265.29 299.78 332.80 372.64 406.00 453.22 491.06 508.27 543.67 536.44 478.83 424.42 371.15 334.87 288.04 272.65 255.79 243.79 232.13 199.59 166.25 127.74 104.84 99.64 97.41 80.33 85.57 89.97 87.72 87.01 86.96 88.93 90.01 91.34 93.20 100.30 123.85 134.87 160.51 193.72 209.21 240.06 257.29 515.03 1506.28 3203.16 2926.82 4754.22 6034.92 7056.29 7638.85 6226.93 3999.60 2213.24 1842.06 612.37 285.35 289.33 287.88 282.25 269.07 263.16 255.84 253.24 254.12 251.05 240.31 221.16 179.70 133.33 28.42 -24.72 -297.19 -618.37 -1086.24 -1499.13 -1676.54 -1785.34 -1815.63 -1830.77 -1841.04 -1868.01 -1903.44 -2086.85 -2344.60 -2568.50 -3263.96 -3736.43 -3830.59 -3851.40 -3850.10 -3850.46 -3850.57
-2170.11 -2170.03 -2166.78 -2159.16 -2154.23 -2143.37 -2134.54 -2118.65 -2095.73 -2078.50 -2061.68 -2046.89 -2033.98 -2015.87 -1993.68 -1973.18 -1956.81 -1946.89 -1924.22 -1872.07 -1596.46 -1353.27 -815.40 -397.14 -233.49 -262.36 -371.27 -305.10 -295.53 -318.59 -286.10 -279.95 -343.66 -185.61 -176.89 -112.61 -91.12 -80.10 -81.48 -79.82 -73.45 -41.29 17.03 63.30 79.38 125.94 223.80 265.91 276.21 321.16 338.42 384.21 437.88 459.99 504.60 523.01 513.90 493.40 448.08 379.53 354.26 325.20 279.40 252.05 234.47 210.00 180.47 166.12 141.06 103.08 74.30 71.70 93.06 88.85 85.00 89.56 86.71 86.14 86.47 87.29 88.93 90.56 89.45 92.29 119.47 152.42 174.43 199.15 225.80 239.61 286.92 617.92 1045.94 2286.69 3733.31 5321.15 8649.30 7935.90 6511.51 5263.48 3011.00 2850.36 2360.95 376.37 279.36 277.03 277.77 273.73 271.52 264.80 253.37 252.64 252.29 247.94 242.45 225.84 202.87 135.10 81.95 -21.50 -253.81 -609.72 -1189.06 -1460.42 -1787.54 -1815.42 -1828.26 -1828.67 -1832.40 -1859.16 -1897.70 -2028.60 -2381.94 -2656.41 -3186.95 -3582.17 -3826.94 -3854.06 -3852.31 -3852.90 -3852.97
-2161.89 -2160.97 -2157.08 -2154.61 -2147.59 -2140.14 -2130.78 -2116.96 -2094.45 -2076.52 -2064.18 -2049.39 -2037.75 -2017.49 -1995.41 -1972.74 -1962.60 -1953.21 -1921.09 -1834.86 -1603.57 -1197.91 -773.50 -513.73 -514.31 -537.41 -565.67 -634.95 -737.87 -659.96 -714.56 -738.16 -737.31 -623.24 -328.64 -149.23 -122.57 -119.41 -125.43 -120.32 -116.52 -100.74 -19.09 41.12 89.58 135.71 234.89 306.11 297.60 318.21 361.44 396.58 447.61 479.78 472.18 465.18 453.75 443.50 423.10 358.02 336.16 303.36 278.38 253.41 227.62 181.20 162.88 143.64 121.80 87.95 85.43 75.77 86.96 94.02 88.07 85.05 85.30 85.08 85.17 85.00 86.57 87.59 86.71 90.21 115.81 160.53 194.45 210.60 233.51 249.99 353.90 485.67 1486.37 2855.70 4047.13 6576.02 7964.38 6853.38 4656.03 3676.15 1713.20 1713.55 513.01 301.52 277.69 276.65 276.57 271.12 270.90 259.99 251.70 251.83 246.12 244.02 236.71 222.62 195.58 171.30 53.66 -63.23 -256.79 -741.20 -1021.37 -1496.32 -1795.33 -1823.25 -1823.81 -1826.17 -1831.68 -1859.31 -1925.56 -2033.63 -2199.40 -2737.38 -3335.90 -3716.79 -3837.17 -3848.36 -3854.90 -3853.89 -3853.96
-2156.26 -2156.19 -2154.47 -2150.64 -2146.37 -2137.57 -2129.89 -2117.07 -2100.65 -2081.92 -2070.94 -2056.25 -2046.65 -2031.20 -2016.00 -1991.53 -1982.26 -1961.46 -1951.57 -1872.13 -1697.17 -1287.16 -988.43 -841.75 -840.74 -958.47 -1030.11 -1118.97 -1137.27 -1299.12 -1265.90 -1150.83 -1218.09 -720.30 -346.46 -187.63 -159.45 -144.37 -152.01 -161.73 -207.54 -180.59 -107.96 -28.70 58.58 160.62 245.51 323.83 354.47 366.63 389.32 425.65 478.09 476.48 471.99 389.09 380.69 416.74 404.54 351.27 310.00 294.81 275.35 252.16 207.45 171.43 147.36 141.18 91.74 78.11 84.68 86.41 90.06 86.72 84.12 83.79 83.55 83.49 83.04 83.37 83.61 85.01 85.02 85.78 101.31 169.51 206.27 225.46 240.72 251.53 386.13 1444.11 1459.57 3919.05 5510.90 8052.69 8501.07 7605.54 4078.09 2695.31 3093.19 882.49 483.17 307.81 271.89 265.99 269.61 260.97 254.99 250.92 251.73 250.95 244.68 239.00 230.35 209.58 185.61 149.94 -3.20 -173.99 -310.98 -703.97 -1214.37 -1501.50 -1785.67 -1821.54 -1821.87 -1824.74 -1831.87 -1852.18 -1936.85 -2035.93 -2795.67 -3148.62 -3698.02 -3764.07 -3843.22 -3838.11 -3849.67 -3855.70 -3855.78
-2156.33 -2156.25 -2152.67 -2149.32 -2144.45 -2140.17 -2132.21 -2122.29 -2108.58 -2097.62 -2089.44 -2074.68 -2062.35 -2044.93 -2032.48 -2016.70 -2005.13 -1996.98 -1983.13 -1907.93 -1800.87 -1610.10 -1449.48 -1395.08 -1369.32 -1628.95 -1674.82 -1671.71 -1768.96 -1724.64 -1767.66 -1791.49 -1731.81 -989.89 -522.96 -328.15 -202.58 -188.31 -234.88 -263.12 -271.09 -178.57 -138.72 -52.63 19.35 120.32 239.28 294.98 359.41 430.72 456.98 450.31 468.53 453.95 408.46 332.45 330.82 359.83 348.44 343.92 330.70 290.66 266.45 235.35 197.45 160.19 139.96 97.41 79.95 80.17 82.10 82.38 76.87 83.51 84.88 82.76 82.61 82.41 82.23 82.20 82.47 83.37 85.12 86.46 114.78 142.96 215.18 232.10 246.50 257.76 571.23 2004.83 2711.15 3627.81 5896.15 9195.73 8477.99 6480.70 4419.75 3697.88 3531.94 868.40 351.40 265.43 273.69 264.70 257.76 249.78 251.08 251.84 249.93 248.02 240.74 235.97 223.40 205.19 174.69 69.23 -78.44 -276.66 -535.83 -782.05 -1252.18 -1696.21 -1787.67 -1806.55 -1818.78 -1818.70 -1827.45 -1849.94 -1947.00 -2184.81 -2999.17 -3417.88 -3726.20 -3832.23 -3841.31 -3847.16 -3851.99 -3856.38 -3856.45
-2149.90 -2149.83 -2148.20 -2143.99 -2142.19 -2136.07 -2130.68 -2120.03 -2113.10 -2100.87 -2092.83 -2081.47 -2070.39 -2061.88 -2046.17 -2033.16 -2018.49 -2011.49 -1998.37 -1986.69 -1951.15 -1836.74 -1778.27 -1740.20 -1789.44 -1834.32 -1887.97 -1887.63 -1965.45 -1989.07 -2030.26 -2022.69 -1956.28 -1816.19 -1214.92 -607.24 -287.43 -239.67 -292.54 -302.65 -310.15 -218.26 -141.01 -110.27 3.90 103.50 201.59 277.73 329.43 383.42 452.56 440.00 381.75 368.81 367.50 318.12 316.94 311.53 301.50 302.29 318.23 282.29 256.15 239.80 197.12 162.28 134.74 96.55 77.24 80.25 84.23 81.29 79.28 84.41 84.25 82.02 81.91 81.88 81.49 81.53 81.90 83.92 96.09 122.36 152.97 185.79 206.69 239.61 262.46 357.62 771.85 2328.74 3036.57 4914.60 7536.47 8934.90 7054.76 4496.68 2761.21 2175.10 1604.22 334.56 269.52 253.58 259.95 257.14 251.11 251.07 251.52 250.52 247.68 245.20 238.74 233.27 223.37 184.50 83.82 -18.94 -169.21 -370.38 -755.41 -1126.06 -1431.18 -1783.70 -1791.24 -1799.13 -1808.76 -1813.78 -1820.25 -1842.58 -1891.80 -2286.02 -3222.49 -3616.43 -3831.74 -3839.70 -3850.04 -3855.44 -3856.11 -3856.73 -3856.80
-2143.40 -2143.33 -2142.09 -2139.96 -2137.69 -2132.73 -2128.53 -2119.03 -2113.98 -2104.56 -2098.61 -2088.69 -2076.16 -2068.39 -2055.95 -2048.74 -2035.35 -2029.68 -2025.66 -2010.15 -2015.94 -2009.68 -1963.49 -1962.70 -1974.34 -1993.90 -2000.20 -2028.45 -2036.15 -2059.65 -2075.01 -2078.40 -2071.00 -1932.09 -1351.60 -915.83 -467.70 -367.98 -297.06 -287.86 -305.22 -225.85 -157.63 -124.74 -33.09 43.29 121.82 229.29 306.27 321.05 379.98 403.11 356.03 325.55 318.35 289.15 274.95 274.62 279.16 266.34 294.37 290.22 252.13 220.95 199.60 167.98 131.80 96.03 73.39 76.91 89.90 84.08 84.47 84.64 83.13 81.50 81.31 81.21 81.04 81.25 81.37 84.83 104.65 138.75 161.52 185.87 225.45 238.30 284.48 729.64 1365.35 1467.96 3201.40 5433.02 8409.35 8828.75 6486.17 3661.51 3306.30 2654.66 620.39 345.51 266.15 254.03 251.16 250.70 251.03 249.92 249.06 245.59 245.11 241.30 235.54 228.18 197.66 176.12 92.25 -186.45 -343.14 -551.70 -951.41 -1289.46 -1506.03 -1755.20 -1803.09 -1815.02 -1817.24 -1815.70 -1821.09 -1831.03 -1882.99 -2267.77 -3346.49 -3747.09 -3832.48 -3841.50 -3849.67 -3850.57 -3854.11 -3857.80 -3857.87
-2137.93 -2137.86 -2137.95 -2136.35 -2133.85 -2131.30 -2127.23 -2121.81 -2113.88 -2108.68 -2101.35 -2094.56 -2091.14 -2081.49 -2074.05 -2060.90 -2054.14 -2043.96 -2037.02 -2041.06 -2032.57 -2028.96 -2016.72 -2027.86 -2024.13 -2044.37 -2051.34 -2056.02 -2068.03 -2082.47 -2090.43 -2096.36 -2086.01 -2001.00 -1561.13 -1250.10 -801.31 -466.85 -302.44 -287.03 -290.59 -206.33 -171.82 -136.91 -91.22 12.89 148.48 234.44 264.00 277.41 365.46 336.01 307.52 299.51 270.94 263.54 266.31 252.31 242.22 192.41 225.42 257.62 270.88 234.08 224.49 189.33 170.18 121.34 92.71 90.98 86.99 86.75 87.86 85.90 82.95 81.19 80.97 80.91 81.11 81.21 84.83 100.61 114.99 160.25 180.03 200.25 222.33 248.18 326.72 915.40 2424.19 2894.68 3068.97 5102.56 8814.54 7339.00 5924.28 3035.44 2047.21 1921.19 318.97 295.93 254.14 250.33 250.71 250.13 248.61 243.92 245.98 242.62 238.99 233.78 230.09 213.60 175.26 128.11 40.93 -65.60 -403.19 -583.25 -1005.59 -1325.88 -1591.52 -1762.14 -1813.63 -1818.80 -1815.40 -1818.67 -1824.24 -1828.92 -1853.91 -2576.86 -3213.95 -3827.75 -3847.41 -3850.93 -3851.51 -3852.56 -3856.28 -3862.29 -3862.36
-2132.44 -2132.37 -2132.10 -2131.71 -2129.66 -2127.33 -2126.06 -2121.24 -2116.55 -2110.44 -2106.31 -2099.28 -2095.15 -2091.11 -2087.11 -2077.92 -2071.53 -2064.54 -2060.89 -2054.23 -2062.03 -2058.03 -2054.22 -2058.07 -2053.63 -2064.82 -2069.35 -2074.48 -2084.35 -2091.32 -2099.14 -2102.76 -2091.54 -2057.01 -1858.39 -1553.02 -880.08 -588.87 -337.86 -287.71 -254.11 -199.02 -196.52 -178.15 -100.29 -17.18 117.25 231.67 258.52 275.47 311.93 323.13 261.17 262.87 236.51 178.89 213.66 198.44 184.08 117.14 140.88 188.61 257.11 264.93 261.99 227.22 207.64 182.06 142.32 100.10 78.21 87.38 79.48 80.20 82.49 81.20 80.71 80.24 80.49 81.43 82.87 97.41 116.01 166.61 197.48 202.15 231.38 267.56 608.96 922.52 2055.96 3194.51 6033.21 7212.27 8578.09 6463.33 5127.08 3440.85 2205.06 1115.34 312.44 261.22 247.70 246.55 246.54 245.60 243.35 238.66 236.79 234.16 230.84 223.36 214.20 190.17 160.96 69.83 13.94 -100.39 -309.16 -838.37 -1179.78 -1561.22 -1761.93 -1802.69 -1825.74 -1820.16 -1820.88 -1826.92 -1832.96 -1839.02 -1883.05 -2386.01 -3120.65 -3842.38 -3851.36 -3853.21 -3854.78 -3856.00 -3858.29 -3862.66 -3862.73
-2115.60 -2115.50 -2116.62 -2109.35 -2108.44 -2106.15 -2102.07 -2103.43 -2109.44 -2108.13 -2104.68 -2100.47 -2097.87 -2096.81 -2093.89 -2095.14 -2090.71 -2090.00 -2082.76 -2083.56 -2087.76 -2080.65 -2083.84 -2088.62 -2085.18 -2101.89 -2094.69 -2096.27 -2101.40 -2104.85 -2107.72 -2110.99 -2109.97 -2079.98 -1953.32 -1659.59 -1188.67 -619.53 -423.08 -313.03 -277.90 -204.89 -178.92 -169.74 -117.97 -8.10 103.23 147.36 232.82 279.80 266.07 246.37 208.28 188.70 148.79 29.91 71.31 84.65 44.03 -10.37 52.89 141.65 220.66 288.41 303.20 261.70 238.28 239.10 214.62 158.23 111.09 96.96 77.55 80.51 80.96 80.54 79.96 79.75 79.60 80.53 81.74 95.06 120.25 156.19 195.86 225.73 250.63 286.66 1579.01 2548.23 2532.60 2636.23 6270.76 7774.88 7123.69 3498.85 2559.06 2461.60 1917.32 381.06 296.27 246.82 242.94 242.51 240.98 238.09 237.86 232.65 231.90 228.67 211.10 197.08 183.88 146.84 60.19 9.53 -117.93 -227.19 -459.94 -914.92 -1314.39 -1668.84 -1775.11 -1826.75 -1828.53 -1822.88 -1830.70 -1839.54 -1845.19 -1854.57 -1872.89 -2210.83 -3272.22 -3796.49 -3852.84 -3855.84 -3857.28 -3857.74 -3859.81 -3863.93 -3864.00
-2082.50 -2082.13 -2085.27 -2088.46 -2091.36 -2087.64 -2088.30 -2088.98 -2102.81 -2100.01 -2099.56 -2096.28 -2093.55 -2092.86 -2103.19 -2117.41 -2115.43 -2121.19 -2116.36 -2116.80 -2118.22 -2109.14 -2109.50 -2110.71 -2119.78 -2117.66 -2125.50 -2119.65 -2119.82 -2115.83 -2114.47 -2114.93 -2114.69 -2103.02 -2041.72 -1779.87 -1307.45 -853.18 -471.97 -338.67 -309.95 -221.43 -170.00 -166.30 -124.17 -11.78 34.12 63.63 169.71 204.82 209.77 120.49 125.71 77.61 47.47 -62.96 -103.36 -39.65 -61.60 -34.80 -22.25 111.30 213.18 282.98 329.32 323.22 295.51 285.25 255.82 185.86 171.30 119.75 88.37 80.47 78.13 79.54 79.25 79.34 79.16 79.10 80.06 84.83 118.45 153.03 195.41 235.40 264.79 723.82 2083.39 2936.47 4816.05 5506.16 8083.56 8110.18 6203.36 3743.55 1902.75 1523.67 540.68 349.61 253.29 245.01 238.80 235.51 229.98 228.59 217.64 224.09 221.87 216.33 182.56 166.74 114.75 85.10 -0.96 -182.46 -249.92 -371.57 -488.88 -996.24 -1290.99 -1654.39 -1794.02 -1830.31 -1829.73 -1829.12 -1839.67 -1852.28 -1864.43 -1870.96 -1920.19 -2236.07 -3336.74 -3760.33 -3825.19 -3854.02 -3858.33 -3856.63 -3860.76 -3864.14 -3864.60
-2079.71 -2079.65 -2080.67 -2081.49 -2081.70 -2082.41 -2084.17 -2090.71 -2101.86 -2103.00 -2105.07 -2102.80 -2101.26 -2101.27 -2114.62 -2129.01 -2128.28 -2133.92 -2134.64 -2136.32 -2138.93 -2136.22 -2139.62 -2139.34 -2141.74 -2140.45 -2145.80 -2145.76 -2129.37 -2126.88 -2124.08 -2124.12 -2124.74 -2117.96 -2049.08 -1811.67 -1535.69 -952.24 -507.25 -351.45 -321.24 -237.57 -191.87 -173.25 -118.10 -48.71 -26.45 15.41 94.86 115.45 116.99 60.81 21.48 -40.67 -92.16 -101.81 -112.13 -101.87 -115.18 -114.18 -83.20 29.04 135.79 266.23 316.54 355.29 346.51 299.45 298.37 268.51 217.50 176.00 89.18 77.08 77.09 78.06 77.91 77.91 78.15 78.14 81.00 90.79 127.96 153.13 198.91 234.09 275.76 971.17 2099.43 3389.38 5726.01 6629.67 7596.90 7866.27 5694.51 4185.38 1899.56 1314.65 434.54 275.27 245.37 233.23 230.01 229.10 223.98 216.01 203.88 203.04 197.54 182.88 145.39 92.31 75.72 -27.63 -152.38 -339.82 -554.95 -676.02 -766.71 -959.11 -1408.29 -1611.21 -1808.97 -1833.32 -1834.40 -1840.95 -1848.45 -1858.32 -1866.65 -1884.22 -1911.39 -2178.71 -3097.52 -3472.73 -3809.47 -3850.35 -3857.90 -3858.93 -3860.76 -3865.96 -3866.03
-2081.87 -2081.81 -2082.24 -2083.25 -2085.77 -2085.72 -2088.00 -2095.35 -2109.48 -2113.47 -2111.98 -2111.91 -2111.24 -2112.06 -2123.15 -2142.34 -2146.95 -2149.23 -2150.95 -2157.01 -2155.07 -2158.35 -2155.45 -2157.96 -2161.88 -2159.37 -2159.11 -2160.98 -2154.45 -2141.04 -2136.58 -2132.01 -2130.47 -2127.08 -2087.67 -1908.22 -1600.17 -1223.46 -599.50 -424.89 -308.58 -252.85 -209.14 -188.28 -143.06 -71.66 -39.78 20.61 61.62 53.73 14.89 -61.03 -93.04 -124.91 -147.27 -112.10 -116.49 -116.15 -115.08 -113.67 -102.94 12.39 147.87 216.57 286.23 329.04 381.32 372.03 336.80 289.60 254.62 200.75 118.25 83.40 76.38 76.44 76.57 76.93 75.96 75.13 76.82 92.77 121.41 143.63 187.44 235.75 280.57 629.55 2564.52 4077.36 5196.52 5647.94 6141.76 5364.89 4284.19 3359.99 1915.86 674.39 270.34 247.93 241.10 224.77 220.07 212.09 205.98 199.56 192.41 189.44 181.65 147.31 83.27 21.75 -65.31 -118.76 -326.77 -584.98 -815.37 -972.02 -1038.59 -1274.61 -1474.09 -1722.16 -1811.47 -1836.43 -1838.90 -1845.03 -1856.10 -1866.72 -1879.45 -1896.71 -1932.26 -2288.51 -3102.54 -3495.37 -3806.45 -3853.50 -3859.62 -3862.06 -3862.34 -3866.92 -3866.98
-2084.72 -2084.66 -2085.00 -2087.08 -2087.77 -2092.06 -2093.24 -2101.93 -2113.41 -2120.09 -2121.60 -2122.87 -2125.33 -2126.99 -2137.24 -2155.04 -2164.95 -2167.73 -2168.11 -2174.11 -2172.92 -2174.04 -2173.42 -2174.00 -2179.03 -2183.55 -2183.56 -2170.38 -2166.22 -2157.91 -2148.20 -2143.21 -2139.31 -2136.33 -2094.89 -2054.15 -1710.53 -1336.36 -774.52 -434.48 -359.64 -289.40 -243.73 -181.38 -149.09 -104.09 -59.53 -5.67 -27.48 -80.96 -87.81 -134.36 -165.75 -154.13 -146.23 -127.37 -121.15 -113.86 -91.19 -83.98 -70.67 -23.12 43.54 147.62 254.04 299.58 343.79 365.25 359.30 340.78 312.60 250.02 170.51 94.91 75.73 75.08 75.13 74.89 73.59 73.04 74.44 86.09 112.19 127.22 159.77 244.68 259.38 318.62 2749.22 3738.47 3633.69 3294.56 2729.40 2889.69 2281.99 2172.84 430.78 269.54 251.11 240.82 238.01 216.20 202.94 191.63 174.95 169.84 166.89 167.76 126.15 88.26 23.67 -99.40 -162.35 -320.61 -471.92 -695.31 -1030.11 -1167.36 -1264.36 -1455.88 -1673.10 -1759.58 -1822.07 -1839.94 -1842.01 -1842.57 -1858.24 -1869.24 -1886.61 -1904.39 -1986.18 -2489.92 -3109.63 -3502.82 -3797.85 -3845.47 -3856.53 -3861.70 -3865.57 -3867.31 -3867.37
-2089.15 -2089.84 -2090.77 -2091.87 -2095.10 -2098.34 -2102.14 -2111.63 -2120.54 -2128.63 -2130.43 -2132.53 -2132.81 -2133.66 -2148.86 -2163.86 -2173.23 -2174.56 -2178.96 -2180.40 -2187.01 -2188.34 -2189.88 -2196.32 -2198.06 -2191.72 -2192.56 -2193.94 -2181.71 -2168.15 -2156.30 -2151.12 -2144.92 -2141.32 -2134.89 -2090.52 -1955.92 -1317.53 -1104.94 -736.94 -429.73 -315.33 -227.64 -171.42 -154.14 -126.82 -81.86 -54.88 -105.79 -154.18 -186.79 -185.18 -177.89 -165.24 -151.23 -134.24 -117.54 -102.69 -88.98 -64.61 -49.98 -45.19 -13.94 59.43 173.65 222.68 270.82 306.67 335.93 353.67 297.61 262.94 156.28 101.29 74.87 74.42 73.84 74.09 73.36 72.51 74.09 76.39 121.33 132.86 183.23 235.83 254.63 319.95 1549.97 2454.63 3362.23 3227.32 1828.39 1434.15 1418.44 602.31 310.04 241.80 238.37 221.30 208.83 190.88 184.00 176.20 126.20 112.80 74.25 58.34 55.09 56.31 -61.85 -166.57 -276.46 -494.31 -633.60 -813.48 -1190.04 -1381.05 -1602.60 -1703.45 -1775.06 -1802.36 -1831.29 -1841.85 -1842.92 -1845.16 -1857.43 -1874.39 -1887.94 -1908.54 -1991.61 -2228.12 -2870.87 -3549.93 -3796.33 -3847.09 -3854.30 -3862.70 -3865.68 -3868.50 -3868.57
-2102.77 -2102.73 -2112.79 -2108.34 -2115.79 -2114.99 -2123.26 -2123.67 -2129.49 -2132.31 -2135.94 -2137.81 -2139.81 -2142.00 -2150.93 -2165.03 -2168.41 -2169.39 -2176.90 -2181.14 -2185.21 -2197.62 -2204.32 -2196.47 -2199.65 -2196.27 -2197.08 -2189.64 -2173.32 -2168.89 -2161.06 -2151.84 -2145.15 -2143.73 -2139.88 -2097.58 -2031.49 -1795.78 -1217.26 -923.62 -656.23 -466.84 -375.44 -217.36 -240.92 -161.11 -135.05 -174.63 -181.33 -222.07 -212.47 -192.92 -181.29 -171.78 -151.75 -134.69 -113.35 -91.86 -76.19 -55.45 -40.96 -33.30 -19.51 -0.76 42.51 118.23 208.41 254.00 275.05 270.52 262.96 203.44 152.99 85.05 73.61 73.34 72.93 72.69 72.17 70.88 70.31 71.73 87.05 94.85 162.62 231.00 252.97 261.95 741.11 1054.93 1696.31 996.24 918.90 717.08 662.68 260.16 243.91 217.62 187.31 154.57 166.19 152.88 125.85 112.83 48.86 40.64 31.39 18.42 -25.26 -110.09 -244.24 -286.12 -407.15 -704.34 -803.93 -1095.08 -1404.25 -1597.09 -1735.57 -1807.00 -1851.39 -1848.85 -1842.81 -1844.28 -1845.42 -1862.40 -1864.40 -1874.86 -1892.20 -1907.71 -1980.04 -2130.32 -2835.02 -3467.74 -3757.91 -3839.36 -3850.82 -3862.26 -3868.22 -3870.47 -3870.54
-2123.66 -2124.47 -2126.42 -2129.64 -2133.00 -2137.77 -2138.23 -2140.92 -2137.45 -2136.68 -2141.48 -2141.64 -2145.11 -2146.36 -2153.26 -2158.08 -2164.14 -2165.52 -2167.04 -2171.56 -2175.29 -2190.99 -2203.20 -2205.23 -2200.60 -2200.95 -2202.62 -2198.78 -2174.28 -2170.96 -2159.25 -2150.24 -2142.08 -2144.78 -2136.71 -2103.43 -2013.41 -1858.38 -1816.54 -1348.62 -928.06 -749.20 -666.88 -485.27 -310.71 -334.48 -260.06 -240.13 -247.75 -232.22 -215.40 -205.96 -185.87 -174.20 -158.60 -136.63 -115.38 -87.65 -62.45 -49.13 -37.53 -23.11 -15.65 -0.87 9.01 44.63 92.83 119.89 127.45 173.77 162.31 144.86 91.95 72.07 72.21 71.09 69.91 71.13 70.43 70.39 68.91 68.32 68.02 88.36 168.80 229.53 249.28 259.41 262.68 390.88 388.38 548.09 407.52 413.70 265.88 240.40 226.42 201.94 152.43 74.43 74.03 65.16 -3.30 -37.03 -9.03 -64.33 -97.28 -135.54 -256.15 -349.16 -532.80 -629.27 -832.34 -1009.21 -1239.69 -1354.63 -1526.81 -1708.00 -1786.07 -1830.19 -1852.85 -1855.46 -1854.55 -1854.22 -1857.90 -1869.97 -1879.21 -1882.12 -1893.27 -1916.37 -1960.97 -2104.08 -2767.83 -3203.99 -3788.49 -3849.59 -3857.03 -3862.63 -3868.94 -3872.04 -3872.10
-2129.00 -2129.65 -2131.37 -2135.47 -2139.66 -2146.26 -2151.83 -2149.99 -2146.07 -2145.29 -2148.00 -2152.00 -2151.81 -2154.61 -2156.10 -2165.61 -2170.36 -2172.94 -2173.45 -2175.84 -2181.10 -2202.44 -2207.16 -2206.25 -2202.07 -2200.57 -2200.12 -2196.40 -2181.57 -2173.81 -2167.15 -2158.03 -2153.24 -2146.51 -2136.47 -2091.40 -2029.33 -1903.49 -1735.14 -1659.20 -1442.05 -1336.13 -1079.42 -764.21 -595.33 -422.61 -397.44 -324.01 -278.60 -249.67 -229.45 -215.22 -192.35 -177.38 -146.60 -120.11 -100.65 -87.03 -54.22 -42.42 -32.49 -20.85 -10.51 0.32 11.01 19.16 32.44 43.39 52.51 51.64 54.03 61.79 62.01 64.07 68.79 69.15 68.03 68.75 69.12 68.62 66.44 65.71 65.92 104.52 155.19 213.78 233.39 243.87 254.67 266.59 268.01 264.61 282.65 259.18 253.58 230.88 209.23 172.43 135.76 46.79 -29.31 -70.24 -144.64 -252.56 -270.06 -147.03 -261.23 -292.74 -497.20 -591.36 -833.06 -1059.42 -1229.30 -1350.70 -1414.02 -1567.10 -1686.75 -1800.62 -1841.24 -1843.72 -1862.08 -1865.69 -1861.54 -1866.90 -1871.33 -1881.58 -1890.27 -1895.01 -1901.33 -1918.66 -1952.23 -2166.44 -2892.18 -3404.76 -3820.89 -3867.22 -3861.57 -3867.85 -3874.12 -3874.17 -3874.23
-2132.14 -2132.08 -2136.18 -2138.43 -2143.20 -2148.05 -2157.10 -2156.73 -2152.19 -2153.27 -2156.55 -2160.98 -2165.82 -2165.16 -2172.55 -2176.09 -2176.23 -2179.00 -2177.33 -2183.72 -2192.45 -2204.43 -2207.62 -2205.82 -2202.92 -2198.72 -2196.98 -2195.15 -2190.89 -2182.20 -2169.52 -2162.97 -2153.71 -2147.06 -2133.77 -2080.59 -2046.16 -1863.82 -1734.15 -1645.37 -1571.61 -1469.76 -1263.79 -987.97 -670.51 -488.82 -405.54 -336.38 -282.57 -263.15 -236.54 -223.94 -208.62 -181.03 -143.67 -114.15 -86.42 -69.65 -44.37 -36.18 -26.42 -18.23 -4.55 3.39 13.08 20.14 28.29 31.93 37.31 42.25 50.50 54.96 58.28 60.84 66.14 67.32 66.77 66.87 66.97 66.40 65.70 64.36 64.85 94.47 133.40 161.74 201.80 220.73 222.69 226.23 250.82 250.68 248.93 246.84 240.41 218.48 188.28 137.48 83.22 -47.78 -174.80 -282.96 -393.52 -418.60 -486.29 -328.62 -347.42 -617.02 -777.15 -945.93 -1106.57 -1366.60 -1446.23 -1425.40 -1581.95 -1786.85 -1811.80 -1850.74 -1866.59 -1866.74 -1870.12 -1875.97 -1882.00 -1882.29 -1882.04 -1891.60 -1896.30 -1900.56 -1903.01 -1913.29 -1986.28 -2325.09 -2848.04 -3585.99 -3828.03 -3865.75 -3864.66 -3877.56 -3878.15 -3875.20 -3875.26
-2135.14 -2135.08 -2138.33 -2142.03 -2148.21 -2156.19 -2161.93 -2163.88 -2157.96 -2158.17 -2164.32 -2169.94 -2169.38 -2172.03 -2177.96 -2173.55 -2176.21 -2177.68 -2176.80 -2180.82 -2189.05 -2195.27 -2201.92 -2204.53 -2202.67 -2200.08 -2198.81 -2195.73 -2189.55 -2183.58 -2172.29 -2164.72 -2156.12 -2148.48 -2137.67 -2072.14 -2037.31 -1904.67 -1801.35 -1673.39 -1505.09 -1412.55 -1311.58 -1083.30 -829.85 -540.17 -392.81 -339.98 -287.83 -272.20 -250.30 -228.59 -205.06 -187.44 -153.92 -118.35 -87.83 -68.53 -43.81 -26.63 -18.08 -11.10 1.62 7.05 15.03 21.82 29.15 33.79 37.14 41.85 47.00 53.06 57.39 60.54 63.44 63.52 65.50 65.55 64.98 65.11 63.94 63.33 65.23 65.62 96.25 108.96 160.94 179.56 200.06 214.66 232.78 237.04 238.41 221.07 203.59 178.93 157.50 27.93 30.48 -110.31 -175.22 -477.81 -557.65 -585.82 -663.92 -462.42 -562.21 -681.15 -1003.24 -1187.99 -1323.04 -1432.46 -1527.25 -1632.24 -1729.19 -1844.41 -1851.59 -1860.22 -1867.62 -1869.12 -1873.99 -1882.68 -1890.27 -1894.34 -1902.40 -1904.88 -1904.17 -1905.72 -1908.60 -1917.44 -1956.11 -2642.72 -3216.85 -3779.08 -3872.19 -3877.84 -3880.20 -3877.15 -3879.08 -3877.31 -3876.75
-2136.95 -2136.88 -2139.32 -2143.59 -2152.40 -2157.81 -2165.41 -2170.31 -2165.56 -2165.49 -2170.77 -2174.59 -2178.86 -2184.97 -2182.75 -2175.72 -2173.54 -2172.02 -2174.57 -2179.12 -2187.00 -2188.10 -2198.06 -2203.00 -2202.83 -2199.72 -2200.25 -2199.95 -2193.49 -2187.73 -2178.91 -2173.27 -2161.74 -2153.14 -2140.12 -2093.98 -2057.41 -1941.08 -1914.61 -1749.83 -1490.20 -1328.59 -1249.02 -1084.18 -858.79 -590.70 -466.83 -369.99 -301.27 -276.06 -259.20 -227.12 -210.19 -171.60 -139.87 -105.88 -80.91 -57.66 -40.56 -20.76 -12.12 -3.47 2.48 11.40 18.05 25.29 28.76 33.94 38.74 40.57 44.26 47.76 52.74 56.58 59.74 62.25 63.54 63.70 63.52 63.38 62.22 61.67 60.56 62.34 65.91 72.93 108.13 130.74 125.18 121.84 132.83 139.10 189.82 181.61 145.16 107.68 74.98 -55.72 -118.35 -206.38 -357.13 -570.14 -699.12 -693.18 -712.19 -703.82 -744.72 -958.73 -1176.93 -1386.76 -1533.08 -1569.91 -1650.08 -1741.07 -1815.44 -1851.60 -1861.90 -1866.95 -1868.87 -1872.22 -1877.76 -1886.98 -1897.40 -1909.26 -1913.24 -1914.04 -1913.01 -1911.02 -1909.57 -1911.65 -1953.94 -2429.98 -3595.84 -3836.47 -3874.11 -3882.37 -3879.14 -3879.02 -3881.47 -3878.29 -3878.35
-2130.72 -2129.82 -2133.01 -2137.31 -2144.79 -2148.80 -2158.34 -2166.01 -2168.43 -2171.87 -2181.38 -2187.14 -2189.13 -2190.58 -2182.75 -2178.12 -2175.15 -2170.99 -2172.91 -2178.83 -2180.91 -2181.58 -2193.69 -2197.88 -2199.77 -2201.23 -2202.84 -2201.71 -2198.87 -2192.21 -2182.94 -2178.74 -2164.10 -2155.29 -2144.86 -2098.48 -2032.44 -1978.68 -1853.18 -1709.89 -1511.51 -1310.30 -1101.04 -953.41 -723.91 -611.01 -482.31 -376.63 -320.76 -293.47 -274.83 -266.09 -232.96 -185.90 -156.29 -118.78 -81.37 -63.07 -35.76 -20.49 -4.16 2.55 7.52 15.30 20.37 24.33 28.85 34.26 37.12 41.21 42.51 45.45 49.11 53.49 56.18 58.82 61.11 60.77 60.26 60.27 59.30 59.17 57.75 57.48 59.20 58.95 69.29 74.06 86.57 73.43 48.85 62.47 76.96 128.38 66.49 -16.48 -36.82 -174.96 -183.84 -347.84 -813.35 -890.62 -895.91 -968.62 -868.18 -889.47 -1042.22 -1203.45 -1529.91 -1549.50 -1646.81 -1718.85 -1747.00 -1790.50 -1829.38 -1858.26 -1865.95 -1868.79 -1869.72 -1874.33 -1885.73 -1893.84 -1907.57 -1915.15 -1920.69 -1921.09 -1917.51 -1916.57 -1914.83 -1911.30 -1952.15 -2132.57 -3139.33 -3836.11 -3881.06 -3881.86 -3881.51 -3882.52 -3882.22 -3880.29 -3880.35
-2120.53 -2120.20 -2127.28 -2130.08 -2138.01 -2141.81 -2150.35 -2158.01 -2174.79 -2180.51 -2186.94 -2191.32 -2195.45 -2196.64 -2185.96 -2182.06 -2176.64 -2171.64 -2171.71 -2175.54 -2180.10 -2180.68 -2188.99 -2199.44 -2204.25 -2205.98 -2206.15 -2205.47 -2204.01 -2197.46 -2191.66 -2180.74 -2168.93 -2151.41 -2132.66 -2085.15 -2024.08 -1962.43 -1868.72 -1747.04 -1516.06 -1363.30 -1151.01 -871.92 -764.23 -629.98 -544.68 -439.42 -357.87 -325.80 -310.59 -297.48 -228.32 -190.69 -153.40 -116.39 -82.41 -59.95 -37.40 -21.88 -8.84 1.07 8.25 14.38 20.48 23.16 30.09 32.97 36.47 39.59 42.74 43.56 47.22 51.17 52.87 56.92 57.67 57.36 56.04 57.52 57.10 57.15 56.79 57.31 57.03 56.74 59.18 56.61 57.55 47.67 41.24 39.28 3.50 -34.79 -35.66 -83.08 -183.80 -388.46 -456.38 -865.57 -1092.23 -1135.56 -1225.71 -1237.58 -1156.91 -1082.89 -1198.19 -1495.32 -1607.84 -1707.29 -1727.34 -1800.70 -1817.25 -1828.49 -1845.59 -1861.56 -1869.88 -1871.71 -1873.85 -1879.74 -1890.00 -1900.49 -1916.35 -1921.91 -1929.36 -1928.99 -1923.04 -1921.34 -1916.26 -1912.97 -1966.91 -2229.78 -3344.23 -3848.79 -3885.49 -3885.44 -3884.19 -3886.06 -3884.97 -3882.80 -3882.48
-2119.79 -2119.73 -2122.68 -2127.64 -2134.42 -2141.00 -2150.42 -2158.62 -2172.42 -2180.89 -2187.27 -2193.30 -2196.20 -2198.72 -2186.43 -2181.83 -2175.60 -2171.86 -2171.89 -2175.36 -2177.83 -2180.49 -2189.33 -2203.28 -2207.25 -2207.10 -2208.13 -2209.48 -2207.06 -2200.93 -2196.90 -2183.81 -2171.27 -2165.81 -2136.79 -2086.22 -1995.14 -1942.64 -1828.55 -1647.28 -1449.61 -1280.65 -1139.24 -939.45 -813.31 -634.63 -561.80 -470.44 -404.24 -385.27 -350.02 -326.83 -273.16 -192.22 -131.44 -109.32 -77.95 -53.66 -33.18 -23.54 -12.22 -3.55 7.56 13.57 19.03 23.18 27.71 32.25 36.31 38.51 41.05 42.98 45.23 47.57 49.34 54.16 53.80 54.38 54.36 55.14 55.91 55.70 56.37 57.42 57.32 55.57 54.51 53.58 52.54 44.63 31.62 19.73 -50.70 -113.20 -119.76 -200.62 -415.64 -538.25 -776.31 -1249.29 -1450.23 -1433.86 -1454.04 -1420.83 -1429.02 -1354.94 -1334.63 -1583.05 -1756.39 -1801.56 -1816.88 -1824.99 -1832.79 -1843.23 -1849.69 -1863.85 -1872.67 -1874.74 -1879.75 -1888.28 -1896.18 -1912.38 -1926.24 -1931.74 -1940.11 -1937.65 -1931.55 -1927.38 -1918.99 -1916.39 -1965.23 -2090.22 -3218.64 -3862.23 -3887.22 -3887.54 -3887.27 -3888.24 -3886.17 -3884.99 -3884.96
-2119.84 -2119.77 -2125.36 -2127.35 -2133.01 -2140.08 -2148.28 -2160.38 -2167.87 -2179.96 -2186.37 -2191.39 -2195.85 -2197.52 -2185.69 -2183.97 -2180.54 -2174.97 -2172.88 -2176.04 -2177.55 -2182.23 -2188.92 -2197.85 -2205.42 -2207.00 -2209.46 -2210.22 -2210.33 -2207.08 -2201.73 -2189.81 -2190.32 -2189.11 -2161.00 -2117.65 -1960.82 -1884.60 -1793.30 -1616.51 -1487.53 -1300.60 -1099.57 -891.97 -790.36 -651.27 -609.05 -538.07 -485.68 -438.13 -375.71 -337.56 -278.68 -231.71 -118.20 -92.89 -69.04 -47.42 -36.42 -24.64 -14.79 -4.32 2.27 11.37 18.68 23.11 27.01 32.00 36.10 39.16 40.27 41.56 43.30 45.30 47.64 49.30 52.45 52.75 52.92 53.90 55.01 56.32 57.20 57.83 57.33 57.13 58.01 54.62 49.80 39.74 26.90 2.61 -55.32 -172.42 -234.35 -293.28 -510.16 -926.85 -1192.19 -1529.59 -1664.69 -1693.48 -1659.72 -1657.36 -1625.51 -1548.53 -1636.93 -1749.68 -1792.46 -1821.39 -1831.39 -1835.29 -1837.72 -1845.46 -1853.90 -1863.24 -1887.01 -1891.65 -1898.68 -1901.26 -1914.76 -1921.58 -1930.50 -1940.92 -1944.13 -1945.53 -1940.32 -1936.72 -1926.31 -1919.92 -1959.88 -2278.73 -3364.98 -3836.13 -3890.49 -3889.84 -3891.15 -3891.04 -3888.69 -3887.22 -3886.97
-2119.69 -2119.63 -2122.98 -2127.02 -2132.57 -2140.01 -2146.98 -2155.82 -2168.59 -2175.34 -2184.52 -2189.19 -2192.28 -2195.70 -2190.98 -2187.53 -2183.14 -2174.91 -2173.85 -2175.30 -2177.99 -2183.89 -2191.05 -2197.55 -2203.82 -2207.06 -2212.44 -2212.59 -2211.37 -2210.88 -2205.44 -2198.83 -2202.63 -2198.06 -2175.19 -2120.68 -2005.54 -1917.20 -1751.62 -1612.71 -1470.84 -1390.33 -1185.10 -968.79 -792.11 -713.33 -648.25 -592.69 -508.00 -471.09 -391.67 -335.68 -295.04 -220.74 -161.16 -107.05 -76.90 -52.33 -37.18 -27.14 -17.67 -11.48 -0.91 6.62 15.04 22.99 27.05 30.61 36.66 38.45 40.49 41.64 43.16 45.57 46.91 49.53 51.04 51.53 52.16 52.85 53.79 57.25 60.16 56.46 56.69 58.05 58.81 50.97 45.92 25.75 5.27 -10.19 -63.15 -187.29 -443.07 -513.15 -754.44 -1147.30 -1386.61 -1642.20 -1735.10 -1765.78 -1777.17 -1748.11 -1712.43 -1686.55 -1739.80 -1782.79 -1810.31 -1827.92 -1833.41 -1840.42 -1841.15 -1852.26 -1863.53 -1875.37 -1893.10 -1907.32 -1908.45 -1920.72 -1934.20 -1934.17 -1941.26 -1946.83 -1948.12 -1953.40 -1952.32 -1939.42 -1930.78 -1924.44 -1973.43 -2224.72 -3141.33 -3813.05 -3894.46 -3893.80 -3894.07 -3892.96 -3890.76 -3888.85 -3888.93
-2119.77 -2120.23 -2122.63 -2127.04 -2133.99 -2138.03 -2146.44 -2154.29 -2162.87 -2173.47 -2181.58 -2185.79 -2188.73 -2191.25 -2188.65 -2183.78 -2181.49 -2176.44 -2175.48 -2177.06 -2182.73 -2186.79 -2194.07 -2197.71 -2202.35 -2210.36 -2214.83 -2214.62 -2214.26 -2213.66 -2212.92 -2206.44 -2205.64 -2198.35 -2182.91 -2141.97 -2097.97 -1960.39 -1787.80 -1610.50 -1438.10 -1310.90 -1153.54 -973.98 -844.35 -743.91 -707.13 -609.10 -519.72 -432.07 -391.02 -323.84 -278.35 -209.04 -172.05 -117.64 -85.18 -60.72 -43.11 -28.80 -24.10 -19.28 -8.67 3.42 10.28 19.60 29.80 33.08 34.71 37.72 40.39 42.68 43.96 45.28 46.65 47.91 49.53 50.83 51.46 52.70 58.22 61.90 58.95 54.70 55.69 51.69 26.95 21.16 -6.23 -17.25 -79.19 -145.64 -147.06 -271.20 -655.61 -864.93 -1086.83 -1396.65 -1714.44 -1763.02 -1792.57 -1806.28 -1795.82 -1786.39 -1794.33 -1790.90 -1798.14 -1812.60 -1830.15 -1834.46 -1844.52 -1850.02 -1857.63 -1873.98 -1877.95 -1894.87 -1910.81 -1920.77 -1916.87 -1923.47 -1944.48 -1950.46 -1947.26 -1954.76 -1954.11 -1956.74 -1958.35 -1947.43 -1939.18 -1930.44 -1928.25 -2380.20 -3339.56 -3823.74 -3895.05 -3895.49 -3895.13 -3895.03 -3893.39 -3890.81 -3890.88
-2124.52 -2124.23 -2126.41 -2131.73 -2137.43 -2141.05 -2148.35 -2154.72 -2158.35 -2164.53 -2172.46 -2178.29 -2180.88 -2185.50 -2185.99 -2187.76 -2185.87 -2179.80 -2179.42 -2180.89 -2184.51 -2188.28 -2195.80 -2199.87 -2205.42 -2210.92 -2216.11 -2216.73 -2217.29 -2217.71 -2218.32 -2215.15 -2210.86 -2207.19 -2183.41 -2151.72 -2106.77 -1975.69 -1764.20 -1639.96 -1527.82 -1382.17 -1217.53 -1023.95 -991.26 -855.78 -718.68 -653.55 -571.42 -477.94 -392.85 -313.80 -249.45 -206.06 -156.00 -118.50 -86.87 -67.09 -39.55 -34.75 -26.17 -18.39 -7.52 -1.16 6.83 16.60 25.93 30.72 32.98 36.78 39.49 40.88 42.55 44.17 45.45 47.21 48.05 49.76 50.00 50.87 62.15 68.69 60.43 51.60 51.07 48.52 -98.39 -149.37 -134.32 -162.32 -293.10 -316.14 -302.52 -498.00 -845.14 -1320.34 -1340.84 -1627.85 -1786.30 -1811.38 -1810.91 -1809.70 -1806.65 -1810.85 -1813.03 -1816.40 -1822.50 -1826.25 -1841.11 -1851.61 -1857.36 -1865.63 -1878.62 -1885.58 -1908.69 -1924.98 -1934.31 -1944.49 -1940.71 -1944.67 -1954.00 -1960.28 -1958.28 -1966.81 -1962.04 -1968.15 -1967.10 -1967.51 -1959.43 -1949.19 -1962.82 -2609.92 -3343.77 -3860.12 -3897.05 -3897.68 -3898.64 -3897.82 -3895.84 -3892.82 -3892.89
-2127.25 -2127.69 -2130.44 -2133.96 -2137.49 -2145.15 -2149.29 -2153.10 -2154.65 -2159.04 -2162.06 -2170.12 -2173.88 -2179.44 -2184.19 -2189.42 -2189.91 -2187.11 -2187.72 -2186.03 -2189.79 -2193.36 -2198.76 -2201.74 -2207.68 -2211.58 -2218.39 -2219.83 -2220.46 -2219.95 -2220.22 -2218.49 -2214.80 -2214.54 -2195.94 -2126.55 -2065.67 -1947.31 -1860.62 -1747.63 -1546.66 -1418.29 -1265.67 -1096.26 -980.76 -821.23 -713.13 -666.33 -629.13 -497.59 -399.56 -298.79 -269.66 -204.44 -155.10 -127.25 -97.89 -68.44 -48.16 -40.98 -28.41 -20.35 -13.95 -7.55 4.29 14.09 20.60 26.27 29.21 32.42 35.46 35.91 41.59 43.03 42.89 44.10 45.23 45.28 46.28 46.94 48.40 42.35 46.32 47.92 -59.74 -275.46 -503.31 -599.14 -496.77 -394.84 -610.10 -811.67 -654.89 -714.51 -1108.52 -1682.78 -1703.64 -1760.66 -1812.11 -1811.21 -1813.65 -1812.57 -1809.89 -1810.86 -1814.44 -1818.12 -1823.55 -1834.71 -1856.53 -1865.14 -1877.46 -1892.75 -1905.55 -1906.86 -1917.66 -1932.93 -1946.28 -1953.47 -1952.81 -1964.08 -1968.41 -1970.13 -1970.30 -1966.94 -1972.80 -1975.83 -1975.38 -1969.82 -1970.41 -1958.85 -1990.88 -2197.81 -3150.86 -3878.53 -3897.28 -3900.21 -3901.99 -3899.76 -3898.15 -3894.91 -3894.98
-2127.00 -2126.94 -2130.39 -2134.48 -2138.71 -2143.86 -2149.88 -2152.50 -2152.22 -2155.97 -2160.05 -2166.82 -2172.75 -2176.62 -2180.58 -2188.31 -2191.00 -2192.66 -2191.89 -2191.07 -2193.94 -2197.20 -2201.18 -2207.93 -2210.49 -2214.27 -2220.57 -2222.62 -2223.06 -2222.56 -2222.23 -2221.41 -2219.71 -2213.93 -2202.73 -2158.92 -2115.61 -2052.57 -1964.04 -1813.02 -1683.27 -1452.61 -1213.77 -1083.79 -961.70 -849.37 -775.94 -683.12 -597.14 -466.16 -382.37 -321.12 -292.52 -219.52 -167.44 -125.49 -103.51 -70.97 -59.36 -46.48 -37.30 -24.16 -18.82 -12.25 2.92 8.80 16.54 21.21 24.21 25.42 30.77 34.23 39.33 40.92 39.74 39.85 42.54 41.12 40.32 37.07 27.79 11.83 -57.14 -94.55 -408.66 -738.45 -986.39 -1019.19 -894.97 -935.49 -1095.51 -1254.04 -1260.05 -1552.86 -1603.08 -1753.88 -1777.41 -1818.17 -1814.00 -1812.85 -1813.16 -1812.39 -1811.08 -1812.64 -1819.33 -1824.50 -1833.68 -1856.46 -1875.41 -1888.79 -1897.20 -1899.79 -1920.85 -1936.51 -1944.33 -1948.90 -1964.11 -1967.37 -1972.99 -1980.16 -1983.45 -1986.23 -1982.56 -1977.61 -1979.36 -1980.32 -1979.87 -1976.18 -1977.93 -1969.41 -1995.89 -2297.58 -3118.06 -3846.13 -3902.64 -3903.88 -3903.35 -3902.36 -3899.61 -3897.10 -3897.17
-2126.63 -2126.57 -2130.16 -2133.22 -2137.58 -2143.96 -2148.23 -2150.07 -2149.42 -2153.43 -2160.51 -2164.26 -2169.96 -2174.52 -2181.31 -2187.90 -2190.82 -2194.07 -2194.70 -2196.24 -2199.55 -2202.10 -2206.01 -2208.90 -2212.51 -2216.89 -2221.46 -2225.35 -2226.03 -2224.42 -2223.81 -2222.87 -2222.83 -2219.17 -2210.25 -2175.51 -2146.30 -2071.90 -2038.24 -1901.73 -1851.73 -1611.21 -1354.93 -1134.68 -1044.09 -962.35 -862.12 -757.36 -600.80 -465.38 -403.07 -353.09 -300.70 -240.35 -176.10 -144.76 -115.68 -82.27 -63.73 -48.95 -44.03 -31.98 -22.65 -13.48 -5.06 1.97 12.01 16.02 17.05 19.47 26.21 30.19 36.37 37.10 36.95 34.87 36.29 32.00 29.42 24.55 15.78 -1.49 -85.12 -184.44 -869.54 -1107.31 -1382.28 -1435.27 -1576.56 -1433.53 -1518.06 -1694.49 -1739.63 -1748.78 -1801.57 -1827.52 -1820.54 -1823.30 -1818.63 -1815.05 -1814.35 -1813.31 -1817.13 -1822.54 -1827.61 -1835.34 -1859.40 -1880.70 -1893.69 -1918.10 -1924.62 -1928.05 -1934.73 -1959.80 -1968.80 -1971.35 -1979.21 -1979.51 -1985.98 -1991.82 -1997.57 -1994.77 -1989.59 -1987.31 -1986.56 -1985.01 -1983.71 -1985.69 -1985.91 -1973.77 -2007.38 -2440.40 -3239.53 -3860.80 -3907.95 -3908.22 -3905.99 -3904.02 -3901.84 -3899.57 -3899.45
-2126.59 -2126.53 -2130.01 -2133.86 -2138.07 -2143.64 -2147.23 -2149.39 -2149.23 -2152.91 -2157.74 -2164.52 -2170.34 -2174.09 -2182.80 -2190.71 -2192.43 -2196.39 -2200.36 -2202.64 -2205.84 -2207.08 -2210.27 -2213.19 -2215.14 -2219.80 -2223.81 -2229.49 -2228.72 -2227.04 -2226.58 -2225.82 -2227.27 -2225.74 -2217.97 -2200.34 -2178.29 -2149.52 -2027.84 -1992.26 -1891.31 -1652.68 -1474.25 -1291.56 -1124.26 -994.55 -911.70 -741.66 -646.29 -477.88 -439.97 -374.64 -324.33 -266.84 -192.22 -155.37 -118.72 -93.95 -78.75 -60.19 -48.73 -36.02 -30.12 -22.21 -9.50 -6.12 2.28 9.29 11.28 17.11 22.27 28.04 30.47 31.25 29.81 29.45 19.98 17.27 7.03 2.81 -12.10 -53.52 -145.57 -433.48 -862.84 -1409.51 -1686.92 -1795.70 -1770.94 -1734.97 -1806.35 -1827.49 -1825.82 -1850.78 -1849.09 -1840.50 -1834.48 -1830.23 -1822.70 -1820.38 -1818.76 -1825.41 -1824.20 -1832.97 -1841.19 -1847.56 -1875.88 -1897.04 -1912.74 -1930.80 -1939.96 -1950.27 -1964.93 -1977.92 -1991.13 -1992.20 -1995.15 -1995.65 -1999.29 -2001.47 -2002.06 -1999.17 -1996.28 -1995.45 -1991.69 -1988.28 -1984.91 -1992.54 -1987.73 -1972.83 -1978.09 -2234.63 -3195.50 -3851.69 -3898.50 -3911.12 -3909.97 -3907.15 -3904.84 -3901.72 -3901.79
-2126.86 -2127.36 -2130.79 -2134.38 -2138.20 -2142.64 -2148.01 -2151.06 -2151.22 -2155.61 -2160.72 -2169.99 -2176.77 -2181.65 -2190.17 -2198.01 -2197.81 -2204.12 -2209.82 -2212.78 -2215.28 -2214.78 -2217.92 -2217.58 -2217.97 -2220.49 -2226.59 -2231.59 -2234.34 -2232.09 -2229.46 -2230.84 -2231.41 -2232.87 -2236.16 -2229.96 -2206.32 -2170.69 -2101.89 -2039.25 -1907.93 -1749.82 -1567.51 -1375.99 -1162.74 -1011.30 -845.55 -759.96 -577.58 -529.82 -474.16 -401.58 -342.25 -269.80 -222.95 -163.21 -139.37 -105.87 -90.00 -73.73 -55.41 -41.83 -31.31 -23.79 -20.67 -15.90 -9.47 -3.18 4.15 10.41 14.37 17.06 19.53 25.55 17.82 21.21 2.76 -11.55 -18.07 -43.00 -102.51 -118.97 -277.24 -538.47 -1144.45 -1446.05 -1840.24 -1858.92 -1859.09 -1863.96 -1871.44 -1869.67 -1865.02 -1859.35 -1852.63 -1845.18 -1840.51 -1836.25 -1832.73 -1828.24 -1828.90 -1834.80 -1842.04 -1850.20 -1854.07 -1870.05 -1892.10 -1910.66 -1929.56 -1939.05 -1953.49 -1970.47 -1985.23 -1990.43 -2000.31 -1998.85 -2003.40 -2007.82 -2008.32 -2007.02 -2005.45 -2002.69 -2001.27 -2000.20 -1996.96 -1993.61 -1984.93 -1994.46 -1985.38 -1974.73 -1994.23 -2534.37 -3343.55 -3873.39 -3914.61 -3912.94 -3911.73 -3909.63 -3907.13 -3904.15 -3904.22
-2127.42 -2127.36 -2131.63 -2134.33 -2139.54 -2143.98 -2148.54 -2158.75 -2171.73 -2183.61 -2184.73 -2186.59 -2195.84 -2200.52 -2206.16 -2210.53 -2218.42 -2223.90 -2222.24 -2227.10 -2222.40 -2223.94 -2219.95 -2218.54 -2218.61 -2218.33 -2223.51 -2230.11 -2237.78 -2236.51 -2235.22 -2236.03 -2237.17 -2239.17 -2242.46 -2242.88 -2233.81 -2188.74 -2153.13 -2074.64 -1939.02 -1767.76 -1596.77 -1388.87 -1192.69 -1026.16 -807.54 -716.15 -611.46 -542.51 -494.80 -431.70 -355.64 -270.46 -213.77 -189.80 -152.10 -121.41 -105.70 -75.30 -58.48 -42.28 -34.22 -29.42 -28.50 -25.13 -16.57 -11.09 -4.14 -3.64 -1.89 -1.85 -0.01 -3.78 -4.32 -17.04 -39.93 -74.45 -69.29 -109.38 -166.51 -329.58 -427.65 -639.39 -1175.14 -1502.60 -1851.96 -1880.55 -1889.76 -1887.23 -1879.53 -1879.12 -1871.79 -1865.31 -1861.69 -1859.08 -1852.45 -1849.34 -1844.20 -1840.39 -1842.85 -1847.16 -1856.63 -1866.25 -1867.19 -1886.40 -1909.09 -1922.27 -1942.99 -1958.30 -1964.51 -1974.87 -1988.22 -2000.12 -2006.29 -2007.68 -2016.94 -2018.63 -2015.54 -2013.18 -2010.23 -2009.87 -2006.82 -2003.82 -1999.05 -1991.99 -1985.58 -1982.93 -1971.09 -1955.40 -1997.27 -2384.58 -3653.88 -3905.45 -3917.39 -3916.50 -3916.29 -3913.12 -3909.81 -3906.70 -3906.77
-2129.62 -2129.55 -2133.64 -2136.18 -2140.71 -2145.10 -2150.32 -2162.46 -2182.40 -2194.69 -2205.16 -2210.99 -2220.00 -2224.51 -2228.37 -2231.25 -2233.28 -2238.85 -2239.59 -2236.46 -2230.68 -2229.54 -2219.67 -2214.97 -2212.11 -2211.95 -2214.76 -2229.47 -2242.26 -2242.29 -2241.36 -2240.92 -2243.80 -2246.11 -2250.29 -2249.69 -2240.90 -2230.93 -2190.56 -2103.97 -1971.32 -1716.88 -1590.87 -1378.00 -1194.42 -975.67 -865.18 -718.90 -662.43 -578.15 -494.10 -446.33 -364.85 -298.18 -254.48 -223.63 -205.51 -157.48 -115.80 -80.49 -60.35 -45.53 -33.76 -29.36 -29.50 -31.03 -26.82 -24.24 -20.28 -22.61 -40.82 -26.28 -15.66 -22.19 -38.49 -44.95 -86.34 -111.59 -134.55 -172.65 -357.04 -465.87 -589.58 -895.40 -1329.62 -1676.23 -1876.04 -1908.10 -1898.99 -1890.09 -1889.89 -1888.63 -1884.37 -1871.45 -1868.61 -1870.11 -1870.98 -1860.32 -1868.00 -1866.35 -1861.46 -1870.04 -1872.82 -1884.08 -1894.08 -1906.29 -1932.35 -1946.96 -1962.34 -1975.99 -1976.71 -1982.96 -1999.57 -2015.96 -2020.15 -2016.62 -2023.94 -2027.50 -2025.62 -2018.93 -2014.81 -2019.08 -2010.37 -2008.30 -2003.56 -1985.72 -1973.24 -1965.56 -1952.00 -1947.64 -1946.74 -2301.80 -3396.32 -3859.04 -3918.60 -3918.97 -3918.70 -3914.95 -3912.11 -3909.52 -3909.41
-2136.40 -2136.33 -2138.88 -2139.16 -2143.04 -2147.23 -2154.32 -2171.09 -2192.21 -2201.62 -2210.37 -2213.92 -2221.93 -2229.05 -2235.19 -2235.73 -2242.90 -2245.90 -2255.06 -2253.86 -2243.96 -2241.08 -2226.24 -2209.11 -2204.75 -2205.24 -2223.64 -2236.90 -2253.50 -2254.00 -2254.27 -2255.85 -2251.35 -2252.56 -2255.37 -2256.04 -2256.69 -2252.41 -2223.88 -2177.41 -1995.07 -1716.44 -1594.91 -1394.51 -1239.58 -1054.70 -903.09 -775.53 -696.86 -642.53 -507.59 -438.03 -377.78 -361.12 -288.74 -267.77 -211.80 -183.87 -123.72 -89.27 -69.38 -54.71 -10.18 2.52 -32.97 -42.57 -50.98 -48.15 -38.21 -43.94 -53.45 -50.93 -44.36 -80.67 -100.63 -129.91 -155.73 -228.29 -238.97 -308.95 -442.38 -718.36 -874.16 -1297.46 -1610.17 -1817.15 -1950.42 -1941.10 -1911.94 -1898.87 -1899.01 -1899.48 -1893.59 -1879.11 -1891.81 -1893.98 -1904.81 -1892.42 -1910.16 -1890.83 -1889.77 -1886.37 -1899.10 -1908.33 -1908.88 -1928.22 -1955.88 -1981.29 -1985.66 -1996.89 -2003.57 -2012.94 -2008.72 -2022.89 -2027.91 -2024.31 -2031.11 -2034.64 -2027.37 -2023.65 -2028.28 -2028.69 -2024.04 -2017.93 -2008.62 -1984.67 -1969.35 -1961.38 -1952.79 -1947.31 -1947.50 -2653.56 -3295.24 -3869.63 -3920.87 -3920.96 -3920.52 -3917.90 -3914.87 -3912.02 -3912.09
-2153.24 -2153.16 -2149.80 -2142.61 -2147.71 -2150.10 -2158.08 -2173.63 -2194.68 -2205.16 -2213.17 -2220.66 -2227.65 -2236.78 -2239.25 -2242.46 -2250.71 -2256.76 -2275.97 -2272.45 -2272.87 -2269.73 -2260.07 -2236.45 -2225.68 -2220.99 -2279.44 -2286.34 -2288.54 -2273.55 -2272.52 -2266.91 -2264.34 -2259.66 -2260.77 -2261.77 -2261.56 -2257.06 -2228.05 -2145.99 -2004.02 -1786.39 -1703.64 -1525.42 -1283.81 -1060.51 -889.20 -745.15 -653.79 -560.40 -421.23 -421.02 -408.20 -364.56 -348.52 -309.32 -244.23 -199.33 -158.35 -104.37 -98.25 -80.21 -32.31 -31.39 -62.21 -99.33 -76.63 -86.79 -68.01 -77.31 -92.46 -79.54 -106.19 -130.30 -180.95 -201.04 -311.07 -322.23 -341.00 -508.45 -748.13 -870.25 -1063.85 -1517.76 -1830.72 -2009.00 -2015.31 -1985.33 -1974.96 -1920.60 -1927.83 -1928.32 -1928.08 -1920.03 -1922.88 -1926.45 -1951.22 -1949.76 -1961.54 -1946.54 -1950.60 -1928.28 -1941.77 -1958.27 -1936.78 -1966.14 -1998.10 -2024.41 -2028.49 -2040.37 -2024.92 -2039.88 -2035.33 -2040.53 -2040.47 -2039.91 -2047.77 -2040.76 -2038.18 -2042.69 -2035.67 -2049.55 -2039.07 -2040.99 -2039.21 -2018.35 -1978.77 -1958.56 -1952.46 -1947.35 -1990.81 -2465.14 -3285.86 -3866.40 -3923.86 -3923.57 -3923.74 -3920.85 -3917.57 -3914.77 -3914.79
-2183.53 -2177.67 -2187.69 -2165.79 -2173.86 -2192.37 -2180.07 -2203.70 -2233.27 -2208.32 -2252.94 -2233.63 -2261.33 -2272.36 -2247.09 -2264.50 -2258.82 -2287.40 -2353.77 -2361.19 -2346.01 -2325.37 -2372.14 -2381.50 -2291.41 -2435.70 -2425.10 -2376.07 -2309.89 -2305.80 -2303.64 -2286.32 -2276.33 -2270.25 -2267.69 -2267.16 -2266.51 -2262.78 -2251.46 -2232.01 -2111.42 -1951.27 -1782.75 -1677.22 -1307.49 -910.91 -662.90 -602.22 -513.36 -423.76 -373.18 -466.14 -446.40 -423.39 -398.70 -378.03 -321.90 -218.49 -280.89 -236.13 -147.61 -83.55 -157.39 -266.22 -373.47 -294.37 -216.80 -172.71 -141.05 -136.44 -137.22 -150.92 -205.67 -197.31 -280.38 -410.55 -461.29 -454.20 -573.66 -713.76 -950.69 -1281.28 -1490.72 -1849.90 -1971.59 -2079.30 -2078.53 -2098.80 -2053.61 -2036.01 -1996.82 -1986.31 -1976.55 -2041.50 -2055.83 -2005.00 -2011.58 -2043.47 -2101.14 -2051.34 -2004.00 -2002.13 -2049.48 -2052.62 -2000.13 -2001.16 -2026.49 -2107.50 -2087.27 -2069.04 -2096.11 -2065.31 -2052.48 -2053.33 -2054.34 -2062.18 -2061.13 -2053.86 -2060.24 -2063.49 -2063.84 -2062.34 -2084.76 -2114.05 -2134.47 -2121.89 -2089.01 -1984.14 -1991.74 -1979.37 -1968.06 -2429.62 -3342.92 -3906.22 -3928.09 -3926.70 -3926.39 -3922.77 -3919.59 -3917.45 -3917.52
-2378.66 -2358.67 -2440.35 -2373.52 -2406.00 -2463.07 -2496.47 -2533.17 -2478.35 -2358.28 -2723.80 -2451.46 -2550.58 -2522.75 -2402.36 -2442.44 -2791.53 -2602.03 -2610.82 -2659.95 -2462.25 -2493.99 -2786.37 -2757.32 -2826.21 -2594.44 -2534.28 -2437.61 -2374.97 -2341.15 -2325.49 -2310.10 -2297.80 -2283.60 -2272.91 -2272.11 -2274.03 -2280.52 -2280.44 -2253.22 -2244.91 -2161.92 -1995.21 -1677.59 -909.99 -661.87 -587.81 -519.88 -510.47 -495.24 -500.30 -606.05 -632.29 -577.61 -523.19 -482.96 -478.18 -514.89 -377.26 -499.89 -618.53 -976.87 -1149.08 -1007.09 -888.51 -648.37 -357.73 -301.52 -255.96 -238.54 -255.92 -285.00 -360.36 -450.57 -457.75 -576.06 -607.92 -673.53 -775.12 -947.68 -1351.51 -1590.91 -1921.74 -2092.14 -2199.09 -2184.14 -2242.05 -2420.37 -2372.21 -2412.48 -2508.89 -2705.56 -2352.63 -2287.37 -2262.24 -2154.98 -2145.82 -2150.92 -2282.85 -2288.66 -2188.50 -2157.91 -2204.62 -2279.20 -2283.26 -2158.49 -2220.39 -2317.41 -2267.07 -2164.21 -2189.68 -2142.03 -2111.34 -2097.20 -2068.65 -2086.66 -2106.74 -2107.81 -2109.18 -2099.48 -2158.10 -2127.82 -2157.81 -2213.51 -2239.92 -2403.36 -2437.70 -2273.22 -2327.22 -2273.33 -2396.59 -2484.76 -3296.55 -3890.03 -3929.22 -3929.31 -3929.13 -3925.85 -3923.33 -3920.20 -3920.27
-3683.06 -3682.03 -3614.42 -3326.62 -3409.54 -3478.36 -3439.04 -3524.29 -3616.40 -3518.04 -3648.40 -3487.79 -3447.92 -3717.22 -3579.51 -3234.90 -3517.14 -3500.11 -3607.98 -3211.99 -2895.49 -2896.47 -3100.42 -3407.19 -3272.01 -2837.69 -2665.95 -2506.19 -2454.72 -2424.09 -2355.93 -2341.46 -2312.60 -2290.08 -2287.12 -2282.06 -2282.81 -2295.04 -2299.12 -2296.18 -2272.10 -2303.17 -2180.08 -1579.59 -890.18 -614.98 -722.13 -801.80 -802.18 -679.54 -677.12 -1039.41 -906.57 -834.65 -923.10 -726.14 -853.33 -922.16 -962.14 -1321.22 -1388.19 -2211.97 -2323.14 -1616.53 -1080.26 -954.76 -687.46 -577.89 -582.81 -452.06 -352.85 -425.23 -554.77 -585.54 -669.97 -955.06 -1078.18 -1130.21 -1176.22 -1387.63 -1728.78 -1931.88 -2127.29 -2424.22 -2495.88 -2590.81 -2538.50 -2785.36 -2937.52 -3096.09 -3253.97 -3226.64 -2800.63 -2713.49 -2875.26 -2607.29 -2590.22 -2600.61 -2573.52 -2579.05 -2370.93 -2547.59 -2693.78 -2662.29 -2554.90 -2417.68 -2410.16 -2479.20 -2490.25 -2330.39 -2257.14 -2266.69 -2330.89 -2201.86 -2142.36 -2153.68 -2148.63 -2152.14 -2150.92 -2158.26 -2230.63 -2256.56 -2255.96 -2403.70 -2716.45 -2914.32 -3427.88 -3049.33 -3286.28 -3369.10 -3390.45 -3655.98 -3698.65 -3929.10 -3932.14 -3932.14 -3931.38 -3928.71 -3925.69 -3922.98 -3923.05
-4155.95 -4155.76 -4143.23 -4108.10 -4134.33 -4133.93 -4126.69 -4044.48 -4025.79 -4106.39 -4056.53 -4150.52 -4139.03 -4157.85 -4176.21 -4217.54 -4133.65 -4166.08 -4176.44 -3912.30 -3883.34 -3722.87 -3552.10 -3663.70 -3390.54 -3071.42 -2896.21 -2778.78 -2600.73 -2544.59 -2411.89 -2386.10 -2334.73 -2300.29 -2302.78 -2306.87 -2314.86 -2321.67 -2333.09 -2329.61 -2379.63 -2387.28 -2095.68 -1603.42 -1018.93 -913.67 -1073.69 -1596.79 -1496.07 -1261.58 -1141.25 -1274.46 -1223.55 -1386.74 -1526.18 -1144.25 -1408.80 -1771.95 -2002.90 -2555.93 -2905.78 -3081.87 -2859.92 -2504.52 -1860.34 -1349.32 -1066.67 -1136.56 -883.47 -894.04 -639.43 -567.86 -756.62 -916.31 -1037.63 -1233.68 -1487.57 -1445.61 -1767.63 -1735.54 -2117.58 -2462.42 -2496.69 -2788.42 -2718.15 -2770.12 -2889.20 -3288.32 -3476.95 -3833.90 -4021.66 -3977.54 -3645.97 -3505.96 -3390.97 -3203.81 -3023.10 -3050.06 -2935.34 -2839.99 -2635.81 -2946.25 -3114.62 -3263.85 -3139.07 -3261.69 -2831.72 -2865.94 -2896.53 -2615.34 -2450.27 -2493.18 -2489.98 -2337.39 -2292.12 -2294.97 -2228.39 -2209.58 -2201.69 -2248.62 -2354.17 -2464.82 -2613.32 -2778.27 -3079.22 -3331.44 -3659.14 -3835.87 -3937.52 -3827.36 -3884.23 -3883.13 -3932.89 -3941.09 -3938.02 -3935.82 -3935.58 -3931.95 -3929.26 -3925.80 -3925.87
-4191.23 -4191.16 -4190.63 -4189.63 -4191.09 -4191.45 -4193.89 -4192.08 -4185.15 -4210.40 -4212.56 -4223.45 -4228.83 -4244.21 -4249.68 -4269.03 -4279.45 -4286.02 -4259.18 -4262.65 -4163.64 -4077.60 -3966.83 -3741.36 -3542.61 -3273.13 -3026.30 -2918.71 -2744.33 -2574.51 -2509.38 -2440.17 -2400.06 -2383.74 -2338.72 -2341.00 -2344.83 -2361.30 -2382.16 -2384.51 -2422.21 -2451.61 -2439.55 -2077.01 -1581.45 -1951.07 -2557.41 -2650.47 -2732.45 -2221.43 -1679.31 -1684.03 -1824.80 -1874.87 -2093.09 -1899.06 -2435.98 -2369.82 -2974.24 -3449.02 -3454.90 -3632.89 -3203.22 -2798.53 -2377.97 -2142.57 -2088.41 -1403.23 -1544.05 -1203.40 -1141.73 -1241.33 -1336.95 -1412.16 -1426.03 -1648.30 -1826.81 -1960.94 -2100.11 -2608.50 -2758.10 -2723.29 -3012.70 -3166.65 -3102.97 -3015.97 -3463.46 -3740.78 -3924.44 -4065.72 -4080.87 -4072.86 -4032.95 -4025.49 -3854.08 -3666.84 -3633.49 -3628.81 -3409.54 -3422.20 -3380.61 -3594.63 -3697.61 -3778.39 -3792.99 -3601.01 -3440.33 -3088.12 -3056.29 -2772.10 -2705.00 -2788.61 -2801.21 -2612.02 -2394.81 -2318.99 -2339.93 -2363.41 -2364.28 -2499.32 -2559.09 -2636.95 -2870.90 -3145.57 -3429.50 -3640.80 -3757.43 -3928.91 -3985.85 -3978.29 -3954.66 -3953.25 -3944.76 -3943.81 -3941.22 -3939.43 -3936.88 -3934.78 -3932.16 -3928.59 -3928.66
-4197.13 -4196.57 -4199.16 -4201.98 -4204.01 -4206.70 -4209.99 -4211.86 -4214.91 -4218.01 -4221.30 -4229.60 -4240.03 -4248.75 -4256.32 -4270.29 -4277.85 -4283.73 -4286.27 -4283.64 -4255.36 -4181.40 -3992.58 -3845.46 -3583.70 -3320.28 -3068.54 -2964.38 -2796.95 -2672.08 -2569.78 -2522.98 -2503.49 -2432.16 -2404.58 -2394.23 -2386.21 -2400.55 -2426.27 -2444.28 -2480.36 -2541.06 -2567.06 -2296.25 -2453.53 -2678.25 -3170.69 -3642.16 -3491.57 -3228.95 -2253.06 -2238.87 -2329.68 -2396.35 -2700.39 -2963.17 -3411.42 -3555.60 -3547.68 -3886.03 -4098.26 -3964.77 -3774.34 -3498.55 -3149.34 -2744.18 -2695.30 -2383.67 -2145.18 -1768.89 -1714.50 -1535.12 -1729.84 -2118.60 -2050.69 -2069.42 -2292.74 -2279.30 -2559.89 -2876.96 -3149.46 -3210.90 -3379.71 -3329.39 -3492.18 -3358.68 -3511.73 -3932.05 -4108.09 -4102.63 -4115.88 -4130.49 -4122.92 -4110.93 -4018.47 -3930.20 -3877.11 -3937.38 -3896.31 -3831.46 -3730.72 -3960.89 -3970.95 -3972.42 -4056.48 -3870.50 -3671.54 -3461.56 -3373.99 -3346.33 -3178.65 -2996.48 -2916.52 -2798.61 -2700.29 -2466.10 -2539.77 -2586.92 -2511.69 -2621.89 -2792.59 -2953.65 -3069.56 -3566.52 -3672.49 -3888.96 -3926.90 -3996.27 -3997.24 -3971.85 -3960.81 -3957.44 -3954.29 -3947.44 -3944.64 -3943.36 -3940.16 -3937.16 -3934.42 -3931.36 -3931.43
