-5215.25 -5216.09 -5223.94 -5219.88 -5170.49 -4995.67 -4561.47 -4132.39 -3960.93 -3736.01 -3663.77 -3645.15 -3644.62 -3642.00 -3634.05 -3626.30 -3616.06 -3612.35 -3611.50 -3607.59 -3606.00 -3590.36 -3577.05 -3572.52 -3568.11 -3566.97 -3567.51 -3567.05 -3568.76 -3570.06 -3574.15 -3578.70 -3582.50 -3586.90 -3598.12 -3615.49 -3620.60 -3636.29 -3644.41 -3651.97 -3661.61 -3667.33 -3671.36 -3673.14 -3674.99 -3676.98 -3676.24 -3674.51 -3670.68 -3669.82 -3668.29 -3666.68 -3660.66 -3659.25 -3656.75 -3655.52 -3654.44 -3655.87 -3661.54 -3667.81 -3675.03 -3683.05 -3692.18 -3690.77 -3688.44 -3685.91 -3684.92 -3682.42 -3682.20 -3681.52 -3673.52 -3664.74 -3655.04 -3650.22 -3647.32 -3461.64 -3368.18 -3050.97 -2580.70 -1918.32 -1820.38 -1255.16 -918.65 -366.45 -255.10 -120.89 -79.04 -63.83 -35.46 36.21 110.56 158.37 194.59 246.11 248.20 277.32 334.50 566.49 1181.95 2264.57 3874.33 6190.42 7873.79 5231.00 4174.70 2484.11 674.71 343.80 239.42 163.31 56.95 -92.55 -376.25 -665.63 -1053.73 -1484.69 -1687.64 -1849.87 -1877.13 -1881.70 -1884.61 -1885.78 -1888.04 -1891.89 -1894.83 -1896.57 -1897.52 -1899.90 -1902.26 -1912.16 -1925.21 -1969.66 -2036.51 -2338.93 -2578.90 -2867.66 -3187.13 -3625.83 -3866.29 -3910.60 -3910.68
-5210.37 -5210.29 -5222.13 -5228.64 -5214.11 -5148.09 -4990.56 -4323.27 -3998.99 -3854.79 -3667.23 -3653.66 -3649.38 -3644.12 -3640.80 -3630.48 -3623.44 -3622.46 -3620.00 -3618.23 -3611.48 -3600.24 -3581.33 -3578.19 -3573.30 -3571.48 -3571.51 -3575.77 -3566.73 -3567.41 -3570.64 -3579.32 -3581.22 -3582.99 -3590.26 -3606.39 -3616.11 -3627.85 -3636.82 -3644.78 -3658.26 -3664.91 -3665.79 -3667.75 -3671.20 -3673.24 -3673.81 -3673.45 -3670.79 -3669.86 -3666.76 -3664.38 -3659.81 -3656.66 -3655.09 -3654.95 -3656.62 -3660.22 -3665.73 -3670.48 -3677.69 -3682.30 -3685.37 -3686.61 -3686.82 -3684.96 -3681.74 -3680.30 -3680.31 -3679.76 -3672.47 -3667.78 -3659.37 -3597.27 -3459.13 -3302.62 -3085.45 -3037.73 -2641.64 -1941.62 -1728.66 -1159.31 -788.45 -579.22 -330.13 -132.44 -77.30 -50.71 -7.02 50.26 116.58 166.33 204.03 243.06 246.19 275.03 342.53 401.27 1293.20 2360.29 3952.61 5833.38 6870.88 4695.56 3495.57 2538.74 482.03 348.69 236.42 186.72 134.08 -13.99 -345.60 -569.41 -950.33 -1229.68 -1545.13 -1804.00 -1857.72 -1878.44 -1884.89 -1886.36 -1888.51 -1892.23 -1894.52 -1896.05 -1896.59 -1898.31 -1900.82 -1908.10 -1925.77 -1970.62 -2094.20 -2267.78 -2567.26 -2804.79 -3213.33 -3604.98 -3860.49 -3891.49 -3897.21
-5207.54 -5207.47 -5222.32 -5234.36 -5235.26 -5193.46 -5102.92 -4885.70 -4350.26 -3951.43 -3712.74 -3659.68 -3648.98 -3646.63 -3646.13 -3640.63 -3639.85 -3641.63 -3635.27 -3631.66 -3632.75 -3621.77 -3612.79 -3608.41 -3600.91 -3603.02 -3603.57 -3590.85 -3584.55 -3588.63 -3587.67 -3591.13 -3594.02 -3595.44 -3601.57 -3610.82 -3628.38 -3635.22 -3638.63 -3648.72 -3658.64 -3667.07 -3671.83 -3671.48 -3671.21 -3677.03 -3677.74 -3677.55 -3674.39 -3672.69 -3668.60 -3663.62 -3659.93 -3655.61 -3654.39 -3657.42 -3661.76 -3667.43 -3677.47 -3683.87 -3679.79 -3680.32 -3685.18 -3686.90 -3685.57 -3683.01 -3680.23 -3679.43 -3679.50 -3679.92 -3667.89 -3668.65 -3657.19 -3507.81 -3290.15 -2966.19 -2809.84 -2635.37 -2222.40 -1768.58 -1415.41 -964.99 -798.12 -545.92 -292.61 -156.22 -44.87 -4.61 31.61 70.37 119.52 181.88 216.80 237.45 244.84 269.58 335.74 564.43 2017.69 3278.59 3551.56 6033.62 5356.04 4033.75 2433.24 1290.41 705.59 318.04 249.87 219.33 156.92 -26.02 -225.94 -737.13 -1008.26 -1370.62 -1682.17 -1769.51 -1858.35 -1873.22 -1885.45 -1887.35 -1890.71 -1892.42 -1894.01 -1894.90 -1896.35 -1897.04 -1899.99 -1909.78 -1928.61 -1973.18 -2105.75 -2208.25 -2526.16 -2871.50 -3272.14 -3637.08 -3837.39 -3878.33 -3878.46
-5209.79 -5209.72 -5223.94 -5232.15 -5249.91 -5240.12 -5190.76 -4986.40 -4634.88 -3993.90 -3806.53 -3715.84 -3657.03 -3643.75 -3651.32 -3654.13 -3656.87 -3654.42 -3655.48 -3651.05 -3646.28 -3639.69 -3635.96 -3632.07 -3627.04 -3622.45 -3617.30 -3616.30 -3610.45 -3608.07 -3605.97 -3602.72 -3599.24 -3603.42 -3606.77 -3617.36 -3631.16 -3640.79 -3646.97 -3660.11 -3668.07 -3673.79 -3676.75 -3674.83 -3675.97 -3684.14 -3686.39 -3686.29 -3681.40 -3676.79 -3668.90 -3662.90 -3659.27 -3655.98 -3654.54 -3657.91 -3667.71 -3686.96 -3694.29 -3686.03 -3682.26 -3683.29 -3683.72 -3682.97 -3682.67 -3681.02 -3679.35 -3678.62 -3677.43 -3675.57 -3666.03 -3658.99 -3609.36 -3458.52 -3223.34 -2793.05 -2647.09 -2548.70 -2238.95 -1768.38 -1267.92 -969.51 -693.92 -496.74 -294.01 -140.52 -21.23 16.09 47.08 99.41 131.80 184.69 217.75 234.85 246.21 273.02 352.79 844.91 2339.39 3432.72 4884.50 6763.79 6201.65 4057.50 3531.83 1886.90 634.04 314.16 244.53 204.58 127.52 24.84 -276.72 -674.42 -1180.66 -1387.05 -1688.23 -1814.29 -1853.96 -1872.22 -1882.69 -1887.90 -1891.44 -1892.45 -1893.63 -1894.44 -1895.09 -1896.16 -1901.48 -1910.61 -1950.82 -1983.68 -2060.11 -2208.52 -2536.77 -2895.46 -3386.00 -3627.54 -3767.45 -3786.93 -3787.04
-5206.18 -5207.57 -5217.78 -5235.30 -5250.11 -5257.10 -5229.16 -5096.63 -4677.55 -4256.36 -4008.03 -3929.49 -3914.56 -3732.85 -3695.33 -3669.96 -3668.48 -3667.70 -3663.78 -3661.68 -3658.36 -3655.46 -3649.80 -3643.91 -3638.66 -3635.84 -3629.55 -3624.90 -3617.51 -3611.24 -3609.30 -3606.16 -3606.87 -3606.62 -3609.92 -3618.50 -3628.51 -3637.20 -3647.77 -3659.46 -3667.39 -3676.50 -3676.64 -3674.82 -3679.65 -3683.82 -3689.03 -3689.48 -3688.15 -3678.84 -3672.92 -3664.04 -3659.94 -3656.43 -3657.09 -3663.73 -3678.78 -3688.88 -3687.30 -3682.82 -3683.87 -3684.43 -3683.26 -3677.98 -3677.61 -3677.83 -3678.15 -3678.05 -3677.26 -3674.49 -3668.75 -3655.81 -3608.42 -3441.67 -3071.64 -2810.11 -2522.80 -2455.47 -1983.94 -1703.59 -1234.42 -943.57 -817.00 -498.75 -280.35 -143.06 -39.70 14.21 57.55 101.93 135.39 171.64 203.10 230.27 239.55 281.82 339.82 978.88 2219.83 2958.91 4354.28 6467.81 5216.85 4149.28 4399.34 2279.99 529.92 309.60 237.59 203.42 129.66 28.42 -327.04 -698.95 -965.89 -1393.38 -1653.75 -1732.32 -1844.32 -1869.76 -1884.16 -1890.47 -1891.65 -1892.57 -1893.17 -1893.90 -1894.29 -1892.72 -1896.19 -1937.58 -2006.51 -2091.18 -2114.58 -2335.71 -2637.07 -2953.70 -3365.88 -3536.12 -3688.35 -3716.04 -3716.18
-5200.98 -5200.91 -5215.07 -5230.12 -5246.40 -5257.70 -5255.11 -5228.20 -4996.89 -4747.68 -4534.68 -4428.80 -4280.61 -4038.33 -3800.17 -3719.95 -3685.68 -3673.72 -3677.68 -3673.90 -3666.47 -3661.66 -3654.55 -3651.45 -3647.05 -3638.81 -3634.26 -3630.14 -3621.66 -3615.64 -3608.26 -3605.21 -3604.18 -3604.59 -3606.24 -3608.64 -3620.55 -3626.29 -3639.72 -3648.18 -3659.20 -3670.37 -3671.56 -3671.98 -3677.18 -3682.93 -3687.01 -3690.56 -3689.27 -3678.38 -3672.41 -3665.40 -3661.33 -3657.88 -3658.90 -3664.65 -3682.72 -3690.61 -3684.54 -3683.76 -3685.43 -3684.19 -3682.19 -3681.26 -3674.72 -3675.60 -3677.57 -3677.49 -3677.97 -3676.03 -3665.85 -3645.36 -3631.66 -3522.89 -3275.70 -2631.87 -2465.07 -2168.99 -1879.56 -1488.79 -1338.49 -1177.10 -892.05 -655.67 -287.49 -148.69 -47.15 32.40 77.07 121.42 143.78 176.18 201.24 221.22 241.11 268.89 485.42 1241.63 2766.59 3938.24 5767.77 6552.76 4113.29 3051.68 2230.38 1505.35 392.56 264.26 242.48 202.10 126.57 -24.06 -166.34 -758.63 -977.10 -1297.05 -1602.63 -1666.17 -1774.98 -1859.05 -1879.67 -1889.09 -1888.90 -1891.47 -1893.04 -1893.06 -1892.29 -1884.96 -1894.50 -1939.38 -2120.57 -2204.35 -2453.11 -2589.96 -2779.79 -3096.60 -3297.55 -3491.26 -3587.19 -3616.74 -3616.84
-5195.48 -5195.40 -5210.04 -5226.33 -5241.74 -5253.30 -5261.46 -5242.35 -5160.56 -5040.58 -5021.20 -4959.32 -4804.43 -4236.82 -4113.59 -3821.73 -3705.97 -3725.25 -3691.60 -3674.68 -3666.62 -3664.94 -3661.40 -3653.94 -3648.84 -3639.62 -3635.54 -3627.66 -3621.12 -3613.28 -3604.75 -3600.39 -3595.30 -3596.27 -3600.53 -3604.97 -3609.49 -3620.03 -3628.96 -3636.49 -3647.19 -3662.85 -3665.59 -3665.02 -3671.73 -3679.92 -3685.22 -3690.90 -3690.12 -3681.31 -3672.21 -3668.09 -3665.04 -3660.63 -3662.29 -3669.75 -3682.29 -3690.32 -3682.88 -3683.26 -3684.52 -3682.31 -3679.03 -3678.52 -3674.93 -3673.26 -3675.00 -3676.81 -3677.28 -3676.93 -3671.97 -3650.03 -3592.34 -3525.17 -3217.69 -2832.88 -2378.98 -1963.57 -1690.93 -1528.23 -1318.95 -1111.09 -928.11 -747.00 -360.98 -173.07 -91.52 30.43 91.19 121.35 162.08 173.63 192.11 220.24 239.66 263.61 778.03 1626.50 3079.39 4584.26 6981.99 7157.34 4656.60 4194.03 1865.78 1156.87 287.84 258.81 225.75 175.25 91.02 -63.15 -203.16 -711.96 -1041.13 -1250.48 -1522.05 -1601.25 -1723.56 -1843.83 -1878.88 -1888.50 -1889.62 -1891.95 -1892.46 -1892.14 -1884.71 -1882.41 -1877.60 -1924.77 -2149.90 -2351.16 -2602.68 -2769.12 -3005.20 -3095.73 -3304.70 -3453.92 -3524.09 -3569.66 -3569.73
-5187.63 -5187.55 -5201.22 -5214.26 -5230.09 -5244.69 -5254.36 -5256.11 -5247.47 -5212.90 -5209.25 -5219.50 -5095.24 -4857.31 -4392.57 -4146.49 -3868.74 -3767.54 -3696.21 -3671.14 -3663.95 -3661.37 -3658.27 -3648.75 -3644.21 -3633.92 -3631.22 -3620.61 -3615.03 -3605.72 -3600.06 -3593.90 -3589.35 -3588.88 -3585.21 -3594.60 -3600.13 -3605.63 -3615.04 -3625.85 -3640.79 -3653.93 -3659.17 -3663.21 -3668.49 -3679.52 -3687.01 -3695.29 -3694.23 -3684.34 -3679.20 -3677.54 -3674.93 -3668.35 -3668.38 -3672.58 -3682.81 -3690.97 -3690.14 -3686.84 -3683.59 -3680.73 -3677.55 -3676.80 -3674.81 -3674.02 -3674.47 -3675.89 -3676.00 -3675.94 -3672.75 -3610.56 -3467.87 -3264.02 -3111.97 -2783.75 -2362.30 -1933.39 -1640.23 -1437.87 -1310.53 -1111.63 -827.72 -626.29 -488.03 -265.96 -91.40 41.97 112.24 141.05 162.45 174.06 186.71 219.15 238.04 311.35 1272.29 1804.66 3126.55 4892.60 7138.37 7449.02 5818.72 3389.08 1788.66 652.41 391.42 271.14 222.77 167.26 54.47 -158.74 -283.15 -623.53 -896.94 -1226.14 -1499.86 -1686.05 -1695.01 -1803.20 -1862.29 -1886.93 -1890.35 -1889.76 -1890.09 -1890.42 -1886.50 -1877.76 -1873.93 -1933.60 -2054.03 -2266.51 -2613.27 -2760.10 -2979.69 -3076.01 -3264.07 -3401.71 -3482.64 -3540.65 -3540.80
-5168.65 -5168.09 -5180.25 -5195.53 -5209.94 -5230.81 -5237.78 -5244.19 -5248.20 -5248.75 -5253.29 -5244.57 -5207.47 -5147.59 -4794.48 -4543.63 -4261.53 -3842.49 -3729.33 -3674.96 -3661.95 -3650.62 -3644.10 -3637.99 -3629.99 -3625.96 -3618.79 -3614.28 -3601.04 -3595.54 -3586.93 -3586.18 -3574.37 -3565.90 -3563.59 -3573.40 -3576.23 -3591.31 -3593.98 -3608.93 -3622.85 -3636.58 -3656.85 -3663.40 -3672.84 -3682.17 -3695.45 -3700.23 -3702.23 -3695.45 -3687.31 -3682.93 -3679.60 -3673.63 -3669.85 -3673.06 -3679.07 -3679.29 -3682.36 -3683.67 -3673.69 -3678.87 -3680.00 -3676.73 -3674.82 -3674.10 -3674.45 -3674.84 -3674.79 -3674.89 -3670.29 -3594.10 -3490.77 -3231.34 -2904.24 -2595.09 -2368.71 -1981.64 -1621.25 -1377.04 -1261.31 -1096.06 -746.33 -605.17 -502.06 -363.80 -113.08 37.99 106.77 152.84 169.24 183.79 191.66 225.39 259.06 464.46 1495.71 1971.93 3027.41 5108.04 7566.34 7471.03 4654.11 2468.30 2178.81 644.59 344.48 268.81 217.95 163.29 63.49 -166.74 -327.07 -593.24 -864.36 -1105.47 -1356.17 -1591.57 -1708.02 -1777.54 -1851.98 -1885.96 -1887.63 -1888.60 -1890.98 -1891.49 -1889.77 -1887.27 -1893.97 -1950.63 -2015.18 -2100.67 -2302.19 -2643.86 -2805.40 -2843.96 -2963.72 -3273.98 -3291.26 -3401.19 -3401.39
-5141.16 -5141.09 -5157.30 -5169.81 -5178.25 -5194.56 -5207.49 -5219.30 -5231.61 -5239.67 -5251.25 -5256.90 -5251.39 -5223.36 -5148.31 -4901.14 -4401.52 -4024.75 -3818.09 -3716.15 -3661.56 -3644.09 -3616.63 -3611.28 -3611.25 -3609.80 -3603.60 -3592.89 -3580.28 -3570.23 -3560.96 -3556.86 -3554.45 -3544.31 -3546.70 -3552.42 -3556.78 -3567.13 -3566.51 -3580.11 -3590.44 -3608.39 -3647.47 -3664.80 -3680.19 -3687.15 -3699.87 -3705.79 -3711.41 -3698.60 -3691.71 -3685.58 -3677.90 -3669.30 -3665.95 -3663.20 -3663.64 -3670.72 -3669.68 -3665.06 -3661.28 -3669.72 -3677.91 -3675.79 -3674.63 -3673.97 -3673.79 -3673.88 -3674.06 -3674.70 -3662.75 -3612.71 -3389.72 -3281.60 -2819.73 -2405.37 -2206.46 -1864.61 -1699.68 -1444.30 -1109.57 -932.51 -717.72 -578.42 -520.87 -379.51 -184.44 -11.78 73.36 171.64 174.89 194.09 212.95 226.80 257.97 427.55 1374.02 2247.86 3898.02 5864.64 7053.47 5239.56 2779.06 1768.31 1251.34 488.96 311.64 254.75 216.42 163.98 19.40 -108.18 -272.81 -597.80 -901.91 -1172.56 -1278.41 -1565.22 -1681.25 -1750.93 -1828.58 -1874.78 -1887.58 -1891.54 -1892.62 -1891.82 -1890.64 -1892.23 -1899.30 -1942.11 -2009.62 -2049.50 -2179.36 -2362.00 -2478.30 -2614.36 -2823.44 -2881.19 -3074.58 -3194.30 -3217.61
-5133.12 -5134.50 -5144.37 -5154.41 -5167.51 -5183.20 -5192.84 -5207.21 -5216.28 -5230.43 -5240.07 -5249.95 -5251.21 -5251.48 -5205.15 -5180.96 -4920.60 -4526.81 -4061.01 -3753.62 -3677.13 -3648.87 -3609.97 -3604.09 -3600.23 -3594.63 -3585.64 -3580.88 -3571.22 -3561.32 -3556.35 -3546.30 -3541.01 -3535.98 -3533.84 -3538.26 -3545.13 -3552.52 -3560.13 -3566.60 -3580.16 -3605.83 -3628.49 -3664.15 -3675.89 -3687.25 -3697.48 -3707.52 -3712.58 -3704.97 -3693.88 -3689.06 -3681.08 -3671.52 -3668.48 -3660.92 -3664.13 -3662.44 -3654.43 -3654.62 -3657.43 -3661.33 -3671.67 -3675.19 -3673.48 -3673.40 -3673.05 -3673.11 -3673.63 -3674.56 -3668.57 -3643.49 -3416.90 -3096.84 -2888.89 -2455.13 -2185.25 -1980.41 -1657.60 -1240.20 -1066.45 -832.04 -685.44 -464.95 -434.29 -359.57 -200.37 -65.98 170.17 206.46 179.64 196.37 217.59 236.70 246.26 605.69 1914.27 2361.99 3152.97 5849.51 6540.85 5187.15 3496.37 3087.90 1023.75 341.45 266.49 233.89 195.53 126.96 63.01 -84.25 -259.66 -452.73 -747.82 -968.96 -1141.71 -1405.63 -1601.79 -1761.07 -1821.71 -1866.88 -1874.78 -1890.51 -1893.14 -1893.12 -1892.78 -1895.83 -1900.76 -1914.37 -1961.71 -2015.04 -2116.78 -2198.02 -2332.03 -2422.57 -2499.99 -2734.58 -2967.04 -3125.98 -3126.05
-5133.56 -5135.08 -5142.54 -5153.80 -5164.71 -5175.69 -5193.70 -5201.47 -5211.51 -5222.30 -5232.35 -5237.72 -5244.53 -5254.91 -5263.61 -5235.46 -5127.79 -4866.09 -4417.06 -3987.62 -3740.91 -3667.71 -3614.77 -3597.09 -3592.37 -3590.20 -3584.12 -3578.36 -3568.50 -3561.96 -3554.63 -3545.97 -3540.93 -3536.85 -3534.43 -3538.25 -3543.90 -3549.62 -3559.14 -3566.44 -3576.47 -3606.60 -3626.81 -3659.31 -3675.33 -3685.45 -3692.97 -3700.07 -3703.45 -3700.79 -3692.60 -3687.89 -3682.13 -3673.41 -3670.26 -3659.77 -3656.87 -3659.64 -3652.95 -3649.09 -3649.77 -3653.70 -3666.88 -3673.99 -3673.09 -3673.09 -3672.31 -3672.43 -3672.88 -3672.86 -3667.56 -3641.85 -3544.42 -3253.81 -2858.78 -2476.52 -2250.17 -1912.02 -1624.71 -1335.36 -1092.69 -660.08 -509.61 -340.37 -261.40 -203.17 -134.71 3.48 187.43 176.76 165.43 194.61 220.94 236.32 318.99 803.53 2587.48 2832.37 4613.65 6431.96 5957.79 3886.26 2618.96 3207.27 913.11 419.75 280.55 201.21 153.07 111.91 7.66 -52.97 -218.47 -416.94 -669.82 -882.08 -1142.56 -1315.31 -1567.74 -1729.68 -1814.35 -1859.95 -1878.17 -1888.00 -1893.63 -1894.06 -1895.33 -1897.69 -1901.20 -1909.82 -1944.07 -1974.48 -2011.23 -2078.87 -2180.25 -2252.55 -2467.08 -2693.62 -2855.51 -3104.99 -3105.10
-5136.93 -5136.87 -5143.57 -5152.94 -5164.44 -5173.66 -5187.62 -5194.98 -5207.43 -5214.49 -5225.34 -5233.29 -5238.25 -5255.12 -5266.62 -5270.76 -5236.93 -5104.58 -4798.54 -4311.34 -3831.58 -3676.26 -3636.07 -3597.44 -3589.33 -3586.54 -3582.18 -3577.70 -3570.05 -3564.16 -3557.28 -3549.10 -3542.87 -3540.11 -3539.04 -3540.82 -3546.95 -3549.54 -3559.30 -3566.29 -3578.91 -3602.35 -3622.47 -3655.63 -3665.01 -3678.27 -3685.99 -3694.59 -3704.30 -3709.08 -3694.64 -3680.91 -3677.73 -3670.43 -3665.20 -3661.90 -3661.30 -3662.62 -3657.36 -3651.25 -3650.41 -3654.62 -3666.94 -3671.58 -3672.50 -3671.45 -3671.17 -3670.97 -3671.47 -3670.73 -3666.02 -3636.73 -3568.35 -3395.01 -3004.34 -2719.55 -2133.33 -1883.16 -1469.49 -1178.96 -971.39 -700.45 -438.69 -214.81 -163.24 -124.54 -63.33 38.50 119.16 126.84 137.54 180.13 212.15 238.25 355.50 954.43 1795.82 3355.73 4621.46 7777.21 7540.21 5274.24 2703.23 2490.53 526.02 296.93 265.84 208.77 154.72 117.24 28.44 -94.77 -219.39 -493.41 -755.01 -892.43 -1094.37 -1269.46 -1502.35 -1653.75 -1791.24 -1866.54 -1877.76 -1892.20 -1894.51 -1895.04 -1896.24 -1898.64 -1902.38 -1909.05 -1917.90 -1931.97 -1972.84 -2013.68 -2095.20 -2099.13 -2306.02 -2356.86 -2825.33 -3005.14 -3054.31
-5142.04 -5141.98 -5150.85 -5155.75 -5164.16 -5172.16 -5187.29 -5195.55 -5206.39 -5214.12 -5227.35 -5230.08 -5236.22 -5245.84 -5268.11 -5275.22 -5250.89 -5182.03 -5058.29 -4614.66 -4121.75 -3826.76 -3645.52 -3601.90 -3587.14 -3581.77 -3579.81 -3576.44 -3571.78 -3565.77 -3560.97 -3555.19 -3551.44 -3549.32 -3545.32 -3546.49 -3548.63 -3553.47 -3558.54 -3566.65 -3575.64 -3598.17 -3617.90 -3644.01 -3659.10 -3669.86 -3679.00 -3689.12 -3697.16 -3699.58 -3687.69 -3679.34 -3673.74 -3669.44 -3664.69 -3662.33 -3665.70 -3660.74 -3654.56 -3657.90 -3661.10 -3659.37 -3671.19 -3672.59 -3671.15 -3670.72 -3670.70 -3670.33 -3669.97 -3668.60 -3661.92 -3617.03 -3585.05 -3415.84 -3165.92 -2880.13 -2400.09 -2119.19 -1487.76 -1111.65 -773.84 -476.92 -294.67 -168.29 -109.52 -41.61 -22.97 37.23 82.99 88.97 121.47 172.95 211.30 239.56 321.14 1298.45 1846.61 4226.86 6752.70 8815.16 8060.95 5505.22 3886.33 2616.52 571.63 302.17 244.15 219.69 185.41 116.90 9.28 -122.65 -265.19 -366.52 -603.06 -784.72 -1038.43 -1235.45 -1466.44 -1660.05 -1797.70 -1868.69 -1884.93 -1893.09 -1895.07 -1895.68 -1896.50 -1898.28 -1899.94 -1902.51 -1909.45 -1927.42 -1956.23 -1978.70 -2018.81 -2069.41 -2158.76 -2356.62 -2655.97 -2990.58 -2990.80
-5148.82 -5150.56 -5154.76 -5160.08 -5167.09 -5173.14 -5189.70 -5201.92 -5216.90 -5233.79 -5237.32 -5241.19 -5247.71 -5254.53 -5265.15 -5267.46 -5265.19 -5246.44 -5184.04 -4914.55 -4464.50 -3910.27 -3735.93 -3641.20 -3583.05 -3575.24 -3572.38 -3572.43 -3573.65 -3573.00 -3576.82 -3572.57 -3566.72 -3563.38 -3561.73 -3553.38 -3551.79 -3554.12 -3556.96 -3563.08 -3572.55 -3593.73 -3602.65 -3631.19 -3647.75 -3659.80 -3664.60 -3673.31 -3682.69 -3687.29 -3682.01 -3676.38 -3673.61 -3669.45 -3663.99 -3663.39 -3665.98 -3663.26 -3659.91 -3664.51 -3675.05 -3672.48 -3672.71 -3672.00 -3670.38 -3670.46 -3670.41 -3669.51 -3668.77 -3667.29 -3660.10 -3653.38 -3586.88 -3463.39 -3187.13 -2826.05 -2401.11 -1967.54 -1630.38 -1096.04 -615.18 -385.43 -237.61 -138.02 -70.51 -27.50 15.94 51.68 95.59 114.47 153.05 175.06 210.06 231.42 291.81 774.82 1620.98 3088.49 5753.00 8237.77 7303.51 4828.45 2730.86 1720.40 687.35 310.28 248.15 226.51 193.53 116.70 52.97 -59.80 -195.82 -256.73 -459.31 -720.71 -907.74 -1255.34 -1489.40 -1616.87 -1707.37 -1832.45 -1867.69 -1890.40 -1895.08 -1896.17 -1896.35 -1897.52 -1899.06 -1903.44 -1908.48 -1917.77 -1937.91 -1948.42 -1987.79 -2035.01 -2167.70 -2319.55 -2650.53 -2769.93 -2799.01
-5156.75 -5156.94 -5158.99 -5164.49 -5172.03 -5178.61 -5188.92 -5201.78 -5236.46 -5246.89 -5251.60 -5254.58 -5256.99 -5259.55 -5261.49 -5252.16 -5255.52 -5248.59 -5216.80 -5093.57 -4816.06 -4202.78 -3857.39 -3683.14 -3586.00 -3569.43 -3565.97 -3569.36 -3581.34 -3586.07 -3584.38 -3582.25 -3581.66 -3579.19 -3571.28 -3561.47 -3555.44 -3550.44 -3553.91 -3562.35 -3567.44 -3585.17 -3603.27 -3615.85 -3635.72 -3639.50 -3650.42 -3656.30 -3659.14 -3675.43 -3685.96 -3684.09 -3668.96 -3670.98 -3665.91 -3664.22 -3665.54 -3668.01 -3668.56 -3669.20 -3670.77 -3669.51 -3667.11 -3667.49 -3669.26 -3670.17 -3670.31 -3669.45 -3667.46 -3646.26 -3639.09 -3634.77 -3588.06 -3458.67 -3287.27 -2826.79 -2253.43 -1869.54 -1461.04 -993.50 -576.52 -324.82 -178.06 -97.63 -39.34 1.56 35.55 54.11 86.77 129.69 154.63 185.52 208.21 229.73 434.63 939.25 1662.54 2305.49 4815.35 7180.13 7061.50 4156.73 3842.83 3491.71 619.77 339.91 269.67 232.06 208.77 166.46 82.67 14.09 -69.15 -209.95 -428.99 -672.50 -958.43 -1204.11 -1429.27 -1630.56 -1685.19 -1816.30 -1865.43 -1890.10 -1894.22 -1895.01 -1896.65 -1897.39 -1899.08 -1901.29 -1907.77 -1913.42 -1928.61 -1942.69 -1969.64 -2074.15 -2180.64 -2369.00 -2590.62 -2631.67 -2631.89
-5163.58 -5164.55 -5166.79 -5170.22 -5174.96 -5180.91 -5191.01 -5213.30 -5238.31 -5249.22 -5253.00 -5254.42 -5256.85 -5257.45 -5254.85 -5242.50 -5239.02 -5235.00 -5228.51 -5167.12 -5037.74 -4531.10 -4118.24 -3730.66 -3588.62 -3563.82 -3560.91 -3564.30 -3576.01 -3585.72 -3586.26 -3585.94 -3586.59 -3586.48 -3584.27 -3564.33 -3555.98 -3548.54 -3554.52 -3562.75 -3569.67 -3587.72 -3601.66 -3614.23 -3624.61 -3629.29 -3639.58 -3643.14 -3657.62 -3673.41 -3685.34 -3679.72 -3672.58 -3669.99 -3667.20 -3663.71 -3665.13 -3665.91 -3665.53 -3667.27 -3665.90 -3665.25 -3670.96 -3669.39 -3667.54 -3669.00 -3669.13 -3668.99 -3666.06 -3652.51 -3638.58 -3623.75 -3520.91 -3289.64 -2767.59 -2248.01 -1944.39 -1456.18 -1150.23 -723.82 -451.77 -251.85 -159.00 -97.46 -39.63 13.28 38.65 71.96 95.73 128.25 164.00 179.99 212.77 234.84 269.15 669.07 1396.38 3799.75 4459.66 7767.35 7892.24 6326.90 4039.36 3192.16 491.16 347.49 260.21 239.26 215.33 190.48 131.53 94.99 -62.72 -306.49 -514.83 -688.20 -889.53 -1152.27 -1398.90 -1553.20 -1710.67 -1797.59 -1859.53 -1889.33 -1892.43 -1895.86 -1896.82 -1897.36 -1898.31 -1901.59 -1904.55 -1913.57 -1925.55 -1955.39 -1994.83 -2053.59 -2177.48 -2259.99 -2385.50 -2491.81 -2491.87
-5170.25 -5170.20 -5170.39 -5173.93 -5177.56 -5184.10 -5193.64 -5209.57 -5239.38 -5245.68 -5250.19 -5252.60 -5253.95 -5254.52 -5246.71 -5233.28 -5232.82 -5230.64 -5229.42 -5212.02 -5129.24 -4859.52 -4554.12 -3895.84 -3663.58 -3578.61 -3556.84 -3557.84 -3573.24 -3582.12 -3585.66 -3586.20 -3587.23 -3586.54 -3579.44 -3554.90 -3537.06 -3538.46 -3544.71 -3556.84 -3566.43 -3583.44 -3600.50 -3618.18 -3628.36 -3633.77 -3638.84 -3645.35 -3651.17 -3671.93 -3681.03 -3681.46 -3673.61 -3670.86 -3669.82 -3667.06 -3664.86 -3653.68 -3651.51 -3649.16 -3653.07 -3656.24 -3667.50 -3670.59 -3664.42 -3666.39 -3666.23 -3665.58 -3665.82 -3655.90 -3636.69 -3537.07 -3292.64 -3165.43 -2655.97 -2194.71 -1787.40 -1297.97 -928.22 -664.37 -429.10 -312.31 -151.42 -109.79 -28.78 11.72 52.17 89.19 123.22 145.59 162.08 186.20 204.33 233.31 281.00 776.53 2969.32 3772.95 5259.36 7750.25 8102.65 5773.41 3412.21 2164.72 1221.10 434.28 314.37 242.58 227.86 196.07 156.04 89.79 -32.08 -237.94 -474.12 -674.61 -885.39 -1157.59 -1373.53 -1583.92 -1660.00 -1743.88 -1845.32 -1879.98 -1890.69 -1893.61 -1895.80 -1897.46 -1898.36 -1899.75 -1904.49 -1910.41 -1930.49 -1949.89 -1990.36 -2082.23 -2155.14 -2274.01 -2351.39 -2491.40 -2491.47
-5177.38 -5177.33 -5177.53 -5182.47 -5183.87 -5186.96 -5193.38 -5207.13 -5229.95 -5243.62 -5247.46 -5247.91 -5248.61 -5247.99 -5243.20 -5229.15 -5224.97 -5226.82 -5226.99 -5224.66 -5180.25 -5048.85 -4617.95 -4400.68 -3784.45 -3601.96 -3558.59 -3553.61 -3561.85 -3576.22 -3581.52 -3580.11 -3579.98 -3572.64 -3542.70 -3506.67 -3462.75 -3426.41 -3464.25 -3487.64 -3539.76 -3563.32 -3585.61 -3610.23 -3628.06 -3638.40 -3648.09 -3648.67 -3656.55 -3671.35 -3679.34 -3679.11 -3676.79 -3672.65 -3671.66 -3669.59 -3671.37 -3643.47 -3638.40 -3641.52 -3645.44 -3654.33 -3659.32 -3669.33 -3665.11 -3664.93 -3664.82 -3664.92 -3657.84 -3637.97 -3583.51 -3400.74 -3197.58 -2889.54 -2718.01 -2105.32 -1689.81 -1230.01 -901.71 -676.52 -414.89 -259.45 -191.46 -103.61 -54.19 11.69 60.09 106.45 139.63 157.10 169.66 195.19 215.08 236.61 292.10 442.35 2581.35 3777.63 4672.80 7437.10 7445.06 5446.09 2804.37 2065.07 1909.74 554.52 322.39 289.03 233.23 200.79 147.96 61.36 -66.50 -252.04 -451.27 -678.22 -903.65 -1123.64 -1325.38 -1465.77 -1589.18 -1745.42 -1797.80 -1861.35 -1880.56 -1892.85 -1895.95 -1897.73 -1897.92 -1899.85 -1903.78 -1908.11 -1920.06 -1933.08 -2019.61 -2092.74 -2154.83 -2308.63 -2408.64 -2477.44 -2490.86
-5188.90 -5188.85 -5198.17 -5196.56 -5193.24 -5194.07 -5198.09 -5207.23 -5235.20 -5238.79 -5241.29 -5241.88 -5242.59 -5242.40 -5235.22 -5224.03 -5220.93 -5221.53 -5225.80 -5226.30 -5220.74 -5146.76 -4927.74 -4334.22 -3794.88 -3599.89 -3553.90 -3547.70 -3556.24 -3559.90 -3554.28 -3560.23 -3523.46 -3495.58 -3450.22 -3258.97 -3001.73 -3128.47 -3196.79 -3211.89 -3381.58 -3447.54 -3505.91 -3566.57 -3603.38 -3621.65 -3648.38 -3663.92 -3664.61 -3677.41 -3680.69 -3683.55 -3683.68 -3676.22 -3674.77 -3676.55 -3678.20 -3659.38 -3642.76 -3633.30 -3640.17 -3643.61 -3649.19 -3657.38 -3661.39 -3662.23 -3658.97 -3658.13 -3651.69 -3636.49 -3587.94 -3392.37 -3197.61 -2872.43 -2599.26 -2156.74 -1637.10 -1364.52 -943.38 -734.87 -430.19 -256.32 -190.73 -106.84 -34.81 5.37 60.52 112.61 146.14 172.40 189.78 212.42 232.92 251.26 292.12 417.93 1719.68 2532.97 4259.58 6608.30 7634.08 6599.02 3300.84 2491.39 1726.68 998.31 326.85 321.77 290.44 216.04 157.76 84.84 -8.69 -214.62 -416.67 -648.83 -825.40 -1003.53 -1238.31 -1420.85 -1616.18 -1703.89 -1792.33 -1866.40 -1887.36 -1893.98 -1896.43 -1896.56 -1898.49 -1901.14 -1908.36 -1912.46 -1929.96 -1952.71 -2025.42 -2096.75 -2195.52 -2299.64 -2374.19 -2491.87 -2491.93
-5221.32 -5226.21 -5224.55 -5223.27 -5208.64 -5217.59 -5217.39 -5223.92 -5232.37 -5223.35 -5218.52 -5221.37 -5220.60 -5215.79 -5224.13 -5219.21 -5219.92 -5224.05 -5225.79 -5228.42 -5221.99 -5167.20 -4929.69 -4565.33 -3850.66 -3529.40 -3521.53 -3522.20 -3541.44 -3539.19 -3516.77 -3488.63 -3282.47 -3102.78 -2939.75 -2696.87 -2246.46 -2138.46 -2371.51 -2531.37 -2750.85 -2755.51 -3136.34 -3444.52 -3414.39 -3606.60 -3644.48 -3662.94 -3667.22 -3677.67 -3679.41 -3679.16 -3682.60 -3677.91 -3672.18 -3671.63 -3671.89 -3656.22 -3645.89 -3626.20 -3627.48 -3633.76 -3644.31 -3648.53 -3651.67 -3646.35 -3635.55 -3637.04 -3647.34 -3638.58 -3626.95 -3476.58 -3239.88 -2816.46 -2628.02 -2155.14 -1789.56 -1445.08 -1053.57 -750.00 -443.74 -294.91 -167.85 -96.65 -40.56 12.83 67.51 98.87 149.04 183.03 216.21 226.49 239.69 250.48 278.69 401.04 1125.73 2293.04 3232.49 5941.61 8150.06 7881.90 5358.23 3270.51 2714.70 1535.96 441.89 369.73 292.55 236.81 222.73 139.49 73.02 -89.45 -298.31 -519.51 -710.61 -931.16 -1073.01 -1394.11 -1486.10 -1688.55 -1783.64 -1864.72 -1883.48 -1893.58 -1894.74 -1895.42 -1898.99 -1907.33 -1920.63 -1931.73 -1950.62 -1965.20 -2011.28 -2093.11 -2253.88 -2412.61 -2450.37 -2561.71 -2561.63
-5275.78 -5275.76 -5276.79 -5255.24 -5260.65 -5281.12 -5262.93 -5248.72 -5223.80 -5206.83 -5206.04 -5203.72 -5202.76 -5204.94 -5211.82 -5221.72 -5227.19 -5230.89 -5232.14 -5233.87 -5219.95 -5147.81 -4954.06 -4221.86 -3552.31 -3089.48 -3252.36 -3351.77 -3339.37 -3462.16 -3369.36 -3108.48 -2912.55 -2598.25 -2213.33 -1820.13 -1597.73 -1586.23 -1721.80 -1703.52 -1943.56 -2289.02 -2245.27 -2710.75 -2939.24 -3208.20 -3615.03 -3620.62 -3649.21 -3653.33 -3663.09 -3665.85 -3661.07 -3663.40 -3661.30 -3651.75 -3644.80 -3639.94 -3627.47 -3614.71 -3613.26 -3608.56 -3610.50 -3624.64 -3629.24 -3631.71 -3625.83 -3631.96 -3635.73 -3624.37 -3529.25 -3287.28 -3106.34 -2881.30 -2345.82 -2051.65 -1793.39 -1389.20 -1078.26 -781.56 -440.81 -333.46 -180.69 -84.01 -58.93 32.26 100.25 110.48 147.17 215.24 228.07 241.43 251.32 253.88 285.30 422.63 2162.15 3685.07 4067.28 7271.87 9086.41 9600.16 6343.95 3847.52 1839.38 1808.20 1314.67 390.60 332.02 242.70 225.43 178.61 86.89 -43.42 -255.76 -372.46 -623.54 -796.53 -1132.70 -1263.17 -1548.19 -1650.53 -1771.99 -1850.98 -1877.21 -1889.83 -1891.59 -1894.34 -1898.16 -1910.56 -1930.96 -1948.83 -1985.03 -2013.97 -2091.41 -2159.86 -2297.65 -2418.01 -2566.88 -2679.92 -2679.97
-5344.70 -5352.19 -5354.36 -5340.66 -5320.93 -5299.44 -5291.92 -5262.02 -5240.27 -5231.18 -5211.28 -5214.81 -5215.04 -5209.57 -5219.92 -5232.64 -5251.72 -5248.57 -5254.14 -5245.71 -5222.58 -5051.12 -4401.57 -3588.23 -2599.88 -2522.40 -2473.45 -2891.32 -2948.77 -3124.90 -2962.87 -2437.85 -1986.04 -1766.91 -1538.72 -1266.63 -1169.59 -1175.86 -1245.36 -1280.64 -1424.10 -1443.09 -1619.61 -1856.65 -2419.68 -2727.45 -3182.82 -3468.86 -3525.97 -3458.58 -3516.60 -3578.04 -3637.09 -3622.63 -3643.12 -3642.92 -3633.25 -3616.21 -3607.87 -3600.07 -3596.10 -3587.94 -3591.29 -3602.10 -3610.35 -3608.15 -3609.88 -3603.02 -3614.19 -3560.89 -3321.08 -3199.66 -3117.44 -2996.98 -2476.26 -2000.31 -1525.72 -1191.47 -960.86 -785.66 -547.27 -410.42 -221.07 -11.42 39.34 82.50 133.13 168.22 190.51 221.04 236.04 252.33 257.62 256.56 282.07 396.45 1083.68 2932.90 3924.35 6067.71 7647.89 8843.87 7488.21 5095.29 2804.77 2468.52 1300.13 582.59 353.19 262.72 223.16 171.75 123.52 9.87 -184.07 -372.48 -434.97 -847.89 -1219.23 -1373.97 -1546.48 -1671.08 -1749.89 -1857.97 -1881.44 -1888.34 -1888.82 -1891.26 -1897.95 -1909.99 -1927.87 -1982.65 -2008.14 -2047.31 -2148.35 -2310.12 -2462.97 -2594.99 -2739.14 -2759.59 -2789.47
-5464.61 -5449.65 -5424.28 -5421.46 -5392.76 -5373.79 -5352.72 -5324.69 -5273.36 -5264.51 -5250.47 -5241.08 -5246.20 -5247.62 -5293.90 -5285.65 -5311.23 -5298.23 -5288.70 -5271.31 -5229.77 -4997.64 -4043.55 -2745.18 -1946.63 -1785.84 -2031.49 -2230.66 -2182.93 -2437.02 -2524.76 -2030.81 -1405.06 -1197.23 -1122.62 -1000.85 -839.83 -922.14 -900.79 -1077.69 -1084.82 -1225.03 -1295.86 -1457.44 -1758.20 -2008.66 -2713.71 -3054.17 -3070.32 -3127.96 -3248.81 -3428.95 -3417.71 -3531.20 -3596.86 -3629.53 -3607.47 -3600.47 -3588.60 -3579.07 -3577.01 -3573.30 -3572.63 -3578.66 -3572.53 -3571.02 -3454.70 -3448.74 -3414.04 -3121.64 -3031.85 -2651.80 -2552.93 -2222.91 -2039.39 -1575.54 -1123.60 -1044.62 -961.70 -677.42 -329.39 -98.84 18.25 163.58 209.00 163.94 189.84 177.53 186.29 195.41 228.83 258.95 261.44 264.80 288.89 397.06 574.28 1934.18 2677.27 3133.20 4324.04 7110.16 7788.25 5851.40 4894.69 3184.31 1458.10 542.34 437.17 317.70 229.62 209.53 181.76 123.54 -49.78 -214.96 -416.21 -644.80 -1061.76 -1210.85 -1508.74 -1648.79 -1792.31 -1833.25 -1881.55 -1888.02 -1888.74 -1890.66 -1898.93 -1913.61 -1942.29 -1988.94 -2007.92 -2083.63 -2176.59 -2326.98 -2492.82 -2695.49 -2751.23 -2865.36 -2865.44
-5557.05 -5556.92 -5511.90 -5496.65 -5482.83 -5483.26 -5468.97 -5424.46 -5390.35 -5348.83 -5325.53 -5297.43 -5333.59 -5336.32 -5352.71 -5357.43 -5354.94 -5387.57 -5378.77 -5350.66 -5249.50 -4963.66 -3928.82 -2945.40 -1642.70 -1513.69 -1498.83 -1615.72 -1702.86 -1885.91 -1867.35 -1597.98 -1275.11 -1009.07 -794.52 -458.29 -492.93 -416.52 -546.04 -701.71 -826.32 -1086.16 -1148.62 -1189.30 -1276.80 -1414.41 -1823.79 -2155.92 -2472.04 -2283.33 -2385.12 -2628.96 -2863.22 -3048.38 -3344.42 -3427.70 -3570.39 -3544.35 -3480.29 -3532.13 -3529.86 -3546.43 -3510.27 -3491.75 -3436.44 -3294.03 -3282.06 -2852.70 -2616.94 -2354.52 -1962.83 -2034.72 -2112.07 -1572.30 -1261.46 -1023.86 -534.40 -325.52 -187.79 18.50 112.30 123.15 195.75 228.14 230.81 215.88 192.56 183.58 182.26 194.85 217.87 257.43 260.12 261.07 267.03 285.40 366.07 1160.04 1297.43 2243.59 3825.47 6739.51 8142.56 7514.14 5300.60 2956.47 1720.31 2044.74 1391.41 404.47 256.14 224.91 192.77 152.72 35.02 -131.07 -307.24 -540.35 -931.17 -1222.41 -1418.16 -1566.00 -1748.48 -1824.12 -1876.18 -1886.92 -1888.89 -1890.80 -1903.83 -1918.07 -1959.22 -1978.32 -2085.04 -2136.07 -2193.49 -2386.09 -2519.97 -2818.24 -2868.47 -2933.35 -2962.07
-5606.41 -5606.33 -5601.33 -5572.83 -5554.35 -5538.12 -5522.36 -5485.54 -5486.60 -5453.25 -5435.55 -5407.19 -5405.76 -5421.78 -5431.74 -5478.31 -5480.67 -5517.40 -5465.16 -5443.65 -5365.85 -4943.86 -3739.21 -2648.10 -1684.91 -1581.35 -1586.04 -1599.93 -1508.49 -1533.59 -1550.55 -1462.71 -1138.93 -748.96 -394.81 -163.13 42.78 96.45 -49.69 -181.14 -197.87 -720.69 -1072.44 -1127.14 -1083.22 -1219.53 -1341.41 -1410.83 -1563.89 -1587.43 -1764.90 -1865.88 -2129.68 -2337.28 -2721.76 -3156.79 -3249.64 -3334.76 -3363.45 -3411.23 -3376.15 -3191.36 -3313.51 -3292.00 -3105.28 -2881.16 -2834.39 -2260.50 -2151.82 -1618.54 -1551.83 -1372.46 -1119.20 -918.69 -623.58 -320.24 44.59 116.17 147.01 192.98 192.62 201.81 196.74 196.68 186.96 182.55 177.58 173.53 183.71 205.53 228.12 255.68 258.28 257.24 267.98 276.89 324.15 515.00 2176.01 3267.77 4572.12 5494.74 8077.71 7854.32 5822.38 3273.02 3202.38 2756.68 2169.54 750.11 270.78 244.67 217.35 182.50 116.08 69.86 -169.09 -414.73 -893.23 -1243.58 -1428.64 -1602.04 -1672.29 -1794.52 -1850.67 -1883.69 -1888.24 -1889.73 -1912.73 -1940.00 -1982.00 -2036.76 -2123.15 -2205.83 -2294.90 -2447.28 -2553.14 -2766.16 -2950.67 -3036.49 -3036.58
-5609.53 -5609.48 -5605.63 -5600.68 -5594.50 -5588.55 -5570.58 -5558.50 -5570.59 -5555.32 -5527.57 -5533.31 -5503.42 -5532.84 -5551.66 -5533.64 -5532.81 -5549.78 -5546.26 -5526.08 -5419.88 -5098.48 -3820.90 -2951.44 -1961.70 -1977.68 -2106.77 -2053.19 -1680.43 -1536.89 -1461.95 -1339.48 -1186.61 -429.55 -50.66 266.35 295.64 317.48 252.58 136.96 -41.44 -341.88 -796.11 -847.71 -867.84 -998.35 -1092.21 -1176.46 -1187.77 -1305.90 -1379.73 -1315.42 -1290.30 -1922.97 -1925.43 -2242.88 -2505.06 -2721.75 -2757.82 -2855.11 -2663.75 -2825.33 -2670.21 -2742.42 -2424.05 -2034.04 -1680.08 -1579.04 -1364.72 -1303.79 -1207.29 -1114.40 -862.54 -638.34 -86.33 198.92 262.22 274.24 266.75 224.37 190.93 176.50 169.79 171.83 160.94 155.28 156.48 167.95 178.21 198.06 226.15 246.10 257.83 270.62 279.54 293.89 340.50 347.32 1840.23 2321.46 2681.27 3928.05 6865.24 7928.12 7117.84 5339.65 4298.31 2771.81 2534.68 1467.96 313.24 250.19 236.87 172.07 112.30 91.25 -46.19 -221.16 -612.15 -939.04 -1134.98 -1492.41 -1623.11 -1761.32 -1853.49 -1879.51 -1887.41 -1890.02 -1908.04 -1950.60 -2025.46 -2079.22 -2165.53 -2311.99 -2417.70 -2639.04 -2792.71 -3067.57 -3223.82 -3224.10 -3224.38
-5601.83 -5601.79 -5599.67 -5596.79 -5593.84 -5590.08 -5584.11 -5588.89 -5589.43 -5589.87 -5580.48 -5581.49 -5581.23 -5580.46 -5581.75 -5587.01 -5586.88 -5588.73 -5588.48 -5563.79 -5473.90 -5304.77 -4468.50 -3408.49 -3336.80 -2925.06 -3221.93 -3259.23 -2366.73 -1979.03 -1618.98 -1319.46 -1011.66 -379.56 62.32 277.40 352.67 392.76 388.84 319.02 313.97 121.71 -239.07 -237.43 -344.49 -647.82 -816.09 -890.21 -975.73 -1047.57 -1034.51 -1074.27 -1164.69 -1125.46 -1380.56 -1623.71 -1725.69 -1777.95 -1842.53 -1779.91 -1812.37 -1956.69 -1775.59 -1915.09 -1727.23 -1506.31 -1492.92 -1309.02 -1265.05 -1204.31 -1092.42 -746.66 -476.54 -62.59 199.06 305.93 288.74 284.94 264.27 199.20 155.79 134.99 148.31 149.86 149.86 150.04 151.94 160.69 171.77 192.66 207.82 234.64 250.95 263.77 287.59 281.91 286.45 315.97 631.06 1324.01 2680.64 4228.29 5355.93 6377.22 7973.69 8122.64 6121.05 3507.03 3253.53 3019.38 958.18 325.82 229.85 175.53 157.86 153.09 74.69 -146.43 -304.00 -649.61 -956.86 -1271.09 -1404.71 -1697.06 -1828.55 -1860.33 -1879.21 -1888.40 -1893.97 -1933.15 -2003.11 -2101.09 -2257.52 -2385.55 -2611.09 -2962.12 -3078.47 -3268.78 -3361.79 -3426.15 -3426.33
-5597.84 -5597.56 -5595.46 -5591.75 -5590.99 -5586.32 -5584.08 -5588.93 -5599.88 -5599.69 -5595.90 -5595.52 -5589.52 -5589.07 -5588.00 -5588.41 -5585.71 -5586.22 -5583.87 -5581.95 -5547.64 -5423.30 -5011.58 -4654.63 -4539.63 -4806.87 -4699.08 -4153.02 -2991.96 -2182.24 -1796.05 -1555.11 -1213.76 -687.33 -36.21 203.14 318.74 431.23 429.29 394.60 352.54 292.26 165.79 183.91 157.54 13.48 -228.92 -130.05 -326.84 -496.75 -598.35 -680.74 -1025.91 -1106.51 -1166.66 -1216.04 -1315.34 -1374.67 -1302.78 -1359.29 -1357.11 -1324.75 -1401.10 -1424.23 -1439.20 -1335.92 -1284.64 -1246.89 -1161.91 -1020.01 -837.42 -285.29 35.14 265.31 313.72 374.65 336.58 277.02 223.80 143.57 135.44 134.56 144.40 139.63 146.32 147.41 147.72 153.99 164.55 183.62 201.14 220.71 245.29 250.85 251.84 253.17 261.27 262.17 312.82 1333.91 3477.89 4481.91 3949.36 4512.88 6795.75 8421.34 6442.07 5697.77 3878.56 3115.48 1535.66 371.73 297.76 230.85 224.92 189.61 89.64 -25.40 -186.57 -439.56 -680.82 -828.00 -1106.24 -1494.10 -1676.33 -1807.53 -1859.76 -1881.57 -1892.94 -1910.49 -1976.32 -2137.37 -2353.09 -2573.39 -2761.94 -3079.66 -3385.08 -3504.88 -3562.76 -3602.47 -3631.88
-5594.09 -5593.90 -5591.47 -5589.47 -5585.90 -5583.12 -5581.55 -5589.24 -5602.97 -5600.71 -5596.69 -5593.83 -5589.32 -5586.58 -5585.58 -5583.94 -5582.12 -5578.95 -5578.94 -5575.76 -5566.56 -5544.36 -5476.45 -5372.77 -5383.08 -5414.17 -5241.51 -5030.09 -4293.49 -3313.38 -2354.78 -1797.42 -1171.53 -556.71 64.36 182.28 308.05 337.94 407.97 428.20 416.30 336.48 335.25 321.29 304.69 238.17 211.43 215.69 60.43 -94.52 -57.66 -149.08 -555.39 -803.54 -798.54 -846.18 -1005.83 -1015.23 -1076.50 -1075.25 -1029.22 -1099.60 -1189.12 -1193.48 -1270.94 -1259.12 -1250.58 -1201.85 -1061.37 -828.00 -492.15 79.89 252.55 291.39 322.95 390.76 331.29 257.72 184.98 140.33 126.29 129.25 136.62 143.77 144.63 146.02 147.03 152.48 161.99 172.53 194.73 216.59 237.35 245.11 249.07 251.95 250.62 252.89 260.25 271.34 2126.77 2466.07 1880.11 3534.04 5019.91 7267.08 7249.41 5591.10 3458.20 2112.17 1397.74 336.35 317.36 268.59 237.87 189.38 139.75 75.11 -48.93 -247.51 -390.08 -607.81 -970.90 -1402.11 -1702.40 -1810.32 -1852.58 -1876.27 -1886.68 -1904.38 -1971.57 -2184.15 -2442.83 -2623.85 -2904.42 -3200.97 -3451.91 -3577.83 -3705.86 -3757.23 -3781.13
-5589.46 -5589.40 -5586.28 -5584.41 -5582.72 -5578.56 -5577.24 -5580.86 -5599.76 -5597.15 -5595.65 -5590.58 -5586.94 -5584.79 -5581.57 -5579.29 -5578.28 -5574.30 -5573.77 -5569.85 -5565.04 -5553.66 -5529.57 -5531.43 -5526.59 -5526.01 -5527.35 -5382.67 -5145.19 -4723.32 -3353.20 -2250.80 -1437.80 -707.78 -127.61 156.31 300.77 310.66 363.77 419.33 424.91 394.18 396.91 329.67 333.76 326.03 360.11 329.62 302.33 261.97 247.06 150.10 -300.13 -379.82 -452.33 -570.34 -586.21 -600.64 -727.92 -863.39 -814.83 -800.02 -879.13 -1000.77 -1088.90 -1122.77 -1200.10 -1092.55 -618.47 -340.19 16.12 215.84 320.45 338.51 334.95 316.65 309.02 242.40 151.59 123.28 125.60 132.67 133.58 140.61 140.10 141.61 140.71 146.84 156.07 170.25 188.56 210.76 228.77 239.38 243.38 246.32 246.89 248.38 250.45 302.26 743.20 974.59 1221.98 2184.87 4375.52 6682.82 7974.48 4173.70 2962.70 2509.70 2839.90 1353.60 363.10 274.60 222.35 194.36 161.43 97.55 -5.38 -192.61 -334.53 -692.47 -1077.00 -1456.63 -1665.12 -1816.22 -1846.88 -1867.55 -1874.44 -1884.27 -1949.48 -2121.89 -2467.04 -2836.47 -3076.96 -3393.92 -3649.00 -3716.95 -3767.80 -3816.31 -3816.38
-5585.79 -5585.59 -5584.51 -5582.86 -5581.05 -5577.08 -5577.00 -5581.12 -5592.90 -5594.19 -5589.66 -5584.85 -5580.85 -5579.81 -5578.38 -5577.36 -5573.63 -5571.78 -5568.49 -5565.43 -5560.56 -5558.97 -5553.63 -5552.20 -5556.28 -5561.89 -5559.18 -5543.24 -5482.57 -5166.39 -3384.08 -1862.94 -1219.36 -426.02 -153.40 85.87 258.16 313.18 341.21 383.98 404.85 420.57 410.31 388.57 478.65 501.22 553.16 454.58 408.69 319.96 270.73 246.14 21.49 -36.85 -77.37 -248.14 -184.21 -319.73 -403.60 -490.71 -592.41 -551.09 -541.39 -705.62 -647.39 -906.37 -885.99 -661.67 -377.91 -49.37 224.59 312.83 310.66 316.46 280.32 273.39 262.35 203.16 153.85 128.34 135.81 132.74 132.32 134.89 136.35 136.39 139.96 147.47 161.09 177.78 193.35 209.58 225.93 236.76 238.67 244.19 244.54 245.77 247.77 255.92 265.37 527.55 1700.69 2746.40 3331.36 7023.07 7646.81 7580.20 6334.91 3277.32 3086.50 1258.20 521.70 267.96 235.41 223.67 182.49 120.38 14.96 -134.13 -440.88 -841.00 -1177.11 -1421.68 -1618.81 -1787.17 -1856.90 -1870.57 -1870.31 -1885.52 -1957.70 -2092.31 -2657.03 -2993.91 -3292.02 -3588.30 -3710.70 -3824.62 -3820.86 -3832.77 -3838.93
-5595.15 -5595.07 -5592.48 -5588.10 -5584.97 -5583.66 -5581.67 -5582.29 -5579.79 -5574.90 -5577.85 -5573.55 -5569.02 -5566.86 -5567.14 -5573.98 -5572.14 -5568.75 -5565.40 -5561.91 -5558.67 -5555.22 -5553.58 -5554.23 -5560.46 -5566.05 -5578.74 -5572.76 -5462.51 -5184.11 -3364.71 -1785.15 -896.98 -295.79 -47.83 217.75 274.51 306.57 323.94 370.94 390.04 407.02 443.21 451.15 525.99 586.79 630.78 502.66 387.84 343.91 283.44 253.73 209.85 151.21 92.49 -11.59 -69.79 -67.26 -167.91 -279.35 -260.30 -229.17 -298.04 -303.53 -236.05 -338.34 -387.40 -135.31 131.81 235.97 282.09 295.00 267.34 270.39 207.02 218.48 221.66 186.46 145.23 130.33 132.28 131.81 127.01 130.94 129.47 131.69 139.64 146.55 163.14 178.55 195.29 211.18 221.66 234.23 240.08 241.79 243.61 246.00 247.49 252.58 257.84 481.85 1741.20 2342.18 2786.27 5015.98 6784.17 7942.08 6940.41 5399.46 2590.02 1829.79 497.98 275.33 238.99 224.28 189.69 126.42 50.07 -183.18 -429.87 -891.09 -1114.61 -1367.02 -1692.86 -1824.12 -1857.03 -1869.09 -1871.34 -1898.70 -1979.14 -2300.04 -2781.64 -3208.64 -3563.95 -3743.28 -3838.97 -3842.75 -3852.81 -3852.23 -3852.30
-5594.68 -5594.61 -5592.52 -5591.45 -5590.31 -5589.13 -5586.64 -5579.95 -5567.03 -5566.14 -5562.52 -5559.21 -5557.41 -5555.60 -5559.76 -5568.87 -5569.20 -5566.00 -5561.94 -5559.49 -5556.08 -5553.70 -5552.95 -5553.84 -5556.86 -5563.72 -5575.33 -5581.12 -5525.22 -5164.25 -3760.48 -1446.85 -361.04 -161.50 126.54 216.74 289.15 320.52 340.91 379.15 392.73 421.54 455.58 486.81 548.18 616.02 691.66 571.15 456.39 392.13 310.74 266.19 251.63 244.42 162.27 86.06 40.07 28.38 -16.52 -32.95 -40.89 -60.17 -7.89 -13.82 -12.26 206.83 198.28 177.24 286.20 318.46 255.51 249.34 202.49 158.31 163.24 166.47 189.38 166.12 129.05 128.29 127.01 125.64 124.52 125.74 124.88 128.72 142.31 151.96 166.91 183.05 195.65 204.83 214.17 232.19 234.90 237.97 240.75 244.00 245.74 247.22 258.93 317.11 804.27 1584.51 2838.42 3688.06 5247.81 6925.96 6911.14 5742.83 2750.59 1775.15 599.87 286.01 246.39 229.21 190.26 152.93 61.43 -130.66 -420.84 -870.16 -985.67 -1411.05 -1662.56 -1802.13 -1858.99 -1866.73 -1872.71 -1902.04 -2007.82 -2205.12 -2592.43 -3141.12 -3633.45 -3827.71 -3842.53 -3852.82 -3855.42 -3853.51 -3853.57
-5585.65 -5585.59 -5583.17 -5584.09 -5585.60 -5585.33 -5582.28 -5577.90 -5564.12 -5560.77 -5558.45 -5557.03 -5554.06 -5552.58 -5557.20 -5567.37 -5567.95 -5565.00 -5561.86 -5558.20 -5556.64 -5554.97 -5554.50 -5555.02 -5557.19 -5560.90 -5557.25 -5473.31 -5378.73 -3727.88 -2289.74 -789.85 -282.72 49.74 241.09 281.93 295.95 321.51 358.29 377.97 399.67 433.00 457.16 506.20 577.24 678.10 732.47 669.10 595.80 458.77 330.36 307.36 256.57 252.15 225.66 173.46 96.24 73.26 50.61 58.37 66.18 70.02 107.18 145.13 217.52 281.77 297.14 323.55 326.92 250.22 204.50 159.07 90.34 127.21 157.82 136.90 134.03 161.66 134.97 131.83 127.58 123.62 121.94 121.64 123.22 129.88 145.61 156.57 170.67 180.51 192.44 201.49 210.21 225.80 229.85 233.00 236.12 241.09 243.93 247.16 252.68 324.02 568.55 1145.57 1702.42 2216.36 3841.19 5634.47 6160.40 3760.54 2417.10 1661.20 1317.84 293.44 261.79 235.00 211.42 145.32 23.42 -124.95 -342.07 -718.28 -1196.92 -1472.71 -1633.53 -1741.76 -1838.24 -1870.09 -1875.02 -1900.10 -2002.27 -2200.16 -2461.07 -2952.02 -3366.60 -3790.38 -3839.20 -3857.36 -3857.41 -3855.40 -3855.47
-5575.20 -5576.02 -5576.20 -5576.12 -5576.19 -5576.70 -5576.59 -5570.78 -5559.91 -5557.26 -5555.46 -5553.55 -5551.82 -5551.22 -5557.76 -5565.52 -5567.17 -5564.87 -5562.70 -5562.05 -5560.75 -5559.59 -5558.89 -5552.58 -5552.14 -5517.77 -5426.57 -4660.81 -3943.79 -2932.79 -1185.43 -958.46 -249.37 26.53 275.68 289.71 308.95 332.63 354.46 393.80 411.81 443.11 465.87 507.15 585.23 691.83 755.48 739.95 561.35 399.55 327.95 296.09 257.80 252.32 250.20 209.26 161.96 110.85 114.44 101.87 135.46 177.07 233.60 270.44 295.73 314.74 298.64 291.84 212.49 189.76 126.45 107.13 115.20 104.31 121.07 128.95 121.97 138.56 129.86 123.78 126.28 122.35 121.68 121.30 122.87 131.27 145.85 157.08 167.08 178.70 193.64 201.59 209.26 221.19 223.73 231.65 234.72 236.41 240.06 244.98 251.63 268.46 341.51 710.19 1179.50 2795.55 3923.55 7654.95 7780.19 4794.64 3485.86 3127.34 1990.86 310.37 260.20 241.73 225.85 185.18 77.47 -84.90 -377.34 -757.84 -977.71 -1423.68 -1513.23 -1750.53 -1824.98 -1873.10 -1883.96 -1913.33 -1976.67 -2073.33 -2278.11 -2606.38 -2947.12 -3631.65 -3815.38 -3855.33 -3857.69 -3857.45 -3857.60
-5564.23 -5564.17 -5564.05 -5566.72 -5567.97 -5568.04 -5564.95 -5563.65 -5554.41 -5551.05 -5550.15 -5550.16 -5548.43 -5549.80 -5559.39 -5565.22 -5567.91 -5566.19 -5566.37 -5566.74 -5566.96 -5564.78 -5556.90 -5545.26 -5457.92 -5397.62 -5168.40 -3810.35 -3086.24 -1535.86 -952.63 -514.26 0.99 175.84 255.34 302.81 313.82 333.68 363.94 393.64 427.17 466.71 493.98 534.46 583.87 666.45 732.76 720.24 653.13 531.57 384.85 340.65 281.72 264.01 253.57 234.52 205.00 170.85 169.56 219.21 269.63 312.08 342.71 335.74 331.28 287.15 237.97 127.37 100.47 97.17 89.90 87.46 96.80 100.75 122.34 125.30 122.38 125.37 122.25 118.99 122.22 121.46 120.56 120.53 122.86 125.99 135.55 148.76 169.11 182.15 191.51 201.81 210.42 217.97 222.12 227.43 231.79 234.87 238.95 243.23 250.11 255.50 270.80 769.06 1965.62 2921.49 4954.62 7187.96 7501.21 4847.78 3763.63 3606.88 2083.85 478.15 280.18 249.93 238.42 206.71 81.72 -1.53 -295.89 -659.79 -1094.12 -1309.98 -1402.81 -1751.34 -1825.79 -1877.07 -1889.58 -1914.85 -1982.87 -2046.67 -2185.90 -2452.64 -2855.33 -3501.77 -3740.51 -3841.83 -3861.20 -3860.62 -3860.68
-5553.02 -5552.95 -5551.50 -5555.27 -5556.14 -5559.17 -5557.22 -5557.46 -5550.07 -5544.72 -5545.25 -5546.31 -5546.38 -5546.93 -5552.01 -5563.78 -5569.16 -5567.54 -5568.35 -5568.05 -5566.63 -5552.80 -5472.09 -5444.78 -5158.75 -4533.29 -3885.66 -2751.32 -1984.48 -763.56 -429.41 -147.46 101.26 226.69 293.39 307.80 323.55 331.57 361.04 395.52 422.29 476.69 506.21 528.03 577.03 620.16 711.52 756.17 677.52 561.63 449.69 324.43 304.44 279.63 257.94 257.77 237.43 222.38 276.17 299.90 330.66 362.84 379.39 348.19 291.50 239.18 164.13 117.96 85.07 100.98 105.14 112.40 111.60 111.53 111.29 106.62 102.01 122.00 121.96 122.23 120.52 118.44 119.73 119.55 121.06 127.57 133.32 146.58 162.26 179.64 190.39 200.43 206.26 215.39 219.90 222.34 227.63 233.37 237.91 239.63 245.39 249.96 265.02 732.34 1633.44 1820.38 4534.67 6930.41 7529.46 6195.39 3151.21 2063.29 1174.69 893.11 278.15 255.80 236.23 208.75 176.77 60.92 -104.08 -440.62 -709.75 -1053.83 -1433.18 -1648.29 -1853.37 -1875.29 -1885.73 -1915.69 -1960.59 -2040.47 -2237.35 -2452.41 -2857.23 -3166.75 -3680.72 -3823.63 -3853.60 -3861.68 -3861.75
-5542.12 -5542.06 -5543.24 -5544.98 -5546.86 -5549.04 -5551.69 -5548.67 -5542.59 -5541.79 -5542.53 -5545.25 -5546.96 -5548.91 -5549.93 -5553.22 -5550.12 -5544.74 -5548.67 -5529.19 -5507.73 -5451.64 -5347.19 -5013.66 -4152.83 -3855.67 -2476.38 -1641.64 -741.09 -340.61 -128.74 94.02 207.05 283.61 302.93 309.40 349.28 370.10 393.83 459.30 511.58 497.24 527.04 583.53 603.62 660.42 720.05 747.00 691.97 572.82 476.38 355.99 325.16 301.52 290.82 280.37 282.65 292.28 301.53 358.02 399.68 405.18 354.37 299.90 267.09 210.04 110.40 100.25 88.44 102.39 108.32 109.98 110.65 107.62 108.51 106.11 112.34 119.86 118.11 120.08 119.05 118.08 119.11 118.42 120.71 129.26 143.69 147.98 165.36 180.17 185.47 197.36 205.92 211.97 217.75 220.71 226.12 232.31 234.98 237.66 243.93 247.65 255.78 410.71 1213.45 1654.15 3162.45 3886.96 6695.64 6999.24 5082.88 2946.99 2271.84 974.90 273.46 252.15 229.11 189.54 157.07 64.54 -57.00 -394.84 -668.98 -985.04 -1293.55 -1649.68 -1821.91 -1865.80 -1887.81 -1914.95 -1975.10 -2056.07 -2178.42 -2472.55 -2805.81 -3125.85 -3402.36 -3744.61 -3830.26 -3862.09 -3862.16
-5531.91 -5532.80 -5533.11 -5537.91 -5538.91 -5540.22 -5541.26 -5541.74 -5539.22 -5538.32 -5539.17 -5543.96 -5548.11 -5551.03 -5548.81 -5537.52 -5534.87 -5533.76 -5532.30 -5436.00 -5322.83 -5040.33 -4451.80 -3831.97 -3248.42 -2425.66 -1953.80 -1017.67 -611.84 -223.96 21.64 184.97 267.00 290.48 300.31 345.08 372.95 399.07 449.91 467.07 556.61 618.61 612.33 620.00 633.45 663.57 673.96 663.55 628.15 569.05 446.28 365.62 339.87 315.43 301.84 298.14 297.21 304.91 350.08 444.03 469.05 409.35 333.98 285.36 206.67 155.22 89.81 106.33 96.61 106.36 108.90 107.33 109.14 109.27 108.23 109.34 113.44 117.97 117.83 116.61 116.82 116.74 117.39 117.38 120.07 126.62 139.66 146.08 163.42 173.71 185.34 192.61 201.68 207.63 216.06 222.00 226.04 231.32 233.46 237.07 241.96 248.56 258.04 433.18 919.08 1527.97 3349.17 5454.92 7519.75 6798.81 4370.89 2821.46 1954.93 863.50 372.31 243.32 220.23 177.99 154.91 66.15 -68.88 -331.26 -728.29 -801.94 -1224.94 -1557.14 -1715.74 -1837.55 -1893.62 -1911.14 -1938.53 -2045.51 -2201.04 -2354.48 -2566.79 -2914.75 -3355.35 -3684.05 -3807.69 -3841.08 -3841.13
-5522.89 -5522.82 -5524.14 -5526.67 -5526.34 -5533.53 -5534.56 -5534.90 -5530.66 -5532.68 -5537.02 -5542.43 -5547.04 -5551.63 -5545.72 -5518.94 -5511.80 -5489.23 -5285.34 -5216.10 -4752.84 -4230.68 -3593.48 -2587.45 -2077.69 -1681.04 -1506.76 -1038.51 -442.75 41.90 169.78 265.88 282.19 295.62 321.56 352.40 394.16 412.38 445.47 507.16 578.34 637.93 661.21 645.18 640.15 613.62 595.38 587.95 525.71 528.75 447.82 390.99 356.36 330.91 318.29 320.57 315.66 334.99 401.78 435.74 385.18 347.99 327.29 247.27 163.79 111.96 93.39 122.82 103.06 108.15 109.32 104.51 105.15 106.82 111.33 115.00 116.52 117.89 117.60 116.03 116.44 116.81 116.04 115.97 118.90 120.76 129.63 145.60 159.22 170.81 180.58 190.37 201.73 208.55 213.54 222.28 225.69 229.89 233.55 237.20 243.05 248.22 265.30 425.08 1143.64 1663.67 3081.40 5993.47 7241.40 6682.26 4611.55 2288.86 1684.22 678.52 372.98 259.11 222.56 188.52 140.90 5.13 -210.42 -249.16 -475.32 -811.19 -1043.07 -1580.09 -1766.11 -1811.20 -1870.55 -1904.27 -1934.04 -2013.18 -2216.50 -2371.69 -2588.13 -2885.37 -3334.43 -3610.79 -3779.32 -3835.93 -3836.00
-5515.58 -5515.51 -5516.15 -5519.36 -5521.39 -5524.28 -5525.78 -5528.48 -5525.99 -5530.64 -5535.28 -5539.13 -5546.47 -5541.37 -5514.41 -5467.42 -5313.83 -5153.07 -4751.94 -4100.52 -3500.41 -3215.00 -2251.45 -1723.45 -1637.70 -1346.49 -1019.66 -622.15 -26.92 177.02 278.71 295.07 303.92 309.57 339.04 376.85 407.96 468.36 486.67 496.31 604.94 645.19 659.46 630.19 575.61 556.72 551.00 527.99 489.00 476.83 457.70 415.64 355.21 341.24 333.33 331.59 331.89 360.60 401.31 413.04 369.57 331.28 304.81 226.83 188.63 121.89 116.11 112.22 93.99 110.77 111.03 107.75 103.43 104.17 108.05 111.83 115.45 115.77 115.63 115.19 115.66 115.62 114.82 115.29 118.40 120.85 128.92 146.11 161.11 170.43 176.65 189.11 199.25 208.66 214.17 220.77 227.34 230.31 232.83 235.01 239.06 244.12 267.80 405.54 1320.11 1171.93 2043.15 3668.20 6433.08 7823.99 4233.17 2053.65 1860.59 1163.15 308.05 255.17 233.04 205.56 87.04 -30.05 -290.33 -430.14 -620.40 -933.72 -1163.37 -1493.54 -1707.93 -1779.39 -1862.36 -1903.41 -1936.90 -1964.99 -2142.67 -2419.43 -2587.43 -2832.47 -3164.14 -3583.73 -3679.99 -3770.01 -3770.03
-5510.71 -5511.04 -5511.93 -5513.75 -5517.08 -5519.25 -5523.61 -5525.22 -5523.81 -5528.32 -5533.34 -5530.45 -5513.34 -5477.12 -5425.58 -5121.16 -4758.00 -3982.17 -3407.85 -3037.97 -2899.51 -1842.74 -1676.08 -1416.99 -1283.14 -1046.42 -714.09 -252.05 125.68 277.25 291.15 304.46 324.65 341.41 353.10 402.13 409.35 485.32 541.16 549.34 576.58 628.54 634.83 604.84 564.99 517.47 506.01 497.59 463.34 442.39 420.02 402.61 369.09 352.95 348.26 343.97 347.76 371.39 377.41 363.07 329.22 314.12 278.04 224.36 210.14 124.93 125.60 111.90 101.54 105.82 112.97 109.06 107.00 109.70 108.62 110.63 111.82 113.62 114.20 114.50 115.03 114.83 114.16 114.92 119.64 126.63 132.39 146.84 154.69 168.50 178.23 184.85 194.79 207.07 210.45 219.29 225.24 230.08 233.12 234.86 237.76 241.41 284.89 352.67 819.98 1978.09 3366.45 5158.64 6724.05 7248.78 5349.67 3663.41 2305.11 1367.18 319.91 259.25 240.77 218.63 65.60 -146.93 -315.08 -577.02 -703.45 -1019.84 -1312.52 -1529.59 -1663.87 -1806.82 -1857.16 -1892.57 -1904.87 -1967.46 -2086.88 -2275.09 -2514.13 -2719.52 -3106.75 -3381.52 -3633.08 -3755.81 -3755.88
-5507.79 -5507.72 -5506.76 -5510.02 -5511.61 -5516.24 -5521.46 -5524.58 -5535.13 -5532.70 -5521.40 -5479.64 -5420.32 -5176.12 -4678.88 -4135.26 -3357.75 -2926.96 -2334.65 -1906.38 -1525.90 -1330.87 -1300.88 -1205.03 -1083.44 -900.76 -294.29 127.68 238.63 292.79 305.34 316.54 334.08 376.10 374.64 385.84 434.97 483.44 532.84 562.11 618.89 637.31 620.99 593.25 548.97 504.10 479.44 453.45 436.07 424.29 404.27 391.31 372.16 361.24 359.80 358.15 359.51 366.83 366.72 362.28 342.01 319.01 299.34 268.40 249.15 200.39 165.18 119.35 95.85 100.22 106.75 106.29 108.70 111.03 109.69 109.80 110.29 111.31 113.91 115.33 113.86 114.05 114.36 114.75 118.80 127.19 135.81 141.82 150.53 162.31 171.98 184.85 192.38 202.19 208.81 217.17 225.57 229.31 234.09 235.84 237.08 241.38 297.76 344.22 660.94 1599.61 3292.06 5670.00 7239.97 6013.99 3874.21 3231.65 2069.83 1305.55 320.70 264.73 241.50 180.88 54.65 -158.24 -275.82 -603.29 -859.38 -1066.20 -1404.22 -1559.22 -1700.76 -1796.59 -1847.38 -1879.13 -1905.13 -1935.40 -2090.66 -2274.66 -2495.43 -2811.62 -3004.79 -3389.69 -3635.72 -3754.42 -3754.75
-5496.50 -5496.43 -5500.91 -5502.07 -5504.18 -5507.70 -5518.11 -5527.86 -5546.50 -5531.88 -5486.76 -5313.23 -4891.28 -4697.42 -4080.49 -3261.65 -2684.60 -2026.55 -1657.60 -1513.48 -1291.75 -1198.33 -1175.13 -1140.53 -1022.06 -519.96 -71.58 208.38 286.35 300.59 315.61 333.71 361.49 385.99 447.30 450.41 457.84 494.22 505.64 568.90 610.84 642.15 624.13 587.40 541.34 510.34 461.22 440.72 426.14 413.36 395.89 381.34 372.98 366.41 368.45 369.05 374.53 386.66 384.53 375.67 390.86 342.71 279.56 261.03 259.41 243.61 200.70 116.69 99.41 106.57 110.41 109.35 110.00 111.46 110.81 110.25 110.24 110.84 116.01 116.52 113.14 113.77 114.59 114.49 118.62 124.47 131.34 138.48 147.90 155.97 164.43 180.65 189.35 197.33 207.30 212.49 222.58 229.11 235.75 236.87 238.43 241.65 287.66 386.02 1434.40 2649.44 3037.86 5387.46 7031.85 6592.78 4269.46 3436.36 1383.24 645.71 337.84 257.49 238.87 201.00 96.17 -88.63 -217.61 -522.64 -684.22 -1059.12 -1344.09 -1595.08 -1748.93 -1826.78 -1850.04 -1866.56 -1888.09 -1938.11 -2035.29 -2227.67 -2445.47 -2696.66 -3017.93 -3214.71 -3553.42 -3753.88 -3753.95
-5506.57 -5506.48 -5505.96 -5505.80 -5509.19 -5511.73 -5517.69 -5528.10 -5546.83 -5527.16 -5422.75 -5088.71 -4355.36 -3513.68 -2593.31 -2367.61 -2000.45 -1806.70 -1569.63 -1412.25 -1253.37 -1160.19 -1146.32 -1101.31 -873.78 -408.36 -35.74 243.21 303.04 325.48 350.02 363.03 375.70 409.62 461.34 498.26 538.84 547.14 554.78 604.54 627.00 632.55 640.93 606.55 548.18 523.95 455.51 427.22 417.71 395.58 378.24 372.12 367.25 365.04 370.00 377.86 384.81 409.12 426.63 417.00 432.84 391.98 343.63 297.33 276.69 253.31 215.86 126.68 99.32 109.01 115.63 111.09 109.77 111.39 110.88 110.19 109.38 112.17 116.93 116.76 114.43 112.93 113.94 114.25 121.66 125.15 130.25 136.92 148.18 155.14 165.65 172.72 182.61 191.37 202.46 211.92 222.93 233.02 237.46 240.62 241.25 245.05 272.07 559.05 2420.94 3118.86 4962.70 5926.73 6983.15 5729.14 4278.53 3860.10 1849.72 633.60 302.49 258.38 246.88 194.53 135.59 1.30 -185.75 -503.38 -690.61 -1104.09 -1382.83 -1630.26 -1751.52 -1817.94 -1841.31 -1863.46 -1886.38 -1918.02 -2027.95 -2160.61 -2375.18 -2739.85 -3148.29 -3339.17 -3622.55 -3754.02 -3754.09
-5527.74 -5527.02 -5524.99 -5518.02 -5517.51 -5515.81 -5511.40 -5522.20 -5508.06 -5471.41 -5227.57 -4795.67 -3619.71 -2873.93 -2262.37 -1943.39 -1860.63 -1778.88 -1605.56 -1403.04 -1281.01 -1197.33 -1171.47 -1107.92 -798.56 -323.74 80.64 284.05 338.82 335.66 357.92 371.81 394.43 419.02 455.23 494.15 575.44 609.23 590.20 596.37 630.76 649.22 634.93 585.42 543.22 483.07 442.82 423.11 407.71 376.73 369.78 362.05 353.84 366.63 374.69 393.98 416.78 447.53 469.83 433.74 471.31 533.36 411.95 351.10 321.61 271.47 191.58 98.19 98.63 131.97 112.40 107.19 109.56 110.40 108.83 107.61 107.96 115.36 116.71 116.57 115.19 113.63 113.50 115.88 120.70 126.19 130.55 137.23 143.78 152.34 161.05 172.91 183.09 192.51 201.87 208.87 220.43 236.72 242.50 243.42 243.69 251.12 281.69 746.98 1845.56 3035.11 5318.74 7129.75 7211.09 5116.92 2929.76 3962.47 1589.40 379.64 305.79 252.46 229.91 205.59 120.26 64.24 -126.19 -279.79 -576.51 -1009.62 -1280.60 -1595.28 -1716.34 -1801.02 -1844.79 -1861.96 -1901.31 -1941.53 -2042.58 -2202.76 -2435.52 -2765.06 -3171.12 -3582.33 -3786.53 -3832.87 -3833.01
-5554.46 -5554.36 -5545.69 -5519.63 -5500.91 -5479.92 -5405.98 -5375.71 -5356.27 -4944.97 -4457.52 -3918.42 -3190.81 -2264.93 -1976.93 -1802.76 -1820.87 -1787.29 -1590.78 -1347.33 -1270.21 -1229.60 -1185.93 -1124.12 -887.95 -476.01 -57.69 228.01 347.97 364.98 380.75 388.98 411.62 446.93 480.70 527.80 576.06 596.19 600.28 620.17 635.77 638.48 598.27 588.73 563.96 474.70 433.12 394.56 380.54 374.33 358.27 342.90 345.75 362.37 380.29 395.09 437.10 471.44 510.94 521.44 538.40 548.32 446.02 377.66 369.95 298.22 252.36 222.63 189.48 153.53 120.81 111.05 105.38 104.06 107.63 110.41 115.48 117.49 116.40 116.45 116.55 113.02 112.49 114.05 118.56 127.61 133.29 137.13 141.93 150.09 160.50 172.75 184.16 196.68 204.25 213.17 224.80 232.07 242.47 250.83 252.39 282.77 512.18 894.80 1698.93 2232.15 3345.72 5681.17 6475.84 4564.33 2091.14 1222.03 830.64 325.07 273.57 247.44 226.65 205.08 141.95 61.31 -49.43 -224.90 -701.59 -1047.62 -1203.61 -1510.33 -1609.11 -1750.72 -1819.78 -1863.76 -1924.57 -1984.12 -2105.94 -2307.69 -2605.30 -2821.19 -3259.64 -3441.65 -3797.52 -3843.85 -3843.93
-5540.66 -5539.02 -5445.51 -5245.96 -5196.03 -5178.67 -4993.47 -4610.00 -4424.40 -4024.33 -3345.79 -2610.05 -2488.88 -2142.85 -1976.60 -1867.59 -1852.20 -1776.96 -1524.16 -1165.58 -1110.54 -1043.71 -1034.95 -1003.57 -842.84 -317.95 119.06 263.14 325.54 347.76 377.49 402.96 438.05 467.29 502.26 543.91 589.29 609.49 626.29 619.81 625.59 642.02 595.24 547.26 485.76 447.06 388.94 370.46 370.57 342.08 338.49 333.44 343.08 366.63 395.25 419.17 470.90 526.27 561.39 582.64 587.10 550.57 480.17 453.34 446.30 323.12 275.57 254.88 239.71 167.99 126.12 110.16 104.02 112.75 116.67 118.01 117.84 118.00 116.88 113.68 113.13 111.85 111.86 112.66 116.84 124.40 131.08 137.46 145.18 152.27 159.88 172.38 181.64 196.77 205.49 212.07 224.66 233.29 245.64 255.00 257.49 405.76 717.52 2078.86 2759.17 3836.18 4918.09 6079.48 6764.50 4616.96 2808.34 2043.46 854.11 318.41 274.82 243.20 228.75 200.03 145.29 90.88 -35.05 -291.08 -567.97 -858.25 -1169.80 -1487.76 -1666.57 -1775.67 -1830.00 -1874.41 -1939.16 -2079.24 -2225.00 -2364.15 -2678.17 -3019.81 -3300.27 -3512.28 -3750.43 -3865.12 -3865.23
-5035.09 -5035.60 -4648.95 -4569.94 -4422.82 -4038.74 -3820.95 -3380.12 -2961.27 -2628.68 -2575.07 -2312.48 -2141.17 -2056.50 -2029.40 -2003.84 -1941.47 -1762.32 -1454.59 -1115.35 -741.77 -597.95 -728.94 -768.12 -507.48 18.49 226.52 265.85 316.11 332.39 367.28 415.43 452.15 511.79 522.85 552.74 591.41 618.37 629.13 600.07 593.11 614.13 591.01 566.46 497.77 419.60 386.64 354.11 333.89 321.08 318.32 317.01 326.20 344.39 357.43 401.01 450.15 497.98 552.66 589.50 572.17 521.32 536.27 528.51 462.60 324.16 281.30 273.48 254.59 228.67 166.68 105.87 100.90 121.14 118.27 116.65 116.27 117.09 117.97 113.87 111.04 111.23 111.35 111.98 115.21 118.15 127.96 139.79 151.67 152.54 162.24 173.88 183.16 197.44 208.70 214.09 226.42 236.64 249.32 262.91 312.84 547.00 1413.49 2168.88 2749.53 4074.68 5412.29 6754.33 6131.11 4528.33 3164.86 2213.55 566.78 280.04 247.13 240.02 232.05 213.14 177.72 97.24 -52.74 -269.82 -540.62 -886.60 -1153.86 -1414.78 -1638.89 -1764.36 -1839.77 -1888.37 -1924.85 -2024.43 -2183.54 -2462.74 -2809.96 -3118.22 -3511.00 -3638.24 -3801.05 -3848.24 -3848.31
-3560.95 -3562.97 -3523.96 -3207.07 -3257.69 -2665.35 -2602.28 -2366.72 -2332.75 -2170.98 -2069.93 -2053.42 -2042.05 -2040.28 -2044.29 -2052.03 -2019.42 -1873.55 -1471.31 -1145.42 -643.81 -463.50 -411.06 -490.72 -272.00 70.99 225.69 286.60 311.45 327.88 358.92 426.93 459.63 529.14 578.93 599.72 619.57 640.91 599.96 568.57 586.16 590.56 531.32 481.08 445.79 385.08 360.79 340.78 328.45 309.87 307.45 302.84 305.81 334.89 340.49 385.07 411.43 467.62 496.24 553.77 561.65 501.30 487.60 454.56 414.86 346.68 307.58 287.61 258.23 255.47 198.56 105.04 108.69 126.72 119.92 110.87 110.75 110.75 114.61 113.51 111.91 111.52 110.43 110.37 111.53 115.46 124.23 139.24 147.48 163.44 171.12 179.76 195.15 204.73 218.22 226.00 233.35 246.50 260.59 271.21 391.02 1136.88 1978.46 1904.87 3081.80 4752.19 5898.86 5750.05 4981.73 3053.34 2776.43 1132.52 452.73 262.77 248.54 242.23 236.21 216.17 183.08 68.83 -46.52 -255.51 -541.87 -880.73 -1055.50 -1387.11 -1655.93 -1820.35 -1845.10 -1886.42 -1933.03 -1993.14 -2207.76 -2547.58 -3011.70 -3325.58 -3595.36 -3799.65 -3816.71 -3845.99 -3846.08
-2369.51 -2371.58 -2407.66 -2506.48 -2346.12 -2267.62 -2168.77 -2089.47 -2049.45 -2027.51 -2024.64 -2021.36 -2028.83 -2037.84 -2053.03 -2076.72 -2076.26 -1988.82 -1791.44 -1287.94 -716.72 -366.75 -209.53 -210.77 -95.47 90.63 191.64 275.53 299.43 338.02 374.51 444.21 523.00 575.13 617.07 630.21 628.65 634.09 600.11 543.56 580.53 586.87 566.02 467.36 436.25 368.43 351.02 327.17 313.16 296.03 299.05 297.05 294.33 306.30 333.41 348.17 402.97 433.78 482.69 486.55 525.25 505.77 481.28 391.98 380.42 365.69 344.13 294.12 271.19 267.37 216.04 138.91 136.10 128.22 122.19 114.40 115.61 116.76 112.58 114.03 112.99 110.64 109.19 108.49 110.57 114.02 125.38 140.53 154.04 163.08 174.00 182.41 199.64 218.22 229.18 232.66 240.68 246.20 290.39 375.00 499.54 2070.00 3155.27 3249.17 4634.56 5903.81 6088.84 5638.02 4384.03 2000.60 1348.52 632.80 311.89 267.72 248.78 245.51 236.41 212.88 171.54 106.05 -14.60 -239.40 -477.62 -854.66 -1020.13 -1458.18 -1659.04 -1826.97 -1856.70 -1868.79 -1898.81 -2045.72 -2369.67 -2775.49 -3221.47 -3554.15 -3784.63 -3812.12 -3846.30 -3845.60 -3845.69
-2085.51 -2086.10 -2116.34 -2118.10 -2083.18 -2058.36 -2052.31 -2044.86 -2030.43 -2024.72 -2023.37 -2027.14 -2035.87 -2043.22 -2062.09 -2093.27 -2086.51 -2033.60 -1895.38 -1244.90 -1056.53 -536.55 -251.94 -148.75 -79.45 45.05 157.72 254.54 296.59 306.18 376.00 433.43 513.85 557.82 625.07 594.41 580.44 614.25 581.41 545.56 568.01 598.02 583.57 470.03 403.54 342.82 334.60 315.64 294.51 287.13 284.66 279.67 280.96 290.67 301.03 330.98 356.65 400.71 452.11 493.27 555.48 544.61 459.77 427.41 440.59 406.54 389.72 369.61 312.08 283.14 245.65 184.98 125.94 103.98 114.53 120.44 104.56 103.10 101.59 111.34 112.22 109.45 107.38 106.24 107.08 109.74 122.44 139.51 151.49 169.06 172.29 191.89 200.70 217.29 227.14 240.15 241.02 252.75 299.54 468.94 995.82 2606.27 4148.48 5309.15 6911.15 6529.23 5372.59 3960.86 2553.91 2343.49 968.28 407.45 332.94 274.26 249.24 244.88 235.77 212.87 167.57 79.11 -35.62 -262.95 -597.15 -885.37 -1175.38 -1478.00 -1734.67 -1825.38 -1857.91 -1874.74 -1950.33 -2089.68 -2309.23 -2786.17 -3354.29 -3566.68 -3800.44 -3835.07 -3845.28 -3845.12 -3845.22
-2082.07 -2081.95 -2084.10 -2078.23 -2072.60 -2063.43 -2056.69 -2045.02 -2040.75 -2036.20 -2034.00 -2035.38 -2042.53 -2052.16 -2066.71 -2092.73 -2091.95 -2063.20 -1858.96 -1444.49 -854.55 -510.47 -256.35 -109.24 -84.25 1.58 128.97 184.79 284.29 293.27 341.72 395.08 424.65 525.94 578.85 486.26 510.84 590.23 582.73 506.68 488.01 505.00 495.23 468.54 356.37 330.12 305.35 287.20 279.76 274.56 265.82 263.23 269.39 282.03 297.72 320.43 345.25 405.43 481.96 524.99 540.79 541.33 490.10 490.43 460.08 424.07 458.57 379.47 328.72 325.74 302.14 229.07 121.64 96.29 105.53 104.63 92.71 99.82 103.19 106.56 109.35 106.73 105.15 105.46 106.27 109.94 118.28 131.08 150.58 166.08 179.31 193.72 204.78 217.44 228.66 239.90 246.03 257.82 321.99 1023.37 2169.18 2480.33 3082.60 5173.86 7656.87 7072.78 5286.24 2457.52 1870.62 1633.14 707.88 404.62 295.18 257.44 247.74 245.10 239.24 210.24 172.62 60.01 -173.18 -287.47 -736.14 -1047.64 -1345.17 -1527.88 -1776.40 -1826.61 -1849.88 -1885.87 -1961.11 -2111.96 -2416.89 -2767.70 -3322.65 -3647.75 -3788.54 -3823.29 -3841.06 -3844.99 -3845.08
-2100.25 -2100.25 -2096.45 -2092.85 -2084.70 -2074.72 -2067.16 -2067.78 -2055.08 -2048.89 -2049.88 -2046.39 -2048.10 -2052.16 -2071.59 -2086.31 -2083.54 -1984.61 -1777.65 -1412.01 -919.11 -522.92 -298.69 -129.38 -113.92 -20.26 25.31 93.75 236.82 296.71 333.82 337.78 366.10 496.04 547.61 473.66 421.55 470.53 546.96 456.36 420.11 456.78 423.00 412.71 333.96 294.86 288.65 267.37 258.13 257.52 257.72 259.65 262.46 278.76 292.27 312.35 341.99 411.19 454.12 504.34 539.37 543.68 522.69 498.19 476.72 467.08 496.74 458.36 407.99 410.99 359.02 290.60 208.89 101.00 97.44 96.19 99.61 100.35 105.29 104.81 105.10 104.72 103.72 104.52 106.94 110.00 118.16 133.82 155.18 167.08 181.64 198.73 209.94 217.11 228.15 238.66 250.79 267.04 419.00 1618.91 3122.99 3633.13 4034.81 5986.50 6689.46 5240.24 2816.21 2335.93 1189.21 664.15 365.04 257.05 250.03 248.92 246.91 239.30 231.20 194.43 144.87 46.77 -195.68 -432.96 -844.12 -1063.25 -1415.43 -1573.56 -1709.93 -1819.99 -1850.74 -1871.09 -1916.79 -2076.15 -2332.31 -2558.70 -3244.13 -3626.20 -3791.67 -3820.00 -3838.24 -3845.84 -3845.93
-2126.93 -2127.42 -2127.32 -2117.84 -2118.81 -2102.42 -2090.93 -2082.50 -2064.77 -2056.95 -2069.84 -2071.99 -2068.48 -2067.68 -2074.55 -2084.27 -2049.24 -1907.75 -1675.81 -1261.42 -604.68 -394.68 -254.04 -212.92 -165.02 -76.64 -73.27 29.43 183.84 267.36 330.84 333.01 380.76 446.08 519.79 458.90 379.66 429.99 467.54 470.71 388.33 384.95 360.96 337.77 291.20 283.06 273.46 255.80 252.42 253.67 254.64 258.27 266.57 285.60 296.74 307.59 335.58 365.17 431.54 461.32 542.67 563.76 565.60 532.51 525.36 525.02 520.42 520.63 502.47 491.01 378.69 302.74 258.07 126.18 90.27 96.98 101.15 99.50 105.28 106.44 104.05 103.10 102.73 103.15 103.73 112.09 124.81 140.90 160.82 176.95 192.32 203.83 211.61 220.38 227.35 242.42 260.52 470.20 1007.08 1696.75 2241.55 4810.99 5741.92 6976.50 6646.44 4222.58 2829.03 2203.19 981.50 378.33 287.34 257.80 247.99 247.77 247.55 239.42 213.46 192.71 126.08 -2.17 -178.14 -443.94 -789.26 -1001.49 -1348.27 -1624.56 -1746.02 -1838.59 -1852.84 -1857.77 -1879.54 -1987.05 -2173.02 -2677.64 -3006.08 -3501.41 -3803.73 -3827.35 -3837.93 -3847.05 -3847.14
-2174.24 -2174.19 -2163.13 -2152.10 -2148.98 -2140.65 -2132.36 -2126.18 -2126.75 -2118.21 -2100.39 -2086.80 -2082.58 -2092.00 -2089.48 -2077.81 -2020.24 -1845.73 -1362.65 -847.69 -493.79 -299.95 -259.52 -250.01 -220.84 -95.02 -78.98 -7.79 157.78 261.66 298.65 319.71 343.85 381.75 406.87 331.27 332.02 379.45 385.33 373.68 362.37 337.36 307.90 290.36 288.45 277.63 263.33 240.90 234.76 246.84 252.54 255.57 262.46 278.91 293.63 310.62 332.33 379.90 429.60 465.56 515.63 535.58 525.05 526.45 522.97 507.13 505.72 481.47 442.60 397.39 337.96 285.84 243.88 189.33 101.58 107.05 105.60 104.18 104.20 103.96 101.82 102.06 102.23 102.85 105.26 112.53 127.73 143.17 162.21 185.94 196.32 204.04 213.32 222.44 235.02 258.05 378.86 492.11 2202.53 2671.52 3176.61 4959.42 6902.10 6078.49 4397.06 4178.79 2914.67 2028.93 727.23 367.87 327.96 265.24 266.01 245.85 245.66 229.31 200.87 182.74 88.14 -61.98 -213.49 -375.50 -719.68 -957.96 -1396.61 -1632.05 -1792.80 -1835.34 -1847.32 -1854.62 -1894.03 -1963.81 -2139.21 -2557.35 -2910.50 -3344.78 -3705.74 -3820.66 -3834.06 -3847.64 -3847.73
-2187.90 -2187.82 -2180.04 -2173.59 -2163.65 -2156.61 -2140.36 -2134.44 -2132.25 -2125.31 -2115.96 -2106.82 -2102.05 -2097.70 -2092.70 -2069.72 -1989.63 -1751.21 -1109.43 -756.83 -471.93 -278.51 -226.80 -237.90 -231.25 -120.27 -64.11 -29.75 121.59 223.05 254.24 296.54 298.10 349.33 344.99 326.87 320.66 313.59 311.42 299.67 292.10 289.77 291.62 276.52 253.23 246.96 243.25 213.12 209.49 229.56 249.21 254.67 263.94 285.79 296.23 308.47 329.33 365.37 439.24 469.74 489.98 496.60 473.83 464.68 470.59 447.94 420.02 444.80 410.86 334.58 309.81 286.12 233.47 186.61 117.17 119.78 117.71 120.00 108.66 102.52 101.27 101.18 101.24 101.59 105.85 112.40 128.94 146.68 169.63 183.20 196.67 210.79 219.16 223.60 235.77 267.85 438.84 1531.11 2675.13 4011.82 5279.58 7240.31 7326.87 4611.96 2622.22 3296.14 2279.59 1267.49 495.01 352.81 321.06 283.04 264.99 244.76 242.74 217.51 193.78 120.39 44.21 -112.42 -259.22 -428.94 -694.97 -1098.85 -1398.88 -1716.00 -1810.27 -1836.09 -1843.74 -1853.97 -1916.33 -2016.02 -2120.38 -2375.14 -2869.03 -3522.47 -3822.96 -3832.84 -3838.58 -3848.88 -3848.97
-2193.72 -2193.63 -2185.88 -2179.03 -2171.96 -2161.28 -2148.78 -2142.01 -2138.03 -2127.92 -2115.47 -2107.08 -2099.14 -2089.39 -2084.71 -2054.23 -1959.60 -1785.85 -1211.71 -813.10 -516.32 -309.04 -228.91 -211.43 -210.70 -111.55 -66.20 -48.74 -38.80 20.19 155.00 241.02 289.44 305.86 308.05 310.54 303.79 292.97 280.71 273.21 243.79 246.08 263.65 272.01 240.87 222.06 201.28 189.98 194.68 226.23 245.11 269.24 277.40 286.35 308.09 322.46 341.19 359.92 398.33 450.09 455.53 445.12 451.72 447.95 429.73 414.43 400.95 367.01 353.93 310.01 295.22 281.08 242.24 209.68 148.25 136.40 122.69 127.17 120.01 100.36 100.25 100.43 100.62 101.21 104.40 118.97 135.88 146.10 167.96 186.50 200.13 218.73 227.73 234.99 251.44 289.31 810.08 2090.09 2788.28 4563.99 6730.26 7684.35 6246.04 4331.21 2399.50 1836.27 1713.17 457.47 373.74 324.70 301.81 278.12 254.10 249.57 246.97 229.06 184.61 86.40 -18.38 -177.88 -334.51 -602.28 -864.14 -1329.36 -1618.83 -1779.28 -1820.36 -1836.75 -1842.80 -1860.64 -1934.64 -2022.39 -2190.85 -2488.90 -2989.99 -3672.66 -3826.13 -3840.72 -3844.54 -3848.69 -3848.78
-2196.99 -2196.90 -2189.94 -2184.19 -2176.30 -2164.28 -2154.29 -2144.45 -2138.04 -2128.20 -2115.13 -2103.06 -2092.91 -2084.76 -2072.42 -2051.06 -1989.17 -1893.10 -1541.00 -1230.99 -723.60 -456.64 -295.08 -208.61 -201.84 -162.70 -68.24 -47.48 -41.62 -10.61 88.90 210.50 254.24 277.68 284.14 262.72 270.23 263.22 252.21 213.72 197.28 231.99 251.29 234.18 229.16 192.47 173.72 174.09 206.02 236.74 264.47 277.29 288.13 296.22 320.92 341.59 352.14 412.85 444.15 439.88 412.90 392.90 389.20 398.40 366.00 353.91 332.11 339.34 312.83 287.32 275.03 265.16 248.05 191.09 155.11 114.54 105.93 107.10 109.94 107.43 99.66 99.58 100.01 100.57 104.43 120.01 138.48 150.51 170.54 197.15 208.97 235.46 242.88 262.36 285.45 1176.79 1978.98 2110.15 3402.92 5847.62 6193.41 6157.65 5216.30 4271.89 2876.05 1831.43 811.11 369.13 364.13 316.19 287.30 259.65 256.40 251.25 244.05 220.52 188.59 130.26 21.79 -110.27 -316.47 -679.45 -1051.20 -1324.48 -1683.05 -1808.05 -1822.36 -1837.17 -1838.33 -1862.64 -1905.04 -2042.84 -2283.52 -2522.51 -3065.08 -3625.51 -3820.39 -3825.61 -3841.89 -3849.63 -3849.71
-2197.94 -2197.46 -2193.09 -2184.76 -2175.46 -2168.20 -2156.72 -2145.69 -2136.64 -2126.47 -2109.43 -2100.63 -2085.45 -2073.88 -2064.26 -2041.77 -2001.82 -1899.77 -1692.88 -1457.11 -1191.84 -729.68 -439.23 -237.26 -195.71 -182.11 -141.11 -106.36 -87.67 -11.64 77.55 99.52 174.19 212.46 210.19 215.23 243.32 231.98 162.53 126.76 158.49 193.16 205.78 191.88 194.49 170.95 171.72 189.09 233.54 257.95 280.52 285.28 291.63 318.58 323.51 378.75 418.45 452.96 479.37 419.65 391.67 375.50 351.31 342.57 328.24 301.48 293.99 289.70 287.39 272.75 264.77 242.77 207.42 154.16 115.09 101.70 93.34 92.84 96.61 96.63 98.11 98.79 98.99 98.65 100.19 110.13 136.00 147.70 166.87 200.37 220.70 246.58 257.23 307.72 631.97 1956.02 2557.82 2574.93 3369.15 6905.33 6564.01 4263.38 2562.20 2976.50 2278.65 1520.35 651.37 352.69 331.86 303.19 282.01 266.14 254.33 250.56 238.62 215.55 163.39 112.69 6.02 -183.06 -372.63 -833.34 -1249.21 -1508.89 -1734.57 -1814.63 -1831.28 -1835.07 -1841.70 -1883.84 -1928.89 -2027.20 -2296.58 -2551.22 -3034.32 -3641.47 -3818.99 -3829.06 -3841.16 -3849.91 -3849.99
-2196.04 -2195.95 -2191.79 -2184.89 -2176.33 -2166.43 -2153.11 -2143.61 -2133.80 -2113.05 -2096.16 -2085.01 -2073.38 -2065.19 -2039.52 -2024.92 -1996.61 -1984.41 -1875.78 -1800.42 -1454.94 -975.02 -610.61 -323.82 -208.08 -170.61 -176.58 -165.68 -112.58 -41.18 9.33 27.30 33.61 98.74 141.82 157.43 180.57 130.47 95.99 75.20 115.44 140.92 147.00 137.99 141.41 141.95 172.07 214.53 239.51 277.72 285.94 291.33 302.29 360.33 354.89 393.41 463.31 502.68 470.46 401.17 364.04 344.49 332.97 301.74 295.36 289.76 281.54 264.16 256.46 252.94 248.07 208.45 147.34 102.34 95.43 87.99 89.35 89.34 93.50 95.70 96.72 96.79 96.68 96.23 99.48 111.02 138.60 148.51 169.05 205.47 228.05 246.04 273.94 642.63 900.75 1793.02 2650.46 3357.12 4948.15 6510.24 6404.37 3626.71 2014.32 1292.84 1629.37 889.24 343.41 337.82 312.91 297.04 278.33 266.90 257.10 250.29 240.40 216.46 176.79 119.55 -18.45 -130.93 -459.91 -915.06 -1340.35 -1666.58 -1768.14 -1823.67 -1832.72 -1832.86 -1836.94 -1881.40 -1948.58 -2034.19 -2392.96 -2700.57 -3214.78 -3704.63 -3828.19 -3841.66 -3843.82 -3849.26 -3849.35
-2190.18 -2189.47 -2187.14 -2178.62 -2173.04 -2163.40 -2149.33 -2135.67 -2114.16 -2093.70 -2075.33 -2063.51 -2047.20 -2032.39 -2018.85 -1999.68 -1988.21 -1973.89 -1940.28 -1815.35 -1694.11 -1304.63 -618.83 -400.78 -198.66 -159.27 -167.54 -178.56 -162.98 -96.19 -41.30 -46.64 12.03 54.73 71.40 100.29 119.67 72.97 26.33 40.99 60.39 86.81 108.06 114.77 118.96 138.50 165.15 237.47 271.78 282.42 285.80 305.63 336.09 364.72 400.92 441.53 478.07 515.93 468.40 410.26 366.32 329.36 312.81 295.40 288.94 280.00 265.61 258.39 250.10 213.22 190.54 132.70 93.57 86.86 84.90 84.77 86.56 89.23 91.68 94.59 94.24 94.64 94.37 94.46 99.41 118.42 147.64 177.05 187.18 212.95 240.29 257.50 352.39 770.92 1981.49 2906.11 4466.29 5593.80 6497.48 6149.89 5214.18 3554.21 3166.29 1848.44 842.14 596.61 322.65 323.88 310.41 283.15 256.35 254.65 254.77 251.24 240.12 217.83 180.54 135.08 12.13 -126.98 -420.91 -1075.64 -1427.25 -1684.31 -1777.90 -1823.38 -1829.59 -1830.55 -1834.56 -1849.52 -1903.78 -2002.67 -2216.69 -2734.35 -3322.10 -3765.77 -3814.63 -3839.32 -3848.02 -3849.53 -3849.61
-2184.73 -2184.65 -2181.26 -2174.55 -2164.88 -2157.41 -2147.55 -2132.83 -2104.23 -2087.68 -2070.79 -2051.96 -2039.82 -2022.28 -2003.68 -1981.24 -1966.16 -1960.30 -1945.92 -1889.88 -1791.38 -1385.88 -908.80 -525.35 -234.94 -161.76 -148.45 -157.77 -159.90 -146.99 -131.54 -115.50 -78.11 -37.11 3.90 27.18 41.19 26.95 -12.75 8.06 26.04 49.71 78.05 96.92 115.66 147.44 205.77 256.84 275.75 283.66 302.87 338.29 381.68 413.68 425.59 452.91 514.81 515.75 476.59 413.60 367.84 317.65 299.33 281.09 271.55 258.98 252.33 252.70 206.16 163.76 136.81 93.87 85.29 88.87 85.01 83.11 83.38 86.29 87.69 91.26 92.16 91.76 92.97 93.95 100.99 125.99 164.08 174.81 196.89 211.00 241.05 271.28 498.37 1706.25 1851.43 2776.78 4137.93 6750.44 6986.64 5706.08 3372.29 2871.21 3289.34 1327.77 385.65 306.42 311.85 314.85 290.39 271.11 257.96 256.07 254.88 251.03 240.79 219.73 189.09 133.09 22.65 -104.43 -465.56 -835.14 -1425.98 -1681.74 -1718.19 -1817.18 -1823.32 -1823.43 -1838.73 -1865.13 -1925.08 -2026.34 -2194.17 -2685.18 -3128.70 -3615.85 -3820.94 -3834.60 -3847.20 -3853.43 -3853.51
-2177.99 -2177.91 -2173.77 -2167.27 -2162.23 -2152.65 -2143.07 -2124.93 -2102.62 -2078.20 -2065.10 -2047.18 -2034.60 -2018.03 -2001.50 -1978.33 -1961.55 -1953.70 -1932.08 -1915.39 -1720.82 -1404.29 -898.41 -453.98 -184.80 -158.93 -152.24 -174.42 -178.06 -168.69 -179.60 -171.74 -192.64 -136.31 -60.82 -15.10 -9.44 -46.33 -53.94 -53.19 -22.48 0.73 45.67 77.74 103.25 171.73 213.71 254.41 275.95 291.77 326.67 364.22 387.30 448.56 467.44 488.76 537.77 530.65 475.78 419.86 364.55 331.18 288.15 274.05 261.46 247.89 233.78 193.84 158.99 125.40 105.02 92.81 89.67 88.08 85.58 81.88 82.18 83.54 84.61 87.99 89.06 90.22 92.26 98.81 117.12 131.68 156.59 190.59 207.56 240.02 257.51 521.95 1521.04 3148.30 2813.93 4545.87 5706.51 6620.46 7151.56 5822.38 3801.00 2093.24 1820.29 644.01 295.22 298.39 293.15 295.25 277.09 257.10 254.67 254.62 254.74 251.51 240.25 220.53 177.90 132.34 30.44 -23.97 -289.87 -608.67 -1177.06 -1609.76 -1750.96 -1812.55 -1818.74 -1830.37 -1837.75 -1866.23 -1899.91 -2097.94 -2353.55 -2548.69 -3182.92 -3695.01 -3823.50 -3847.37 -3847.73 -3850.99 -3851.16
-2170.11 -2170.03 -2166.78 -2159.16 -2154.23 -2143.37 -2134.54 -2118.65 -2095.73 -2078.50 -2061.68 -2046.89 -2033.98 -2015.87 -1993.68 -1973.18 -1956.80 -1946.88 -1924.22 -1872.07 -1596.54 -1353.36 -815.58 -397.18 -233.38 -262.26 -371.34 -305.18 -295.71 -318.90 -285.96 -279.20 -347.50 -201.14 -180.70 -99.73 -81.95 -112.50 -108.41 -93.09 -69.63 -17.35 12.55 48.16 77.80 118.86 213.55 264.52 288.22 302.55 340.87 392.35 426.52 463.34 505.71 520.35 522.33 490.78 441.47 383.81 346.03 318.05 281.41 255.77 244.06 222.25 190.23 169.43 137.06 100.10 79.61 88.23 89.99 87.00 83.28 81.76 80.85 81.53 83.25 86.18 87.65 88.90 91.22 92.77 113.67 148.36 170.77 195.55 224.34 239.45 286.26 614.30 979.61 2086.25 3444.73 4965.50 8066.99 7386.41 6018.74 4833.90 2752.47 2706.35 2297.16 388.39 283.83 277.25 275.01 273.81 262.36 253.58 252.90 252.93 252.40 247.80 242.09 225.00 201.11 131.85 75.17 -26.30 -249.27 -595.74 -1293.24 -1537.54 -1804.89 -1816.80 -1816.60 -1825.19 -1831.97 -1868.28 -1905.18 -2036.59 -2386.88 -2628.36 -3099.48 -3501.07 -3795.19 -3848.29 -3852.20 -3852.72 -3852.79
-2161.89 -2160.97 -2157.08 -2154.61 -2147.59 -2140.14 -2130.78 -2116.96 -2094.45 -2076.52 -2064.18 -2049.39 -2037.75 -2017.49 -1995.41 -1972.74 -1962.60 -1953.20 -1921.08 -1834.86 -1603.59 -1197.96 -773.53 -513.73 -514.28 -537.40 -565.80 -633.03 -735.61 -659.72 -713.52 -733.75 -730.17 -603.45 -322.53 -144.06 -123.07 -127.02 -135.72 -130.71 -110.57 -66.87 -21.34 13.78 81.91 130.42 227.27 299.75 316.92 347.02 380.27 399.47 445.13 489.70 475.35 463.51 464.68 457.32 427.80 367.09 334.83 302.53 281.78 257.40 234.31 196.19 176.85 153.25 120.98 76.40 69.87 78.40 78.77 86.88 82.43 79.54 78.66 79.04 80.36 82.25 85.52 86.27 87.70 89.76 110.22 153.78 191.11 207.80 232.57 250.72 348.08 468.37 1379.88 2614.81 3647.97 6025.14 7385.46 6357.14 4292.95 3392.64 1606.48 1705.18 501.96 299.04 275.48 271.96 270.13 263.70 265.59 253.26 252.30 251.79 245.11 243.14 235.06 220.25 192.35 167.22 43.95 -80.08 -276.41 -770.00 -1072.34 -1567.22 -1797.62 -1808.27 -1817.74 -1825.39 -1832.53 -1863.03 -1933.31 -2032.40 -2195.09 -2679.00 -3244.43 -3643.99 -3819.59 -3844.27 -3853.18 -3852.91 -3852.98
-2156.26 -2156.19 -2154.47 -2150.64 -2146.37 -2137.57 -2129.89 -2117.07 -2100.65 -2081.92 -2070.94 -2056.25 -2046.65 -2031.20 -2016.00 -1991.53 -1982.26 -1961.46 -1951.56 -1872.12 -1697.16 -1287.16 -988.44 -841.74 -840.73 -958.52 -1030.23 -1118.82 -1136.62 -1299.23 -1265.03 -1145.01 -1237.46 -786.90 -363.22 -186.84 -159.66 -145.97 -152.22 -161.38 -203.50 -178.05 -94.83 -26.86 55.28 161.15 241.29 314.69 349.79 379.09 397.49 417.67 467.25 478.16 471.63 383.31 372.34 409.80 406.32 351.87 311.11 290.87 277.29 256.04 206.86 179.20 156.60 147.74 96.12 64.27 68.24 73.13 81.78 85.31 82.67 79.74 77.30 76.98 77.49 80.09 82.14 84.10 84.32 84.97 100.39 160.98 201.57 223.81 240.61 252.96 394.63 1450.32 1390.49 3622.19 5103.25 7453.43 7894.11 7055.21 3778.87 2512.32 3046.06 861.97 474.91 324.54 277.73 262.35 260.72 254.25 257.08 252.45 251.37 250.33 243.55 237.42 228.59 207.43 183.04 145.77 -12.15 -199.93 -348.36 -763.54 -1298.74 -1568.55 -1795.59 -1804.49 -1813.36 -1823.03 -1830.93 -1853.24 -1931.97 -2028.06 -2709.97 -3041.10 -3608.15 -3708.28 -3833.05 -3847.23 -3853.17 -3853.23 -3853.30
-2156.33 -2156.25 -2152.67 -2149.32 -2144.45 -2140.17 -2132.21 -2122.29 -2108.58 -2097.62 -2089.44 -2074.68 -2062.35 -2044.93 -2032.48 -2016.70 -2005.13 -1996.98 -1983.13 -1907.93 -1800.86 -1610.10 -1449.47 -1395.07 -1369.31 -1628.95 -1674.85 -1671.91 -1769.37 -1725.26 -1767.67 -1782.96 -1736.41 -1051.58 -566.70 -353.61 -207.36 -189.52 -221.65 -245.88 -257.17 -174.00 -115.83 -44.69 16.97 119.18 235.78 286.76 351.44 423.61 447.74 460.30 483.97 449.82 380.39 321.92 318.09 351.32 346.53 335.98 318.58 287.74 269.71 237.28 193.82 161.73 145.17 107.99 89.66 76.89 74.43 72.61 86.01 84.39 83.79 80.54 76.52 75.91 77.21 79.20 79.93 82.23 85.09 86.93 110.65 136.43 209.18 230.00 246.86 259.30 592.72 2065.80 2580.03 3366.65 5468.97 8541.95 7906.94 6009.98 4103.77 3598.87 3520.93 882.43 357.24 289.14 280.78 260.24 254.13 253.04 252.43 251.71 248.93 246.87 239.05 233.90 220.75 202.59 172.42 65.10 -91.21 -307.00 -567.82 -833.74 -1325.50 -1726.69 -1798.81 -1805.38 -1816.44 -1818.89 -1829.43 -1854.96 -1948.50 -2177.34 -2896.56 -3291.31 -3647.99 -3822.96 -3839.43 -3853.10 -3854.41 -3854.21 -3854.28
-2149.90 -2149.83 -2148.20 -2143.99 -2142.19 -2136.07 -2130.68 -2120.03 -2113.10 -2100.87 -2092.83 -2081.47 -2070.39 -2061.88 -2046.17 -2033.16 -2018.49 -2011.49 -1998.37 -1986.69 -1951.15 -1836.74 -1778.27 -1740.19 -1789.42 -1834.28 -1887.95 -1887.80 -1966.02 -1990.62 -2032.00 -2011.24 -1934.06 -1786.70 -1227.96 -657.66 -311.02 -241.85 -281.60 -284.11 -291.31 -212.75 -129.62 -109.03 1.02 101.91 198.47 270.04 320.74 374.47 441.63 449.26 428.28 370.15 342.80 308.85 307.59 306.70 300.88 298.17 308.71 283.57 263.77 243.30 194.26 159.42 133.92 105.52 81.51 73.19 74.30 70.81 76.95 82.64 85.51 76.80 75.62 75.62 75.59 76.57 78.10 81.98 93.34 115.63 144.42 175.24 198.82 239.19 262.88 356.22 762.53 2181.14 2772.29 4582.40 7035.98 8375.48 6633.24 4213.02 2601.49 2120.42 1587.55 347.22 271.23 253.86 257.54 257.39 252.84 252.33 251.81 249.87 246.22 243.46 236.77 231.24 220.77 182.91 80.83 -30.63 -191.66 -410.38 -805.96 -1192.01 -1499.83 -1798.57 -1800.45 -1810.23 -1815.58 -1813.06 -1820.76 -1846.83 -1899.43 -2304.68 -3128.05 -3508.22 -3800.13 -3833.61 -3849.43 -3851.20 -3853.97 -3856.81 -3856.88
-2143.40 -2143.33 -2142.09 -2139.96 -2137.69 -2132.73 -2128.53 -2119.03 -2113.98 -2104.56 -2098.61 -2088.69 -2076.16 -2068.39 -2055.95 -2048.74 -2035.35 -2029.68 -2025.66 -2010.15 -2015.94 -2009.68 -1963.48 -1962.69 -1974.32 -1993.86 -2000.19 -2028.73 -2036.87 -2060.83 -2075.39 -2074.66 -2055.90 -1907.41 -1374.78 -956.96 -514.91 -376.11 -294.37 -293.22 -297.51 -223.21 -157.73 -124.03 -37.47 39.57 114.39 220.79 299.25 314.18 371.98 393.95 366.68 311.65 313.48 278.86 272.13 273.57 278.63 267.13 290.25 286.26 254.62 218.54 198.51 167.79 134.53 105.10 78.44 66.50 73.30 81.03 81.45 82.31 76.20 74.79 74.52 74.72 75.18 75.59 77.34 81.49 99.38 131.51 155.53 179.55 226.29 239.47 285.50 744.56 1373.89 1379.87 2966.22 5062.15 7882.34 8303.32 6105.13 3458.11 3141.38 2597.87 626.59 361.01 269.05 253.92 251.44 251.63 251.25 248.96 248.20 244.22 243.57 239.36 233.29 225.67 195.63 174.80 91.19 -211.47 -380.48 -601.12 -1021.79 -1364.46 -1579.28 -1784.38 -1805.03 -1805.46 -1813.29 -1815.38 -1821.20 -1832.31 -1890.09 -2289.97 -3304.98 -3702.34 -3813.97 -3847.91 -3847.49 -3850.69 -3852.60 -3857.77 -3857.84
-2137.93 -2137.86 -2137.95 -2136.35 -2133.85 -2131.30 -2127.23 -2121.81 -2113.88 -2108.68 -2101.35 -2094.56 -2091.14 -2081.49 -2074.05 -2060.90 -2054.14 -2043.96 -2037.02 -2041.06 -2032.57 -2028.96 -2016.72 -2027.85 -2024.11 -2044.33 -2051.41 -2056.28 -2068.40 -2080.36 -2086.75 -2092.00 -2079.86 -1988.92 -1567.00 -1256.40 -817.89 -458.65 -302.66 -292.02 -275.22 -202.31 -170.92 -136.00 -90.91 10.47 141.80 227.68 257.92 272.94 356.75 329.68 298.18 274.69 260.65 259.75 265.01 250.93 228.28 181.05 216.87 251.67 268.55 231.77 223.90 191.89 170.11 126.46 99.43 87.84 78.36 95.13 92.30 86.04 76.87 74.03 74.05 74.41 74.81 74.84 78.47 94.29 108.13 155.45 176.40 198.37 223.24 250.18 328.12 961.50 2197.23 2652.23 2874.05 4750.89 8193.07 6864.41 5577.38 2866.47 1933.96 1902.34 328.60 300.93 255.56 251.02 250.45 249.55 247.33 241.23 244.37 241.03 236.85 231.51 227.74 210.70 172.61 126.25 36.82 -76.98 -444.78 -635.24 -1083.63 -1408.40 -1651.84 -1789.13 -1810.66 -1811.52 -1814.44 -1819.06 -1824.79 -1829.05 -1855.26 -2587.47 -3221.95 -3816.39 -3840.45 -3843.90 -3847.40 -3850.58 -3853.81 -3860.34 -3860.41
-2132.44 -2132.37 -2132.10 -2131.71 -2129.66 -2127.33 -2126.06 -2121.24 -2116.55 -2110.44 -2106.31 -2099.28 -2095.15 -2091.11 -2087.11 -2077.92 -2071.53 -2064.54 -2060.89 -2054.23 -2062.03 -2058.03 -2054.21 -2058.07 -2053.61 -2064.81 -2069.36 -2074.92 -2083.56 -2087.49 -2096.15 -2099.16 -2092.47 -2057.29 -1852.58 -1548.78 -874.80 -585.95 -337.13 -286.59 -248.22 -198.41 -195.42 -155.25 -77.46 -14.83 113.33 224.15 258.24 269.50 305.70 317.98 260.87 260.11 237.91 178.57 222.43 208.20 181.50 112.72 131.10 181.77 252.86 262.15 259.94 227.94 206.86 183.96 147.13 105.78 81.63 99.60 95.90 87.50 76.90 73.97 73.90 74.01 73.78 73.84 75.91 90.69 108.94 162.44 193.62 199.50 233.55 270.26 622.46 913.69 1883.49 3015.54 5637.05 6698.29 7917.37 5963.06 4821.80 3277.80 2128.66 1088.04 326.30 264.45 248.78 246.79 246.07 244.04 240.89 235.71 234.19 231.67 228.28 220.76 211.66 187.79 158.82 66.26 8.84 -114.85 -342.53 -903.36 -1258.14 -1618.25 -1783.44 -1809.39 -1822.21 -1817.11 -1821.13 -1827.68 -1833.79 -1838.62 -1880.58 -2384.06 -3118.04 -3833.72 -3845.13 -3848.84 -3850.48 -3853.92 -3858.46 -3861.47 -3861.53
-2115.60 -2115.50 -2116.62 -2109.35 -2108.44 -2106.15 -2102.07 -2103.43 -2109.44 -2108.13 -2104.68 -2100.47 -2097.87 -2096.81 -2093.89 -2095.14 -2090.71 -2090.00 -2082.76 -2083.56 -2087.77 -2080.66 -2083.85 -2088.63 -2085.19 -2101.94 -2094.75 -2096.44 -2101.88 -2104.77 -2107.08 -2111.40 -2111.05 -2080.86 -1952.96 -1658.86 -1187.35 -617.67 -423.01 -310.31 -266.59 -201.39 -179.23 -149.24 -76.64 -8.67 99.67 140.05 225.58 269.57 261.71 240.78 201.99 176.31 132.50 24.21 77.27 101.74 62.13 0.44 55.51 144.26 213.39 283.97 299.79 259.58 237.48 238.41 214.66 161.05 113.65 104.40 89.32 80.38 76.46 73.65 73.36 73.45 73.60 74.06 75.29 88.46 113.29 151.38 192.48 222.90 251.50 290.28 1626.17 2517.21 2402.26 2510.93 5870.41 7230.48 6566.60 3243.05 2377.36 2389.52 1961.23 412.07 302.91 248.07 243.01 242.10 239.86 236.99 235.71 229.98 229.53 226.18 208.24 194.26 181.81 145.81 54.34 1.27 -136.62 -253.95 -504.37 -989.04 -1397.64 -1708.19 -1792.24 -1825.90 -1824.73 -1820.53 -1829.69 -1839.62 -1845.87 -1854.24 -1868.09 -2202.19 -3283.79 -3799.75 -3845.62 -3851.27 -3852.52 -3855.83 -3861.79 -3864.60 -3864.67
-2082.50 -2082.13 -2085.27 -2088.46 -2091.36 -2087.64 -2088.30 -2088.98 -2102.81 -2100.01 -2099.56 -2096.28 -2093.55 -2092.86 -2103.19 -2117.41 -2115.43 -2121.19 -2116.36 -2116.81 -2118.23 -2109.15 -2109.51 -2110.74 -2119.86 -2117.76 -2125.54 -2119.52 -2120.03 -2116.37 -2114.66 -2115.83 -2115.48 -2103.49 -2042.08 -1779.92 -1307.49 -852.96 -473.36 -341.07 -305.38 -216.92 -171.09 -159.94 -79.31 -15.69 31.66 59.38 160.53 196.07 205.29 115.04 117.18 60.64 29.67 -70.11 -99.70 -14.62 -32.60 -22.09 -21.99 110.09 204.74 276.77 322.83 317.78 292.99 283.75 255.03 186.97 170.52 121.36 92.00 83.45 76.03 73.47 72.97 72.99 73.10 73.11 74.43 78.65 111.63 148.11 194.72 234.00 264.49 742.50 2067.84 2876.85 4427.08 5135.99 7541.61 7549.32 5749.41 3521.05 1819.47 1493.13 546.00 366.44 254.30 245.29 238.06 234.67 228.74 227.35 217.16 222.40 220.47 214.43 181.66 165.63 116.23 86.78 -0.81 -203.23 -276.23 -403.79 -529.37 -1077.42 -1374.71 -1696.89 -1807.21 -1828.30 -1827.21 -1826.75 -1839.74 -1851.96 -1867.20 -1871.59 -1915.85 -2250.65 -3373.21 -3796.33 -3839.66 -3852.17 -3855.03 -3857.57 -3856.90 -3863.64 -3865.35
-2079.71 -2079.65 -2080.67 -2081.49 -2081.70 -2082.41 -2084.17 -2090.71 -2101.86 -2103.00 -2105.07 -2102.80 -2101.26 -2101.27 -2114.63 -2129.01 -2128.28 -2133.92 -2134.64 -2136.32 -2138.94 -2136.22 -2139.63 -2139.41 -2141.63 -2140.04 -2145.73 -2145.72 -2129.51 -2127.02 -2124.32 -2124.32 -2124.90 -2118.24 -2049.50 -1812.46 -1536.57 -949.12 -507.06 -348.86 -317.98 -234.34 -189.32 -166.11 -110.53 -70.90 -34.54 6.33 79.05 108.26 111.20 58.83 12.38 -30.57 -82.59 -108.18 -110.29 -91.29 -106.37 -105.79 -81.25 25.96 131.09 262.21 311.36 346.94 340.71 296.98 295.90 267.34 214.91 174.36 84.26 68.74 75.36 72.86 72.48 72.36 72.19 72.05 74.13 82.94 119.65 147.27 203.39 232.73 274.08 1005.76 1983.18 3016.56 5233.65 6208.95 7116.17 7286.60 5298.70 4008.95 1888.19 1296.92 426.68 274.36 245.26 231.87 227.89 227.85 222.52 214.89 203.38 203.01 198.37 183.33 147.14 98.42 78.34 -22.37 -159.10 -363.69 -597.38 -725.53 -820.59 -1022.58 -1475.01 -1659.82 -1818.40 -1830.24 -1831.63 -1841.67 -1852.85 -1860.78 -1868.99 -1883.37 -1906.56 -2194.38 -3162.19 -3532.63 -3830.36 -3843.48 -3849.50 -3855.27 -3858.43 -3867.61 -3867.68
-2081.87 -2081.81 -2082.24 -2083.25 -2085.77 -2085.72 -2088.00 -2095.35 -2109.48 -2113.47 -2111.98 -2111.91 -2111.24 -2112.07 -2123.15 -2142.34 -2146.95 -2149.23 -2150.95 -2157.01 -2155.07 -2158.32 -2155.42 -2157.92 -2161.96 -2159.23 -2158.74 -2160.75 -2154.00 -2140.92 -2136.61 -2132.15 -2130.62 -2127.32 -2088.08 -1908.56 -1599.23 -1218.22 -598.99 -426.99 -311.15 -253.05 -202.92 -179.09 -150.79 -92.41 -46.06 16.39 53.60 49.19 11.57 -59.20 -91.93 -106.52 -138.42 -116.86 -116.79 -114.65 -109.57 -106.17 -97.53 10.50 144.10 213.67 281.40 322.82 373.64 365.39 331.38 287.60 252.81 198.29 114.09 89.71 77.63 73.19 72.31 72.03 71.27 70.71 70.84 82.85 111.58 137.17 196.32 243.21 274.41 622.72 2560.31 3686.47 4815.19 5386.69 5666.85 4795.77 3928.28 3241.03 1899.19 702.98 273.04 248.10 241.02 223.51 218.40 210.86 205.17 199.16 191.86 191.28 183.72 151.73 93.02 38.05 -40.30 -95.82 -327.55 -588.52 -821.44 -1018.18 -1104.31 -1332.92 -1528.09 -1751.76 -1820.36 -1833.59 -1837.18 -1846.65 -1859.81 -1869.73 -1879.86 -1893.15 -1921.09 -2312.75 -3170.81 -3549.65 -3830.51 -3848.12 -3842.31 -3855.81 -3859.90 -3868.46 -3868.53
-2084.72 -2084.66 -2085.00 -2087.08 -2087.77 -2092.06 -2093.24 -2101.93 -2113.41 -2120.09 -2121.60 -2122.87 -2125.33 -2126.99 -2137.25 -2155.04 -2164.95 -2167.72 -2168.11 -2174.09 -2172.88 -2173.95 -2173.18 -2173.78 -2178.90 -2183.32 -2183.04 -2169.41 -2164.73 -2156.87 -2148.09 -2143.44 -2139.60 -2136.58 -2095.05 -2054.17 -1710.85 -1337.54 -775.85 -435.57 -361.57 -291.94 -246.29 -174.82 -148.38 -109.49 -54.52 -8.53 -30.37 -82.94 -88.60 -132.74 -163.43 -157.11 -148.90 -130.40 -121.40 -113.25 -90.18 -84.43 -69.98 -24.94 41.26 144.09 250.61 296.15 337.45 358.06 352.91 336.03 308.61 248.16 169.08 96.03 71.78 71.22 71.29 70.73 69.82 69.45 69.38 76.63 101.87 125.58 164.18 243.49 304.69 331.45 2799.70 3665.30 3441.63 3159.96 2462.90 2508.42 2239.49 2179.38 454.17 279.69 254.63 241.18 237.99 215.58 200.86 191.40 176.37 171.19 167.10 170.02 132.88 97.99 39.47 -68.98 -124.77 -263.03 -434.26 -668.53 -998.33 -1180.72 -1319.48 -1495.10 -1706.07 -1782.95 -1827.51 -1837.62 -1840.84 -1843.20 -1860.85 -1871.85 -1886.26 -1900.02 -1979.98 -2523.84 -3175.84 -3552.19 -3821.30 -3849.25 -3847.30 -3854.21 -3858.42 -3868.59 -3868.66
-2089.15 -2089.84 -2090.77 -2091.87 -2095.10 -2098.34 -2102.14 -2111.63 -2120.54 -2128.62 -2130.43 -2132.54 -2132.82 -2133.66 -2148.87 -2163.86 -2173.23 -2174.55 -2178.94 -2180.38 -2186.94 -2188.03 -2189.19 -2197.44 -2197.02 -2191.10 -2191.21 -2190.26 -2178.42 -2165.82 -2155.76 -2151.18 -2145.15 -2141.47 -2134.18 -2089.09 -1953.52 -1315.67 -1104.09 -735.94 -430.78 -317.60 -231.30 -173.04 -153.02 -129.72 -84.94 -57.79 -108.19 -150.12 -180.23 -186.35 -179.49 -167.58 -152.20 -135.32 -119.39 -105.23 -90.96 -66.11 -51.56 -46.75 -15.29 56.83 168.50 217.79 267.48 302.08 329.29 347.51 293.99 259.40 154.29 99.19 68.79 69.26 69.72 70.09 69.39 68.53 69.09 70.34 115.20 131.73 180.05 230.02 286.88 338.30 1554.31 2422.74 3266.88 3122.88 1668.38 1274.89 1434.31 622.29 324.03 246.84 240.31 221.33 209.45 191.21 181.24 175.62 131.93 118.19 82.81 68.52 68.29 69.33 -38.57 -127.56 -236.87 -443.17 -592.76 -775.59 -1142.45 -1375.43 -1617.72 -1720.19 -1788.29 -1814.04 -1834.61 -1840.85 -1842.80 -1845.81 -1859.06 -1876.55 -1888.64 -1906.09 -1981.52 -2236.99 -2929.77 -3598.84 -3823.54 -3851.84 -3854.97 -3853.16 -3857.21 -3869.62 -3869.68
-2102.77 -2102.73 -2112.79 -2108.34 -2115.79 -2114.99 -2123.26 -2123.67 -2129.49 -2132.31 -2135.94 -2137.82 -2139.82 -2142.01 -2150.91 -2165.01 -2168.38 -2169.41 -2176.92 -2181.15 -2185.22 -2197.43 -2205.77 -2211.76 -2203.33 -2192.99 -2192.40 -2197.91 -2196.13 -2164.94 -2158.73 -2151.58 -2144.88 -2142.87 -2138.67 -2096.29 -2034.42 -1787.42 -1211.87 -916.75 -647.64 -460.57 -369.65 -213.60 -234.15 -162.00 -136.70 -175.72 -184.58 -227.77 -204.84 -193.99 -182.37 -172.95 -153.17 -137.02 -115.72 -94.26 -78.86 -57.77 -42.91 -34.48 -20.14 -0.47 42.00 115.65 204.24 249.19 269.45 266.31 260.82 198.34 150.22 81.32 67.32 67.05 67.91 68.25 67.75 67.18 66.77 68.00 83.97 92.30 155.47 224.28 262.80 277.70 740.56 1060.16 1675.56 994.52 930.80 728.22 667.79 264.24 249.54 220.72 187.35 154.83 167.70 154.29 127.94 115.00 61.69 55.36 44.11 32.60 -4.88 -81.89 -208.62 -246.48 -366.80 -659.90 -758.25 -1050.38 -1372.37 -1604.07 -1746.55 -1820.30 -1859.15 -1848.66 -1842.72 -1844.25 -1846.20 -1862.95 -1864.97 -1875.52 -1892.69 -1906.75 -1978.49 -2130.10 -2888.62 -3510.50 -3771.02 -3857.52 -3862.97 -3864.27 -3867.52 -3871.83 -3871.90
-2123.66 -2124.47 -2126.42 -2129.64 -2133.00 -2137.77 -2138.23 -2140.92 -2137.45 -2136.68 -2141.50 -2141.65 -2145.13 -2146.34 -2153.15 -2157.95 -2164.11 -2165.53 -2167.26 -2171.91 -2175.73 -2191.44 -2205.30 -2199.78 -2197.35 -2199.33 -2198.26 -2196.30 -2199.39 -2171.43 -2156.41 -2149.05 -2141.18 -2143.59 -2139.64 -2116.66 -2039.14 -1865.04 -1804.52 -1343.91 -907.20 -729.99 -645.53 -465.20 -298.66 -321.49 -261.21 -239.11 -246.00 -229.09 -212.17 -205.18 -187.44 -175.16 -158.99 -138.56 -117.56 -90.21 -65.46 -51.91 -40.41 -24.27 -15.92 -0.04 11.17 45.37 89.53 114.22 121.21 166.41 154.73 139.96 87.55 65.86 65.77 64.75 64.19 66.05 65.09 65.79 65.77 66.57 78.41 96.83 161.67 224.17 246.36 260.20 266.45 396.04 392.88 556.21 434.76 428.41 267.43 244.52 231.17 202.93 152.92 77.97 76.87 69.55 5.41 -25.79 6.81 -41.41 -73.79 -105.42 -218.63 -311.89 -495.22 -589.96 -789.19 -963.93 -1193.08 -1307.64 -1497.44 -1705.39 -1818.16 -1862.04 -1861.46 -1855.30 -1854.47 -1855.36 -1859.26 -1870.22 -1879.29 -1882.02 -1893.14 -1915.80 -1959.72 -2103.27 -2807.21 -3248.55 -3774.60 -3845.69 -3871.20 -3872.88 -3872.28 -3872.40 -3872.46
-2129.00 -2129.65 -2131.37 -2135.47 -2139.66 -2146.26 -2151.83 -2149.99 -2146.07 -2145.30 -2148.02 -2152.02 -2151.82 -2154.55 -2155.95 -2165.24 -2170.23 -2173.12 -2173.92 -2176.48 -2181.97 -2198.44 -2207.70 -2198.64 -2202.71 -2209.26 -2208.63 -2199.80 -2196.14 -2178.18 -2166.18 -2158.51 -2153.92 -2146.75 -2140.97 -2106.69 -2054.88 -1926.96 -1770.94 -1706.33 -1468.05 -1373.00 -1093.06 -796.88 -623.73 -415.16 -402.23 -327.02 -278.29 -246.17 -226.48 -214.95 -193.49 -178.80 -148.30 -121.80 -102.73 -89.41 -56.58 -44.70 -34.54 -22.35 -10.91 1.62 13.31 22.54 35.10 45.45 56.90 57.32 56.55 59.80 58.57 59.92 63.07 63.28 62.39 63.08 63.63 63.84 64.05 64.43 88.86 110.09 153.48 212.92 232.95 242.28 257.00 269.59 290.48 289.54 293.82 259.28 255.25 235.27 212.52 172.68 135.39 49.30 -26.25 -68.80 -130.61 -224.36 -241.62 -127.43 -233.11 -260.12 -452.68 -547.41 -790.83 -1016.90 -1187.44 -1304.35 -1367.76 -1524.86 -1650.37 -1793.27 -1858.41 -1866.01 -1864.93 -1864.19 -1861.48 -1868.81 -1873.50 -1882.10 -1890.04 -1894.90 -1901.33 -1919.88 -1956.37 -2152.42 -2842.79 -3358.64 -3805.30 -3877.16 -3876.83 -3873.81 -3873.69 -3873.41 -3873.47
