-5467.77 -5468.25 -5468.84 -5470.46 -5472.38 -5476.11 -5478.52 -5488.86 -5507.16 -5512.54 -5522.27 -5529.21 -5532.89 -5543.11 -5552.70 -5560.02 -5568.32 -5575.74 -5582.17 -5583.66 -5557.82 -5451.61 -5093.85 -4785.10 -4683.10 -4911.16 -4807.99 -4330.38 -3325.49 -2617.72 -2286.94 -2069.81 -1699.83 -987.75 108.86 211.44 249.56 330.92 345.78 315.28 287.87 246.96 142.20 167.62 229.58 -41.37 -453.57 -389.43 -708.79 -1022.27 -1229.58 -1365.80 -1794.94 -1895.62 -1976.93 -2040.38 -2173.30 -2264.37 -2166.45 -2254.94 -2235.75 -2193.65 -2273.21 -2300.35 -2319.85 -2175.58 -2106.72 -2066.08 -1974.25 -1768.54 -1459.58 -450.52 -1.30 260.94 320.87 364.50 327.96 300.70 300.67 307.88 307.88 329.66 336.83 364.50 376.53 394.78 406.38 413.13 425.07 429.61 449.38 478.35 470.57 467.56 449.62 438.20 418.92 409.76 404.30 176.14 -215.37 -764.15 -1380.27 -1372.99 -2521.63 -3704.32 -4318.65 -4351.19 -4512.13 -4743.65 -4849.65 -4956.85 -4855.67 -4463.90 -3441.61 -2797.32 -2314.14 -1322.02 -1162.85 -1104.93 -1139.50 -1268.39 -1544.70 -1717.13 -1854.26 -1949.45 -1976.95 -2039.95 -2058.15 -2055.65 -2059.49 -2090.41 -2165.87 -2282.13 -2389.25 -2562.95 -2802.43 -2953.20 -2991.98 -3029.42 -3064.16
-5463.00 -5463.59 -5464.29 -5465.98 -5467.17 -5469.99 -5474.16 -5490.03 -5512.09 -5516.00 -5523.66 -5529.40 -5535.58 -5544.85 -5552.65 -5562.55 -5567.57 -5578.48 -5581.33 -5584.03 -5580.24 -5562.77 -5504.49 -5413.41 -5420.25 -5444.18 -5288.07 -5102.87 -4461.20 -3607.11 -2776.58 -2295.61 -1696.34 -956.23 178.72 221.51 240.55 274.69 343.53 354.46 326.90 279.08 267.54 253.75 264.95 254.56 235.81 224.98 -31.68 -355.82 -349.99 -495.92 -1130.78 -1522.60 -1530.85 -1570.45 -1756.61 -1796.09 -1868.36 -1880.63 -1833.11 -1917.14 -2008.11 -1991.81 -2089.48 -2076.51 -2071.78 -2025.13 -1820.78 -1391.51 -863.08 75.68 259.55 286.15 327.69 385.23 334.54 311.01 314.54 317.71 330.20 358.16 360.61 379.94 394.37 405.01 422.74 436.93 442.52 459.70 487.02 495.21 494.21 488.81 478.67 468.34 466.94 455.89 457.96 539.43 69.86 -14.40 -57.31 -721.73 -1104.87 -2292.13 -4046.04 -4230.28 -4311.24 -4591.58 -4593.25 -4791.24 -4937.48 -4954.88 -4663.32 -4081.30 -3594.41 -2917.51 -2013.26 -1249.16 -1061.92 -983.51 -1279.95 -1496.19 -1693.60 -1764.94 -1947.93 -2016.23 -2063.38 -2063.67 -2074.92 -2119.06 -2208.68 -2295.51 -2445.41 -2570.85 -2710.68 -2892.05 -3117.57 -3188.34 -3209.68
-5456.55 -5456.49 -5456.17 -5458.48 -5462.62 -5463.48 -5467.33 -5478.99 -5507.50 -5512.72 -5520.09 -5527.07 -5535.01 -5541.76 -5551.86 -5559.54 -5566.52 -5573.83 -5577.89 -5581.30 -5581.02 -5572.60 -5552.19 -5553.65 -5547.51 -5543.88 -5542.23 -5413.75 -5207.32 -4845.65 -3662.11 -2706.72 -2018.62 -774.58 103.03 204.70 243.80 254.20 298.98 360.10 350.45 281.73 298.09 296.47 283.50 268.80 274.09 267.46 242.88 235.09 230.77 105.43 -599.54 -881.83 -1028.45 -1177.87 -1203.27 -1249.30 -1408.53 -1591.76 -1539.44 -1509.20 -1591.53 -1746.26 -1846.94 -1893.00 -2011.14 -1879.26 -962.99 -423.80 -31.48 254.31 313.77 333.71 344.52 334.01 330.92 327.71 329.36 341.99 351.49 359.66 367.82 388.71 402.88 414.85 432.09 444.09 463.07 476.28 493.21 500.51 517.53 521.82 514.30 527.32 494.41 468.37 412.77 561.56 366.98 204.31 107.37 -175.94 -584.76 -1975.71 -4050.72 -4134.53 -4228.45 -4392.34 -4597.49 -4790.53 -4949.32 -5105.82 -5144.57 -5003.58 -4888.61 -4432.15 -3323.47 -2057.21 -1315.09 -936.81 -1042.27 -1305.20 -1412.13 -1688.03 -1761.83 -1935.36 -1991.65 -2066.45 -2090.91 -2122.50 -2184.01 -2239.61 -2380.52 -2584.82 -2792.81 -2924.54 -3104.33 -3231.92 -3231.98
-5450.08 -5450.71 -5452.41 -5453.71 -5454.97 -5458.41 -5461.98 -5476.08 -5497.10 -5508.82 -5511.23 -5519.41 -5529.58 -5537.40 -5545.89 -5555.38 -5561.96 -5569.96 -5575.41 -5576.82 -5577.99 -5578.43 -5575.03 -5573.35 -5575.98 -5578.12 -5571.68 -5556.11 -5505.55 -5244.70 -3679.02 -2332.55 -1751.86 -413.71 121.20 187.22 230.99 251.57 276.06 323.68 368.99 341.15 326.53 325.46 351.85 361.95 378.38 319.42 292.20 250.35 238.14 230.57 201.32 -253.84 -430.86 -645.81 -553.39 -793.14 -894.33 -1007.46 -1173.86 -1105.48 -1061.90 -1288.70 -1178.10 -1556.69 -1592.68 -1204.96 -593.55 -52.50 259.87 297.70 314.42 335.19 328.25 329.55 332.30 334.06 334.87 350.81 362.53 367.02 385.37 401.44 412.45 424.77 439.15 454.75 472.77 487.94 498.69 518.74 542.91 549.79 556.47 554.81 511.48 453.33 407.23 431.70 314.30 281.22 206.68 -178.82 -440.36 -2541.87 -3897.80 -3988.08 -4037.76 -4314.88 -4609.69 -4664.04 -4851.72 -5058.89 -5183.60 -5197.71 -5132.64 -4893.59 -4194.30 -3040.96 -1419.30 -851.01 -859.62 -1030.61 -1156.22 -1369.89 -1577.84 -1834.26 -1938.59 -1976.86 -2084.57 -2099.34 -2145.63 -2186.69 -2281.16 -2442.95 -2654.71 -2972.51 -3093.27 -3194.42 -3209.73
-5455.37 -5455.30 -5454.69 -5455.12 -5455.88 -5461.36 -5462.78 -5473.21 -5477.05 -5485.16 -5498.27 -5506.39 -5509.37 -5522.55 -5532.44 -5551.80 -5557.77 -5563.21 -5570.19 -5572.32 -5575.01 -5574.48 -5574.89 -5576.07 -5580.48 -5583.80 -5592.01 -5586.68 -5496.26 -5266.64 -3635.95 -2223.44 -1208.31 -229.41 143.95 213.80 229.75 241.28 269.93 297.33 349.03 375.82 375.35 369.83 404.53 436.32 442.33 347.25 314.20 285.75 248.08 237.40 172.57 54.22 -91.17 -235.45 -337.02 -326.10 -468.99 -629.21 -601.76 -553.45 -623.87 -631.99 -471.89 -564.43 -651.41 -281.26 188.14 266.34 266.47 298.15 316.92 321.91 326.95 330.03 334.30 339.57 343.91 357.46 363.99 374.51 393.19 406.07 421.25 431.48 449.19 460.22 479.27 497.04 511.25 549.26 559.19 578.42 579.90 567.39 541.38 495.21 459.02 336.13 320.56 414.64 249.65 -59.24 -847.68 -2828.43 -3317.17 -3824.77 -3916.04 -4052.59 -4340.56 -4494.22 -4796.54 -4991.14 -5178.48 -5213.91 -5212.05 -5080.14 -4588.50 -2827.96 -1528.52 -757.94 -748.85 -829.99 -1051.54 -1188.66 -1393.04 -1737.42 -1872.15 -1970.66 -2083.16 -2124.85 -2144.79 -2208.41 -2383.23 -2545.06 -2740.40 -2838.68 -3044.20 -3200.75 -3200.82
-5449.31 -5449.26 -5449.01 -5451.57 -5453.20 -5458.74 -5459.80 -5464.50 -5462.29 -5469.39 -5475.42 -5486.75 -5493.21 -5504.52 -5519.79 -5539.28 -5552.00 -5558.17 -5561.77 -5565.65 -5568.98 -5571.40 -5572.86 -5575.26 -5578.01 -5583.66 -5594.77 -5601.90 -5561.79 -5267.37 -4054.97 -1885.58 -316.14 -14.71 164.57 202.69 231.96 250.24 264.01 303.78 350.95 378.46 391.48 390.48 450.68 524.31 513.90 399.11 336.98 296.19 258.35 247.24 237.71 192.12 34.62 -80.15 -159.25 -171.08 -242.62 -261.71 -271.33 -263.24 -128.51 -119.68 -83.84 238.22 244.97 142.94 294.11 307.77 290.26 301.13 313.51 317.86 329.25 331.08 339.17 343.51 348.49 359.83 367.35 382.83 395.15 407.78 426.13 432.94 460.09 471.89 482.48 499.70 531.19 554.95 561.85 594.17 596.92 558.51 516.26 489.74 432.48 382.01 404.85 468.43 386.34 82.20 -963.79 -1854.78 -2475.35 -3211.62 -3954.31 -4081.57 -4250.63 -4457.61 -4708.42 -4868.00 -5135.65 -5210.90 -5227.65 -5181.91 -4700.69 -3145.37 -1651.72 -579.65 -556.34 -627.69 -861.28 -1073.34 -1365.47 -1555.85 -1642.87 -1867.64 -2053.10 -2078.28 -2114.56 -2249.37 -2415.44 -2596.19 -2704.95 -2904.46 -3040.71 -3198.54 -3198.60
-5432.88 -5432.83 -5430.54 -5435.46 -5444.11 -5448.41 -5451.71 -5455.89 -5452.99 -5454.94 -5466.98 -5473.49 -5483.73 -5495.18 -5508.75 -5531.78 -5541.73 -5546.72 -5556.21 -5562.19 -5565.42 -5569.86 -5571.96 -5574.28 -5577.93 -5582.56 -5583.13 -5520.66 -5446.20 -3963.85 -2670.11 -1033.57 -233.28 142.56 208.40 226.25 234.35 254.09 275.93 293.30 329.03 368.64 404.41 431.20 487.25 576.37 597.12 445.43 382.55 301.99 273.56 252.63 238.63 231.04 171.26 69.92 -56.37 -84.32 -135.34 -124.62 -87.09 -43.47 108.89 163.79 224.52 249.40 269.92 309.17 311.86 300.83 296.84 302.61 310.09 319.02 328.92 331.58 338.53 342.80 348.48 360.65 368.71 385.62 402.55 416.71 429.93 443.27 462.49 471.98 491.64 505.52 538.78 559.82 573.60 601.64 620.60 568.65 533.14 502.73 456.81 427.35 412.34 576.89 576.85 251.45 -171.11 -539.51 -1147.45 -2129.55 -3421.05 -4121.57 -4281.77 -4514.95 -4612.37 -4853.41 -4984.07 -5201.42 -5214.37 -5176.84 -4717.34 -3647.54 -2049.92 -599.01 -464.54 -520.15 -704.23 -826.64 -1113.38 -1356.11 -1560.56 -1788.04 -1965.15 -2045.12 -2088.70 -2190.94 -2317.91 -2536.73 -2750.86 -2951.05 -3079.42 -3196.62 -3196.68
-5412.77 -5414.73 -5416.59 -5418.91 -5422.74 -5429.06 -5438.56 -5437.72 -5435.03 -5444.24 -5454.50 -5461.84 -5473.96 -5485.89 -5506.50 -5523.81 -5539.25 -5544.36 -5551.53 -5557.45 -5563.81 -5568.47 -5570.13 -5569.18 -5572.47 -5549.49 -5479.67 -4812.13 -4157.41 -3268.59 -1491.44 -1174.74 -227.20 87.13 217.51 228.34 239.97 262.96 277.47 308.96 334.73 363.23 407.06 437.50 498.96 607.69 614.35 533.97 370.29 313.28 294.22 257.81 244.41 235.32 226.57 151.65 78.49 -11.62 6.26 -7.79 52.47 164.93 237.47 246.32 283.35 284.77 298.37 305.66 300.32 297.09 298.16 303.20 309.20 316.53 321.98 333.11 340.65 345.27 352.25 366.12 372.31 388.36 403.41 418.60 433.36 450.49 465.81 478.85 494.40 509.52 543.70 562.78 575.53 615.10 643.25 619.72 573.20 581.37 558.41 498.66 442.70 542.62 601.85 403.32 203.98 -72.93 -438.66 -2194.56 -3291.35 -4312.13 -4378.41 -4483.75 -4616.62 -4789.66 -4949.64 -5188.03 -5202.26 -5178.88 -4992.22 -3814.23 -1815.34 -554.12 -391.47 -410.44 -454.01 -717.41 -875.67 -1204.61 -1422.78 -1644.99 -1782.79 -1929.97 -2022.08 -2088.91 -2187.05 -2402.51 -2611.40 -2790.87 -3018.08 -3170.73 -3193.72
-5389.35 -5389.30 -5389.82 -5396.18 -5404.34 -5408.07 -5410.85 -5418.64 -5418.51 -5429.98 -5440.64 -5452.25 -5463.40 -5472.97 -5502.85 -5513.90 -5529.63 -5537.93 -5547.81 -5558.12 -5562.58 -5566.89 -5564.21 -5561.42 -5489.90 -5447.13 -5258.91 -4036.64 -3434.94 -2037.30 -1299.92 -414.89 124.93 176.72 208.40 225.44 237.08 258.18 285.52 312.86 362.04 392.57 419.50 458.02 496.57 627.27 628.88 499.57 404.04 350.50 293.19 277.07 250.60 245.08 235.06 200.15 160.18 105.86 131.88 231.26 240.69 240.86 254.12 279.72 295.17 293.64 290.93 281.14 289.54 291.62 296.17 303.25 309.39 315.48 323.35 328.98 337.05 345.48 351.09 365.17 375.26 388.80 405.50 421.76 438.85 455.01 466.87 479.73 508.72 524.06 546.53 571.28 591.38 621.19 656.05 642.57 635.87 637.14 589.57 563.53 528.07 516.20 420.02 378.88 223.62 37.20 -191.53 -629.26 -2689.50 -4349.38 -4430.81 -4505.94 -4595.37 -4823.65 -4982.18 -5145.27 -5193.35 -5174.41 -4886.87 -4464.69 -1784.92 -661.25 -308.22 -319.62 -342.49 -663.29 -884.82 -1223.70 -1460.57 -1484.91 -1690.74 -1824.51 -1936.68 -2043.82 -2161.68 -2368.22 -2541.80 -2865.10 -3074.88 -3189.95 -3190.02
-5362.31 -5362.26 -5357.91 -5368.19 -5372.44 -5385.13 -5383.95 -5401.13 -5401.98 -5406.40 -5417.25 -5437.81 -5449.65 -5462.21 -5481.24 -5506.59 -5521.40 -5530.99 -5539.11 -5551.71 -5555.62 -5549.86 -5483.40 -5465.08 -5230.12 -4686.84 -4126.11 -3111.52 -2443.46 -1298.86 -796.77 -118.24 151.66 198.04 228.28 231.49 239.01 244.61 283.66 309.98 353.85 399.13 428.69 467.90 512.28 586.42 589.88 575.72 430.37 358.46 315.20 295.33 267.73 251.28 246.00 230.59 192.23 170.29 213.78 238.77 249.39 266.69 301.46 296.27 280.78 274.08 274.40 276.23 279.20 285.82 293.60 302.78 305.79 314.73 319.79 324.57 331.76 344.92 351.11 360.31 378.96 399.50 408.37 424.59 447.03 464.97 475.87 494.23 516.81 544.87 564.24 590.88 605.32 641.31 678.92 695.74 700.61 649.55 630.33 636.17 651.90 551.40 414.93 606.80 343.02 215.68 -147.44 -1006.99 -2808.65 -3854.61 -4282.85 -4356.94 -4570.83 -4763.72 -5023.79 -5121.48 -5178.91 -5151.31 -5013.19 -3594.19 -1986.62 -684.69 -325.70 -271.62 -362.47 -522.65 -961.03 -1115.54 -1226.04 -1446.53 -1682.83 -1786.82 -1949.21 -2045.49 -2165.59 -2250.11 -2574.94 -2822.57 -2946.61 -3026.76 -3026.69
-5331.88 -5331.83 -5332.64 -5338.05 -5343.88 -5353.31 -5366.86 -5370.04 -5377.03 -5388.30 -5401.28 -5426.99 -5437.40 -5456.79 -5471.84 -5486.49 -5490.69 -5497.34 -5512.49 -5504.52 -5494.44 -5451.93 -5361.33 -5079.14 -4349.02 -4097.27 -2892.60 -2133.01 -1214.54 -554.88 -154.59 90.42 199.32 233.53 235.90 239.16 264.91 262.79 287.65 330.81 390.21 421.04 454.28 500.41 529.73 604.67 613.47 579.01 511.40 384.40 328.81 301.68 282.86 260.67 253.79 240.36 222.16 219.68 246.14 258.74 284.11 314.21 318.58 290.11 270.80 263.12 264.10 271.81 276.27 280.60 292.29 297.08 304.22 309.17 317.17 325.34 337.83 344.68 352.55 363.19 383.97 399.77 412.76 436.33 455.54 472.56 498.97 507.89 530.07 567.81 575.20 599.40 617.76 641.15 690.57 703.81 726.70 703.09 732.28 689.72 585.99 499.99 441.55 739.70 432.26 102.20 -270.21 -1342.43 -2888.97 -3674.72 -3910.16 -4237.77 -4505.16 -4620.89 -5029.41 -5116.89 -5137.82 -5094.33 -4889.33 -3609.12 -2051.21 -546.29 -260.28 -242.05 -309.60 -546.86 -811.10 -986.69 -1132.23 -1350.81 -1640.86 -1741.67 -1876.71 -2054.37 -2158.86 -2256.34 -2365.52 -2664.34 -2805.94 -2976.58 -2976.65
-5297.78 -5300.70 -5298.71 -5312.07 -5315.68 -5320.10 -5327.29 -5350.44 -5357.17 -5371.59 -5377.74 -5403.68 -5427.26 -5440.15 -5453.33 -5459.07 -5469.44 -5478.77 -5490.56 -5414.49 -5324.24 -5080.71 -4566.96 -4039.00 -3552.66 -2855.01 -2458.08 -1576.13 -975.19 -299.93 38.03 198.63 235.84 243.18 244.75 264.87 289.71 296.27 308.65 342.38 411.81 467.91 503.18 521.91 544.76 576.23 563.16 531.55 510.63 389.95 320.21 300.00 288.68 271.71 260.23 252.42 237.44 228.28 269.20 303.61 348.13 320.21 270.95 261.63 258.72 258.18 258.82 262.95 273.61 274.03 283.27 289.88 297.95 307.98 313.84 322.33 327.81 340.14 354.24 364.49 387.82 396.63 409.26 441.83 462.92 479.31 517.96 535.71 552.10 569.00 589.07 601.77 628.35 640.47 695.64 726.43 735.25 743.11 728.54 663.56 559.32 539.62 540.88 751.28 634.70 262.18 -119.16 -1167.14 -2534.02 -3346.19 -3770.50 -4041.84 -4268.64 -4471.42 -4764.89 -5104.73 -5095.83 -5071.30 -4829.53 -3581.45 -1904.27 -461.11 -232.57 -203.07 -285.37 -433.68 -541.64 -819.37 -1193.34 -1333.67 -1486.22 -1686.68 -1873.92 -1978.70 -2073.49 -2184.11 -2353.62 -2575.28 -2692.55 -2780.66 -2780.58
-5259.88 -5259.83 -5259.08 -5265.53 -5260.06 -5291.31 -5296.52 -5311.27 -5316.69 -5337.22 -5359.58 -5385.69 -5403.84 -5429.22 -5438.05 -5425.45 -5440.86 -5433.94 -5264.47 -5213.71 -4814.80 -4368.35 -3814.44 -2939.23 -2526.83 -2195.27 -2071.92 -1604.82 -589.29 102.92 204.88 236.85 243.02 254.26 263.89 270.71 290.99 300.24 338.90 375.10 447.46 495.87 533.13 527.45 535.00 527.40 493.39 471.95 390.08 379.39 325.40 305.63 289.91 276.52 269.52 262.67 255.17 262.85 291.38 312.10 300.64 276.01 264.56 257.22 255.85 255.55 256.39 260.76 264.43 271.22 278.12 290.42 294.48 301.05 312.47 317.53 328.64 340.55 356.74 375.60 383.43 400.54 425.15 438.04 464.08 493.31 519.78 544.05 560.11 576.98 602.24 622.59 636.41 655.24 682.81 714.51 730.08 733.68 661.47 590.38 555.16 605.11 668.76 839.46 567.93 238.81 89.77 -356.67 -1577.86 -2945.80 -3659.91 -4125.35 -4226.33 -4476.95 -4705.01 -4988.61 -5048.57 -5016.70 -4717.05 -3613.42 -1397.45 -648.20 -227.31 -186.79 -206.20 -429.90 -655.60 -756.53 -1012.97 -1254.21 -1469.11 -1622.58 -1853.43 -1968.44 -2075.77 -2172.92 -2340.98 -2488.48 -2630.99 -2729.73 -2729.80
-5218.70 -5218.66 -5212.06 -5223.62 -5230.31 -5237.06 -5240.05 -5276.75 -5286.32 -5314.40 -5337.31 -5357.11 -5390.75 -5405.94 -5397.82 -5375.50 -5255.34 -5134.67 -4792.57 -4233.64 -3711.92 -3475.22 -2645.11 -2185.18 -2122.61 -1896.19 -1519.70 -896.55 16.72 214.91 245.81 249.78 255.97 263.03 276.57 291.50 300.77 330.64 372.36 388.73 479.66 513.58 539.07 525.16 489.40 469.75 450.10 429.54 394.72 377.59 344.32 316.42 292.58 279.19 278.63 273.51 262.07 269.06 287.38 310.06 295.89 273.48 260.45 256.56 255.31 254.90 255.56 258.44 261.32 267.90 271.48 278.81 289.32 296.22 310.18 315.33 327.21 335.28 357.06 374.15 384.99 401.52 424.99 445.24 470.69 495.75 518.99 550.21 573.07 597.41 608.04 635.86 650.19 679.28 695.09 711.34 730.46 723.63 657.61 636.32 644.68 702.70 714.26 794.91 411.67 226.66 200.17 -143.38 -1508.66 -3139.62 -3885.23 -4176.82 -4383.04 -4593.85 -4789.40 -4971.10 -5027.33 -4950.48 -4487.89 -3558.98 -1287.71 -460.47 -173.64 -177.85 -207.81 -342.82 -529.68 -617.79 -895.72 -1285.70 -1511.85 -1541.91 -1818.28 -2028.19 -2117.64 -2209.40 -2288.82 -2461.08 -2525.91 -2599.98 -2599.96
-5174.66 -5177.26 -5173.39 -5170.93 -5180.45 -5183.99 -5209.68 -5227.94 -5260.57 -5278.98 -5304.13 -5334.92 -5340.76 -5325.63 -5307.38 -5059.51 -4764.77 -4114.72 -3623.86 -3301.29 -3182.83 -2258.06 -2139.87 -1916.61 -1816.60 -1531.07 -1008.10 -168.97 178.29 250.18 258.02 265.18 271.96 279.00 296.31 309.80 313.91 354.11 391.77 419.36 446.75 501.90 516.17 490.44 472.38 432.08 419.06 413.69 397.19 386.80 349.27 325.58 306.32 290.34 286.31 283.48 278.63 289.56 295.80 287.54 273.34 267.16 258.17 255.83 254.79 254.65 255.05 256.86 260.55 262.77 268.24 277.19 284.60 293.99 303.99 314.68 321.27 336.83 358.62 372.06 392.31 414.11 428.81 452.55 477.99 507.42 536.54 576.47 591.74 607.65 629.22 641.34 654.56 678.71 695.17 717.90 736.89 746.03 760.48 790.17 725.66 776.35 865.33 865.83 616.83 239.55 39.88 -871.84 -1651.89 -2858.94 -3765.02 -4172.37 -4451.98 -4629.57 -4839.81 -4951.35 -4985.93 -4922.36 -4493.65 -2946.12 -1232.30 -372.30 -180.62 -175.99 -242.59 -326.40 -425.04 -627.83 -826.76 -1182.49 -1363.18 -1574.73 -1873.76 -2048.72 -2149.08 -2199.29 -2275.07 -2348.41 -2465.95 -2570.24 -2570.31
-5126.55 -5126.50 -5115.21 -5128.71 -5134.18 -5141.21 -5157.57 -5181.39 -5206.03 -5240.55 -5250.28 -5257.84 -5230.81 -5049.17 -4642.06 -4197.45 -3548.84 -3192.80 -2686.73 -2308.00 -1969.66 -1802.93 -1790.23 -1707.80 -1575.07 -1329.69 -348.77 178.07 231.89 258.31 267.44 275.81 284.95 301.16 309.30 316.35 349.40 369.94 415.70 452.20 480.70 519.93 516.39 492.94 461.74 420.49 403.61 390.61 382.19 376.11 345.23 329.21 311.25 301.30 293.34 290.47 290.65 295.33 295.76 288.87 277.58 265.21 260.42 256.62 254.87 254.63 254.79 255.53 256.60 259.64 265.52 273.65 279.32 290.40 302.41 311.49 322.15 340.41 359.51 366.70 406.39 414.08 435.82 470.42 489.76 516.88 553.88 579.95 597.04 622.26 639.62 654.82 667.43 685.15 696.75 719.88 746.06 773.48 790.79 769.46 692.28 789.15 871.28 902.14 587.24 234.51 -257.37 -1266.44 -2239.83 -3128.59 -3639.47 -4128.16 -4389.22 -4520.02 -4741.97 -4810.38 -4856.48 -4710.95 -4416.21 -2550.14 -1490.94 -278.16 -146.53 -152.16 -236.27 -304.65 -414.57 -601.47 -749.18 -1025.96 -1375.71 -1560.23 -1913.26 -2044.83 -2140.18 -2232.01 -2282.91 -2379.95 -2471.55 -2561.66 -2567.48
-5064.92 -5064.89 -5057.56 -5057.87 -5069.82 -5084.95 -5113.78 -5141.50 -5185.20 -5215.08 -5201.75 -5056.05 -4761.02 -4615.10 -4107.37 -3425.29 -2950.58 -2404.31 -2079.25 -1955.62 -1757.73 -1674.43 -1664.33 -1635.70 -1500.73 -793.76 -61.58 215.10 253.46 264.17 275.22 285.40 302.68 309.62 336.59 350.09 371.27 400.05 416.27 457.63 491.36 535.97 516.66 490.23 457.01 429.55 399.83 384.26 371.94 358.91 344.98 327.09 320.10 308.73 302.42 303.35 302.48 304.52 299.48 293.37 288.47 273.71 263.20 257.37 255.67 254.84 254.82 255.25 256.14 257.99 261.36 270.32 279.70 290.94 300.58 309.60 322.82 339.76 358.71 374.52 405.01 420.23 448.61 477.22 496.38 525.49 546.79 577.08 601.40 634.05 647.83 660.91 674.75 685.11 702.77 720.52 733.62 727.01 722.88 691.17 614.73 732.74 765.15 820.15 595.95 215.90 86.95 -847.26 -1833.85 -3358.16 -3835.22 -4029.54 -4407.86 -4533.92 -4643.14 -4692.32 -4784.86 -4537.00 -3903.80 -2245.86 -554.20 -190.17 -107.44 -136.64 -193.94 -282.26 -400.11 -553.38 -737.51 -911.75 -1227.54 -1550.55 -1780.18 -2017.06 -2129.88 -2227.71 -2346.69 -2395.05 -2518.14 -2574.71 -2574.79
-5021.34 -5021.29 -5004.92 -5003.30 -4995.72 -5006.57 -5056.92 -5082.35 -5147.67 -5151.26 -5101.95 -4845.35 -4231.27 -3523.59 -2752.40 -2591.43 -2308.67 -2175.01 -1985.08 -1846.86 -1708.85 -1629.30 -1623.43 -1597.45 -1321.74 -650.29 -66.45 231.61 262.71 272.15 287.87 297.99 305.92 335.59 357.66 378.68 416.50 421.76 440.68 468.10 496.62 544.94 521.64 490.86 451.86 431.31 403.74 374.50 366.06 353.72 344.39 331.08 324.85 316.11 309.03 309.95 309.67 318.84 328.60 313.06 308.06 278.84 270.63 260.22 256.24 255.26 255.13 255.37 256.40 257.48 262.31 267.27 277.14 289.50 297.86 308.08 316.65 334.46 351.83 374.14 411.60 430.44 457.64 474.83 518.56 536.30 557.84 589.71 616.16 640.25 654.72 664.54 680.80 686.92 701.99 724.63 739.52 761.16 736.67 642.51 551.75 626.22 639.21 801.33 428.22 229.45 -31.88 -522.79 -1902.21 -3103.21 -3389.87 -4255.90 -4501.71 -4530.17 -4609.48 -4640.72 -4650.57 -4313.25 -3229.38 -1679.52 -432.24 -102.14 -80.09 -120.34 -169.91 -261.92 -362.87 -471.84 -655.97 -921.50 -1202.56 -1396.45 -1737.07 -1936.82 -2109.53 -2286.49 -2450.59 -2528.88 -2649.76 -2692.80 -2692.97
-4986.25 -4984.81 -4967.21 -4956.21 -4952.47 -4960.71 -4972.59 -5016.48 -5045.11 -5051.38 -4883.37 -4518.94 -3462.78 -2855.37 -2332.64 -2063.64 -2068.50 -2087.82 -1982.71 -1820.62 -1716.28 -1657.00 -1641.22 -1610.93 -1244.14 -511.34 134.59 257.75 269.11 280.79 295.84 302.28 332.72 356.16 367.71 391.43 442.42 471.63 480.57 509.00 534.04 543.04 515.14 476.79 430.00 411.89 395.14 373.97 360.29 345.99 340.74 329.52 324.50 317.93 319.01 323.93 327.60 350.00 367.47 331.63 339.18 299.82 277.24 275.03 262.72 256.36 255.57 255.66 256.20 257.31 261.63 266.08 275.52 283.78 294.75 301.90 309.93 330.30 347.35 368.30 399.18 427.06 463.68 490.88 514.22 536.59 559.12 595.37 623.19 643.78 655.47 672.48 685.29 691.61 707.41 720.50 743.50 779.76 747.57 682.16 587.42 496.08 467.78 581.57 409.20 178.00 -29.72 -279.76 -808.29 -1617.96 -3170.68 -4158.23 -4195.54 -4433.58 -4563.96 -4561.74 -4430.73 -3872.21 -2016.42 -661.58 -169.73 -73.39 -62.36 -99.35 -149.48 -252.18 -422.59 -533.25 -705.01 -885.08 -1246.63 -1480.24 -1748.43 -1941.51 -2093.87 -2247.66 -2450.38 -2628.04 -2826.92 -2874.98 -2875.20
-4956.18 -4956.12 -4928.33 -4894.02 -4876.70 -4874.20 -4813.18 -4820.94 -4852.20 -4471.76 -4020.19 -3581.50 -2913.49 -2075.33 -1855.78 -1747.89 -1855.49 -1931.46 -1891.72 -1692.60 -1645.62 -1656.31 -1648.90 -1602.55 -1102.84 -545.41 26.32 251.92 268.80 284.57 304.47 327.66 349.51 380.88 384.84 413.63 452.93 478.65 503.70 531.71 536.57 497.90 472.33 465.04 411.72 383.81 366.96 350.25 345.87 340.90 328.90 323.39 322.37 319.12 323.91 326.31 339.53 361.90 393.07 399.54 400.66 350.02 302.49 282.20 267.21 258.08 256.55 256.04 256.37 257.32 259.80 265.52 273.93 279.47 288.92 299.51 311.26 328.45 342.70 370.80 391.02 421.84 462.05 490.22 506.75 542.74 571.85 599.56 625.84 648.14 662.71 679.01 688.43 702.41 709.28 725.33 760.06 776.89 777.19 644.92 637.60 583.92 563.51 424.76 232.84 179.94 107.06 -88.41 -452.69 -1104.65 -2616.87 -3756.57 -3926.34 -4313.98 -4448.07 -4425.33 -4054.68 -3420.71 -1379.91 -266.06 -88.21 -29.41 -73.78 -116.10 -153.78 -282.84 -403.62 -635.25 -751.17 -979.96 -1394.15 -1630.18 -1848.65 -2009.58 -2118.47 -2180.27 -2428.66 -2526.13 -2924.00 -3007.41 -3007.59
-4889.03 -4886.65 -4772.40 -4553.09 -4502.96 -4508.69 -4347.24 -3995.88 -3849.47 -3524.76 -2886.72 -2221.23 -2137.56 -1871.60 -1727.05 -1707.20 -1742.65 -1743.87 -1610.81 -1310.58 -1412.17 -1376.58 -1414.46 -1384.65 -1005.59 -181.06 241.43 252.84 267.18 282.19 305.26 341.77 370.90 391.33 409.38 429.12 477.52 501.59 522.78 511.42 512.41 507.50 452.59 426.31 403.07 364.17 345.63 338.69 336.21 319.35 318.11 317.17 317.20 318.37 326.82 333.88 361.53 402.12 442.04 467.35 449.48 377.86 334.64 285.77 279.53 266.14 264.49 259.98 257.01 257.58 257.96 262.15 270.56 277.23 284.77 293.41 306.25 318.94 344.78 370.31 398.18 425.84 448.10 476.20 504.79 541.15 578.84 591.63 627.10 658.52 669.92 686.26 694.03 707.43 710.75 720.70 752.99 771.79 759.30 680.93 619.55 695.14 761.85 394.61 216.75 146.46 64.73 -100.26 -320.98 -1149.29 -2236.65 -3235.76 -3660.39 -4094.59 -4405.85 -4398.33 -3403.86 -2388.71 -658.21 -214.04 -7.14 -39.20 -73.17 -119.40 -198.30 -339.58 -519.92 -682.29 -803.86 -1065.11 -1475.19 -1808.41 -1971.81 -2032.44 -2144.91 -2237.55 -2395.41 -2578.44 -2902.63 -3226.61 -3226.90
-4335.96 -4336.53 -3923.61 -3831.95 -3686.14 -3308.56 -3130.92 -2726.32 -2339.61 -2072.12 -2098.03 -1899.00 -1761.32 -1732.87 -1738.88 -1748.96 -1740.77 -1633.02 -1408.07 -1106.19 -821.29 -691.72 -946.48 -1048.10 -525.12 208.52 242.81 249.47 266.00 281.66 302.65 350.16 386.52 426.80 443.37 466.81 508.45 533.97 535.37 508.96 481.11 473.04 435.85 403.66 378.33 341.46 340.73 325.52 317.19 308.41 305.30 304.67 308.73 314.37 318.05 331.47 354.22 380.71 435.18 476.01 461.34 400.07 371.25 327.15 288.64 279.68 268.71 267.99 260.34 257.86 258.22 263.00 268.17 276.73 284.94 296.20 309.85 320.31 341.57 359.35 389.81 424.34 438.46 455.74 507.96 539.76 571.52 601.05 652.28 661.08 672.72 690.43 699.90 709.87 718.43 726.17 758.54 778.37 790.60 768.87 761.97 870.94 531.77 283.58 204.22 133.97 50.98 -220.31 -601.61 -1300.23 -2009.21 -2152.69 -3098.78 -3799.95 -4128.37 -4140.01 -3155.48 -1602.28 -394.76 -100.12 24.59 -27.41 -78.26 -132.67 -187.13 -288.57 -505.66 -717.58 -964.01 -1291.84 -1429.08 -1710.64 -1909.66 -2088.86 -2227.61 -2350.26 -2584.82 -2735.31 -3000.96 -3216.21 -3216.26
-2823.40 -2825.47 -2765.21 -2424.96 -2478.15 -1890.97 -1860.28 -1679.73 -1686.29 -1593.14 -1549.26 -1604.66 -1639.80 -1703.26 -1739.70 -1776.53 -1786.60 -1677.15 -1326.43 -1019.91 -551.38 -455.11 -454.74 -617.70 -127.45 192.73 240.97 247.43 261.63 279.93 298.27 346.33 376.72 431.89 491.04 509.23 530.15 523.07 499.10 480.72 467.07 447.70 397.93 373.31 347.12 335.43 322.69 308.93 302.60 295.55 296.74 296.12 296.27 299.61 305.56 320.99 327.12 348.61 378.33 441.32 457.65 386.12 354.41 316.03 305.14 293.45 277.46 270.90 264.22 260.42 258.64 260.54 266.46 271.79 284.10 294.34 302.05 317.05 330.46 355.21 377.57 414.53 444.01 464.92 499.66 539.26 564.88 599.11 620.38 660.77 674.46 693.61 712.16 720.16 731.07 745.70 761.54 780.53 791.47 795.46 906.57 750.74 319.63 235.02 199.07 135.48 66.15 -81.30 -605.82 -897.31 -1178.15 -1780.69 -2579.69 -2959.57 -3689.19 -3159.71 -2543.95 -1223.13 -304.36 15.10 18.48 -27.78 -68.26 -115.32 -153.97 -264.10 -486.92 -783.94 -1035.21 -1323.55 -1557.28 -1644.08 -1976.11 -2155.18 -2307.27 -2459.86 -2672.48 -2961.50 -3041.88 -3209.43 -3209.51
-1607.74 -1609.85 -1620.12 -1705.07 -1541.27 -1485.60 -1411.91 -1376.33 -1407.55 -1430.51 -1491.76 -1536.84 -1630.89 -1679.31 -1733.00 -1791.03 -1818.36 -1769.69 -1594.01 -1122.66 -584.50 -254.26 -147.15 -191.09 31.53 174.45 227.82 245.15 253.66 276.56 299.22 343.90 406.88 454.12 501.02 498.21 489.45 491.75 458.25 441.60 457.06 439.33 396.18 337.34 326.14 314.95 299.31 290.38 288.21 281.55 289.06 286.88 283.61 288.66 297.79 303.49 318.36 329.71 374.92 397.37 420.76 393.47 380.23 322.57 314.57 301.41 288.70 276.79 269.79 265.54 259.11 260.52 265.28 271.10 279.13 290.91 295.35 311.91 323.27 355.10 378.24 405.69 431.71 456.21 506.93 523.06 550.09 586.32 615.96 640.09 673.54 694.39 718.25 731.75 742.19 750.63 771.88 752.04 732.80 780.01 889.51 512.26 300.94 241.15 183.49 145.90 70.62 -2.27 -186.54 -451.24 -795.74 -1451.96 -2043.15 -1922.05 -2128.07 -2259.04 -1608.34 -461.13 -34.49 22.90 15.61 -47.36 -88.44 -132.19 -151.53 -285.92 -489.25 -827.97 -1099.57 -1293.52 -1513.07 -1816.14 -2084.51 -2209.57 -2327.35 -2469.99 -2752.44 -2953.52 -3127.57 -3208.67 -3208.76
-1314.98 -1315.59 -1320.89 -1309.73 -1268.64 -1261.56 -1286.62 -1319.25 -1370.30 -1414.91 -1487.92 -1543.07 -1619.10 -1667.36 -1738.56 -1813.56 -1836.79 -1809.69 -1692.68 -1079.90 -899.28 -408.65 -156.29 -50.27 37.94 137.03 206.66 243.59 249.84 263.13 299.65 326.37 392.48 428.52 485.08 453.67 439.99 446.57 412.21 412.37 431.69 427.21 376.50 302.83 286.53 282.02 279.91 273.47 268.07 266.75 269.56 266.36 269.19 277.41 280.82 297.95 308.66 321.82 356.95 402.98 442.58 424.82 375.56 347.15 330.62 315.44 296.28 280.76 272.38 269.51 262.52 259.48 263.60 266.93 274.42 291.00 300.82 317.47 326.96 356.27 378.49 389.67 427.40 453.15 479.21 505.93 552.28 580.53 606.41 643.19 652.18 710.71 724.44 738.33 727.29 747.53 773.73 715.92 663.21 836.69 729.51 324.04 280.33 238.85 167.03 136.19 88.48 24.76 -160.32 -248.38 -844.32 -1206.56 -1441.47 -1560.70 -1705.85 -1419.24 -568.53 -157.87 28.49 21.37 -21.33 -71.15 -110.21 -133.76 -182.22 -301.96 -557.08 -775.13 -1169.87 -1380.86 -1726.16 -1980.79 -2054.82 -2175.76 -2317.12 -2379.40 -2693.20 -2921.80 -3033.39 -3097.48 -3097.24
-1318.04 -1317.89 -1298.89 -1273.97 -1269.82 -1284.01 -1299.44 -1334.05 -1380.37 -1447.78 -1505.02 -1553.90 -1624.95 -1689.00 -1740.17 -1808.88 -1841.09 -1838.49 -1663.77 -1273.04 -708.99 -383.18 -148.67 -14.68 39.16 97.13 196.43 237.87 243.03 254.10 273.46 307.50 343.35 406.55 431.48 373.47 389.25 413.57 394.58 350.31 340.87 340.68 291.75 280.64 269.02 257.10 253.94 254.22 257.94 255.71 252.66 252.28 260.39 270.95 274.80 283.84 299.56 319.33 344.83 391.75 425.67 423.45 382.39 361.23 342.83 328.93 321.12 287.59 286.20 274.29 267.08 263.12 261.56 263.90 273.59 291.48 300.18 316.66 328.06 347.94 366.40 392.94 426.31 456.71 480.65 512.75 553.55 571.57 590.86 626.12 651.81 702.63 721.28 724.67 694.96 703.65 751.44 737.99 674.42 674.63 387.15 340.55 270.63 240.63 157.84 121.69 46.59 -64.15 -150.48 -303.68 -738.06 -1004.59 -1376.10 -1399.59 -1267.45 -896.37 -421.62 -43.68 52.52 26.72 -45.14 -80.58 -121.52 -157.97 -226.45 -325.47 -572.26 -742.81 -1025.78 -1461.02 -1755.29 -1985.82 -2098.92 -2167.61 -2269.46 -2364.17 -2540.30 -2777.92 -2930.52 -3092.12 -3092.21
-1357.19 -1357.36 -1331.58 -1315.88 -1304.25 -1312.52 -1335.45 -1395.35 -1412.23 -1478.05 -1529.25 -1580.99 -1639.48 -1684.42 -1758.35 -1803.77 -1826.75 -1773.68 -1587.37 -1243.77 -773.65 -400.28 -193.87 -52.10 -16.90 64.28 113.39 207.61 237.48 244.97 267.68 282.94 298.16 360.79 396.08 364.13 331.09 336.37 343.74 299.50 307.42 286.67 266.31 261.55 250.23 243.49 246.07 243.31 242.80 244.59 243.83 247.98 253.59 262.28 265.36 275.90 291.94 319.16 334.92 375.97 421.98 422.02 391.04 393.10 377.84 347.26 351.94 317.80 306.58 284.23 267.68 265.63 261.32 265.86 272.04 286.62 297.61 308.17 328.31 347.54 375.53 402.73 427.84 451.34 487.60 501.30 545.90 571.60 598.66 630.16 649.82 668.68 675.08 704.26 625.58 627.78 669.04 764.43 868.85 544.23 327.25 290.08 262.79 248.91 155.43 91.88 -27.24 -92.64 -222.33 -339.76 -731.54 -1141.65 -1313.01 -1374.14 -1223.53 -751.20 -259.88 106.48 133.09 58.40 -41.53 -83.32 -123.85 -159.25 -252.76 -353.66 -463.94 -709.92 -1040.85 -1341.11 -1629.60 -1886.59 -2005.93 -2057.29 -2182.72 -2335.37 -2480.28 -2717.84 -2867.93 -3088.17 -3088.18
-1417.01 -1417.71 -1401.47 -1375.28 -1387.30 -1372.36 -1392.81 -1423.39 -1439.65 -1498.08 -1579.56 -1625.44 -1677.55 -1722.61 -1768.37 -1815.09 -1812.27 -1698.89 -1490.35 -1099.51 -475.43 -282.46 -160.06 -131.72 -84.20 -5.88 68.38 148.69 228.42 236.66 251.89 258.11 274.19 309.77 357.27 316.18 288.53 282.94 275.03 273.18 269.37 244.94 244.68 242.32 227.43 231.00 228.95 229.88 232.36 232.74 233.30 242.08 249.90 257.21 260.29 263.87 284.38 301.97 332.60 357.15 431.64 452.09 438.30 440.32 427.32 414.52 396.71 355.97 320.82 294.27 268.15 266.08 261.42 267.87 275.50 287.55 295.88 306.19 328.75 344.45 376.25 398.47 415.84 439.25 470.60 500.77 536.15 552.86 597.81 636.65 666.86 667.53 627.21 596.41 581.37 571.71 596.16 772.07 846.38 496.03 365.38 263.83 259.94 249.90 158.13 56.36 -15.20 -114.55 -186.33 -366.10 -720.64 -1196.10 -1339.47 -1349.81 -1290.67 -978.54 -93.56 36.28 121.91 36.59 -42.05 -90.72 -127.10 -157.84 -224.89 -363.92 -490.21 -776.63 -1100.92 -1261.10 -1407.53 -1694.06 -1885.59 -2055.87 -2128.39 -2255.77 -2431.19 -2651.87 -2850.66 -3090.54 -3090.62
-1505.71 -1505.79 -1480.93 -1454.70 -1458.66 -1476.77 -1505.31 -1527.65 -1583.90 -1616.59 -1635.74 -1674.51 -1720.67 -1765.34 -1795.49 -1830.59 -1792.92 -1647.43 -1196.98 -706.25 -372.42 -199.82 -179.89 -171.01 -127.69 -40.68 32.05 76.78 148.91 209.23 234.78 240.17 246.56 255.76 285.63 263.26 262.20 264.62 256.67 250.84 247.26 237.39 229.92 221.57 221.49 220.29 216.82 217.88 217.67 222.62 227.07 233.89 246.21 247.62 255.71 262.42 279.35 297.16 328.27 349.43 396.22 419.07 402.09 406.84 403.25 385.11 381.68 338.54 313.50 284.44 266.96 262.87 260.95 263.62 273.58 287.48 296.89 309.43 326.31 359.95 380.74 403.94 419.97 437.16 464.66 492.90 519.28 558.40 589.77 634.50 669.68 684.42 638.13 582.30 519.32 507.18 663.56 913.38 558.88 390.80 269.38 253.97 252.55 225.96 80.98 -5.65 -73.62 -125.85 -171.93 -390.06 -632.22 -1275.22 -1327.54 -1378.17 -1326.30 -986.02 -439.32 -113.31 44.22 -2.22 -62.19 -95.79 -135.08 -168.55 -233.26 -330.83 -551.81 -778.82 -1064.04 -1211.08 -1489.03 -1654.96 -1856.35 -2024.23 -2106.51 -2201.69 -2364.03 -2695.32 -2898.68 -3097.65 -3097.41
-1566.85 -1566.87 -1542.93 -1536.90 -1523.00 -1531.87 -1548.92 -1576.07 -1623.92 -1644.71 -1684.19 -1734.97 -1765.07 -1789.26 -1820.52 -1832.75 -1782.19 -1567.58 -964.36 -626.05 -355.91 -187.68 -163.63 -185.08 -159.55 -80.91 -24.36 9.46 109.10 184.01 200.92 219.99 235.00 242.00 255.81 259.35 254.09 250.83 241.11 235.78 232.48 226.97 210.46 209.95 216.76 188.96 184.47 196.95 194.84 212.38 221.53 230.89 241.71 243.10 250.71 258.80 271.35 281.44 310.38 332.16 360.20 374.81 345.54 345.57 360.18 321.82 308.47 302.52 280.53 268.43 261.28 261.34 261.23 263.68 274.07 288.96 300.12 317.85 331.74 348.52 378.63 392.09 423.72 434.72 472.02 489.49 519.56 562.57 588.82 611.44 656.99 678.13 615.90 602.45 546.55 480.19 687.51 652.45 355.08 322.11 273.86 246.73 243.37 162.21 47.33 -50.46 -96.03 -118.26 -202.25 -466.36 -814.58 -1246.19 -1376.75 -1383.34 -1350.55 -1148.29 -776.04 -335.49 -192.09 -4.85 -61.95 -115.92 -146.82 -186.98 -229.85 -380.17 -610.12 -867.27 -1052.28 -1275.37 -1517.33 -1701.99 -1835.36 -1972.26 -2089.34 -2262.72 -2565.60 -2918.13 -3111.62 -3218.55 -3218.31
-1624.59 -1624.58 -1603.50 -1605.86 -1596.08 -1583.96 -1593.63 -1585.08 -1633.67 -1647.64 -1704.78 -1747.03 -1786.08 -1823.18 -1835.01 -1845.23 -1772.38 -1623.36 -1081.47 -692.52 -422.12 -233.86 -179.90 -176.89 -172.73 -95.36 -61.46 -1.98 10.54 56.54 108.87 167.68 220.73 229.28 234.03 240.43 243.07 239.67 235.42 229.38 183.41 171.96 160.12 177.23 154.26 136.83 127.79 133.06 149.34 183.59 211.11 220.15 232.64 240.63 248.09 255.93 268.64 278.35 288.67 302.50 316.69 309.79 305.35 306.28 314.11 295.04 297.93 277.27 268.74 262.58 261.52 261.16 264.44 268.07 277.26 292.93 304.61 322.84 335.48 358.37 381.04 401.28 424.41 434.75 463.26 495.89 528.91 563.74 590.83 615.74 653.16 680.81 616.62 530.84 480.86 535.57 523.44 356.86 342.33 305.46 267.70 242.72 202.88 123.01 19.62 -67.01 -99.88 -135.40 -192.99 -562.13 -954.43 -1207.20 -1379.87 -1391.09 -1391.06 -1330.04 -1178.06 -642.70 -350.43 -181.11 -103.12 -140.63 -164.27 -218.32 -309.47 -476.82 -738.26 -980.24 -1119.77 -1347.67 -1579.61 -1693.78 -1861.53 -1994.93 -2107.87 -2344.80 -2642.59 -2974.34 -3272.30 -3389.27 -3389.27
-1682.15 -1682.12 -1667.76 -1649.44 -1634.52 -1632.71 -1647.39 -1646.16 -1683.91 -1704.13 -1750.14 -1725.87 -1716.16 -1798.18 -1853.38 -1859.90 -1822.20 -1752.54 -1424.56 -1126.16 -643.00 -395.40 -253.40 -187.74 -195.23 -163.59 -81.79 -41.40 -9.49 18.85 39.38 142.30 184.51 198.93 218.96 195.42 226.50 210.78 213.43 155.64 120.22 126.88 136.09 108.28 121.83 118.27 108.95 116.62 132.65 145.93 191.25 212.88 231.35 239.92 246.93 254.49 266.77 290.10 323.15 313.40 285.10 280.38 277.51 281.86 268.29 266.54 269.59 269.05 261.58 261.33 260.95 262.83 268.25 278.98 288.86 302.43 313.15 330.13 342.70 358.39 387.24 401.55 425.69 439.63 473.62 496.14 526.68 556.30 592.17 628.34 654.55 688.29 638.81 588.73 665.65 691.99 358.51 333.06 326.45 298.26 246.86 210.32 151.52 61.04 -25.30 -73.72 -111.50 -143.22 -188.96 -536.92 -950.07 -1303.94 -1375.85 -1392.47 -1400.95 -1399.74 -1364.02 -1165.14 -696.02 -443.40 -177.74 -165.09 -182.23 -216.15 -398.25 -645.40 -725.11 -1116.99 -1205.49 -1374.96 -1620.79 -1782.65 -1906.77 -1975.24 -2080.63 -2293.74 -2633.40 -2947.68 -3312.44 -3440.99 -3441.20
-1737.55 -1738.55 -1730.69 -1677.70 -1652.77 -1703.03 -1701.07 -1723.85 -1779.66 -1771.25 -1788.39 -1784.36 -1797.93 -1840.99 -1858.15 -1872.03 -1852.87 -1779.61 -1591.58 -1371.63 -1128.84 -687.15 -409.61 -224.85 -198.94 -198.48 -147.58 -113.71 -87.64 -48.48 24.66 45.05 115.27 138.91 139.60 117.69 163.54 148.96 114.84 109.88 94.60 84.07 63.26 46.04 53.27 71.62 117.71 121.50 128.83 139.79 171.04 218.40 228.13 239.31 243.98 265.10 286.46 304.53 335.32 304.91 283.29 270.48 262.08 261.09 258.08 253.46 256.88 256.57 260.59 260.54 262.78 266.68 275.69 291.05 301.51 314.14 330.06 335.81 354.11 372.42 391.09 405.98 430.88 461.11 479.64 489.69 526.38 551.52 580.25 613.75 643.24 684.90 667.23 632.65 555.66 408.45 335.57 313.43 274.59 234.82 200.48 156.84 145.89 31.46 -54.79 -88.17 -120.34 -156.71 -240.39 -564.17 -1037.18 -1279.18 -1379.19 -1394.79 -1412.59 -1436.82 -1403.08 -1307.24 -912.42 -509.82 -222.85 -180.32 -205.00 -263.92 -378.89 -583.68 -760.02 -1108.35 -1393.05 -1584.99 -1690.46 -1783.29 -1888.12 -1959.91 -2040.00 -2221.07 -2544.52 -2776.54 -3156.06 -3342.62 -3342.70
-1787.95 -1787.91 -1732.19 -1764.25 -1747.78 -1751.29 -1787.76 -1788.39 -1798.74 -1823.60 -1842.29 -1843.15 -1847.31 -1848.50 -1858.48 -1872.15 -1878.81 -1883.06 -1795.77 -1730.86 -1405.14 -936.57 -594.63 -320.54 -226.86 -200.14 -211.53 -209.54 -145.29 -99.06 -49.39 -23.96 -23.40 39.58 66.68 54.97 85.99 59.77 38.49 22.36 22.49 30.55 6.69 -7.79 9.11 49.17 107.66 126.44 129.89 145.36 185.47 224.50 230.03 243.52 276.47 277.40 305.73 340.37 336.66 293.10 266.44 255.40 253.65 247.40 246.26 246.51 248.86 251.40 253.65 255.05 262.17 268.43 280.93 295.33 308.13 323.77 336.02 348.77 358.66 379.94 399.89 417.30 442.76 468.51 484.18 501.96 525.42 548.73 577.55 611.90 638.09 661.86 680.58 694.86 549.12 295.00 276.97 279.63 232.73 187.19 151.66 117.09 57.59 -46.87 -98.16 -112.73 -132.40 -180.67 -381.55 -668.74 -1128.34 -1305.80 -1378.13 -1398.54 -1416.09 -1451.31 -1443.06 -1373.19 -999.09 -672.89 -255.74 -193.88 -215.04 -297.32 -398.47 -626.95 -985.42 -1226.83 -1524.69 -1660.74 -1749.75 -1812.29 -1926.77 -1973.97 -2052.82 -2221.53 -2500.64 -2835.26 -3045.46 -3343.46 -3343.54
-1829.40 -1830.81 -1802.68 -1782.58 -1794.27 -1812.09 -1827.61 -1821.73 -1832.87 -1834.85 -1859.24 -1863.10 -1863.25 -1874.02 -1865.34 -1830.96 -1876.87 -1880.19 -1871.68 -1764.02 -1656.87 -1282.24 -614.19 -406.39 -223.94 -198.46 -214.54 -243.14 -238.71 -175.32 -115.24 -119.43 -61.45 -29.42 -6.41 16.75 28.59 -12.41 -42.18 -57.75 -67.62 -51.99 -33.25 -11.80 -1.74 46.14 90.72 131.72 143.79 167.58 202.32 227.70 235.93 252.29 290.17 301.75 333.51 349.98 346.28 301.15 252.25 248.64 245.82 240.69 239.48 239.01 240.32 245.12 248.53 248.46 259.62 268.63 286.83 295.76 310.37 327.49 339.23 357.76 367.95 384.43 404.03 424.60 435.98 469.01 487.67 508.09 521.55 550.14 573.10 607.98 618.41 623.40 655.09 533.16 381.90 269.84 239.69 219.79 192.23 161.91 131.64 71.63 13.50 -53.63 -93.03 -118.36 -158.16 -206.04 -345.39 -755.47 -1236.19 -1330.19 -1378.08 -1395.55 -1420.51 -1463.39 -1456.09 -1419.58 -1061.98 -674.66 -296.84 -202.65 -229.19 -324.95 -502.04 -702.25 -854.89 -1216.91 -1512.76 -1697.18 -1796.94 -1863.02 -1927.58 -2020.48 -2126.60 -2324.33 -2459.05 -3039.86 -3228.15 -3384.70 -3384.52
-1857.56 -1857.50 -1848.40 -1839.05 -1877.52 -1880.23 -1866.30 -1867.66 -1863.41 -1856.90 -1869.44 -1879.16 -1878.66 -1886.40 -1886.03 -1821.05 -1864.38 -1893.80 -1897.82 -1855.73 -1767.39 -1376.22 -916.41 -541.26 -267.32 -202.19 -202.66 -224.29 -236.52 -229.76 -226.07 -223.32 -193.79 -151.02 -90.30 -63.03 -59.31 -81.74 -91.51 -93.04 -122.04 -106.64 -57.11 -14.98 8.20 38.01 92.94 150.94 168.63 206.83 227.79 237.81 242.22 273.87 321.42 336.12 365.24 366.87 350.75 297.30 252.31 242.08 236.24 230.10 226.22 225.85 228.26 241.16 238.57 244.41 254.68 275.06 286.56 301.61 314.79 331.05 345.44 375.96 381.09 397.14 411.50 427.84 444.51 465.41 485.31 500.83 519.82 531.63 576.81 587.14 595.08 586.55 638.85 421.92 283.98 267.37 215.42 195.50 180.91 130.47 79.92 39.79 -23.21 -88.79 -115.83 -126.03 -154.82 -179.03 -503.05 -835.14 -1188.11 -1375.63 -1377.13 -1395.79 -1427.90 -1465.38 -1457.74 -1392.52 -955.66 -601.08 -247.57 -191.13 -262.72 -413.64 -522.36 -750.18 -1179.51 -1316.53 -1626.83 -1794.07 -1843.63 -1910.59 -1967.26 -2030.90 -2106.30 -2365.07 -2780.48 -3186.63 -3421.35 -3709.53 -3709.61
-1880.95 -1880.85 -1886.28 -1898.51 -1899.46 -1894.30 -1896.29 -1888.34 -1883.06 -1883.70 -1892.54 -1896.80 -1903.32 -1916.78 -1900.78 -1851.75 -1866.45 -1904.35 -1902.33 -1888.06 -1709.32 -1408.59 -915.13 -483.42 -229.80 -207.68 -212.57 -244.33 -256.71 -255.90 -274.30 -276.75 -305.31 -260.16 -179.81 -128.87 -150.02 -189.21 -184.39 -183.41 -165.71 -143.06 -88.16 -52.65 -11.19 59.63 90.84 153.24 216.58 229.12 237.97 246.64 257.29 294.24 337.74 358.84 379.88 375.88 318.32 278.92 245.12 239.69 224.76 221.79 223.12 223.29 223.59 226.58 231.70 241.02 252.49 267.67 287.68 302.65 321.24 332.36 356.95 378.29 389.90 404.96 421.85 434.01 455.87 467.19 487.95 498.29 511.94 543.32 569.22 577.93 587.98 512.57 385.48 304.96 284.56 215.51 183.30 175.67 164.65 116.80 62.85 -17.64 -64.66 -101.00 -122.95 -131.93 -152.20 -252.46 -511.59 -777.26 -1126.95 -1328.44 -1380.48 -1394.95 -1432.62 -1463.29 -1432.39 -1345.14 -865.08 -573.40 -180.45 -188.12 -305.66 -561.72 -763.92 -931.30 -1350.26 -1662.73 -1766.86 -1870.82 -1894.24 -1963.39 -2027.40 -2037.82 -2217.91 -2531.85 -2919.00 -3381.66 -3630.69 -3724.30 -3724.03
-1855.27 -1855.22 -1885.64 -1921.91 -1954.23 -1945.77 -1937.70 -1924.44 -1910.18 -1903.54 -1914.27 -1930.19 -1939.24 -1944.24 -1924.82 -1903.65 -1884.13 -1917.10 -1907.58 -1864.05 -1604.39 -1369.15 -843.26 -436.62 -281.49 -317.43 -441.71 -380.00 -378.42 -408.63 -381.79 -381.79 -457.87 -320.29 -302.21 -221.12 -214.60 -247.40 -243.76 -229.13 -204.20 -153.68 -126.61 -87.52 -21.38 23.10 119.97 185.69 235.37 240.91 247.29 255.81 292.14 324.38 361.99 356.74 357.67 328.67 291.93 253.86 236.60 233.08 218.04 205.23 208.95 211.93 218.87 221.72 224.89 230.58 249.80 267.69 285.32 300.48 323.92 333.26 366.13 382.40 397.73 419.02 427.59 444.89 457.79 466.05 486.86 496.94 508.56 541.64 557.87 569.40 560.96 498.78 334.79 279.46 256.18 194.32 162.04 149.96 116.84 73.44 3.98 -34.21 -52.83 -107.19 -118.39 -138.51 -167.72 -321.77 -620.52 -956.29 -1168.33 -1340.06 -1376.88 -1397.19 -1425.42 -1463.40 -1450.70 -1265.79 -833.72 -432.10 -209.61 -264.40 -473.29 -729.14 -1082.29 -1377.99 -1657.08 -1839.59 -1883.19 -1933.18 -1938.61 -1970.27 -2038.24 -2094.11 -2217.44 -2386.36 -2831.88 -3451.79 -3739.82 -3810.67 -3810.74
-1905.01 -1916.78 -1955.23 -1958.91 -1979.36 -1983.52 -1967.47 -1948.26 -1944.09 -1947.07 -1945.92 -1952.07 -1967.20 -1957.55 -1944.21 -1929.61 -1922.18 -1937.88 -1919.23 -1836.55 -1619.55 -1224.12 -811.20 -561.35 -571.65 -600.98 -637.48 -712.49 -823.80 -752.86 -813.83 -839.24 -840.75 -719.50 -442.25 -268.40 -250.16 -255.88 -265.22 -260.14 -238.09 -194.85 -153.51 -110.68 -18.84 35.28 136.97 199.50 240.92 247.51 264.81 288.83 321.01 352.93 340.74 318.99 315.94 284.88 269.45 246.59 235.90 224.94 204.12 171.12 176.55 191.04 197.89 216.50 222.17 225.94 240.21 265.51 280.19 295.21 324.73 341.92 366.55 388.70 403.18 421.65 433.16 450.13 458.70 471.90 486.43 497.06 528.38 547.60 559.82 576.60 528.53 495.10 348.05 276.54 251.47 177.36 148.75 120.30 85.64 45.67 -12.18 -55.64 -97.50 -99.02 -121.43 -145.99 -172.33 -330.32 -578.88 -1041.10 -1293.53 -1359.46 -1377.93 -1396.70 -1432.35 -1453.78 -1408.25 -1337.34 -660.86 -253.55 -223.34 -426.65 -576.16 -871.42 -1306.86 -1717.37 -1833.73 -1944.21 -1943.03 -1954.35 -1963.15 -1980.88 -2016.46 -2129.67 -2385.67 -2631.71 -3065.62 -3447.14 -3742.22 -3811.03 -3811.11
-1997.23 -1997.14 -1968.42 -1968.38 -1997.11 -2021.48 -2011.87 -1993.91 -1981.72 -1985.74 -2000.63 -1987.55 -1996.43 -1990.32 -1963.26 -1923.15 -1926.17 -1954.68 -1958.45 -1887.23 -1726.37 -1322.14 -1032.99 -894.66 -903.10 -1029.96 -1105.52 -1203.22 -1227.55 -1397.90 -1367.71 -1252.43 -1350.97 -904.44 -484.80 -310.89 -285.10 -272.69 -279.05 -286.70 -325.86 -300.05 -214.81 -147.45 -51.73 74.88 165.11 217.47 242.27 255.58 289.95 316.51 355.29 327.22 326.48 303.25 274.56 257.70 248.16 236.22 231.79 206.42 177.26 145.18 159.09 176.21 190.06 205.11 217.41 221.13 241.32 258.01 268.62 287.41 311.71 330.81 360.74 385.76 408.01 421.56 438.85 444.36 462.32 469.06 485.05 501.41 528.41 548.44 570.01 587.55 623.09 490.58 351.50 274.81 249.39 180.63 144.38 113.35 65.78 38.96 -24.55 -67.14 -116.08 -115.81 -139.41 -179.94 -263.60 -427.81 -687.82 -1026.27 -1297.94 -1322.10 -1376.51 -1405.31 -1444.32 -1453.10 -1413.66 -1092.76 -523.61 -279.16 -242.36 -409.15 -714.91 -913.92 -1260.14 -1665.69 -1762.47 -1903.36 -1952.12 -1965.17 -1961.70 -1981.60 -2138.92 -2263.61 -2646.81 -2888.83 -3311.20 -3581.81 -3747.53 -3808.20 -3808.28
-1988.96 -1988.94 -2000.45 -2022.10 -2035.29 -2042.55 -2050.90 -2034.52 -2020.49 -2036.55 -2050.12 -2027.06 -2025.16 -2019.42 -1989.72 -1968.49 -1976.26 -2006.48 -2000.74 -1938.09 -1836.82 -1654.56 -1500.66 -1457.50 -1436.57 -1706.95 -1757.43 -1760.95 -1865.55 -1824.81 -1875.12 -1892.92 -1852.18 -1169.69 -688.81 -477.97 -333.30 -316.08 -347.57 -370.33 -377.47 -292.22 -231.00 -159.05 -94.51 30.85 173.07 225.38 248.44 269.48 305.58 328.58 339.76 301.13 285.34 269.18 244.55 244.43 238.18 227.31 220.17 169.07 145.81 145.39 145.25 158.91 172.78 174.86 216.33 220.55 239.54 250.19 269.33 298.14 311.13 326.93 357.90 390.33 408.99 428.25 440.35 450.50 464.57 470.88 489.01 495.71 530.62 549.44 557.53 545.46 611.79 455.77 319.06 277.86 238.61 176.75 152.93 105.70 57.17 3.73 -35.54 -85.91 -136.55 -157.28 -173.75 -247.16 -347.25 -584.84 -827.05 -1001.66 -1154.49 -1270.02 -1360.34 -1402.90 -1452.07 -1456.46 -1387.46 -911.81 -486.26 -273.85 -268.53 -388.47 -719.52 -1140.65 -1341.65 -1582.33 -1796.32 -1894.66 -1951.16 -1973.46 -1994.41 -2046.72 -2162.39 -2315.45 -2678.93 -3185.04 -3412.41 -3665.99 -3752.31 -3800.55 -3800.63
-2059.74 -2059.68 -2024.74 -2006.20 -2027.78 -2062.45 -2067.96 -2057.26 -2061.17 -2061.03 -2065.77 -2061.65 -2057.19 -2052.56 -2033.70 -2027.49 -2031.39 -2033.05 -2028.96 -2024.59 -1991.26 -1890.56 -1837.97 -1807.60 -1863.58 -1913.91 -1973.23 -1979.64 -2062.73 -2094.10 -2140.52 -2125.91 -2050.78 -1906.64 -1351.62 -782.66 -437.55 -368.64 -407.63 -407.97 -411.20 -328.99 -240.60 -216.92 -103.38 40.52 154.77 228.24 241.43 261.40 302.01 310.20 291.66 264.33 255.22 242.58 239.18 235.69 230.42 214.74 199.31 156.17 149.82 147.54 145.87 145.48 145.94 144.46 191.89 220.43 232.44 245.78 266.70 287.18 297.15 338.26 355.69 389.95 411.27 428.27 438.73 450.43 466.98 472.85 495.24 505.11 518.54 549.24 576.56 589.99 466.53 330.59 303.38 258.44 214.98 172.00 139.24 103.62 43.68 -19.59 -75.29 -182.55 -204.73 -281.78 -276.42 -314.82 -574.89 -720.31 -879.06 -971.87 -1118.59 -1213.22 -1336.34 -1403.09 -1449.68 -1455.94 -1263.10 -1063.06 -545.66 -264.76 -362.83 -610.00 -838.53 -1220.79 -1390.94 -1612.16 -1779.11 -1887.12 -1945.82 -1977.43 -2024.62 -2186.59 -2243.23 -2375.50 -2749.12 -3103.96 -3447.24 -3656.91 -3754.91 -3800.55 -3800.62
-2077.58 -2077.52 -2060.93 -2028.40 -2017.63 -2060.67 -2083.44 -2087.78 -2086.94 -2084.42 -2089.18 -2065.07 -2054.95 -2045.05 -2073.03 -2074.37 -2064.82 -2064.30 -2066.11 -2055.56 -2071.14 -2072.13 -2030.38 -2034.35 -2051.95 -2078.31 -2088.72 -2123.85 -2135.74 -2165.83 -2186.09 -2190.55 -2175.63 -2030.21 -1499.02 -1082.54 -641.60 -503.00 -420.53 -417.02 -416.83 -337.08 -267.08 -228.91 -142.68 -20.20 105.96 220.51 240.96 253.70 265.37 271.60 259.06 244.26 242.82 240.95 234.19 227.97 208.33 168.43 160.66 154.58 152.53 150.32 147.27 145.71 145.05 144.64 170.58 206.55 227.51 238.30 266.86 280.48 298.39 328.05 350.03 369.12 399.06 428.27 438.37 451.41 462.16 475.82 489.74 500.59 511.10 526.18 618.21 574.32 381.26 295.41 289.56 219.48 181.63 161.77 124.72 76.84 33.23 -27.06 -169.75 -254.31 -310.36 -405.79 -422.39 -542.68 -674.20 -820.40 -907.97 -942.16 -975.22 -1105.82 -1268.62 -1359.01 -1456.22 -1465.18 -1352.11 -811.39 -513.34 -263.37 -476.82 -738.15 -905.71 -1328.58 -1537.20 -1702.03 -1902.49 -1941.74 -1947.12 -1975.66 -2094.26 -2248.58 -2344.51 -2541.83 -2724.03 -3110.73 -3458.23 -3658.86 -3779.91 -3802.66 -3802.72
-2093.50 -2093.44 -2093.24 -2074.50 -2069.84 -2058.81 -2078.41 -2091.94 -2086.33 -2098.49 -2089.84 -2048.61 -2059.04 -2040.47 -2093.33 -2095.89 -2090.98 -2085.62 -2085.10 -2096.69 -2094.26 -2094.95 -2087.10 -2105.03 -2104.33 -2131.54 -2143.76 -2152.77 -2169.95 -2187.25 -2200.60 -2211.93 -2204.68 -2116.74 -1694.76 -1382.72 -944.10 -584.88 -427.95 -415.57 -394.01 -315.92 -277.06 -237.81 -192.36 -70.29 110.27 218.84 235.46 241.14 245.30 247.13 243.45 242.77 238.95 228.34 226.47 207.38 171.55 134.78 141.28 152.07 157.48 152.97 150.55 147.78 147.97 146.61 165.24 189.23 214.22 240.05 249.13 277.61 296.81 304.76 341.14 368.19 393.95 406.82 429.13 447.48 456.45 466.46 485.25 484.35 470.53 489.47 591.89 620.37 378.29 281.86 252.23 194.36 167.91 129.29 95.27 31.91 -56.45 -166.27 -418.41 -428.68 -572.19 -705.95 -682.46 -776.40 -821.26 -905.65 -910.67 -923.45 -958.04 -1005.91 -1160.15 -1339.35 -1409.73 -1403.04 -1161.19 -712.02 -336.43 -275.85 -491.74 -752.37 -1026.82 -1332.16 -1597.96 -1756.51 -1923.49 -1944.00 -1939.55 -1942.30 -2008.99 -2172.56 -2355.98 -2622.37 -2938.37 -3374.00 -3593.14 -3724.78 -3797.22 -3809.20 -3809.27
-2105.97 -2105.91 -2108.72 -2110.39 -2120.29 -2104.99 -2101.09 -2093.73 -2079.43 -2101.09 -2103.67 -2082.84 -2090.22 -2121.83 -2124.87 -2120.98 -2118.21 -2114.96 -2119.07 -2114.53 -2129.09 -2129.72 -2130.92 -2138.98 -2137.10 -2154.40 -2161.83 -2173.51 -2186.73 -2195.93 -2214.57 -2214.61 -2193.89 -2184.41 -1988.69 -1679.86 -1001.42 -711.01 -461.19 -408.54 -366.45 -312.88 -301.08 -256.13 -175.89 -108.40 50.55 194.00 232.52 236.93 238.30 237.82 232.11 236.38 229.85 201.73 190.49 172.03 155.87 126.46 128.46 144.44 158.38 159.20 162.41 155.25 154.31 152.25 161.07 170.03 189.05 227.54 240.69 264.76 277.34 295.68 332.85 370.24 376.88 393.65 410.64 430.32 436.17 458.19 467.08 460.71 433.03 590.39 559.58 401.93 291.19 256.18 209.19 166.83 128.59 114.33 41.02 -67.75 -180.42 -330.55 -565.52 -742.06 -806.47 -861.59 -847.49 -878.26 -906.19 -904.31 -894.92 -891.14 -899.85 -889.93 -982.49 -1077.21 -1127.65 -1043.37 -995.81 -489.89 -210.16 -408.88 -592.19 -958.00 -1285.43 -1482.98 -1712.26 -1866.32 -1945.69 -1944.19 -1928.10 -1924.52 -1984.35 -2140.65 -2343.40 -2636.05 -3079.24 -3459.77 -3749.22 -3801.29 -3802.93 -3807.83 -3807.90
-2105.06 -2104.98 -2108.05 -2108.69 -2112.83 -2114.16 -2114.52 -2109.98 -2096.16 -2119.83 -2132.67 -2131.85 -2135.61 -2132.78 -2142.32 -2144.91 -2145.53 -2149.14 -2145.95 -2150.91 -2158.73 -2155.98 -2163.89 -2171.88 -2171.72 -2193.23 -2188.76 -2195.89 -2205.93 -2218.15 -2230.36 -2209.80 -2172.22 -2160.74 -2098.96 -1803.74 -1322.47 -743.47 -545.42 -427.63 -381.81 -312.42 -281.98 -248.60 -170.02 -95.71 42.19 97.71 201.27 225.95 208.15 195.80 183.73 168.61 120.68 117.73 108.90 114.09 88.62 43.50 74.54 107.76 152.59 176.17 196.51 173.03 160.79 162.06 159.55 156.55 176.46 211.25 239.05 255.49 264.86 282.57 302.97 353.65 370.68 386.06 395.19 413.56 426.49 435.22 443.76 427.56 386.35 720.67 380.85 281.70 256.04 196.27 152.90 125.40 114.64 47.93 -85.16 -288.17 -395.05 -629.15 -772.31 -831.10 -888.67 -903.83 -904.35 -903.40 -903.98 -880.25 -844.37 -796.07 -727.46 -705.77 -695.27 -558.21 -524.06 -523.20 -368.16 -206.21 -218.58 -402.35 -668.97 -1064.11 -1297.62 -1585.15 -1785.41 -1914.76 -1934.11 -1929.91 -1921.72 -1919.79 -1985.30 -2123.80 -2509.78 -2723.24 -3033.15 -3599.29 -3728.05 -3800.70 -3804.72 -3806.48 -3806.55
-2088.81 -2090.25 -2096.03 -2099.51 -2105.05 -2105.72 -2111.32 -2107.71 -2124.89 -2137.52 -2137.49 -2138.10 -2139.29 -2144.96 -2159.22 -2177.10 -2178.69 -2190.37 -2188.23 -2190.43 -2195.49 -2188.46 -2192.23 -2196.28 -2209.20 -2209.43 -2221.22 -2219.73 -2227.10 -2232.99 -2233.56 -2225.55 -2199.27 -2191.22 -2176.22 -1934.48 -1474.09 -1000.52 -604.51 -459.75 -417.27 -323.53 -271.74 -256.20 -168.77 -98.70 -38.90 3.91 130.58 162.72 169.02 70.29 85.53 9.05 -41.38 -76.14 -68.92 -18.05 -28.11 14.78 17.22 78.35 154.55 183.12 209.12 212.07 202.96 191.73 175.26 158.88 178.88 212.60 227.50 238.27 255.21 280.76 299.62 322.07 339.31 346.81 356.70 378.01 410.36 416.10 418.48 413.82 449.13 410.68 277.52 275.15 269.08 157.84 53.99 40.64 26.13 -65.25 -346.66 -471.52 -564.48 -606.67 -838.02 -872.38 -897.19 -898.09 -885.76 -879.26 -775.12 -744.12 -662.52 -613.30 -426.75 -280.63 -54.22 -139.59 -159.34 -197.11 -140.48 -149.63 -188.70 -422.64 -632.01 -1040.59 -1310.45 -1605.68 -1790.01 -1885.01 -1915.40 -1916.92 -1909.91 -1914.47 -1958.32 -2108.94 -2532.09 -2745.94 -3175.96 -3484.50 -3756.21 -3788.26 -3799.64 -3806.48 -3807.52
-2101.36 -2101.30 -2101.21 -2106.77 -2110.90 -2111.06 -2118.74 -2128.76 -2142.97 -2146.14 -2152.85 -2153.16 -2155.54 -2159.24 -2178.32 -2195.12 -2195.69 -2207.83 -2211.08 -2215.54 -2220.79 -2219.16 -2226.22 -2228.44 -2233.69 -2234.48 -2245.32 -2251.50 -2242.40 -2236.11 -2223.13 -2214.93 -2203.68 -2182.06 -2127.54 -1902.84 -1687.95 -1141.17 -656.38 -474.36 -434.40 -338.78 -289.26 -258.14 -197.60 -153.05 -114.76 -61.87 25.12 36.38 44.94 -24.25 -83.01 -85.56 -82.90 -73.01 -64.01 -55.45 -49.70 -46.15 -28.55 6.80 91.48 190.24 210.47 230.63 239.91 215.19 199.49 180.15 168.97 174.63 223.50 232.17 243.12 265.56 292.32 296.87 301.18 315.73 341.64 349.08 379.87 385.76 400.62 399.69 552.09 642.94 274.87 269.14 220.24 104.28 -88.42 -85.35 -233.75 -327.32 -668.50 -724.76 -707.26 -750.92 -870.40 -885.20 -892.13 -878.76 -848.29 -733.32 -550.66 -467.01 -235.22 -119.97 -107.23 70.69 42.28 90.40 18.22 -13.43 -91.61 -221.44 -294.58 -410.57 -731.55 -979.20 -1379.65 -1680.27 -1811.01 -1893.65 -1906.96 -1904.67 -1899.12 -1904.37 -1939.67 -2069.91 -2410.90 -2606.85 -3109.57 -3552.51 -3759.22 -3790.55 -3802.11 -3809.18 -3809.24
-2115.93 -2115.88 -2116.97 -2119.88 -2127.96 -2126.47 -2130.84 -2140.83 -2157.31 -2166.38 -2165.25 -2167.90 -2170.30 -2175.94 -2191.07 -2214.78 -2221.88 -2228.43 -2232.28 -2242.35 -2240.67 -2246.74 -2245.29 -2250.46 -2259.59 -2258.40 -2262.58 -2272.19 -2255.40 -2231.79 -2226.67 -2209.49 -2195.15 -2124.86 -2047.30 -1895.97 -1759.33 -1417.69 -798.57 -605.36 -460.80 -365.43 -315.24 -276.36 -240.62 -178.41 -128.76 -60.66 -29.58 -50.19 -68.71 -98.11 -95.95 -91.39 -84.83 -70.76 -57.21 -52.91 -47.37 -40.53 -36.74 6.43 129.70 184.36 203.13 222.44 251.62 249.22 233.02 195.57 167.94 166.69 215.22 223.05 235.08 245.48 268.79 296.15 287.32 294.67 311.39 333.36 338.66 336.57 356.86 379.79 518.41 1165.40 271.51 221.22 122.75 -42.63 -150.45 -194.86 -299.26 -604.22 -798.17 -865.62 -834.24 -860.14 -874.92 -852.65 -798.09 -697.83 -586.63 -372.29 -178.96 -42.98 36.57 102.96 119.47 151.95 141.98 130.72 82.73 -30.12 -120.70 -300.78 -394.41 -617.25 -801.49 -1133.14 -1395.07 -1677.55 -1848.47 -1904.75 -1912.60 -1905.03 -1898.67 -1919.15 -1977.66 -2095.89 -2376.08 -2610.88 -3050.51 -3522.49 -3725.55 -3790.56 -3799.17 -3810.53 -3810.59
-2129.43 -2129.38 -2129.62 -2135.31 -2135.28 -2144.58 -2144.30 -2156.50 -2167.17 -2177.19 -2181.12 -2185.59 -2191.48 -2197.45 -2211.01 -2232.83 -2246.85 -2253.10 -2255.03 -2264.29 -2263.66 -2266.08 -2268.37 -2272.02 -2277.49 -2271.85 -2279.19 -2276.76 -2263.93 -2253.31 -2246.87 -2229.01 -2167.88 -2103.95 -1914.58 -1810.21 -1648.27 -1471.25 -1025.22 -653.54 -550.20 -437.98 -384.58 -299.71 -267.74 -225.08 -155.85 -124.12 -106.11 -96.78 -98.17 -101.90 -99.47 -93.44 -87.94 -73.51 -57.56 -45.46 -28.17 -23.76 -13.47 5.22 56.91 130.94 196.42 215.42 233.69 241.43 239.33 226.07 191.47 160.61 187.61 209.04 228.72 225.51 227.67 250.11 261.32 276.66 289.97 306.93 313.00 303.52 315.63 362.70 381.96 966.57 437.30 169.31 11.03 -115.83 -166.94 -211.11 -405.11 -603.75 -770.21 -773.70 -739.86 -650.61 -724.02 -754.57 -614.03 -435.47 -321.94 -209.84 -5.91 77.09 153.43 151.80 159.69 150.44 135.86 106.58 49.75 -72.59 -273.87 -421.37 -583.03 -762.04 -1059.48 -1207.20 -1457.14 -1784.99 -1872.38 -1896.37 -1898.69 -1900.07 -1899.98 -1926.92 -2010.72 -2171.74 -2377.24 -2548.85 -2920.54 -3388.72 -3637.03 -3752.20 -3809.36 -3812.74 -3812.80
-2143.21 -2144.97 -2147.15 -2148.48 -2152.76 -2155.90 -2160.99 -2170.92 -2181.03 -2190.75 -2194.49 -2199.44 -2202.78 -2206.11 -2226.59 -2245.48 -2258.81 -2262.75 -2271.08 -2274.24 -2283.58 -2287.71 -2289.16 -2285.20 -2292.47 -2287.37 -2288.70 -2281.75 -2272.40 -2265.96 -2256.58 -2240.55 -2191.55 -2106.87 -1927.94 -1703.34 -1531.18 -1214.46 -1038.07 -703.86 -550.28 -453.88 -376.21 -294.87 -280.56 -233.93 -180.34 -162.27 -134.09 -120.42 -115.31 -106.47 -106.17 -99.27 -82.66 -68.17 -42.66 -24.86 -18.50 -8.13 0.00 -0.16 9.74 52.80 152.37 168.79 192.73 210.35 221.94 224.36 177.21 157.89 165.43 189.25 205.70 222.54 223.17 227.74 232.83 258.34 281.74 296.26 297.08 297.87 327.36 360.37 378.36 756.46 639.94 167.76 48.99 -79.95 -169.06 -239.31 -371.83 -560.84 -593.81 -662.74 -585.66 -507.87 -558.91 -644.83 -585.14 -472.74 -256.60 -108.20 -60.35 29.54 133.58 153.49 124.52 113.55 91.88 45.55 -35.66 -148.64 -400.78 -607.19 -913.09 -1095.73 -1234.80 -1349.04 -1510.25 -1734.33 -1897.48 -1903.37 -1902.99 -1899.37 -1898.09 -1920.63 -2021.13 -2097.20 -2286.38 -2604.48 -2927.92 -3313.20 -3584.76 -3763.17 -3809.86 -3816.66 -3816.73
-2164.89 -2164.85 -2178.06 -2172.23 -2182.47 -2180.30 -2188.67 -2188.47 -2194.88 -2198.26 -2204.96 -2208.94 -2214.59 -2219.54 -2232.58 -2250.35 -2257.85 -2261.66 -2273.22 -2279.03 -2286.14 -2300.45 -2300.72 -2296.23 -2296.13 -2297.30 -2294.70 -2289.30 -2283.39 -2279.10 -2276.14 -2233.44 -2124.55 -2019.99 -1804.37 -1569.90 -1375.84 -1157.02 -858.07 -720.99 -572.98 -468.76 -383.08 -293.39 -270.41 -219.84 -202.93 -177.94 -147.70 -139.53 -121.01 -111.36 -106.42 -95.48 -73.91 -58.42 -36.74 -18.68 -7.62 3.31 8.75 11.24 21.60 43.05 70.80 111.47 164.61 183.14 185.38 180.03 173.53 154.15 154.45 155.02 182.00 211.97 220.65 221.92 224.25 224.84 243.71 280.94 294.92 294.73 308.23 345.89 368.51 417.65 581.70 137.95 -29.91 -233.48 -224.55 -238.72 -306.54 -400.07 -432.90 -476.67 -481.36 -434.45 -401.27 -445.81 -368.63 -314.08 -218.65 -176.83 -67.38 57.92 104.09 108.18 74.31 65.90 46.61 -80.50 -141.21 -358.78 -612.39 -863.63 -1127.45 -1370.48 -1606.55 -1611.53 -1705.94 -1850.58 -1900.35 -1905.64 -1903.24 -1897.91 -1900.80 -1914.19 -1967.36 -2060.78 -2273.38 -2579.36 -2945.33 -3394.17 -3670.32 -3764.89 -3810.27 -3818.68 -3818.74
-2193.19 -2194.78 -2198.04 -2202.30 -2205.84 -2209.34 -2206.70 -2209.98 -2206.71 -2206.53 -2213.76 -2214.70 -2221.49 -2226.43 -2239.66 -2246.62 -2256.62 -2261.05 -2268.70 -2277.09 -2283.06 -2303.57 -2310.14 -2308.87 -2303.69 -2300.28 -2297.71 -2295.52 -2294.32 -2290.72 -2283.37 -2259.08 -2093.70 -1914.28 -1762.65 -1525.32 -1228.83 -931.95 -865.36 -709.69 -582.90 -493.77 -395.54 -321.47 -263.68 -246.68 -206.17 -184.95 -162.84 -139.84 -123.65 -121.51 -105.24 -88.72 -71.89 -54.80 -36.40 -13.53 2.95 12.21 16.02 21.79 26.83 43.62 55.26 78.70 119.43 134.25 135.59 146.98 149.31 151.86 147.59 144.62 160.06 190.45 203.75 219.85 221.91 223.77 237.77 257.61 270.96 284.53 303.04 316.66 331.82 358.75 363.24 130.70 -132.70 -293.51 -308.98 -294.20 -340.67 -393.15 -400.83 -384.97 -359.26 -346.47 -304.80 -297.34 -213.90 -173.88 -82.25 -7.43 48.50 74.05 84.39 70.89 1.42 -67.58 -163.76 -288.56 -487.37 -597.28 -824.26 -1062.09 -1341.86 -1634.17 -1685.46 -1755.23 -1865.41 -1884.35 -1908.82 -1907.11 -1900.81 -1896.74 -1901.16 -1928.47 -1956.91 -2043.46 -2249.60 -2438.46 -3031.79 -3491.03 -3752.96 -3810.11 -3813.66 -3819.06 -3819.13
-2206.27 -2207.70 -2209.56 -2214.57 -2218.25 -2224.21 -2227.10 -2223.69 -2219.57 -2219.03 -2221.54 -2227.13 -2229.77 -2236.90 -2242.47 -2256.33 -2266.59 -2273.82 -2279.01 -2285.03 -2294.53 -2309.69 -2315.58 -2309.04 -2305.87 -2303.53 -2300.41 -2299.85 -2296.70 -2291.26 -2275.28 -2193.55 -2073.45 -1853.89 -1707.79 -1460.37 -1262.72 -1023.81 -844.88 -721.96 -592.13 -504.35 -394.81 -328.88 -284.31 -230.71 -213.98 -192.64 -174.20 -152.92 -138.64 -132.33 -109.35 -88.77 -63.83 -41.34 -25.66 -12.92 11.45 18.85 22.99 26.64 33.22 46.63 61.70 74.27 93.31 108.85 119.39 128.47 137.67 144.20 146.37 147.04 143.67 175.57 184.44 215.89 220.84 222.77 231.26 239.46 258.70 277.93 281.78 303.48 300.54 293.11 263.95 126.27 -298.85 -336.75 -350.06 -345.91 -358.10 -368.49 -351.37 -286.89 -255.58 -235.30 -179.70 -151.47 -94.57 -22.12 55.71 56.88 78.93 79.55 73.75 59.51 -38.48 -198.93 -407.68 -546.22 -643.77 -832.22 -1023.76 -1319.87 -1552.49 -1647.94 -1775.32 -1848.48 -1879.29 -1909.95 -1907.43 -1902.96 -1897.91 -1897.43 -1909.88 -1943.06 -1995.48 -2101.86 -2375.74 -2693.95 -3200.22 -3625.41 -3785.22 -3809.57 -3812.90 -3819.63 -3819.70
-2216.83 -2216.78 -2221.73 -2222.32 -2226.22 -2229.71 -2236.85 -2234.34 -2228.74 -2228.98 -2232.06 -2238.24 -2246.19 -2250.00 -2261.96 -2274.09 -2279.88 -2277.95 -2287.89 -2299.27 -2314.92 -2317.54 -2316.34 -2312.28 -2307.95 -2306.13 -2304.06 -2304.66 -2299.11 -2284.67 -2259.27 -2180.32 -1999.24 -1835.01 -1638.58 -1423.93 -1289.04 -1025.17 -832.28 -677.34 -608.02 -507.04 -437.49 -376.34 -303.15 -254.05 -228.68 -204.76 -176.98 -163.47 -145.29 -136.24 -116.24 -88.90 -62.40 -37.46 -14.63 0.16 17.09 21.20 26.30 29.16 39.24 51.91 66.57 80.11 94.31 99.49 113.10 124.42 135.02 140.73 145.66 148.32 145.61 153.23 174.95 200.67 213.26 223.03 224.18 238.39 244.92 260.05 263.71 270.30 272.74 272.45 253.86 69.62 -178.13 -296.36 -352.73 -369.22 -366.63 -343.83 -286.08 -187.97 -118.95 -81.99 -37.79 -0.29 48.77 54.12 65.24 70.17 72.07 65.67 57.61 10.99 -121.64 -333.48 -496.67 -569.21 -760.22 -1068.16 -1277.74 -1491.96 -1655.08 -1717.37 -1824.97 -1857.10 -1883.82 -1903.04 -1903.61 -1898.88 -1898.12 -1899.53 -1910.72 -1934.80 -2038.83 -2167.85 -2369.10 -2812.75 -3227.24 -3640.18 -3780.38 -3811.74 -3814.74 -3820.23 -3820.29
-2227.35 -2227.30 -2229.61 -2232.98 -2238.68 -2244.17 -2246.22 -2245.63 -2236.41 -2236.00 -2243.12 -2251.10 -2251.42 -2258.61 -2268.94 -2281.26 -2285.21 -2283.30 -2293.54 -2304.24 -2317.74 -2319.47 -2317.85 -2313.94 -2309.92 -2309.60 -2311.51 -2310.39 -2307.27 -2283.25 -2217.96 -2144.96 -1953.86 -1795.68 -1677.86 -1377.03 -1265.45 -1049.04 -844.23 -699.93 -574.74 -524.08 -471.03 -398.21 -337.87 -272.19 -232.84 -210.89 -182.97 -172.96 -157.58 -139.24 -113.47 -96.49 -70.74 -42.44 -15.87 -0.46 16.71 25.27 31.19 36.91 48.97 56.38 69.42 80.53 91.73 102.06 111.20 122.60 130.57 139.57 146.38 150.48 150.59 151.34 158.34 171.25 185.41 214.35 218.25 228.32 238.84 241.60 252.08 255.17 265.95 251.69 239.12 174.64 -120.87 -212.45 -347.04 -361.38 -355.29 -298.29 -208.23 -44.82 -49.83 11.22 20.83 74.13 95.59 82.27 64.67 59.93 58.58 58.21 45.40 -14.79 -165.26 -300.13 -477.34 -635.22 -795.69 -1089.68 -1406.19 -1542.11 -1698.64 -1785.65 -1843.70 -1868.40 -1889.24 -1897.46 -1895.95 -1895.36 -1896.83 -1899.30 -1912.97 -1941.86 -2027.73 -2215.93 -2423.51 -2838.73 -3435.98 -3645.25 -3792.07 -3808.56 -3818.44 -3820.72 -3821.03
-2237.38 -2237.32 -2240.32 -2246.17 -2250.64 -2251.64 -2257.17 -2259.46 -2251.67 -2250.45 -2254.56 -2259.34 -2266.52 -2277.25 -2281.55 -2280.37 -2284.83 -2288.06 -2300.43 -2309.45 -2318.84 -2319.73 -2318.74 -2316.95 -2313.93 -2313.93 -2318.64 -2319.15 -2314.73 -2290.31 -2197.70 -2121.72 -1987.22 -1869.18 -1730.14 -1467.65 -1306.18 -1003.53 -931.90 -760.14 -616.62 -540.52 -465.70 -399.27 -351.24 -289.65 -259.98 -225.60 -193.10 -176.71 -165.19 -135.52 -118.93 -85.21 -60.90 -33.46 -11.29 4.75 15.00 27.41 35.13 42.70 48.18 59.90 71.26 83.52 90.91 101.97 112.86 117.65 125.69 132.25 140.35 147.21 151.03 151.82 151.61 151.49 166.00 187.24 189.24 198.77 210.85 235.13 237.20 244.57 249.01 242.43 233.89 219.61 10.04 -93.44 -235.47 -327.22 -316.41 -230.89 -114.61 -16.69 30.34 58.51 81.59 99.19 85.99 67.74 46.00 40.11 42.84 36.24 18.26 -49.77 -242.61 -362.36 -578.95 -775.95 -960.62 -1256.18 -1464.94 -1685.69 -1781.44 -1852.99 -1871.75 -1885.00 -1894.09 -1892.48 -1893.14 -1895.16 -1898.80 -1901.98 -1912.93 -1926.31 -2022.00 -2222.95 -2660.99 -2921.52 -3371.96 -3713.92 -3803.30 -3811.92 -3816.70 -3821.77 -3821.83
-2238.77 -2238.48 -2241.29 -2245.45 -2250.45 -2253.69 -2260.10 -2262.67 -2262.72 -2263.58 -2274.82 -2281.74 -2284.74 -2288.54 -2293.42 -2286.70 -2288.05 -2294.15 -2301.37 -2316.27 -2321.98 -2325.49 -2325.72 -2324.47 -2318.86 -2323.39 -2325.52 -2319.74 -2315.59 -2275.65 -2208.90 -2146.46 -2006.67 -1901.86 -1752.12 -1482.83 -1204.00 -1043.20 -849.03 -737.19 -653.75 -551.57 -447.29 -397.96 -325.99 -300.84 -264.13 -228.25 -203.31 -186.24 -169.17 -162.48 -138.10 -99.92 -75.67 -45.79 -17.19 -1.78 16.73 26.52 36.77 41.35 46.04 58.72 65.17 71.47 81.07 95.46 102.07 117.55 121.44 128.20 135.71 143.43 148.13 151.14 152.65 151.15 150.93 152.52 158.33 163.21 165.00 201.64 221.37 235.86 243.71 240.01 234.24 213.31 143.26 35.47 -81.67 -220.32 -208.02 -132.73 -33.73 25.39 43.85 57.27 39.32 60.13 49.18 1.85 17.68 19.03 12.42 4.50 -102.45 -127.38 -343.68 -559.76 -744.80 -891.84 -1077.72 -1395.92 -1640.09 -1772.13 -1799.48 -1863.71 -1874.45 -1878.87 -1888.81 -1889.71 -1890.60 -1895.94 -1901.46 -1905.82 -1910.12 -1927.16 -2028.41 -2145.90 -2709.83 -3300.69 -3620.68 -3743.75 -3800.32 -3810.87 -3818.49 -3823.18 -3823.24
-2235.56 -2236.61 -2243.65 -2246.06 -2251.47 -2254.83 -2260.25 -2265.88 -2278.59 -2281.74 -2286.86 -2291.71 -2299.19 -2300.74 -2300.46 -2302.09 -2300.40 -2301.14 -2308.28 -2321.61 -2324.47 -2329.09 -2330.73 -2331.53 -2333.52 -2335.85 -2331.98 -2325.82 -2317.67 -2283.21 -2245.12 -2155.45 -2032.48 -1815.46 -1675.63 -1422.67 -1171.65 -1003.61 -904.16 -830.71 -707.62 -595.36 -498.73 -400.61 -352.17 -308.19 -287.31 -252.68 -219.04 -202.00 -184.31 -176.07 -134.41 -103.91 -73.56 -45.16 -19.94 -3.92 13.72 23.76 29.17 34.68 41.63 51.16 59.46 57.36 71.92 79.97 95.67 109.28 120.54 122.63 132.82 140.76 143.94 149.80 150.48 146.47 141.08 145.65 148.62 146.63 152.59 167.60 190.01 226.83 229.11 231.40 228.15 203.94 161.98 92.73 1.34 5.67 -50.53 -43.62 19.11 46.91 45.08 20.28 -9.98 -23.38 -62.03 -85.19 -61.96 -23.25 -33.61 -99.72 -154.07 -232.59 -359.73 -759.79 -896.66 -1020.18 -1209.64 -1509.86 -1708.54 -1772.97 -1836.34 -1859.93 -1873.14 -1882.56 -1886.37 -1886.59 -1887.30 -1892.56 -1902.19 -1906.62 -1912.01 -1920.87 -2010.92 -2231.86 -2993.13 -3564.64 -3710.82 -3785.39 -3796.81 -3813.14 -3818.05 -3828.14 -3827.10
-2244.99 -2244.92 -2247.52 -2254.26 -2257.06 -2263.24 -2270.55 -2276.92 -2286.28 -2291.74 -2296.26 -2304.25 -2309.86 -2313.25 -2314.70 -2310.43 -2310.32 -2312.79 -2315.68 -2330.53 -2334.47 -2332.86 -2338.65 -2339.80 -2340.21 -2342.47 -2340.66 -2337.41 -2328.90 -2301.75 -2278.06 -2169.89 -1958.43 -1831.07 -1622.97 -1441.81 -1176.51 -1041.79 -918.87 -839.37 -710.03 -596.75 -521.39 -444.54 -373.97 -326.59 -304.69 -269.42 -241.43 -231.77 -201.36 -174.25 -143.03 -92.46 -54.06 -40.78 -18.82 -0.43 13.12 19.37 24.57 28.62 36.02 41.94 48.80 52.03 57.81 73.95 87.72 99.68 110.96 120.87 128.21 134.58 136.23 142.53 138.78 138.57 136.93 138.14 139.65 135.99 145.87 157.18 182.03 190.15 211.76 220.51 217.06 211.00 178.95 149.31 83.94 73.01 39.70 42.68 55.15 48.96 36.50 9.91 -27.93 -76.28 -127.30 -181.35 -191.08 -127.50 -95.75 -188.76 -368.68 -515.65 -614.92 -835.42 -1007.26 -1225.99 -1326.10 -1568.64 -1723.19 -1781.06 -1834.18 -1865.92 -1871.82 -1880.27 -1882.33 -1885.66 -1891.93 -1893.61 -1898.96 -1905.54 -1912.78 -1923.08 -2000.47 -2099.32 -2686.87 -3527.13 -3778.92 -3796.85 -3814.45 -3822.07 -3816.27 -3827.79 -3831.13
-2254.31 -2254.24 -2260.17 -2263.37 -2263.62 -2276.10 -2282.54 -2289.10 -2298.60 -2304.37 -2309.06 -2315.62 -2320.91 -2325.95 -2328.81 -2325.82 -2326.23 -2324.78 -2323.48 -2344.08 -2343.58 -2342.62 -2345.46 -2350.98 -2353.94 -2352.07 -2345.66 -2339.28 -2340.42 -2321.69 -2280.18 -2188.31 -2048.29 -1894.52 -1689.91 -1533.22 -1199.57 -1114.38 -1024.47 -869.48 -787.74 -647.87 -533.82 -436.62 -398.91 -343.16 -324.30 -291.72 -263.73 -238.34 -198.56 -177.26 -136.80 -105.75 -43.97 -28.30 -12.60 2.28 9.39 14.69 18.12 23.74 27.25 35.22 42.26 46.36 52.37 68.82 83.65 99.03 105.16 114.00 122.18 128.23 129.87 129.41 134.16 131.90 130.73 132.11 131.60 131.60 138.11 146.93 149.60 163.20 164.95 192.71 207.80 196.91 186.63 159.72 124.13 100.25 78.34 73.19 56.00 32.03 12.96 -19.59 -58.56 -137.23 -222.47 -323.30 -378.39 -307.84 -328.95 -418.39 -463.80 -676.14 -838.91 -1097.10 -1193.80 -1307.89 -1448.08 -1546.17 -1787.76 -1817.43 -1857.95 -1870.62 -1877.20 -1878.11 -1880.54 -1885.09 -1894.82 -1897.11 -1901.53 -1905.39 -1910.23 -1921.54 -2001.08 -2291.96 -3024.64 -3572.20 -3789.45 -3813.27 -3824.93 -3828.90 -3828.28 -3834.67 -3835.18
-2263.43 -2263.36 -2270.28 -2270.22 -2277.29 -2285.72 -2292.05 -2299.59 -2309.14 -2316.31 -2325.23 -2331.08 -2328.52 -2338.19 -2336.57 -2335.34 -2333.17 -2335.77 -2341.38 -2346.98 -2348.40 -2348.75 -2353.20 -2353.38 -2354.48 -2355.89 -2351.55 -2347.31 -2343.65 -2318.69 -2275.13 -2193.58 -2076.78 -1931.60 -1734.66 -1559.97 -1339.68 -1209.90 -1026.34 -916.72 -808.67 -728.11 -593.85 -483.07 -410.14 -378.23 -342.17 -314.17 -270.07 -248.43 -205.13 -162.61 -133.09 -99.10 -67.89 -36.13 -17.43 -1.88 6.20 10.47 13.21 15.28 21.37 24.64 32.25 40.86 49.57 61.39 81.63 88.18 104.20 112.68 119.01 124.52 122.78 125.77 126.34 125.20 125.74 125.96 124.80 124.18 126.62 129.63 132.22 145.15 148.19 134.56 160.26 152.29 139.01 132.54 107.65 109.75 91.63 72.28 42.69 11.96 -18.40 -43.95 -73.85 -219.85 -293.60 -395.80 -451.56 -458.93 -530.28 -582.77 -644.74 -783.13 -955.08 -1286.91 -1295.56 -1464.77 -1561.13 -1641.28 -1798.07 -1853.02 -1859.81 -1876.13 -1879.94 -1880.28 -1883.84 -1884.69 -1894.38 -1903.93 -1907.69 -1907.71 -1911.81 -1920.18 -2018.07 -2333.03 -2959.50 -3560.96 -3795.33 -3818.64 -3819.52 -3828.98 -3834.29 -3837.23 -3837.92
-2273.00 -2272.77 -2277.55 -2282.33 -2286.50 -2291.94 -2299.90 -2310.60 -2317.88 -2327.87 -2334.78 -2339.90 -2343.60 -2350.61 -2347.65 -2346.16 -2348.11 -2351.02 -2349.87 -2355.01 -2360.45 -2360.91 -2360.27 -2356.79 -2356.50 -2362.05 -2361.29 -2355.00 -2348.43 -2327.92 -2303.74 -2217.28 -2080.07 -1905.09 -1765.31 -1604.33 -1494.04 -1269.43 -1062.57 -918.68 -801.99 -718.08 -627.12 -502.81 -437.13 -395.10 -374.71 -330.31 -281.80 -224.84 -197.16 -146.11 -121.69 -87.66 -69.77 -40.95 -22.88 -8.16 2.02 8.10 8.45 8.41 12.70 18.77 22.53 33.47 51.93 58.60 62.17 81.22 96.56 107.00 112.32 117.26 118.49 119.19 120.00 120.37 120.78 121.00 120.19 121.07 122.73 122.59 124.22 127.85 113.49 112.75 111.73 103.39 55.09 11.12 57.29 84.08 60.00 8.52 -2.69 -18.15 -84.33 -120.75 -229.24 -311.76 -331.58 -422.00 -583.55 -708.34 -750.19 -909.34 -994.68 -995.93 -1286.14 -1469.81 -1519.46 -1645.41 -1660.44 -1732.95 -1805.77 -1858.31 -1867.34 -1874.29 -1881.12 -1883.21 -1886.55 -1890.47 -1894.76 -1903.74 -1909.09 -1910.53 -1912.80 -1925.10 -1963.98 -2340.67 -3016.42 -3533.62 -3797.71 -3805.86 -3824.73 -3835.41 -3836.57 -3838.82 -3838.88
-2286.65 -2285.90 -2290.48 -2297.61 -2303.95 -2307.96 -2318.52 -2324.57 -2329.33 -2336.75 -2340.90 -2348.62 -2353.17 -2357.25 -2356.77 -2362.07 -2360.76 -2360.56 -2362.59 -2369.19 -2374.91 -2367.96 -2368.65 -2364.39 -2367.42 -2371.62 -2369.98 -2359.76 -2352.20 -2333.56 -2322.58 -2239.80 -2141.05 -1989.42 -1758.31 -1629.00 -1503.13 -1281.45 -1062.85 -937.79 -849.46 -762.32 -667.21 -537.17 -520.90 -460.50 -395.98 -378.74 -318.64 -254.66 -196.28 -140.46 -107.21 -85.87 -60.81 -41.22 -24.01 -12.53 3.71 5.60 6.10 7.25 10.15 10.89 14.98 24.84 36.89 45.69 57.79 76.21 88.46 95.87 102.64 110.07 114.04 114.35 113.07 115.08 115.38 115.50 114.83 116.68 116.00 118.75 120.18 120.34 107.59 104.29 63.17 5.99 -87.00 -78.38 -28.52 -10.84 6.78 -101.41 -93.93 -101.53 -166.43 -214.73 -306.56 -387.33 -526.32 -722.20 -832.15 -1023.73 -1177.93 -1167.17 -1271.76 -1332.91 -1489.75 -1627.51 -1699.06 -1712.40 -1796.88 -1839.26 -1861.47 -1879.46 -1877.30 -1876.47 -1881.60 -1886.90 -1891.57 -1898.86 -1898.17 -1908.40 -1911.02 -1912.04 -1914.93 -1936.18 -2034.23 -2368.94 -2733.33 -3479.25 -3792.73 -3814.31 -3832.68 -3837.28 -3838.00 -3839.41 -3839.47
-2297.55 -2297.72 -2302.77 -2308.74 -2312.98 -2325.75 -2329.59 -2331.83 -2337.24 -2344.49 -2351.95 -2359.55 -2362.73 -2364.86 -2368.66 -2373.78 -2379.10 -2378.42 -2382.41 -2382.31 -2382.41 -2377.83 -2376.44 -2374.81 -2375.23 -2376.79 -2373.86 -2366.54 -2357.70 -2324.54 -2288.39 -2260.32 -2132.69 -2050.46 -1830.66 -1571.85 -1428.27 -1260.19 -1206.15 -1107.23 -875.30 -765.32 -686.66 -571.33 -532.40 -471.75 -420.42 -401.53 -372.26 -276.02 -204.30 -135.63 -122.41 -85.29 -59.89 -45.32 -29.75 -12.20 -1.07 1.64 4.09 4.26 1.84 2.98 10.79 19.36 26.65 36.71 49.56 64.25 74.91 77.43 96.91 101.61 104.24 106.13 107.22 106.34 108.52 109.51 110.20 109.26 111.21 114.20 110.36 105.12 87.18 61.30 12.40 -45.77 -199.44 -290.63 -211.98 -121.55 -170.61 -275.45 -273.05 -271.93 -293.53 -341.36 -531.69 -665.53 -658.86 -976.32 -1074.90 -1343.26 -1500.05 -1427.55 -1550.66 -1532.67 -1628.11 -1768.09 -1818.61 -1811.85 -1825.10 -1850.25 -1871.33 -1879.20 -1879.94 -1884.71 -1885.76 -1891.45 -1897.91 -1899.63 -1906.81 -1914.20 -1915.60 -1917.04 -1923.23 -1941.82 -2061.34 -2231.67 -2452.04 -3196.88 -3465.54 -3823.15 -3830.02 -3835.35 -3835.28 -3836.70 -3836.76
-2304.89 -2304.82 -2312.40 -2318.42 -2324.11 -2333.83 -2338.29 -2342.03 -2348.41 -2352.89 -2358.48 -2366.53 -2371.38 -2376.29 -2381.36 -2387.77 -2390.95 -2392.08 -2394.21 -2393.72 -2390.69 -2388.09 -2384.30 -2388.76 -2383.68 -2383.52 -2378.10 -2372.99 -2363.98 -2333.71 -2264.34 -2204.40 -2156.44 -1996.78 -1891.67 -1649.85 -1516.98 -1414.53 -1341.88 -1171.08 -1041.37 -864.70 -734.41 -641.20 -575.93 -503.26 -456.65 -410.56 -354.22 -253.89 -193.22 -151.18 -135.60 -94.32 -67.05 -45.58 -34.20 -13.70 -7.98 -3.50 0.31 1.32 -0.17 0.93 8.40 13.48 19.80 29.29 38.95 46.64 61.15 71.65 87.81 93.19 94.75 99.53 102.47 101.76 102.76 102.30 103.60 101.86 100.58 102.74 95.79 73.10 47.16 7.75 -39.86 -220.14 -356.17 -465.56 -512.05 -587.88 -417.01 -597.76 -533.32 -587.80 -498.56 -639.28 -946.61 -1092.00 -958.89 -1160.50 -1354.30 -1558.33 -1652.95 -1650.46 -1690.91 -1740.91 -1763.85 -1782.00 -1847.42 -1867.55 -1868.80 -1873.60 -1885.64 -1884.18 -1887.65 -1893.05 -1897.35 -1902.50 -1905.35 -1909.36 -1912.62 -1917.60 -1922.71 -1923.67 -1938.47 -1951.28 -2010.24 -2192.23 -2321.37 -2935.07 -3460.54 -3827.89 -3826.48 -3829.67 -3830.33 -3835.68 -3835.74
-2311.52 -2311.45 -2318.90 -2324.43 -2330.94 -2340.27 -2348.90 -2351.04 -2356.27 -2362.94 -2370.38 -2377.32 -2384.40 -2387.30 -2391.92 -2397.80 -2401.89 -2401.38 -2400.78 -2402.20 -2398.74 -2398.60 -2396.26 -2394.43 -2390.69 -2387.55 -2381.42 -2375.42 -2363.90 -2335.23 -2292.54 -2218.77 -2130.21 -1982.61 -1876.36 -1688.20 -1601.10 -1451.68 -1404.71 -1241.40 -1183.39 -991.60 -821.83 -684.07 -624.45 -568.35 -508.46 -456.28 -362.05 -257.55 -209.39 -173.73 -139.95 -105.78 -73.50 -58.25 -42.13 -21.58 -11.01 -4.89 -5.45 -2.84 -0.01 2.81 5.73 9.90 17.48 24.42 34.97 39.86 52.10 60.53 79.88 82.55 86.55 89.98 94.78 95.67 96.43 96.67 95.65 97.04 91.47 92.34 66.29 36.39 3.91 -41.82 -247.93 -371.95 -531.19 -722.97 -850.31 -929.03 -999.91 -994.02 -752.59 -837.87 -772.23 -944.85 -1264.74 -1276.96 -1484.57 -1576.55 -1527.75 -1686.00 -1778.19 -1828.12 -1826.02 -1859.03 -1865.18 -1857.17 -1869.75 -1886.69 -1888.52 -1892.38 -1899.13 -1895.47 -1900.30 -1906.32 -1912.61 -1914.46 -1918.56 -1916.74 -1918.41 -1921.91 -1927.32 -1934.47 -1942.74 -1959.60 -2017.64 -2093.28 -2322.06 -2994.71 -3666.06 -3821.14 -3823.88 -3824.93 -3820.22 -3833.62 -3837.64
-2318.70 -2318.63 -2326.64 -2333.40 -2341.89 -2350.61 -2356.57 -2359.76 -2365.96 -2371.13 -2378.44 -2384.68 -2394.03 -2396.27 -2404.71 -2411.42 -2409.32 -2411.18 -2411.87 -2411.70 -2409.70 -2405.87 -2402.33 -2400.65 -2395.03 -2389.20 -2387.54 -2384.14 -2370.12 -2346.37 -2317.41 -2259.22 -2194.93 -2048.85 -1858.83 -1767.24 -1693.14 -1617.11 -1385.06 -1318.20 -1203.16 -1004.26 -887.27 -773.24 -686.69 -611.38 -559.01 -470.85 -402.64 -272.08 -240.03 -187.71 -153.21 -120.78 -83.23 -64.34 -45.40 -30.55 -22.33 -12.33 -8.28 -5.63 -3.12 -0.51 5.11 7.48 13.00 22.22 31.05 38.48 47.52 60.09 69.55 74.14 76.20 79.73 81.32 89.02 88.55 89.67 89.74 89.50 84.10 74.64 45.95 -1.84 -42.12 -171.82 -282.77 -462.83 -749.05 -929.08 -1104.64 -1378.41 -1442.22 -1422.74 -1269.79 -1188.91 -1154.36 -1378.00 -1569.13 -1744.42 -1729.48 -1804.66 -1746.69 -1748.85 -1820.34 -1861.94 -1878.72 -1890.28 -1891.47 -1899.40 -1906.09 -1903.82 -1905.07 -1903.08 -1913.59 -1914.53 -1916.68 -1918.56 -1918.69 -1925.17 -1927.13 -1929.95 -1930.06 -1930.54 -1933.93 -1940.75 -1952.57 -2001.55 -2054.84 -2145.60 -2456.17 -2962.69 -3446.53 -3820.23 -3828.53 -3829.95 -3829.10 -3839.65 -3839.72
-2325.61 -2326.07 -2332.40 -2339.29 -2346.60 -2354.60 -2364.23 -2370.46 -2373.58 -2380.06 -2388.08 -2399.64 -2405.97 -2411.77 -2418.33 -2423.15 -2418.83 -2419.16 -2423.27 -2421.64 -2418.81 -2411.56 -2409.38 -2404.39 -2399.56 -2395.39 -2392.79 -2388.81 -2381.44 -2373.45 -2333.54 -2270.78 -2200.62 -2083.86 -2009.32 -1929.92 -1779.01 -1664.74 -1521.88 -1402.66 -1216.71 -1053.81 -923.70 -815.97 -711.81 -641.05 -553.24 -493.39 -358.10 -321.15 -270.55 -209.69 -166.46 -123.34 -99.28 -69.42 -57.96 -38.91 -30.97 -22.17 -14.97 -9.54 -2.96 0.04 3.48 5.24 11.13 17.56 26.90 36.41 47.43 55.39 62.00 69.20 64.91 69.76 76.06 81.01 81.13 79.93 75.40 78.15 59.68 53.29 -9.42 -41.70 -134.10 -233.35 -378.68 -798.55 -1143.51 -1323.70 -1416.79 -1502.38 -1555.23 -1600.37 -1582.87 -1572.71 -1564.73 -1553.80 -1705.63 -1847.20 -1861.54 -1868.33 -1853.01 -1859.58 -1869.52 -1887.29 -1900.29 -1902.84 -1908.82 -1916.95 -1925.54 -1921.52 -1921.30 -1912.76 -1923.98 -1935.44 -1933.76 -1931.47 -1927.78 -1930.82 -1935.55 -1936.41 -1937.72 -1935.26 -1938.49 -1939.60 -1949.17 -1993.40 -2105.68 -2361.47 -2859.42 -3422.61 -3679.98 -3820.17 -3832.82 -3834.15 -3828.68 -3841.79 -3841.86
-2331.71 -2331.64 -2339.99 -2345.55 -2354.35 -2362.44 -2369.85 -2383.95 -2400.46 -2415.81 -2417.93 -2420.79 -2430.53 -2433.21 -2436.87 -2437.13 -2438.46 -2437.40 -2431.85 -2430.85 -2424.25 -2421.75 -2414.29 -2408.77 -2403.71 -2401.63 -2396.54 -2395.63 -2390.09 -2384.68 -2361.73 -2310.50 -2241.08 -2189.57 -2097.86 -2027.04 -1911.73 -1716.50 -1628.59 -1460.31 -1256.13 -1069.87 -933.80 -825.16 -725.78 -643.83 -528.23 -471.48 -390.59 -332.92 -290.91 -235.76 -181.19 -124.22 -95.24 -84.45 -65.87 -49.68 -41.60 -25.56 -18.80 -9.35 -4.49 -1.69 1.93 4.58 11.31 16.55 25.91 31.42 39.75 48.10 51.11 52.40 53.37 59.74 65.65 62.44 68.02 67.40 66.65 48.71 41.81 21.42 -25.55 -75.68 -249.02 -407.00 -575.83 -917.32 -1238.74 -1573.76 -1534.26 -1605.89 -1653.29 -1748.61 -1761.84 -1796.48 -1751.58 -1761.51 -1790.20 -1851.53 -1876.96 -1876.11 -1869.75 -1890.89 -1897.50 -1908.24 -1918.92 -1919.11 -1920.82 -1929.24 -1934.23 -1938.32 -1938.18 -1936.27 -1940.42 -1948.56 -1947.33 -1948.32 -1943.25 -1945.72 -1941.96 -1940.91 -1940.86 -1936.38 -1936.18 -1937.09 -1926.96 -1942.03 -2072.49 -2329.97 -3233.81 -3625.70 -3777.28 -3830.89 -3839.15 -3842.10 -3841.46 -3845.20 -3845.27
-2338.55 -2338.48 -2346.76 -2351.36 -2360.28 -2367.31 -2376.71 -2392.46 -2416.50 -2429.55 -2443.45 -2450.00 -2458.00 -2458.73 -2455.80 -2454.20 -2449.09 -2445.03 -2440.81 -2437.07 -2433.81 -2431.23 -2422.01 -2417.69 -2409.22 -2404.31 -2401.25 -2398.73 -2395.81 -2391.34 -2377.82 -2359.70 -2339.74 -2301.00 -2231.63 -2088.57 -1952.31 -1859.28 -1720.15 -1511.99 -1295.30 -1038.19 -951.88 -829.16 -731.00 -618.97 -560.58 -473.88 -430.47 -358.79 -301.73 -268.25 -208.07 -151.07 -123.02 -106.43 -96.99 -73.88 -49.65 -42.85 -24.03 -14.40 -5.96 -5.24 -2.88 0.57 7.41 11.93 17.87 23.35 26.68 37.00 43.82 44.55 47.30 50.04 49.58 48.44 54.90 56.30 37.35 26.07 20.70 -10.69 -59.13 -147.98 -285.77 -579.25 -802.95 -968.75 -1339.70 -1573.41 -1666.09 -1667.12 -1736.39 -1780.78 -1806.53 -1825.21 -1839.25 -1846.27 -1855.19 -1872.03 -1879.03 -1883.06 -1889.98 -1905.61 -1924.58 -1933.02 -1943.30 -1942.46 -1938.11 -1942.65 -1950.54 -1959.58 -1974.17 -1960.93 -1958.30 -1964.75 -1969.06 -1961.58 -1956.11 -1957.67 -1946.13 -1943.88 -1946.34 -1941.78 -1934.67 -1928.71 -1909.64 -1913.27 -1925.40 -2366.62 -3344.89 -3655.78 -3804.56 -3845.41 -3842.56 -3844.12 -3840.08 -3845.37 -3847.37
-2349.15 -2349.08 -2356.03 -2358.16 -2365.98 -2374.14 -2386.32 -2406.77 -2430.91 -2441.99 -2450.43 -2454.46 -2459.87 -2462.08 -2459.04 -2454.34 -2454.25 -2453.44 -2467.41 -2464.96 -2450.79 -2446.11 -2428.14 -2422.78 -2420.72 -2410.30 -2406.41 -2403.39 -2401.42 -2399.55 -2389.74 -2384.11 -2368.42 -2358.71 -2259.60 -2169.67 -2100.78 -1991.84 -1819.04 -1625.73 -1350.52 -1056.83 -979.86 -850.87 -765.68 -677.55 -586.82 -506.31 -463.63 -419.41 -368.08 -282.23 -225.43 -205.66 -150.41 -138.36 -105.38 -93.45 -73.07 -62.00 -41.93 -28.76 -21.28 -22.61 -14.30 -5.78 -3.70 2.07 7.56 9.11 16.34 27.11 33.37 27.66 30.17 26.28 33.59 27.20 36.97 36.15 22.91 -26.59 -42.12 -98.67 -198.13 -353.46 -671.93 -973.18 -1212.76 -1528.04 -1483.92 -1692.77 -1728.44 -1735.17 -1777.14 -1803.64 -1823.92 -1833.42 -1856.34 -1865.77 -1871.47 -1877.06 -1884.80 -1896.31 -1905.38 -1924.19 -1945.39 -1961.70 -1961.20 -1968.59 -1972.51 -1979.07 -1965.35 -1974.55 -1988.55 -1974.14 -1976.17 -1984.52 -1972.01 -1968.83 -1971.86 -1967.03 -1957.27 -1952.50 -1954.54 -1950.54 -1951.72 -1930.70 -1906.96 -1896.19 -1909.44 -2663.35 -3290.15 -3771.00 -3848.96 -3852.61 -3851.60 -3851.31 -3851.42 -3852.12 -3852.19
-2368.95 -2368.87 -2369.12 -2364.31 -2375.45 -2380.37 -2393.72 -2413.03 -2436.14 -2448.56 -2455.96 -2460.37 -2464.93 -2469.05 -2461.49 -2470.10 -2495.76 -2492.51 -2526.85 -2504.32 -2481.74 -2466.63 -2445.13 -2436.99 -2432.81 -2423.74 -2415.59 -2409.91 -2407.88 -2404.73 -2399.65 -2389.82 -2377.50 -2360.07 -2308.13 -2223.65 -2147.79 -2011.77 -1816.83 -1582.55 -1328.29 -1112.20 -1059.96 -943.57 -803.60 -712.67 -618.14 -547.00 -494.39 -453.23 -397.80 -338.54 -284.72 -211.32 -186.47 -167.03 -145.81 -138.38 -126.86 -90.44 -84.71 -63.72 -36.42 -37.96 -26.25 -21.36 -14.11 -14.33 -5.52 -3.50 3.63 17.38 10.75 9.87 11.68 11.23 5.97 10.78 18.38 -0.25 -38.34 -61.89 -84.06 -178.86 -344.22 -713.50 -1206.91 -1380.55 -1685.27 -1811.59 -1785.52 -1751.94 -1782.15 -1782.21 -1801.46 -1811.20 -1831.70 -1846.29 -1865.70 -1891.90 -1908.82 -1897.64 -1905.65 -1937.03 -1932.30 -1957.86 -1973.24 -1980.69 -1990.05 -2012.68 -1999.35 -2012.17 -2006.38 -2009.72 -2005.79 -1995.79 -2004.14 -1998.33 -1988.09 -1986.00 -1977.17 -1975.74 -1965.22 -1965.88 -1963.08 -1968.38 -1980.29 -1963.12 -1918.46 -1902.83 -1951.32 -2433.84 -3273.05 -3824.18 -3855.50 -3854.45 -3853.76 -3852.88 -3851.79 -3853.26 -3853.78
-2401.20 -2395.72 -2409.55 -2392.37 -2404.15 -2426.44 -2419.48 -2446.16 -2478.19 -2452.74 -2496.79 -2474.64 -2501.07 -2517.75 -2502.72 -2535.92 -2565.75 -2642.86 -2658.76 -2592.92 -2528.21 -2486.94 -2463.25 -2458.78 -2445.14 -2441.87 -2426.92 -2420.29 -2414.32 -2412.90 -2410.25 -2399.90 -2383.94 -2372.54 -2356.05 -2277.88 -2194.98 -2112.80 -2033.94 -1860.84 -1437.67 -1252.21 -1116.12 -1044.45 -867.21 -751.67 -655.41 -621.17 -561.34 -475.80 -426.93 -384.78 -312.40 -266.03 -219.71 -214.31 -212.69 -175.73 -227.60 -186.83 -125.45 -75.56 -69.50 -65.48 -61.61 -54.90 -54.49 -49.27 -38.69 -26.63 -12.95 -10.20 -27.79 -10.37 -11.11 -27.66 -20.90 -13.63 -24.60 -40.18 -82.90 -149.88 -194.91 -316.88 -470.14 -921.07 -1297.85 -1617.21 -1872.71 -1897.93 -1913.02 -1875.92 -1822.15 -1861.85 -1867.70 -1848.58 -1855.70 -1879.41 -1920.18 -1926.75 -1946.28 -1950.26 -1989.90 -1996.53 -1970.04 -1978.86 -1989.41 -2016.75 -2017.74 -2034.70 -2054.66 -2046.79 -2035.55 -2026.59 -2021.46 -2020.41 -2017.31 -2008.34 -2004.97 -2000.01 -1990.30 -1984.11 -1989.23 -1990.75 -1992.92 -2014.24 -2019.17 -2072.87 -2109.52 -2023.18 -1963.36 -2393.76 -3295.31 -3844.46 -3862.35 -3859.41 -3855.22 -3853.89 -3852.94 -3854.43 -3854.50
-2597.21 -2577.82 -2662.64 -2602.35 -2637.51 -2700.86 -2738.93 -2779.09 -2726.04 -2605.59 -2972.50 -2700.83 -2814.62 -2806.61 -2749.23 -2876.44 -3105.91 -2792.25 -2767.60 -2763.72 -2613.40 -2532.29 -2521.68 -2479.51 -2470.52 -2451.97 -2442.11 -2432.63 -2430.04 -2422.40 -2416.33 -2409.76 -2404.70 -2394.12 -2370.72 -2313.32 -2273.69 -2279.07 -2202.66 -1986.27 -1735.94 -1522.62 -1291.48 -1147.94 -874.62 -776.50 -720.20 -682.77 -638.40 -623.44 -558.28 -467.97 -414.42 -379.28 -343.21 -320.25 -335.89 -375.03 -283.06 -276.31 -222.56 -188.94 -177.17 -141.81 -136.73 -108.59 -86.43 -103.52 -89.37 -80.61 -66.87 -62.53 -85.11 -93.31 -50.98 -65.22 -48.31 -54.03 -74.14 -102.50 -178.92 -221.80 -349.95 -445.96 -603.25 -980.67 -1407.58 -1830.59 -1931.48 -1977.45 -2022.86 -2047.73 -1946.93 -1973.28 -1953.40 -1909.85 -1910.43 -1921.08 -1976.81 -2030.65 -2068.73 -2055.84 -2099.21 -2128.37 -2118.61 -2061.81 -2089.14 -2107.23 -2094.40 -2081.73 -2104.61 -2092.00 -2080.36 -2070.01 -2040.85 -2042.78 -2041.49 -2031.55 -2027.83 -2013.20 -2019.23 -2004.69 -2010.66 -2015.40 -2024.15 -2072.67 -2128.66 -2288.67 -2329.62 -2340.02 -2470.31 -2497.73 -3283.88 -3835.44 -3866.57 -3865.74 -3862.40 -3858.86 -3856.62 -3855.22 -3855.29
-3901.35 -3900.32 -3838.19 -3554.01 -3643.50 -3717.90 -3683.62 -3772.88 -3867.23 -3769.29 -3901.02 -3758.44 -3744.62 -3989.78 -3508.30 -3268.30 -3350.08 -3099.41 -2978.08 -2866.77 -2688.20 -2594.21 -2570.09 -2532.00 -2504.15 -2479.74 -2466.97 -2459.67 -2454.59 -2448.25 -2427.49 -2425.29 -2412.55 -2406.33 -2399.05 -2355.07 -2344.39 -2350.35 -2230.45 -2110.30 -1835.66 -1857.40 -1578.06 -1432.45 -1062.88 -850.89 -844.94 -849.08 -809.78 -780.35 -753.41 -661.70 -585.70 -544.51 -616.75 -530.93 -613.41 -608.38 -505.64 -514.20 -283.74 -327.18 -335.17 -231.73 -165.14 -153.06 -154.19 -209.85 -231.99 -174.03 -118.71 -136.82 -166.15 -143.80 -116.39 -165.08 -172.45 -179.50 -192.41 -255.75 -359.42 -374.24 -422.00 -639.29 -815.70 -1385.95 -1579.52 -1927.65 -2009.54 -2028.89 -2066.35 -2104.78 -2062.56 -2095.77 -2158.27 -2062.93 -2064.71 -2071.04 -2068.23 -2109.03 -2113.63 -2249.33 -2324.74 -2297.81 -2245.12 -2185.26 -2179.92 -2168.16 -2181.91 -2130.52 -2125.58 -2143.15 -2166.22 -2125.74 -2091.28 -2081.47 -2065.65 -2050.99 -2045.46 -2037.58 -2039.63 -2043.22 -2042.64 -2062.51 -2135.58 -2156.03 -2248.64 -2326.52 -2736.65 -3065.38 -3299.13 -3589.89 -3674.67 -3865.80 -3873.10 -3872.75 -3871.17 -3867.26 -3862.12 -3856.06 -3856.13
-4372.92 -4372.73 -4366.14 -4337.13 -4368.16 -4376.26 -4373.28 -4295.47 -4279.56 -4361.55 -4319.64 -4431.19 -4406.46 -4369.22 -4120.32 -3868.25 -3582.61 -3349.67 -3197.75 -2966.22 -2828.43 -2751.63 -2623.34 -2615.19 -2540.39 -2506.20 -2494.43 -2495.63 -2491.69 -2477.97 -2445.80 -2440.32 -2426.49 -2413.76 -2416.03 -2411.58 -2416.52 -2388.92 -2299.17 -2195.99 -2180.97 -2129.43 -1849.92 -1728.89 -1235.02 -1153.17 -1192.52 -1237.49 -1167.50 -1179.30 -959.69 -877.62 -775.32 -878.67 -969.18 -770.91 -886.56 -959.20 -879.08 -717.56 -575.22 -498.36 -473.05 -405.11 -332.29 -290.95 -292.45 -356.80 -370.40 -377.11 -266.14 -216.04 -228.26 -244.59 -243.77 -239.02 -308.01 -284.52 -404.06 -390.62 -583.80 -741.03 -667.42 -856.90 -1008.85 -1673.05 -1940.35 -2174.05 -2158.94 -2165.82 -2174.36 -2225.76 -2282.61 -2366.92 -2346.76 -2283.04 -2222.92 -2251.82 -2225.41 -2193.31 -2249.32 -2427.56 -2508.73 -2611.99 -2498.19 -2550.08 -2363.72 -2346.60 -2346.52 -2246.06 -2207.17 -2237.42 -2229.98 -2178.44 -2157.36 -2140.44 -2098.24 -2076.70 -2060.65 -2061.94 -2082.05 -2101.13 -2143.98 -2188.84 -2287.14 -2336.97 -2413.28 -2501.73 -2899.80 -3259.18 -3601.82 -3739.41 -3865.32 -3875.02 -3877.87 -3877.42 -3876.38 -3869.06 -3864.45 -3857.10 -3857.17
-4406.01 -4405.94 -4410.48 -4416.17 -4425.03 -4434.75 -4442.14 -4445.61 -4442.00 -4472.59 -4490.07 -4504.43 -4462.04 -4397.24 -4298.33 -4051.92 -4005.53 -3626.89 -3285.67 -3134.47 -2909.77 -2856.08 -2778.74 -2682.67 -2610.60 -2581.38 -2547.98 -2543.31 -2527.72 -2486.09 -2473.33 -2459.94 -2452.03 -2450.06 -2441.53 -2446.11 -2442.49 -2428.14 -2423.74 -2317.05 -2295.81 -2372.79 -2306.85 -2085.77 -1816.86 -2249.36 -2259.39 -1875.00 -1951.85 -1816.48 -1506.74 -1343.70 -1380.52 -1261.63 -1339.44 -1183.94 -1393.18 -1250.16 -1196.93 -1285.62 -888.54 -750.81 -661.41 -667.89 -574.63 -573.42 -606.73 -466.26 -625.42 -531.87 -478.33 -488.18 -404.80 -407.07 -413.34 -387.69 -433.22 -500.51 -575.31 -914.64 -1038.61 -1005.16 -1049.93 -1214.10 -1466.13 -1731.66 -2167.95 -2433.43 -2521.85 -2481.97 -2416.93 -2428.66 -2552.79 -2605.27 -2587.96 -2528.26 -2584.97 -2640.70 -2504.42 -2553.92 -2660.11 -2794.98 -2950.18 -3019.13 -2954.72 -2765.40 -2717.41 -2496.74 -2419.12 -2323.72 -2317.37 -2342.55 -2335.51 -2272.32 -2198.22 -2155.72 -2135.25 -2124.87 -2109.04 -2133.55 -2137.00 -2147.15 -2213.21 -2309.89 -2425.69 -2539.84 -2564.05 -2673.76 -3002.83 -3360.11 -3765.77 -3768.75 -3872.47 -3882.35 -3883.94 -3881.74 -3876.23 -3871.60 -3865.22 -3858.53 -3858.60
-4409.03 -4409.40 -4418.31 -4426.42 -4438.58 -4449.56 -4461.23 -4468.57 -4476.09 -4483.44 -4494.24 -4507.03 -4483.79 -4433.05 -4312.25 -4193.87 -3982.92 -3809.56 -3431.92 -3346.65 -3187.76 -3004.78 -2845.44 -2817.16 -2709.17 -2630.60 -2578.73 -2585.65 -2550.94 -2518.50 -2497.35 -2490.42 -2486.36 -2475.33 -2474.45 -2476.88 -2472.69 -2468.68 -2478.62 -2464.21 -2434.62 -2509.95 -2544.84 -2416.65 -2709.23 -2925.77 -2809.76 -2994.32 -2738.46 -2621.75 -1924.50 -1821.04 -1784.88 -1743.08 -1873.05 -1721.07 -1944.14 -1961.92 -1731.18 -1732.21 -1555.33 -1020.33 -954.80 -1045.06 -926.74 -817.12 -840.16 -796.56 -835.24 -762.00 -715.14 -572.92 -536.73 -716.02 -682.01 -596.80 -668.79 -678.11 -877.67 -1158.56 -1452.25 -1462.21 -1506.32 -1528.11 -1985.67 -1937.04 -2191.10 -2648.00 -2743.28 -2682.57 -2639.33 -2796.48 -2780.98 -2859.47 -2808.74 -2796.72 -2793.17 -2988.46 -2958.01 -2948.11 -2887.56 -3233.45 -3324.90 -3228.70 -3455.06 -3163.34 -2905.02 -2737.84 -2604.35 -2602.22 -2521.34 -2428.72 -2389.61 -2355.73 -2329.87 -2220.19 -2207.32 -2194.69 -2159.27 -2176.62 -2219.85 -2244.83 -2280.95 -2478.99 -2556.70 -2731.61 -2773.77 -3062.73 -3294.15 -3555.81 -3795.07 -3870.85 -3879.76 -3888.07 -3886.78 -3884.67 -3877.83 -3872.06 -3865.68 -3860.21 -3860.29
-4416.77 -4416.69 -4425.68 -4442.63 -4448.58 -4459.50 -4464.18 -4478.50 -4486.86 -4496.97 -4508.67 -4516.37 -4502.43 -4455.41 -4337.26 -4230.50 -4123.55 -4053.63 -3808.05 -3570.32 -3397.55 -3151.35 -3012.83 -2906.90 -2863.64 -2708.77 -2666.51 -2634.42 -2596.79 -2555.34 -2551.00 -2555.11 -2541.20 -2536.95 -2522.13 -2505.77 -2524.62 -2522.66 -2513.49 -2544.29 -2571.97 -2597.09 -2665.50 -2796.31 -3176.34 -3611.33 -3666.22 -3809.13 -3523.64 -2962.85 -2729.39 -2302.62 -2325.50 -2566.50 -2672.01 -2369.54 -2387.42 -2524.15 -2458.40 -2294.25 -1918.05 -1708.13 -1531.25 -1358.46 -1315.50 -1401.38 -1213.78 -1232.80 -1343.75 -1395.92 -1247.18 -1139.08 -1106.49 -1115.77 -933.54 -1024.88 -866.67 -1164.71 -1155.89 -1597.63 -1995.84 -2040.17 -2345.95 -2421.50 -2344.68 -2327.20 -2545.83 -2802.06 -2895.41 -3009.02 -3013.49 -3115.51 -3123.06 -3198.48 -3103.10 -3124.27 -3250.97 -3512.35 -3518.80 -3455.32 -3310.89 -3499.66 -3727.53 -3732.56 -3735.34 -3707.68 -3406.38 -2963.46 -2841.41 -2860.02 -2843.37 -2536.30 -2482.77 -2518.67 -2467.57 -2359.48 -2297.45 -2299.15 -2299.66 -2287.72 -2280.74 -2343.77 -2429.75 -2588.18 -2786.63 -2789.79 -3037.48 -3319.98 -3531.07 -3728.16 -3848.41 -3881.74 -3889.71 -3891.54 -3888.64 -3886.95 -3879.81 -3872.65 -3866.59 -3861.97 -3862.05
-4425.80 -4425.72 -4436.60 -4448.46 -4460.26 -4469.78 -4489.52 -4492.37 -4502.40 -4506.28 -4519.01 -4520.74 -4512.59 -4488.94 -4394.05 -4330.71 -4203.91 -4106.41 -3896.14 -3679.26 -3588.24 -3463.66 -3190.52 -2997.53 -2904.46 -2830.05 -2748.86 -2710.83 -2643.92 -2619.75 -2634.99 -2617.59 -2615.06 -2606.23 -2648.39 -2618.82 -2588.08 -2624.85 -2630.38 -2609.48 -2604.19 -2683.60 -2705.05 -2994.19 -3254.00 -3774.17 -3977.55 -4104.06 -3878.34 -3493.35 -3492.55 -3083.79 -3089.44 -3173.64 -3452.92 -3234.79 -2922.77 -2826.94 -2865.08 -2772.87 -2386.52 -2154.16 -2055.48 -1929.62 -1805.35 -1978.78 -1995.37 -1859.76 -1846.34 -1810.18 -1806.43 -1931.44 -1889.86 -1414.60 -1407.25 -1412.84 -1685.57 -1688.80 -1624.34 -2062.88 -2380.16 -2544.35 -2572.48 -2793.42 -2724.36 -2942.42 -3183.99 -3161.86 -3388.07 -3385.10 -3302.60 -3355.55 -3490.13 -3412.69 -3531.65 -3551.79 -3693.87 -3778.92 -3794.28 -3853.90 -3836.50 -3863.18 -3966.56 -3919.77 -3945.40 -3849.24 -3587.96 -3324.83 -3311.18 -3155.51 -3027.96 -2703.08 -2611.52 -2592.32 -2575.16 -2544.79 -2538.02 -2452.09 -2377.49 -2496.98 -2598.59 -2654.44 -2688.84 -2897.21 -3006.42 -3074.39 -3296.60 -3519.81 -3735.54 -3882.33 -3908.60 -3909.88 -3903.84 -3895.52 -3893.90 -3886.98 -3882.09 -3874.01 -3869.23 -3864.12 -3863.75
