-4848.96 -4849.35 -4856.16 -4866.40 -4875.86 -4887.87 -4907.40 -4914.13 -4922.67 -4936.23 -4948.45 -4956.31 -4966.89 -4985.42 -5011.54 -5043.32 -5077.36 -5131.31 -5188.92 -5234.75 -5264.18 -5267.36 -5250.96 -5245.83 -5246.54 -5248.19 -5248.60 -5247.81 -5244.31 -5242.05 -5239.77 -5238.10 -5237.36 -5238.67 -5238.54 -5244.85 -5251.61 -5257.46 -5264.33 -5270.30 -5277.56 -5303.02 -5319.73 -5346.90 -5360.00 -5368.16 -5367.66 -5369.03 -5370.08 -5371.31 -5367.44 -5368.48 -5370.50 -5369.32 -5368.06 -5367.37 -5367.08 -5362.14 -5360.46 -5352.48 -5345.38 -5337.86 -5324.74 -5311.54 -5299.52 -5281.71 -5270.71 -5259.97 -5253.60 -5211.73 -5119.30 -4712.15 -4394.07 -3888.19 -3523.63 -3162.60 -2986.33 -2596.94 -2282.70 -1983.14 -1604.29 -1189.09 -1317.80 -1062.02 -806.87 -607.94 -271.51 61.22 151.28 158.02 102.05 -463.72 -719.21 -854.03 -968.21 -983.03 -1058.86 -1183.38 -1050.02 -816.04 -700.40 -762.44 -1087.66 -1752.18 -2467.39 -3484.28 -3995.11 -5307.51 -7069.78 -8024.22 -8449.89 -8464.76 -8469.39 -8499.17 -8535.44 -8540.46 -8532.79 -8506.36 -7924.55 -6302.57 -3169.78 -2270.58 -2128.56 -2153.43 -2198.96 -2221.55 -2239.57 -2242.62 -2224.94 -2209.00 -2203.83 -2195.66 -2194.42 -2216.88 -2261.13 -2288.24 -2405.33 -2553.20 -2665.83 -2843.79 -2843.86
-4840.41 -4840.34 -4847.90 -4856.46 -4865.10 -4874.70 -4890.67 -4896.53 -4910.59 -4922.30 -4936.45 -4948.52 -4957.13 -4982.94 -4999.41 -5026.66 -5048.03 -5083.36 -5125.24 -5191.93 -5247.50 -5254.75 -5242.64 -5242.29 -5243.16 -5245.08 -5246.59 -5246.69 -5245.69 -5244.84 -5244.31 -5241.67 -5241.24 -5242.16 -5245.58 -5249.58 -5258.21 -5260.98 -5270.41 -5274.71 -5282.31 -5302.72 -5318.99 -5347.44 -5355.63 -5368.42 -5372.88 -5371.75 -5368.30 -5365.23 -5368.16 -5369.20 -5369.12 -5369.52 -5367.77 -5365.94 -5364.67 -5360.74 -5356.85 -5346.66 -5339.86 -5332.54 -5319.90 -5306.56 -5292.13 -5280.79 -5266.52 -5255.66 -5233.59 -5181.06 -5068.05 -4792.46 -4420.36 -3993.10 -3525.65 -3291.70 -2723.92 -2481.10 -2006.62 -1651.67 -1382.10 -1079.82 -947.31 -748.49 -680.50 -512.54 -233.71 77.63 125.54 120.49 -150.32 -451.11 -583.86 -679.52 -800.75 -752.42 -927.91 -1109.45 -1025.88 -380.27 -210.27 -436.28 -1257.53 -1665.31 -2361.54 -3387.15 -4325.46 -5635.68 -7602.38 -8042.65 -8462.68 -8459.76 -8451.00 -8491.57 -8528.15 -8519.28 -8507.14 -8497.34 -7946.05 -6052.59 -3933.87 -2302.63 -2152.25 -2158.41 -2178.71 -2210.68 -2238.19 -2235.12 -2217.40 -2204.39 -2184.19 -2175.58 -2176.50 -2180.84 -2199.75 -2190.22 -2298.68 -2330.71 -2650.80 -2805.41 -2847.55
-4832.24 -4832.17 -4840.10 -4845.65 -4855.49 -4864.34 -4881.59 -4889.52 -4903.97 -4912.50 -4931.84 -4937.15 -4949.66 -4963.80 -4998.06 -5009.51 -5031.59 -5057.77 -5086.95 -5150.60 -5210.57 -5231.12 -5233.62 -5235.09 -5237.89 -5240.54 -5242.42 -5244.49 -5247.40 -5247.76 -5247.54 -5249.04 -5250.95 -5253.35 -5252.71 -5257.70 -5261.49 -5267.87 -5272.26 -5279.29 -5286.25 -5304.07 -5320.75 -5342.61 -5354.95 -5364.05 -5369.20 -5365.54 -5365.69 -5369.59 -5374.53 -5371.02 -5373.13 -5372.29 -5368.71 -5366.72 -5364.21 -5355.59 -5348.75 -5338.24 -5332.77 -5326.63 -5315.84 -5303.49 -5289.68 -5279.89 -5265.26 -5251.50 -5213.09 -5158.48 -5050.53 -4806.63 -4515.05 -4030.40 -3722.72 -3495.14 -3011.87 -2726.22 -2037.48 -1596.36 -1160.07 -820.02 -663.27 -597.60 -574.73 -370.59 -199.40 -84.29 -74.44 -34.07 -139.05 -95.40 -290.62 -475.07 -513.96 -623.20 -612.96 -888.19 -818.05 -298.98 -222.52 -565.62 -1024.40 -2053.72 -2666.61 -3109.03 -4463.75 -5763.83 -7250.68 -8015.05 -8434.99 -8442.11 -8449.08 -8430.41 -8469.19 -8446.91 -8436.66 -8440.45 -8054.53 -6321.14 -3459.45 -2264.32 -2091.83 -2074.23 -2131.84 -2215.02 -2237.13 -2230.99 -2217.53 -2201.52 -2181.94 -2168.43 -2161.15 -2156.95 -2155.08 -2173.44 -2213.74 -2347.57 -2557.30 -2806.28 -2806.46
-4824.19 -4823.70 -4829.53 -4835.94 -4845.23 -4849.46 -4869.49 -4883.14 -4900.97 -4921.76 -4932.22 -4940.41 -4951.81 -4965.09 -4983.89 -4993.75 -5004.88 -5023.31 -5043.48 -5077.16 -5140.50 -5200.44 -5212.53 -5223.75 -5230.66 -5236.27 -5237.64 -5242.38 -5250.13 -5254.86 -5264.80 -5266.87 -5266.18 -5267.47 -5271.10 -5265.94 -5266.57 -5270.28 -5273.44 -5279.04 -5287.47 -5304.27 -5312.69 -5336.54 -5349.71 -5359.22 -5365.12 -5369.47 -5374.97 -5378.82 -5378.13 -5378.58 -5377.11 -5374.01 -5366.23 -5365.17 -5360.19 -5352.91 -5343.53 -5337.95 -5329.48 -5322.31 -5310.78 -5299.45 -5283.65 -5273.92 -5265.39 -5254.10 -5188.05 -5113.17 -4973.46 -4894.12 -4507.11 -4117.56 -3719.16 -3439.98 -3014.43 -2567.89 -2212.04 -1589.09 -972.33 -717.85 -586.62 -511.79 -482.27 -463.28 -396.33 -274.47 -62.79 -38.13 54.98 52.29 -9.73 -176.01 -309.60 -359.49 -319.48 -278.90 -433.61 -206.28 -355.37 -654.04 -1238.93 -1928.89 -2610.89 -3506.51 -4561.45 -5848.77 -7233.93 -8070.57 -8339.19 -8389.92 -8397.47 -8373.21 -8380.24 -8354.65 -8314.83 -8265.04 -8083.08 -6460.36 -3675.17 -2156.15 -1977.18 -1998.58 -2127.50 -2201.44 -2223.36 -2223.86 -2214.00 -2194.68 -2180.51 -2169.18 -2149.76 -2140.38 -2141.78 -2161.25 -2228.01 -2320.83 -2564.06 -2647.34 -2667.75
-4815.51 -4816.39 -4821.47 -4827.28 -4832.86 -4841.85 -4853.06 -4869.89 -4911.13 -4924.56 -4935.59 -4946.54 -4955.89 -4968.20 -4975.28 -4974.58 -4987.44 -5009.11 -5018.18 -5031.29 -5069.14 -5147.54 -5186.43 -5205.50 -5220.69 -5226.07 -5231.42 -5240.02 -5260.49 -5268.60 -5271.97 -5276.21 -5282.53 -5285.01 -5280.31 -5275.19 -5271.55 -5268.91 -5273.43 -5281.27 -5286.31 -5300.69 -5317.98 -5329.10 -5343.97 -5347.08 -5356.31 -5362.01 -5366.52 -5381.67 -5395.56 -5394.57 -5381.20 -5379.39 -5365.04 -5364.37 -5358.51 -5346.33 -5341.05 -5336.55 -5328.85 -5314.16 -5307.14 -5296.95 -5287.14 -5274.57 -5268.30 -5251.85 -5213.02 -5159.90 -4922.70 -4840.82 -4691.25 -4314.25 -4029.51 -3450.13 -2867.71 -2470.13 -2041.43 -1460.14 -922.16 -668.79 -544.49 -512.49 -506.82 -355.61 -302.79 -177.02 56.77 81.96 94.47 118.49 120.89 117.15 -50.53 -155.83 -11.97 40.55 -149.71 -196.64 -387.85 -822.40 -1220.95 -2051.76 -2979.89 -3727.18 -4451.79 -6204.88 -7241.51 -7917.65 -8169.86 -8245.99 -8323.34 -8271.04 -8294.46 -8288.62 -8227.44 -8119.78 -7982.44 -4662.83 -3377.55 -2031.68 -1911.62 -1994.47 -2135.66 -2204.85 -2226.71 -2222.16 -2210.01 -2193.24 -2176.63 -2166.95 -2146.43 -2141.12 -2148.30 -2192.78 -2247.30 -2362.27 -2520.16 -2564.48 -2564.61
-4803.71 -4803.13 -4807.01 -4812.15 -4819.94 -4827.06 -4844.67 -4869.76 -4899.32 -4914.36 -4924.04 -4930.91 -4943.57 -4954.54 -4962.82 -4958.86 -4962.57 -4977.05 -4992.21 -5010.60 -5027.82 -5092.88 -5147.88 -5196.26 -5215.23 -5221.49 -5227.38 -5236.06 -5253.73 -5268.86 -5274.70 -5280.10 -5287.53 -5291.54 -5292.97 -5278.14 -5272.11 -5267.70 -5275.53 -5285.30 -5293.14 -5311.81 -5322.85 -5334.83 -5342.28 -5347.36 -5356.53 -5356.80 -5373.03 -5386.81 -5398.43 -5393.43 -5388.37 -5379.75 -5373.33 -5365.71 -5358.21 -5351.36 -5346.44 -5338.17 -5328.09 -5318.32 -5301.58 -5298.25 -5284.93 -5274.69 -5262.35 -5253.27 -5207.29 -5139.17 -4915.46 -4793.28 -4598.31 -4176.65 -3544.60 -2934.42 -2584.00 -2055.56 -1662.78 -1114.73 -788.08 -624.97 -606.64 -598.41 -400.67 -151.84 17.19 71.58 115.63 118.83 126.77 128.66 129.87 137.25 143.16 90.75 100.98 133.25 126.04 103.56 -310.06 -862.67 -1453.86 -1967.39 -2715.22 -3716.15 -4671.17 -6026.18 -7421.88 -7924.62 -8001.73 -7854.10 -8145.85 -8196.48 -8208.69 -8154.50 -8047.34 -8030.19 -7649.42 -5347.39 -3008.30 -1999.75 -1885.35 -1986.08 -2092.32 -2206.01 -2218.38 -2220.66 -2212.63 -2192.14 -2181.57 -2163.84 -2159.69 -2159.94 -2173.10 -2196.13 -2269.00 -2332.18 -2423.59 -2511.02 -2511.08
-4789.66 -4789.58 -4797.05 -4800.55 -4809.14 -4811.68 -4826.46 -4847.51 -4886.71 -4897.48 -4910.09 -4922.36 -4932.92 -4942.54 -4946.00 -4942.38 -4953.80 -4960.03 -4981.18 -4992.66 -5005.20 -5050.31 -5090.00 -5171.90 -5199.62 -5211.43 -5221.12 -5228.06 -5252.01 -5264.35 -5274.09 -5281.07 -5286.86 -5290.84 -5286.75 -5260.84 -5243.07 -5253.29 -5262.07 -5277.91 -5289.33 -5309.35 -5327.81 -5344.22 -5356.78 -5359.42 -5364.99 -5370.28 -5378.84 -5393.91 -5404.09 -5403.21 -5395.18 -5390.63 -5389.41 -5378.83 -5359.26 -5351.10 -5348.91 -5337.34 -5330.97 -5321.47 -5307.37 -5292.59 -5283.71 -5277.20 -5262.85 -5252.93 -5224.13 -5171.46 -4869.39 -4553.07 -4095.65 -3937.16 -3309.74 -2669.90 -2324.02 -1888.31 -1363.75 -989.22 -793.52 -526.79 -302.72 -239.36 -83.46 73.17 121.64 125.07 140.26 140.89 154.76 161.65 160.69 166.16 170.50 168.84 164.09 139.39 126.14 123.17 106.50 -388.40 -1433.95 -1717.37 -2243.82 -3470.34 -3958.42 -5636.71 -5714.32 -6526.27 -7290.91 -7441.63 -7847.98 -8009.20 -8027.12 -7970.44 -7891.90 -7864.25 -7340.15 -5061.19 -2908.37 -2057.47 -1853.40 -1957.85 -2056.93 -2179.76 -2217.32 -2225.71 -2210.79 -2200.03 -2180.32 -2169.94 -2161.76 -2164.37 -2178.77 -2234.84 -2284.71 -2373.05 -2425.34 -2519.39 -2519.44
-4774.00 -4773.92 -4779.53 -4776.86 -4785.86 -4793.37 -4810.64 -4829.41 -4860.26 -4882.06 -4896.04 -4905.05 -4915.96 -4929.60 -4931.34 -4931.31 -4938.71 -4952.72 -4960.96 -4982.14 -4994.76 -5013.29 -5078.44 -5106.44 -5176.81 -5202.89 -5212.16 -5225.14 -5239.15 -5258.37 -5270.05 -5272.80 -5275.76 -5270.38 -5233.57 -5193.20 -5139.89 -5092.96 -5146.87 -5179.39 -5252.87 -5282.51 -5309.65 -5341.09 -5360.00 -5375.21 -5388.26 -5385.25 -5394.07 -5408.62 -5414.38 -5405.31 -5408.73 -5397.91 -5394.22 -5389.80 -5387.60 -5353.32 -5343.78 -5336.10 -5332.96 -5315.98 -5308.34 -5291.70 -5286.16 -5278.91 -5271.08 -5257.28 -5223.46 -5084.59 -4795.36 -4271.77 -3940.64 -3504.94 -3281.20 -2404.96 -1963.41 -1661.00 -1244.44 -1024.51 -697.95 -118.89 -0.79 18.48 72.63 122.25 132.04 139.26 183.25 170.83 177.36 202.36 206.71 216.18 215.37 192.76 180.54 139.56 119.08 -12.00 65.46 118.38 -212.65 -1251.54 -1907.93 -1784.63 -1876.09 -3248.57 -2352.88 -4716.51 -6659.99 -7143.06 -7535.49 -7745.44 -7789.92 -7628.25 -7614.63 -7567.20 -6965.43 -4830.50 -2924.03 -1894.46 -1838.48 -1950.49 -2058.90 -2149.87 -2224.35 -2233.66 -2221.33 -2203.35 -2183.20 -2176.47 -2165.14 -2165.76 -2213.14 -2255.61 -2294.43 -2412.73 -2488.20 -2524.09 -2528.79
-4760.73 -4760.66 -4769.60 -4768.37 -4772.95 -4782.07 -4794.52 -4810.38 -4847.75 -4863.64 -4876.80 -4887.80 -4903.30 -4913.49 -4917.30 -4919.67 -4930.91 -4942.89 -4959.44 -4972.60 -4987.47 -5004.89 -5025.18 -5087.63 -5149.44 -5178.26 -5185.91 -5215.06 -5230.21 -5236.83 -5234.85 -5245.29 -5200.56 -5166.20 -5104.46 -4840.98 -4483.78 -4668.18 -4766.26 -4787.96 -5032.94 -5123.25 -5199.39 -5282.22 -5334.16 -5357.71 -5394.13 -5416.99 -5414.35 -5430.80 -5429.57 -5432.63 -5424.63 -5410.87 -5402.25 -5399.66 -5394.80 -5369.08 -5347.44 -5334.25 -5332.72 -5314.98 -5305.79 -5297.04 -5286.74 -5282.80 -5279.36 -5268.66 -5202.02 -5066.82 -4723.92 -4280.97 -3947.74 -3422.15 -3068.13 -2408.18 -1903.51 -1626.58 -1275.32 -1139.59 -736.86 -112.08 52.24 122.31 126.40 132.27 177.34 182.23 204.65 209.12 227.02 258.12 257.53 236.71 245.48 224.57 168.14 115.71 84.69 -138.46 -343.74 -169.01 27.00 64.64 -121.51 -541.51 -858.71 -932.28 -1001.46 -2425.19 -4873.56 -6869.64 -7176.90 -7406.05 -7461.67 -7464.82 -7192.21 -7216.02 -6532.43 -4785.31 -2347.66 -1848.02 -1845.63 -1975.33 -2091.56 -2177.97 -2230.87 -2241.16 -2218.88 -2209.50 -2194.80 -2182.58 -2177.54 -2183.14 -2224.07 -2273.11 -2340.82 -2415.88 -2462.40 -2539.32 -2539.38
-4766.26 -4769.16 -4771.21 -4774.12 -4772.34 -4783.12 -4795.41 -4812.05 -4834.19 -4835.95 -4840.84 -4857.25 -4869.50 -4880.71 -4898.81 -4913.42 -4923.17 -4945.93 -4955.31 -4975.13 -4988.59 -4998.87 -4975.43 -4939.73 -4999.18 -5063.92 -5137.46 -5165.58 -5205.23 -5210.54 -5184.16 -5151.38 -4869.95 -4625.39 -4389.27 -4041.13 -3408.05 -3259.40 -3596.99 -3830.03 -4138.94 -4135.96 -4674.98 -5111.63 -5071.06 -5341.42 -5396.93 -5423.46 -5431.99 -5441.99 -5442.31 -5439.27 -5429.28 -5421.68 -5409.51 -5401.06 -5393.68 -5369.37 -5352.94 -5327.27 -5328.22 -5314.85 -5304.15 -5304.89 -5290.47 -5282.74 -5281.19 -5266.35 -5190.71 -5089.06 -4848.78 -4479.42 -4036.58 -3377.80 -3148.07 -2330.92 -1911.44 -1617.98 -1357.93 -1088.19 -725.30 -267.03 125.33 135.60 158.89 188.99 216.22 243.30 260.70 272.19 292.89 305.16 321.55 345.54 315.90 337.37 147.54 88.98 -18.73 -707.67 -1498.07 -1560.75 -1209.35 -255.86 -616.51 -511.75 -330.50 -306.32 -360.80 -604.67 -1252.29 -5320.18 -6823.29 -7165.86 -7237.90 -7190.34 -6924.06 -6769.03 -6327.05 -3872.61 -2673.59 -1719.40 -1797.64 -1965.25 -2069.26 -2194.67 -2233.28 -2252.46 -2234.10 -2215.99 -2207.04 -2205.16 -2207.98 -2210.65 -2234.23 -2284.25 -2398.44 -2510.00 -2527.70 -2597.71 -2597.66
-4791.59 -4791.54 -4794.60 -4785.10 -4793.65 -4818.79 -4818.43 -4815.43 -4806.06 -4803.66 -4816.43 -4830.34 -4846.65 -4860.57 -4883.56 -4912.10 -4931.93 -4947.75 -4963.08 -4979.54 -4985.49 -4972.14 -4935.78 -4692.51 -4387.00 -4305.69 -4706.55 -4899.49 -4889.23 -5096.14 -4974.02 -4611.85 -4340.08 -3902.46 -3352.64 -2813.19 -2491.44 -2480.55 -2675.61 -2653.78 -2997.76 -3469.67 -3407.42 -4069.55 -4404.06 -4789.23 -5362.38 -5376.57 -5415.64 -5421.69 -5432.89 -5434.43 -5427.66 -5422.73 -5410.92 -5394.91 -5376.16 -5358.40 -5339.80 -5321.83 -5317.23 -5312.81 -5307.64 -5307.34 -5305.46 -5291.47 -5285.49 -5247.28 -5152.50 -4897.02 -4617.71 -4144.52 -3827.38 -3437.94 -2655.10 -2099.77 -1664.53 -1341.95 -986.56 -775.35 -248.49 43.17 137.08 157.68 181.44 230.55 313.82 343.55 435.94 471.56 449.08 442.96 467.88 434.72 490.90 529.51 201.72 19.40 -1159.65 -3921.50 -3311.92 -2848.91 -2637.60 -1696.60 -1868.12 -1541.80 -1693.98 -588.56 -496.23 -418.12 -1105.23 -3402.26 -6594.35 -6683.21 -6874.27 -6508.39 -6446.92 -6270.54 -5695.73 -4658.59 -2236.25 -1737.35 -1755.57 -1912.22 -2015.30 -2147.50 -2243.82 -2259.95 -2246.07 -2228.29 -2214.81 -2213.18 -2224.00 -2261.20 -2296.70 -2320.03 -2430.04 -2514.37 -2610.46 -2684.78 -2684.84
-4829.48 -4835.07 -4838.37 -4830.34 -4824.72 -4820.81 -4823.38 -4818.86 -4805.54 -4812.23 -4813.24 -4827.24 -4849.24 -4859.40 -4892.08 -4918.67 -4955.98 -4965.78 -4983.72 -4987.98 -4987.24 -4915.95 -4567.00 -4015.36 -3298.64 -3448.19 -3462.17 -4170.92 -4272.82 -4584.65 -4361.85 -3648.02 -3025.30 -2725.07 -2410.75 -2055.35 -1911.27 -1914.82 -2025.78 -2079.59 -2275.62 -2280.62 -2521.89 -2870.59 -3668.93 -4111.85 -4763.31 -5172.21 -5258.75 -5169.93 -5252.40 -5335.69 -5406.34 -5381.18 -5401.30 -5393.58 -5373.50 -5346.67 -5327.14 -5313.84 -5304.98 -5295.57 -5298.88 -5308.20 -5307.29 -5299.49 -5295.58 -5282.65 -5120.28 -4778.09 -4356.99 -3992.15 -3705.63 -3382.47 -2583.88 -1689.93 -924.58 -701.80 -334.31 -235.57 142.09 163.70 156.00 183.88 221.44 271.75 381.14 592.42 773.68 796.34 758.59 713.52 793.27 642.70 780.94 648.65 292.65 -308.02 -1126.91 -2601.75 -3687.51 -3975.01 -3757.76 -3488.40 -3369.51 -3137.99 -2382.57 -1715.73 -920.05 -869.20 -1427.11 -4868.47 -6156.48 -5964.79 -5960.45 -5914.45 -5901.05 -6029.62 -5694.17 -4662.49 -2287.44 -1742.11 -1754.75 -1967.02 -2093.09 -2164.04 -2253.41 -2268.98 -2254.80 -2236.36 -2218.77 -2221.81 -2225.11 -2248.93 -2295.58 -2400.29 -2505.94 -2612.96 -2727.51 -2741.63 -2763.73
-4911.19 -4900.16 -4881.22 -4885.71 -4872.27 -4867.91 -4860.34 -4855.83 -4825.14 -4835.97 -4839.82 -4850.32 -4876.22 -4896.63 -4962.54 -4971.18 -5010.61 -5015.98 -5021.21 -5016.25 -4999.90 -4863.25 -4174.29 -3148.84 -2447.66 -2337.98 -2778.63 -3118.14 -3058.32 -3501.66 -3700.64 -3048.01 -2185.38 -1917.42 -1837.66 -1681.43 -1455.67 -1570.38 -1499.88 -1823.31 -1777.46 -2005.43 -2100.16 -2338.92 -2753.38 -3104.57 -4119.23 -4603.49 -4634.27 -4719.47 -4889.92 -5138.88 -5118.03 -5270.61 -5350.94 -5382.75 -5354.57 -5337.05 -5316.09 -5299.86 -5291.76 -5286.58 -5283.67 -5289.05 -5279.86 -5276.87 -5123.93 -5140.69 -5025.52 -4620.48 -4257.74 -3813.52 -3465.16 -3082.79 -2333.67 -755.02 -278.98 -125.55 86.77 154.19 177.14 196.19 213.26 229.08 260.48 306.31 378.13 595.06 800.58 817.51 918.59 914.38 928.76 905.27 905.67 623.34 453.93 227.82 128.46 -503.04 -1790.08 -4462.08 -4290.18 -4167.03 -4194.11 -4167.50 -3571.55 -2925.67 -2279.45 -1822.98 -1412.83 -2548.70 -2715.31 -2678.25 -2934.89 -2566.44 -4138.65 -4444.19 -4502.63 -4931.00 -2324.57 -1958.97 -1833.97 -1959.98 -2177.26 -2257.04 -2274.87 -2277.21 -2260.69 -2240.70 -2224.26 -2227.09 -2228.42 -2261.13 -2318.21 -2421.73 -2535.55 -2682.03 -2744.59 -2818.58 -2818.65
-4970.67 -4970.57 -4940.06 -4935.23 -4934.30 -4946.97 -4949.11 -4931.56 -4923.44 -4907.08 -4900.51 -4902.53 -4958.25 -4981.86 -5018.15 -5040.11 -5055.94 -5106.53 -5114.96 -5102.72 -5030.68 -4810.22 -3969.48 -3147.91 -2005.37 -1908.59 -1923.80 -2114.54 -2283.48 -2602.35 -2631.54 -2346.15 -1945.46 -1629.78 -1287.39 -685.51 -722.22 -654.58 -828.45 -1094.11 -1350.97 -1863.57 -1970.34 -2055.70 -2160.84 -2334.98 -2902.01 -3361.55 -3801.08 -3546.70 -3683.14 -4019.39 -4355.40 -4625.10 -5026.93 -5132.07 -5313.93 -5273.50 -5182.27 -5247.03 -5240.91 -5259.18 -5208.76 -5179.41 -5100.87 -4890.37 -4875.28 -4273.55 -3963.88 -3637.22 -3082.68 -3221.85 -3317.76 -2756.96 -1984.85 -583.53 129.94 158.34 166.91 178.96 193.00 213.30 242.04 269.00 305.70 323.62 375.71 459.72 465.61 560.68 622.87 789.08 832.18 881.49 863.48 739.37 645.39 218.14 141.61 -351.02 -2242.50 -4837.92 -4708.35 -4644.13 -4595.91 -4497.19 -4485.87 -4400.04 -3885.30 -2844.28 -2049.65 -1391.68 -1243.91 -1289.24 -1405.91 -1665.46 -2127.26 -2329.87 -2988.77 -4088.46 -3052.08 -2225.60 -1807.65 -1952.02 -2143.75 -2248.95 -2293.25 -2286.46 -2265.50 -2249.36 -2230.51 -2227.64 -2256.41 -2268.70 -2315.89 -2449.67 -2544.93 -2738.00 -2822.41 -2828.82 -2828.06
-4987.27 -4987.21 -4983.04 -4982.72 -4980.51 -4989.16 -4985.84 -4985.67 -5001.34 -5000.66 -5003.65 -5006.51 -5026.72 -5060.03 -5096.24 -5166.35 -5183.84 -5239.71 -5203.76 -5198.84 -5139.19 -4786.83 -3766.18 -2829.43 -2002.90 -1917.03 -1946.62 -1965.72 -1909.48 -2003.88 -2087.18 -2014.99 -1655.35 -1121.79 -572.93 -232.52 53.74 97.11 -134.52 -169.73 -281.53 -1268.01 -1908.25 -2058.12 -1823.99 -2147.13 -2287.36 -2350.73 -2553.77 -2582.46 -2817.99 -2951.31 -3336.21 -3641.20 -4184.37 -4773.10 -4893.91 -5000.96 -5027.18 -5089.22 -5035.30 -4774.24 -4941.02 -4904.69 -4632.01 -4308.49 -4234.44 -3418.00 -3276.16 -2508.77 -2474.09 -2242.04 -1891.57 -1479.16 -586.76 -79.93 151.88 178.79 189.68 198.99 218.10 239.36 267.42 307.81 320.02 350.09 398.89 402.31 436.68 498.62 508.97 573.73 619.90 722.75 700.37 651.84 529.93 433.73 263.86 -141.60 -1786.29 -2123.46 -4208.81 -4666.66 -4493.05 -4488.03 -4598.14 -4702.26 -4627.76 -4071.07 -3300.23 -2650.70 -1594.25 -1184.96 -1040.97 -1021.79 -1459.43 -1352.32 -2005.00 -3102.32 -2702.36 -2137.06 -1868.22 -1948.53 -2071.81 -2218.22 -2284.16 -2288.06 -2269.78 -2257.49 -2246.26 -2248.64 -2266.32 -2289.69 -2338.11 -2425.59 -2525.77 -2684.98 -2791.20 -2836.13 -2836.20
-4959.07 -4959.04 -4957.14 -4978.57 -4986.94 -4997.73 -5014.08 -5038.73 -5074.67 -5085.70 -5086.58 -5123.32 -5122.49 -5178.68 -5217.76 -5225.30 -5233.99 -5277.08 -5283.88 -5282.56 -5196.19 -4928.55 -3836.63 -3090.89 -2239.28 -2254.97 -2370.22 -2327.24 -2013.48 -1906.02 -1895.26 -1764.63 -1611.25 -512.75 -64.30 234.36 235.16 237.80 178.70 134.79 135.38 -72.07 -1049.11 -955.48 -1110.54 -1806.71 -1964.65 -2102.27 -2095.04 -2220.48 -2304.37 -2228.09 -2192.81 -3053.86 -3050.45 -3483.29 -3859.50 -4155.87 -4187.06 -4311.41 -4039.43 -4257.42 -4033.06 -4125.51 -3660.35 -3101.16 -2593.52 -2449.11 -2157.52 -2091.35 -1983.33 -1848.78 -1261.03 -907.75 128.20 142.86 177.79 209.33 240.12 225.93 254.10 273.87 293.52 318.55 343.23 366.72 394.15 408.15 434.41 473.27 491.20 498.65 515.10 550.54 564.76 580.26 586.53 688.96 338.03 143.30 -193.95 -617.30 -2523.07 -4344.44 -4632.69 -4474.62 -4515.99 -4695.78 -4797.64 -4943.80 -4480.69 -3585.32 -2834.35 -1852.32 -1287.17 -1098.05 -1024.51 -1040.76 -1315.85 -1951.51 -2405.28 -2209.26 -1931.34 -2049.77 -2159.15 -2235.93 -2292.41 -2292.89 -2277.42 -2263.72 -2278.93 -2285.68 -2330.94 -2379.54 -2395.61 -2534.63 -2614.25 -2780.34 -2894.67 -2957.05 -2957.26
-4922.63 -4926.78 -4927.17 -4941.27 -4960.23 -4985.27 -5008.15 -5043.95 -5078.81 -5114.72 -5136.76 -5169.10 -5190.28 -5218.78 -5245.13 -5276.19 -5297.78 -5314.78 -5334.74 -5320.17 -5253.85 -5111.77 -4401.39 -3492.73 -3434.70 -3077.43 -3333.08 -3367.58 -2603.36 -2269.02 -1971.59 -1725.97 -1260.45 -275.32 103.76 242.61 279.41 273.48 257.75 238.54 209.06 173.05 -140.69 -203.17 -235.95 -1107.04 -1443.85 -1607.22 -1756.19 -1941.89 -1926.25 -1958.23 -2035.67 -1991.08 -2276.79 -2614.07 -2741.36 -2807.06 -2886.58 -2802.01 -2826.53 -3028.71 -2751.71 -2938.42 -2667.56 -2352.40 -2340.91 -2112.48 -2067.99 -2018.93 -1861.99 -925.94 -24.24 136.06 170.91 220.26 218.50 229.03 247.13 264.21 279.84 298.41 322.52 337.19 342.46 376.40 391.56 412.91 426.52 448.54 461.87 483.87 487.66 501.45 526.22 608.00 699.60 730.93 428.11 164.50 140.96 119.01 -685.87 -2592.81 -3793.22 -4524.58 -4556.23 -4598.03 -4751.76 -5059.51 -5137.59 -5031.98 -3827.02 -3375.11 -2484.85 -1486.52 -1233.69 -1044.40 -1095.37 -1311.60 -1634.90 -1927.40 -1945.04 -2013.91 -2191.94 -2237.95 -2291.70 -2298.50 -2289.81 -2281.86 -2285.25 -2297.73 -2364.60 -2435.27 -2521.44 -2766.13 -2861.11 -2984.77 -3022.99 -3064.54 -3064.66
-4892.92 -4896.22 -4898.30 -4914.94 -4931.67 -4972.24 -4992.17 -5026.97 -5074.91 -5105.99 -5153.57 -5174.34 -5200.90 -5228.52 -5255.07 -5274.43 -5297.20 -5316.54 -5331.92 -5341.57 -5326.94 -5228.26 -4878.39 -4576.34 -4480.38 -4714.38 -4618.33 -4144.72 -3144.76 -2447.11 -2139.61 -1977.99 -1559.16 -664.62 194.75 246.88 287.61 330.53 326.14 267.32 219.43 190.95 178.23 174.58 164.35 -2.54 -241.55 -325.28 -617.76 -970.79 -1265.11 -1441.92 -1889.25 -1963.58 -2012.85 -2049.60 -2169.22 -2232.74 -2127.23 -2202.64 -2180.72 -2134.39 -2212.93 -2239.98 -2262.07 -2128.28 -2087.46 -2070.90 -1945.15 -1800.08 -1317.55 25.07 142.79 163.02 227.62 305.77 300.66 272.48 287.58 295.71 294.52 325.88 336.05 355.10 360.71 387.55 403.28 418.57 427.28 436.66 443.14 436.16 449.87 458.76 503.40 526.50 622.13 825.22 565.92 223.98 162.39 152.82 89.68 -1123.12 -2672.93 -4077.49 -4616.58 -4566.24 -4699.51 -4949.52 -5085.53 -5214.44 -5122.90 -4724.61 -3682.25 -3025.27 -2542.65 -1528.92 -1373.11 -1321.70 -1362.28 -1497.35 -1779.80 -1957.90 -2096.92 -2190.87 -2216.04 -2277.36 -2292.45 -2288.38 -2288.52 -2318.01 -2392.15 -2507.14 -2613.84 -2786.56 -3025.08 -3174.75 -3212.24 -3247.86 -3282.59
-4867.31 -4870.19 -4874.99 -4888.70 -4909.80 -4940.57 -4972.56 -5026.13 -5078.70 -5101.48 -5143.66 -5170.07 -5197.54 -5229.25 -5251.88 -5278.89 -5293.49 -5323.06 -5329.63 -5340.67 -5348.06 -5337.83 -5288.41 -5203.08 -5216.16 -5245.81 -5095.31 -4913.52 -4275.35 -3443.66 -2655.12 -2231.41 -1403.73 -405.42 194.79 204.94 270.45 319.01 336.02 311.10 276.28 225.47 218.15 206.43 196.49 169.10 152.94 145.75 -76.51 -318.95 -283.60 -376.05 -1066.27 -1625.05 -1607.60 -1615.64 -1769.69 -1786.97 -1830.79 -1830.73 -1778.28 -1858.33 -1949.50 -1942.96 -2056.12 -2060.73 -2138.65 -2091.42 -1639.66 -1187.68 -463.51 114.82 173.00 193.49 229.63 330.68 371.80 311.43 317.90 322.14 337.10 373.46 373.61 372.71 379.99 400.28 421.02 426.41 428.09 430.12 431.40 435.37 436.42 436.47 480.70 501.64 531.59 621.33 416.19 440.02 242.60 190.92 166.96 -579.89 -1173.79 -2354.04 -4488.18 -4579.10 -4533.52 -4798.28 -4814.62 -5051.00 -5210.26 -5238.72 -4948.13 -4357.32 -3866.99 -3180.01 -2256.75 -1475.50 -1286.76 -1207.68 -1509.54 -1727.79 -1927.29 -1995.98 -2181.08 -2247.75 -2292.53 -2290.49 -2298.46 -2342.61 -2431.80 -2517.87 -2668.04 -2793.74 -2933.77 -3115.15 -3340.46 -3410.54 -3432.01
-4845.25 -4845.21 -4849.20 -4866.46 -4896.66 -4924.84 -4954.54 -5002.01 -5068.65 -5101.47 -5132.45 -5169.79 -5200.66 -5222.99 -5255.04 -5277.02 -5294.12 -5316.05 -5326.09 -5341.35 -5349.65 -5347.53 -5335.49 -5343.43 -5343.10 -5345.51 -5346.91 -5222.84 -5021.77 -4683.83 -3568.57 -2593.49 -1575.63 -396.63 191.04 202.58 256.11 293.35 317.71 336.84 319.41 263.50 256.36 233.05 215.15 198.08 181.02 179.87 162.06 146.93 138.91 59.49 -337.41 -704.23 -1084.75 -1237.19 -1265.61 -1282.86 -1409.73 -1555.52 -1495.22 -1461.77 -1546.47 -1713.80 -1839.45 -1937.15 -2145.14 -1531.73 -202.53 127.60 144.30 157.35 196.18 230.13 284.30 345.09 380.26 334.76 339.37 356.32 367.16 378.30 378.82 383.17 395.88 407.11 422.97 426.93 428.29 429.39 429.70 430.76 431.58 431.79 452.32 463.32 476.65 498.73 538.27 610.26 377.36 250.78 202.79 154.55 115.21 -966.90 -3907.65 -4570.40 -4471.29 -4593.98 -4801.18 -5031.60 -5215.74 -5391.80 -5450.02 -5315.64 -5212.94 -4751.43 -3612.61 -2310.66 -1546.47 -1158.51 -1264.88 -1531.73 -1638.55 -1911.05 -1983.02 -2154.94 -2206.22 -2283.28 -2306.28 -2338.50 -2401.82 -2457.84 -2600.70 -2806.24 -3015.56 -3147.98 -3329.63 -3457.21 -3457.28
-4828.87 -4831.09 -4839.49 -4853.96 -4876.33 -4910.62 -4942.06 -4996.88 -5053.27 -5099.82 -5126.00 -5166.29 -5204.59 -5226.34 -5250.17 -5273.44 -5295.58 -5313.49 -5330.14 -5338.89 -5351.25 -5355.88 -5361.07 -5365.90 -5374.12 -5379.61 -5376.99 -5364.02 -5323.13 -5096.02 -3534.45 -2014.37 -1196.06 179.24 188.95 213.15 248.92 286.42 314.55 349.85 345.76 317.83 288.89 282.33 269.01 243.05 229.12 210.65 197.21 176.47 153.91 143.88 129.08 -115.65 -312.13 -642.41 -460.40 -784.74 -862.68 -1011.49 -1152.31 -1073.55 -1034.41 -1280.87 -1113.07 -1625.26 -1184.91 -500.28 -41.74 146.09 168.13 201.53 225.01 268.32 321.86 336.22 357.80 348.64 349.46 366.62 380.61 382.58 395.99 395.71 404.29 414.00 422.81 428.49 431.62 430.60 432.19 433.07 431.45 433.80 439.85 452.01 462.34 484.98 541.18 704.76 693.90 422.29 250.98 161.57 143.18 -1236.93 -3583.92 -4577.83 -4479.42 -4524.77 -4815.57 -4896.48 -5108.78 -5338.96 -5488.07 -5513.60 -5466.93 -5230.14 -4514.89 -3324.77 -1651.71 -1066.91 -1074.01 -1247.84 -1372.40 -1583.93 -1788.76 -2044.92 -2148.19 -2184.16 -2295.60 -2309.75 -2357.71 -2400.00 -2497.07 -2661.50 -2875.99 -3196.43 -3318.95 -3421.58 -3437.30
-4830.87 -4830.80 -4840.72 -4859.92 -4878.12 -4923.32 -4941.11 -4999.86 -5034.52 -5089.19 -5125.11 -5161.67 -5183.41 -5221.75 -5243.77 -5280.39 -5293.79 -5311.25 -5328.74 -5339.94 -5350.70 -5356.72 -5365.81 -5371.95 -5381.77 -5386.22 -5398.18 -5395.78 -5324.17 -5125.03 -3526.07 -1927.30 -631.62 169.22 195.97 239.57 261.43 286.35 312.48 336.59 350.34 349.21 323.96 323.12 305.22 322.22 270.14 226.48 209.13 195.00 170.74 156.83 144.53 137.03 130.50 -42.30 -47.70 -6.33 -312.42 -680.15 -546.29 -477.95 -589.33 -500.95 -156.67 -483.50 -533.43 119.21 121.71 170.07 184.65 224.05 263.77 282.70 309.88 324.88 340.92 355.27 362.32 376.71 384.31 392.18 403.75 406.86 416.48 423.32 430.91 435.93 440.12 438.23 439.04 440.00 441.50 444.69 445.67 448.94 464.98 484.01 516.55 661.52 682.17 517.11 283.71 210.58 169.07 -656.42 -2455.64 -4242.74 -4419.82 -4372.30 -4559.60 -4715.09 -5052.34 -5269.76 -5484.71 -5533.47 -5547.69 -5423.29 -4920.53 -3104.10 -1763.71 -969.12 -958.32 -1038.14 -1259.92 -1391.59 -1597.06 -1938.12 -2071.60 -2173.64 -2281.96 -2328.76 -2350.42 -2419.45 -2595.71 -2762.40 -2960.46 -3061.69 -3270.78 -3430.11 -3430.18
-4829.56 -4829.50 -4841.10 -4863.98 -4885.21 -4926.46 -4956.72 -5009.24 -5051.41 -5074.76 -5115.13 -5158.04 -5177.51 -5211.84 -5241.83 -5273.11 -5298.60 -5314.85 -5330.36 -5340.90 -5352.87 -5361.58 -5370.14 -5376.58 -5383.01 -5390.94 -5404.62 -5414.39 -5391.00 -5141.08 -3998.08 -1513.54 155.29 172.31 212.49 234.08 260.40 301.88 317.49 345.34 363.36 359.00 347.20 368.13 352.51 379.76 351.95 288.20 238.88 213.48 188.95 180.55 168.55 154.15 134.52 128.56 125.79 87.25 3.60 -49.79 -40.68 -95.66 9.61 134.48 136.70 152.05 163.67 147.22 164.75 209.96 237.09 247.48 266.97 281.86 317.61 327.70 346.96 358.00 368.86 379.98 386.96 399.80 409.41 417.34 427.19 429.39 446.31 450.86 455.70 456.62 450.08 444.62 443.74 448.23 450.28 453.00 464.86 481.79 525.21 561.25 734.86 733.50 548.52 285.71 175.24 138.52 -580.13 -2622.12 -4506.42 -4440.42 -4503.55 -4681.71 -4956.97 -5141.75 -5435.79 -5527.49 -5562.82 -5526.03 -5034.82 -3430.05 -1889.96 -783.62 -758.70 -827.04 -1060.90 -1271.20 -1558.92 -1747.69 -1831.68 -2056.99 -2246.78 -2274.93 -2315.52 -2453.88 -2624.08 -2810.28 -2923.39 -3126.82 -3267.59 -3429.33 -3429.40
-4827.34 -4827.28 -4840.06 -4860.34 -4893.00 -4921.09 -4971.58 -5002.37 -5046.83 -5074.65 -5122.52 -5145.34 -5184.37 -5215.53 -5241.70 -5279.37 -5300.19 -5319.40 -5335.51 -5350.75 -5356.63 -5366.64 -5373.47 -5382.05 -5388.21 -5395.00 -5397.18 -5346.55 -5284.91 -3877.16 -2501.66 -482.59 177.12 191.59 235.98 255.19 270.30 303.51 330.88 344.91 361.75 370.28 381.27 397.01 420.54 417.10 427.27 316.41 251.93 231.94 208.27 201.76 184.58 179.48 162.44 147.26 140.42 134.57 98.89 136.41 133.44 139.26 157.54 162.15 169.01 170.27 216.87 221.16 190.34 227.90 246.20 252.84 269.47 288.81 314.62 325.43 340.88 353.07 365.98 379.05 387.16 403.12 417.18 427.91 435.80 444.16 459.55 464.38 472.26 478.75 468.71 459.00 457.87 453.52 455.28 455.99 457.68 481.45 521.62 573.16 698.06 763.98 683.42 415.35 218.51 179.50 156.60 20.23 -2845.05 -4658.16 -4577.63 -4745.97 -4849.47 -5128.29 -5279.63 -5519.90 -5549.01 -5522.22 -5051.71 -3946.85 -2299.28 -803.14 -662.15 -716.55 -897.68 -1016.16 -1298.27 -1537.47 -1741.81 -1971.57 -2152.50 -2235.15 -2283.51 -2391.82 -2523.34 -2747.85 -2966.95 -3173.74 -3307.13 -3428.64 -3428.71
-4832.18 -4833.20 -4846.87 -4866.97 -4895.69 -4930.02 -4977.71 -5019.77 -5043.86 -5078.92 -5121.10 -5152.76 -5188.56 -5213.81 -5252.72 -5281.05 -5305.89 -5323.11 -5340.20 -5354.01 -5365.90 -5375.44 -5381.94 -5386.76 -5389.83 -5370.42 -5304.90 -4671.99 -4048.96 -3221.81 -1119.13 -440.88 89.72 182.52 247.38 268.41 289.97 314.27 330.26 346.41 363.19 388.06 398.35 417.38 460.38 510.03 441.30 393.36 303.89 256.41 224.34 214.02 195.07 184.55 179.50 167.18 163.72 156.25 156.50 150.87 157.96 174.54 194.71 194.90 205.75 216.44 261.55 269.76 242.38 224.65 236.99 256.74 271.36 291.59 303.55 330.09 342.47 353.36 366.41 383.51 390.31 406.31 418.07 430.66 442.03 453.65 463.57 473.97 483.01 489.15 486.89 481.70 474.95 461.19 456.67 456.34 457.59 458.71 490.07 513.70 616.05 782.39 837.43 534.59 313.37 209.82 181.81 -745.84 -2532.22 -4904.56 -4711.72 -4723.08 -4858.25 -5064.71 -5246.77 -5508.25 -5538.09 -5523.14 -5336.30 -4120.03 -2057.03 -755.26 -587.12 -602.34 -642.43 -901.05 -1053.21 -1378.78 -1595.76 -1820.11 -1960.04 -2112.16 -2211.16 -2284.26 -2387.90 -2611.22 -2826.42 -3013.06 -3245.06 -3403.04 -3426.95
-4844.93 -4844.85 -4865.90 -4872.75 -4920.32 -4947.47 -5007.89 -5029.42 -5060.57 -5101.62 -5139.57 -5165.82 -5202.97 -5227.16 -5270.86 -5287.20 -5316.79 -5329.51 -5348.21 -5363.87 -5373.52 -5382.92 -5385.99 -5382.64 -5317.27 -5275.38 -5096.67 -3915.05 -3359.36 -2059.41 -739.66 19.27 185.99 198.80 230.68 269.06 290.49 325.61 347.00 363.54 393.63 407.24 410.55 436.57 464.58 527.18 464.32 367.19 314.11 287.90 245.07 232.76 213.11 202.42 191.30 182.74 178.79 172.39 173.58 183.16 201.92 217.87 225.90 260.92 267.00 260.40 281.08 272.96 265.11 253.85 251.37 271.68 282.48 293.21 313.39 326.38 338.94 356.04 360.96 381.64 393.12 407.86 421.34 433.68 447.74 461.57 470.14 480.55 499.86 503.59 501.27 492.28 484.46 482.14 467.82 460.49 458.39 459.95 487.89 530.01 578.55 763.82 896.63 645.84 343.18 213.59 187.92 126.19 -2367.05 -4891.33 -4801.15 -4749.85 -4841.65 -5100.33 -5280.34 -5464.29 -5526.16 -5520.64 -5228.03 -4792.16 -2024.62 -864.13 -498.10 -506.31 -525.51 -839.36 -1057.92 -1390.99 -1627.67 -1652.94 -1862.99 -2000.24 -2119.36 -2235.33 -2360.03 -2576.84 -2755.82 -3085.90 -3303.23 -3424.54 -3424.60
-4864.78 -4864.70 -4887.27 -4900.82 -4933.21 -4973.29 -5008.73 -5044.22 -5069.31 -5122.43 -5145.68 -5181.60 -5205.88 -5230.40 -5264.54 -5299.52 -5316.60 -5337.82 -5352.01 -5370.79 -5379.62 -5378.51 -5315.99 -5297.86 -5065.45 -4537.07 -3996.60 -3018.07 -2276.24 -855.49 -150.06 163.39 187.68 219.90 251.17 274.38 298.22 318.69 349.12 368.40 397.26 421.32 421.79 446.17 481.18 520.68 449.31 403.44 325.79 291.97 266.70 243.53 230.68 212.94 199.83 194.70 191.86 187.00 210.49 211.93 225.66 253.34 275.90 286.74 279.77 270.08 279.98 279.37 274.81 267.68 265.09 284.46 289.44 302.12 310.74 318.64 332.38 353.91 362.92 376.41 395.03 414.42 424.65 436.58 454.50 469.27 478.97 493.05 504.56 519.12 528.05 519.35 507.64 495.40 478.32 470.05 464.84 475.07 508.01 518.72 560.61 684.89 871.54 686.03 400.51 267.52 185.92 -194.91 -1874.79 -4130.06 -4624.34 -4614.84 -4825.72 -5036.94 -5330.65 -5441.87 -5518.67 -5499.43 -5359.57 -3892.64 -2231.77 -886.71 -513.74 -452.85 -539.63 -696.49 -1126.05 -1278.34 -1388.68 -1611.52 -1850.50 -1957.55 -2128.01 -2231.88 -2363.29 -2455.08 -2790.06 -3045.03 -3175.27 -3262.96 -3262.89
-4889.78 -4889.69 -4911.28 -4927.86 -4964.72 -4989.69 -5030.38 -5063.46 -5100.10 -5127.27 -5155.93 -5195.66 -5221.65 -5245.14 -5272.01 -5292.23 -5306.08 -5322.79 -5335.48 -5336.40 -5330.45 -5291.06 -5202.39 -4922.66 -4203.56 -3958.20 -2805.72 -1980.85 -813.17 26.60 160.00 177.40 204.26 246.37 261.32 290.67 320.85 332.71 350.71 374.37 398.24 419.66 440.39 474.91 499.90 541.17 470.80 407.25 353.30 298.73 281.01 252.78 241.18 226.99 222.92 214.41 214.08 225.48 240.44 260.41 265.36 287.66 301.95 302.37 293.11 279.90 282.37 281.33 279.13 272.85 275.41 282.63 293.64 302.86 310.22 323.00 339.14 348.56 363.41 377.13 400.34 415.85 428.09 448.04 461.06 476.57 496.31 502.61 516.95 544.61 546.69 549.14 528.87 520.42 481.62 475.14 470.30 466.53 489.29 525.48 561.76 634.07 924.15 845.42 383.85 201.19 131.98 -969.25 -2891.37 -4295.42 -4262.78 -4494.55 -4767.10 -4907.01 -5346.14 -5446.73 -5480.08 -5443.07 -5233.50 -3906.98 -2295.98 -740.03 -442.86 -419.44 -483.09 -711.84 -973.83 -1142.81 -1287.56 -1506.00 -1803.11 -1909.63 -2051.62 -2239.45 -2353.82 -2462.96 -2579.94 -2888.00 -3036.13 -3214.81 -3214.88
-4918.06 -4917.87 -4932.01 -4964.48 -4982.57 -5007.74 -5056.70 -5085.06 -5109.34 -5152.09 -5181.30 -5215.00 -5237.19 -5256.97 -5277.68 -5285.19 -5299.16 -5311.38 -5323.74 -5256.64 -5170.01 -4930.59 -4419.62 -3895.52 -3416.63 -2752.74 -2404.95 -1225.79 -461.70 161.00 175.11 198.66 234.79 257.05 265.62 316.15 330.77 349.47 358.79 371.93 406.06 448.62 477.50 487.38 515.38 522.47 458.51 423.29 381.27 310.74 285.27 258.64 249.39 241.26 232.40 228.27 220.85 230.32 267.99 296.23 298.07 301.19 305.69 294.29 288.66 285.29 283.96 282.30 280.16 279.37 277.93 283.61 291.60 303.64 311.92 322.09 328.20 341.64 363.32 371.40 400.46 411.34 422.36 451.52 465.04 480.79 508.16 520.06 535.68 549.92 558.62 565.45 555.57 542.19 526.13 499.81 477.02 467.32 488.08 522.29 546.00 610.01 793.48 789.92 489.34 209.08 134.68 -887.32 -2812.55 -3908.16 -4098.08 -4296.67 -4533.83 -4763.89 -5078.83 -5442.69 -5440.18 -5422.05 -5171.92 -3876.88 -2141.26 -649.35 -409.95 -374.47 -451.38 -595.23 -697.99 -970.86 -1345.36 -1486.66 -1641.30 -1851.26 -2048.87 -2159.75 -2268.67 -2389.32 -2570.23 -2801.20 -2924.88 -3021.42 -3021.34
-4948.37 -4948.28 -4968.82 -4992.24 -5013.38 -5056.80 -5071.63 -5109.93 -5139.38 -5175.82 -5196.44 -5221.94 -5245.41 -5267.84 -5284.60 -5277.58 -5285.59 -5280.46 -5118.70 -5068.19 -4671.37 -4227.25 -3675.69 -2813.09 -2418.15 -2130.34 -2078.15 -1295.84 -91.48 179.38 200.82 234.53 246.98 267.83 298.67 318.79 345.96 363.19 370.78 390.20 427.03 462.32 510.38 507.27 509.93 489.60 440.80 415.03 357.61 326.84 300.22 277.50 259.88 251.35 245.84 246.00 240.40 249.84 285.43 307.79 312.57 301.66 298.09 291.59 288.97 286.14 284.18 282.58 281.66 280.20 282.46 287.32 290.68 298.56 311.43 316.83 329.80 342.51 360.15 375.84 388.13 415.09 434.45 446.44 463.94 483.51 504.58 527.80 543.72 556.39 573.01 584.85 571.52 553.21 540.25 502.50 485.59 472.45 482.88 505.65 522.94 544.54 687.42 779.76 445.73 193.95 135.76 -47.01 -1549.89 -3311.04 -3998.23 -4384.26 -4492.38 -4776.47 -5027.55 -5326.38 -5395.02 -5365.98 -5054.15 -3907.04 -1612.66 -837.95 -398.67 -352.15 -366.61 -585.50 -805.43 -904.17 -1160.32 -1402.66 -1621.61 -1785.15 -2027.26 -2149.76 -2272.10 -2379.90 -2560.27 -2714.51 -2866.54 -2973.61 -2973.68
-4979.15 -4979.06 -5001.35 -5016.42 -5042.74 -5082.48 -5106.17 -5133.89 -5154.33 -5185.95 -5210.18 -5235.83 -5260.97 -5275.32 -5267.28 -5239.24 -5120.13 -4997.78 -4656.92 -4100.32 -3578.95 -3341.78 -2516.81 -2074.45 -2023.57 -1878.60 -1250.90 -345.05 179.21 197.81 235.52 255.00 268.34 281.30 310.86 334.04 356.13 377.17 398.03 412.51 456.38 487.04 510.50 499.56 452.05 440.56 418.19 392.79 350.38 317.61 303.59 288.23 266.71 256.10 256.09 256.41 251.51 261.84 300.11 307.71 310.89 302.97 295.98 291.55 289.85 286.23 284.68 282.93 281.79 280.51 281.10 285.79 290.58 295.74 310.82 316.12 328.87 338.44 358.08 374.08 388.51 403.87 422.37 444.01 461.69 484.89 502.10 531.44 551.23 568.33 578.07 591.21 582.69 556.25 534.59 517.25 489.96 470.67 466.15 477.97 473.27 462.10 633.25 699.93 305.77 179.83 136.20 113.65 -1498.26 -3678.17 -4233.25 -4444.37 -4660.71 -4896.57 -5115.67 -5309.63 -5373.39 -5297.24 -4814.34 -3848.54 -1494.14 -636.06 -335.13 -334.04 -361.61 -492.85 -674.54 -760.07 -1039.06 -1432.68 -1664.61 -1703.14 -1992.33 -2213.91 -2315.24 -2420.97 -2509.22 -2693.32 -2765.62 -2847.70 -2847.68
-5009.77 -5009.87 -5025.20 -5052.05 -5080.39 -5110.35 -5131.73 -5160.58 -5172.92 -5200.85 -5224.06 -5244.29 -5246.66 -5227.78 -5196.36 -4945.30 -4648.59 -3994.90 -3504.24 -3176.99 -3057.42 -2139.55 -2031.74 -1823.05 -1781.82 -1331.50 -608.44 161.83 183.47 218.99 245.88 267.93 286.99 307.20 328.39 352.80 369.42 392.31 409.67 425.06 457.23 503.27 499.05 465.55 429.13 404.47 385.89 370.31 337.75 321.43 301.54 291.31 277.82 265.38 263.22 261.36 275.73 299.85 301.39 301.12 300.18 299.91 294.02 290.94 289.42 287.28 285.27 283.05 281.81 280.80 281.38 288.42 290.59 298.56 305.87 314.91 322.48 337.77 357.82 370.03 393.08 409.75 416.85 441.40 464.67 490.26 509.62 543.98 559.58 578.01 589.54 592.05 584.46 555.81 534.98 521.17 499.90 466.42 454.62 450.09 444.23 409.50 501.61 524.43 308.21 187.50 140.23 -868.28 -1768.83 -3293.18 -4190.18 -4473.36 -4733.11 -4929.52 -5165.48 -5290.60 -5331.16 -5266.60 -4816.40 -3207.54 -1430.40 -537.72 -337.09 -326.08 -387.12 -467.44 -564.68 -767.00 -968.30 -1328.89 -1514.93 -1737.67 -2050.70 -2238.42 -2350.94 -2409.61 -2502.79 -2585.84 -2711.99 -2822.68 -2822.76
-5039.72 -5039.63 -5060.06 -5078.84 -5094.55 -5131.15 -5159.80 -5179.83 -5216.42 -5232.75 -5235.03 -5213.25 -5173.90 -4979.29 -4564.78 -4108.74 -3452.50 -3088.57 -2579.96 -2199.52 -1860.04 -1693.76 -1700.53 -1648.60 -1471.23 -983.65 -146.55 176.73 196.68 230.05 259.66 282.45 296.82 320.54 338.11 355.14 377.86 396.01 419.31 443.52 461.96 507.32 501.81 477.17 434.46 393.46 364.00 344.37 325.78 317.91 300.43 290.97 279.25 272.04 272.68 276.41 291.31 304.49 306.29 305.33 303.48 300.16 298.15 293.20 289.97 288.54 285.31 283.51 282.36 280.58 281.96 287.53 289.45 295.95 305.01 313.97 324.61 340.10 356.53 361.09 398.56 407.55 417.67 443.06 460.61 489.60 513.83 535.98 559.46 585.50 590.29 589.69 579.88 559.13 534.36 520.94 485.19 467.31 440.30 418.49 412.01 390.37 415.15 411.22 290.10 187.80 119.24 -473.66 -1741.97 -3421.71 -4144.60 -4464.59 -4677.11 -4811.46 -5062.33 -5143.03 -5194.56 -5040.88 -4731.79 -2793.44 -1695.01 -433.09 -291.52 -293.02 -373.41 -439.62 -548.70 -738.36 -889.58 -1173.91 -1533.20 -1725.18 -2093.42 -2239.85 -2346.42 -2450.73 -2513.31 -2622.41 -2719.87 -2818.72 -2825.75
-5058.31 -5058.23 -5080.89 -5101.12 -5118.35 -5145.43 -5180.82 -5208.57 -5242.85 -5246.16 -5219.03 -5080.20 -4733.17 -4574.79 -4049.85 -3355.32 -2871.96 -2314.68 -1989.12 -1858.65 -1655.22 -1576.55 -1596.85 -1616.17 -1419.20 -538.80 12.34 171.72 215.11 240.81 268.44 289.58 313.40 326.47 352.32 365.79 382.36 404.73 420.90 448.87 471.06 517.42 494.32 462.45 423.45 399.32 356.77 331.85 313.91 305.03 295.51 285.18 280.74 276.24 279.57 285.38 294.75 303.99 307.22 308.62 308.32 303.48 299.02 294.13 291.98 289.10 286.08 284.12 282.57 280.61 281.69 286.41 291.53 297.56 304.51 313.20 326.02 338.68 355.01 365.88 387.55 400.65 417.53 441.89 457.74 486.40 503.91 529.30 560.01 588.13 593.81 589.53 578.37 565.75 527.02 514.44 485.08 469.83 449.52 417.38 377.77 360.27 342.78 301.68 272.10 196.74 150.21 70.56 -712.81 -3881.35 -4542.01 -4512.07 -4697.97 -4827.01 -4953.23 -5016.65 -5117.46 -4852.56 -4191.53 -2470.40 -712.83 -331.65 -243.21 -268.45 -323.59 -411.67 -531.26 -687.75 -879.52 -1060.38 -1386.27 -1723.38 -1964.49 -2216.14 -2342.08 -2450.77 -2585.11 -2641.38 -2776.55 -2840.07 -2840.15
-5095.07 -5094.96 -5113.85 -5125.88 -5158.34 -5180.93 -5202.04 -5224.03 -5256.56 -5257.44 -5174.21 -4897.25 -4255.17 -3528.50 -2730.46 -2549.06 -2255.12 -2108.04 -1907.89 -1764.47 -1619.93 -1542.28 -1574.67 -1616.01 -1125.29 -415.88 -16.36 169.66 238.13 281.37 297.19 303.31 318.19 343.13 367.77 383.34 404.02 412.89 432.43 454.45 476.52 520.03 480.81 438.50 397.65 389.01 351.66 316.14 306.42 295.08 285.16 279.15 276.60 276.05 282.92 291.47 295.31 304.96 316.64 315.88 313.77 304.91 300.51 294.99 292.11 289.31 286.65 283.87 281.79 281.03 282.25 285.05 290.59 297.84 303.09 311.32 320.45 334.41 349.83 363.99 387.12 400.65 421.78 434.83 469.97 486.50 511.46 539.31 567.94 588.15 592.90 589.54 577.43 563.11 535.72 516.21 492.60 467.96 454.00 404.43 385.41 353.43 328.41 280.40 234.80 205.57 132.86 86.69 -876.87 -2683.16 -3456.71 -4695.83 -4817.48 -4823.44 -4910.33 -4954.98 -4967.95 -4609.28 -3483.96 -1874.01 -578.67 -231.86 -206.21 -244.11 -293.69 -387.23 -491.95 -604.45 -798.35 -1074.30 -1368.27 -1572.51 -1933.90 -2146.65 -2331.14 -2522.82 -2699.26 -2785.07 -2916.29 -2966.48 -2966.65
-5139.89 -5140.56 -5155.22 -5167.98 -5187.54 -5198.89 -5220.02 -5238.80 -5235.68 -5214.00 -4999.44 -4609.49 -3528.10 -2880.63 -2335.07 -2048.31 -2034.52 -2035.37 -1918.94 -1746.25 -1637.80 -1585.35 -1593.69 -1664.15 -764.47 49.34 141.50 181.35 221.95 273.18 280.84 306.14 330.67 353.47 371.77 387.51 415.80 440.47 460.11 491.24 515.30 512.11 459.87 392.80 361.89 342.07 330.36 315.12 298.59 280.40 275.55 270.92 266.56 278.88 287.17 300.70 309.21 316.44 324.29 323.64 322.01 312.82 302.79 299.07 293.57 289.44 285.66 283.23 281.89 280.78 281.95 284.45 289.97 294.76 302.52 308.78 316.10 331.89 345.48 358.57 376.66 397.41 424.50 443.54 462.51 480.96 504.67 538.58 557.75 580.38 584.96 582.13 571.30 558.16 534.07 520.87 504.11 455.83 437.78 398.25 381.77 349.20 324.74 265.43 225.99 167.79 119.28 104.56 58.33 -444.59 -2649.72 -4672.39 -4569.03 -4723.02 -4855.04 -4863.55 -4724.71 -4136.85 -2212.72 -809.20 -294.26 -192.65 -178.43 -214.88 -266.43 -374.29 -550.74 -667.63 -850.01 -1040.22 -1421.70 -1668.61 -1953.51 -2161.41 -2327.94 -2494.97 -2703.57 -2896.01 -3105.15 -3158.35 -3158.58
-5187.53 -5187.41 -5195.82 -5184.73 -5183.61 -5181.90 -5124.27 -5104.70 -5094.64 -4696.86 -4219.90 -3718.91 -3019.57 -2142.81 -1894.67 -1753.31 -1842.16 -1901.88 -1841.48 -1632.51 -1582.47 -1602.95 -1623.79 -1604.95 -748.38 96.78 130.77 175.46 216.04 249.77 287.93 311.50 330.06 347.96 372.25 402.38 436.57 455.37 482.37 506.86 505.40 465.63 417.76 383.04 349.10 310.18 305.63 290.15 277.88 274.65 266.59 258.90 258.92 267.83 284.15 295.04 319.38 339.84 353.87 368.24 356.09 324.73 309.15 299.51 293.14 289.60 286.46 283.70 282.01 280.29 281.10 284.38 289.34 292.92 299.31 307.85 318.45 332.21 341.44 357.57 371.65 392.83 418.45 437.24 454.26 483.56 507.53 533.53 554.51 571.50 576.53 575.48 565.07 549.90 532.42 516.93 501.16 463.17 436.94 362.60 349.93 311.80 284.42 244.70 191.91 156.78 130.93 94.83 -72.33 -870.28 -2615.30 -4339.38 -4297.77 -4609.33 -4741.83 -4712.00 -4320.10 -3657.10 -1537.79 -386.74 -200.47 -134.73 -182.14 -225.00 -265.76 -403.67 -529.28 -773.76 -901.35 -1142.60 -1577.80 -1826.53 -2062.79 -2239.56 -2363.81 -2433.37 -2699.72 -2805.12 -3213.96 -3301.80 -3301.99
-5192.17 -5191.49 -5115.27 -4932.91 -4901.03 -4897.48 -4726.94 -4354.67 -4175.06 -3785.48 -3117.43 -2398.45 -2282.70 -1965.76 -1792.48 -1733.98 -1749.85 -1733.44 -1579.08 -1267.07 -1356.93 -1337.13 -1406.19 -1314.32 -716.82 28.54 159.18 205.92 235.19 259.50 299.02 320.04 335.61 374.67 397.99 415.12 464.68 481.89 492.84 484.25 477.95 458.12 388.40 349.57 314.61 296.53 286.63 274.63 270.87 255.88 254.89 252.13 255.50 261.64 276.72 275.58 314.70 353.87 397.34 412.46 382.97 333.18 313.79 302.44 296.11 288.98 286.92 283.82 280.90 279.78 280.18 283.14 287.99 293.74 299.03 305.73 313.07 324.66 343.27 362.90 375.62 390.52 409.93 427.60 451.72 480.02 503.57 518.93 548.39 563.73 568.34 565.56 559.03 546.40 527.75 516.01 488.33 453.31 420.63 363.14 338.22 289.82 254.17 221.58 181.65 146.84 121.93 97.62 -136.82 -1008.82 -2334.47 -3845.83 -4132.38 -4450.20 -4722.60 -4710.45 -3641.83 -2581.96 -779.49 -319.29 -102.19 -137.14 -171.96 -222.13 -306.98 -457.39 -647.71 -821.55 -958.04 -1239.21 -1664.85 -2018.62 -2195.89 -2267.24 -2402.64 -2506.51 -2676.34 -2871.01 -3200.98 -3533.65 -3533.95
-4702.82 -4703.31 -4333.46 -4270.90 -4140.54 -3769.96 -3566.21 -3136.16 -2725.71 -2402.07 -2353.46 -2096.76 -1930.96 -1851.98 -1826.97 -1809.37 -1767.98 -1633.26 -1387.09 -1075.45 -780.79 -655.08 -943.80 -963.38 -255.20 137.62 163.18 198.35 248.23 274.97 297.50 334.98 365.15 397.05 412.76 458.74 494.41 508.07 500.32 482.24 444.86 415.49 369.96 334.08 310.81 284.27 278.29 258.37 254.59 246.72 243.43 242.36 247.75 257.94 268.32 271.98 289.68 326.44 379.68 406.56 394.27 355.69 323.61 310.58 302.75 289.14 286.69 285.86 281.51 279.59 280.00 284.32 288.74 294.96 300.69 308.40 317.66 327.35 340.91 357.11 376.61 394.17 411.39 424.72 455.87 478.10 498.98 516.67 540.19 555.78 557.47 558.76 554.62 545.37 529.55 517.19 472.29 439.66 411.42 375.70 346.44 282.17 235.24 215.79 174.75 142.33 121.50 -78.91 -633.98 -1287.38 -2533.97 -3203.24 -4075.04 -4503.11 -4661.30 -4624.72 -3477.57 -1771.27 -500.04 -188.57 -57.92 -113.86 -170.40 -233.11 -293.63 -403.45 -635.04 -864.42 -1130.54 -1478.42 -1630.31 -1929.90 -2145.64 -2345.77 -2496.72 -2632.68 -2883.00 -3040.72 -3323.02 -3537.54 -3537.61
-3243.21 -3245.21 -3220.05 -2922.54 -2983.41 -2411.85 -2359.08 -2135.07 -2104.97 -1952.09 -1857.63 -1843.89 -1837.47 -1838.31 -1842.29 -1855.02 -1829.37 -1694.03 -1318.11 -1000.84 -522.31 -429.04 -451.42 -439.45 53.17 154.50 167.94 225.71 252.05 269.53 288.76 342.34 375.92 407.19 450.44 482.97 499.28 469.10 450.12 442.00 398.35 368.27 331.51 315.76 284.21 261.54 253.72 248.17 245.46 237.75 237.46 235.70 235.28 237.13 247.70 267.45 268.66 296.22 326.55 379.81 399.94 345.20 318.44 307.98 304.82 295.66 288.34 285.86 280.49 279.18 279.21 281.82 287.43 292.07 302.54 308.55 319.14 333.16 341.69 357.98 374.87 400.20 418.89 436.61 457.14 478.18 493.24 512.91 520.69 541.11 543.12 543.80 541.08 537.76 524.35 476.70 454.98 409.76 375.72 371.01 334.59 280.22 228.37 186.51 162.59 133.44 111.79 -574.29 -1073.39 -1864.07 -2779.20 -3325.71 -4472.51 -4681.05 -4682.38 -4210.70 -3075.21 -1440.77 -412.24 -60.00 -53.44 -105.24 -153.10 -209.64 -256.88 -381.39 -621.29 -933.89 -1209.77 -1515.54 -1769.55 -1873.98 -2228.08 -2424.42 -2593.27 -2759.11 -2984.92 -3285.98 -3372.68 -3546.30 -3546.41
-2064.39 -2066.44 -2119.08 -2233.50 -2085.57 -2023.60 -1933.89 -1865.03 -1834.90 -1818.91 -1818.61 -1819.67 -1830.82 -1842.70 -1858.21 -1885.02 -1885.92 -1803.94 -1610.38 -1116.31 -565.55 -237.57 -151.85 -89.88 140.63 156.42 177.77 204.54 237.92 262.73 285.87 318.29 362.30 397.49 448.61 450.54 432.22 432.84 408.49 382.00 376.47 352.93 307.67 287.57 261.92 251.77 245.53 239.96 234.50 229.02 232.10 231.59 229.33 233.39 239.40 251.52 261.82 272.44 322.29 360.90 378.23 346.76 329.22 307.72 303.60 297.17 290.12 285.76 280.21 278.60 278.18 279.86 285.62 292.20 300.01 310.18 317.02 329.58 340.05 360.83 378.46 398.06 413.63 430.67 462.12 472.09 487.41 505.48 517.96 523.19 526.91 522.29 522.92 520.68 506.67 477.37 442.03 422.91 362.32 329.56 302.93 255.54 215.02 181.83 145.67 127.84 -235.53 -922.74 -1160.37 -1758.16 -2547.15 -4094.13 -5154.00 -4993.57 -4938.14 -4426.48 -2606.39 -829.13 -140.16 -45.28 -47.38 -117.11 -167.29 -225.98 -253.06 -405.82 -624.06 -984.21 -1278.78 -1490.09 -1734.45 -2065.26 -2351.28 -2492.39 -2630.15 -2788.30 -3083.38 -3288.07 -3475.63 -3562.43 -3562.55
-1791.55 -1792.10 -1837.70 -1850.38 -1833.63 -1823.53 -1827.25 -1829.13 -1823.37 -1822.81 -1828.19 -1836.49 -1850.80 -1859.29 -1880.30 -1915.75 -1907.13 -1856.18 -1720.16 -1079.16 -893.86 -398.38 -147.21 52.41 139.95 150.61 175.84 215.39 247.53 251.20 282.16 289.25 314.70 337.43 415.36 414.69 387.94 386.25 365.85 353.86 354.20 334.42 311.62 271.35 243.23 238.39 233.39 229.97 226.49 225.90 225.77 223.12 225.04 231.96 235.61 245.97 253.64 265.14 307.44 352.82 383.18 368.76 319.16 312.45 305.14 299.15 289.20 283.61 278.55 276.94 277.11 277.61 283.25 288.84 296.51 312.32 323.77 336.30 345.43 365.84 384.90 394.63 422.71 435.89 452.46 469.33 490.17 499.90 508.74 513.89 511.97 513.09 516.41 508.02 487.46 446.74 436.42 398.63 356.50 304.82 276.15 222.96 193.83 173.12 135.05 -37.94 -364.84 -1050.52 -1499.79 -1618.42 -3348.83 -4440.66 -5077.71 -5185.14 -5021.68 -3952.44 -1608.32 -561.06 -87.92 -34.37 -75.57 -134.80 -185.53 -224.26 -286.40 -419.92 -698.54 -933.73 -1362.34 -1590.78 -1966.09 -2240.89 -2334.44 -2477.00 -2637.16 -2713.06 -3038.38 -3278.64 -3395.64 -3468.92 -3468.74
-1798.60 -1798.43 -1814.43 -1823.39 -1830.03 -1838.66 -1840.12 -1837.94 -1842.45 -1846.78 -1848.49 -1853.02 -1866.31 -1877.67 -1892.72 -1923.95 -1921.13 -1898.60 -1698.26 -1286.00 -706.33 -380.57 -155.38 112.36 139.74 149.49 175.76 192.45 228.05 241.51 255.06 274.29 286.76 325.80 352.83 346.43 349.33 351.14 334.32 317.17 300.31 294.71 275.06 242.44 236.90 232.42 227.30 224.45 223.21 222.49 222.67 222.92 224.71 229.90 235.35 242.56 252.82 265.09 288.37 328.35 352.50 359.77 324.03 317.60 308.26 298.68 291.32 282.91 277.77 273.89 274.18 276.02 283.42 287.31 295.45 315.54 323.81 338.56 353.25 375.47 386.14 406.85 432.32 449.29 466.02 480.40 491.26 494.27 497.52 498.72 499.14 500.93 499.06 486.27 462.42 434.24 412.09 368.87 360.83 299.04 250.54 224.94 188.17 147.27 127.64 -93.33 -618.14 -1399.07 -1445.48 -1745.21 -3171.91 -4035.13 -5226.42 -5298.31 -4795.09 -3537.89 -1808.20 -410.12 -77.46 -17.62 -90.66 -137.88 -196.63 -247.94 -332.98 -444.56 -722.95 -908.90 -1220.88 -1687.20 -1998.71 -2258.55 -2392.74 -2479.93 -2604.01 -2714.31 -2903.18 -3154.23 -3313.69 -3481.87 -3482.05
-1826.24 -1826.24 -1834.27 -1847.07 -1849.33 -1855.08 -1858.81 -1873.61 -1865.13 -1868.00 -1875.39 -1874.33 -1880.48 -1886.50 -1910.51 -1930.35 -1928.48 -1832.25 -1628.25 -1268.16 -780.82 -403.35 -200.69 62.63 120.19 149.90 160.06 180.20 212.21 224.12 249.69 255.49 267.86 305.67 334.68 335.64 311.77 300.95 294.68 284.65 282.51 272.78 264.41 238.77 233.33 226.93 224.92 221.68 220.54 221.70 222.21 223.17 224.81 228.87 233.78 240.99 252.44 268.43 275.43 308.29 348.16 356.29 338.47 336.83 328.42 306.38 305.84 289.96 274.55 271.43 272.32 273.48 280.41 287.89 295.21 313.56 325.40 335.99 361.07 379.08 397.74 417.77 434.13 445.30 469.96 477.79 486.09 491.19 493.60 489.22 487.30 489.45 487.04 479.18 452.07 424.30 367.85 339.59 305.14 258.39 216.51 191.06 164.16 132.21 -34.26 -624.06 -1311.88 -1354.60 -1470.48 -1824.67 -3129.16 -4488.10 -5074.55 -5266.23 -4749.20 -3115.57 -1460.08 -142.85 43.71 24.62 -77.56 -133.18 -195.06 -245.67 -364.23 -478.41 -606.97 -886.28 -1247.23 -1575.72 -1879.75 -2171.62 -2313.74 -2384.99 -2541.55 -2704.50 -2862.66 -3109.38 -3267.30 -3496.32 -3496.34
-1861.86 -1862.72 -1874.39 -1879.41 -1895.85 -1887.34 -1890.55 -1892.78 -1879.81 -1881.18 -1907.45 -1915.48 -1915.58 -1917.96 -1924.93 -1938.36 -1905.87 -1768.78 -1540.91 -1129.80 -484.98 -284.98 -168.84 -148.61 -15.51 127.23 153.54 173.66 192.93 204.03 231.20 245.65 253.75 271.40 310.73 306.74 279.63 277.85 266.55 263.18 259.83 246.82 238.54 229.88 222.53 222.62 221.00 219.23 219.18 221.01 222.66 224.40 226.05 230.30 233.63 237.16 249.44 259.55 275.56 294.41 345.91 357.00 371.05 367.10 345.83 335.93 321.29 290.36 268.39 267.67 270.17 271.46 280.66 290.04 301.10 317.74 327.60 339.61 362.87 375.16 405.08 420.47 430.39 446.04 456.84 476.54 482.62 485.85 486.45 482.21 476.17 470.22 467.87 455.96 443.07 401.24 376.49 341.82 250.82 218.30 191.68 162.50 153.72 126.88 -59.78 -916.54 -1252.10 -1238.14 -1348.17 -1914.30 -3115.10 -4695.63 -5176.01 -5214.14 -4995.99 -3920.04 -885.35 -414.19 14.10 4.54 -74.39 -139.60 -194.17 -241.72 -332.36 -497.17 -646.12 -966.68 -1321.32 -1500.41 -1674.19 -1993.32 -2200.59 -2403.47 -2492.15 -2638.24 -2827.20 -3064.61 -3268.07 -3516.13 -3516.13
-1918.18 -1918.15 -1916.83 -1924.74 -1933.35 -1941.32 -1947.65 -1949.87 -1964.38 -1964.28 -1948.60 -1941.37 -1940.52 -1957.37 -1958.06 -1951.43 -1894.63 -1720.21 -1246.34 -737.21 -388.96 -203.82 -182.18 -181.16 -130.35 109.25 139.48 154.64 166.87 188.03 198.05 220.01 222.88 238.12 267.17 255.32 255.12 260.55 248.73 243.33 243.38 238.12 226.71 219.27 219.56 217.34 217.18 217.46 217.35 221.15 223.33 225.46 228.06 229.10 232.95 236.99 245.58 256.64 269.58 278.37 297.94 319.17 337.35 335.99 324.79 324.12 303.50 273.81 265.43 262.44 267.37 269.39 282.95 289.35 299.86 317.16 328.21 344.88 360.84 395.77 416.39 429.15 441.49 451.87 462.89 476.36 478.36 477.98 477.35 469.39 463.73 462.17 451.62 440.94 413.35 374.06 337.28 306.70 228.40 197.24 168.94 143.03 125.67 21.40 -557.28 -1181.09 -1201.79 -1221.99 -1323.51 -2091.20 -2952.92 -5009.42 -5168.43 -5329.20 -5146.82 -3956.96 -2075.92 -941.27 -212.46 -71.81 -107.61 -141.12 -202.10 -253.51 -342.16 -457.25 -709.27 -962.85 -1282.05 -1454.73 -1770.45 -1956.65 -2188.80 -2382.58 -2482.83 -2595.84 -2776.45 -3118.45 -3328.98 -3538.43 -3538.16
-1941.80 -1941.74 -1945.67 -1955.67 -1958.52 -1964.30 -1960.81 -1966.08 -1983.34 -1980.38 -1981.80 -1981.75 -1981.80 -1979.03 -1975.02 -1956.19 -1883.30 -1644.63 -1012.01 -662.57 -376.98 -196.86 -164.10 -188.15 -178.53 30.51 115.08 134.54 156.25 177.80 179.75 192.74 208.63 220.18 243.16 243.43 229.87 231.48 223.90 219.59 217.25 215.84 216.88 210.47 211.15 210.40 211.02 213.66 216.04 220.99 223.31 225.85 228.93 230.86 233.25 236.01 241.48 250.86 262.07 271.04 272.94 287.89 305.16 285.21 274.77 276.45 260.22 260.22 254.03 256.57 261.83 268.16 280.07 288.62 300.81 318.70 332.15 353.76 365.11 382.59 416.05 425.47 448.54 454.82 473.36 478.86 478.83 476.25 472.29 464.72 456.23 446.32 428.52 410.95 377.54 361.78 319.52 253.64 227.66 202.94 166.92 122.79 90.45 -329.94 -728.57 -1175.55 -1205.53 -1215.57 -1438.82 -2362.87 -3537.53 -4899.27 -5306.46 -5343.70 -5230.29 -4495.36 -3207.42 -1647.93 -1102.10 -95.43 -147.20 -167.82 -211.19 -275.00 -333.85 -516.36 -774.80 -1064.62 -1270.93 -1527.46 -1806.57 -2021.13 -2176.19 -2338.81 -2475.50 -2674.05 -2991.59 -3354.44 -3556.90 -3671.64 -3671.39
-1959.15 -1959.09 -1967.20 -1979.00 -1980.74 -1974.85 -1962.88 -1933.61 -1965.24 -1945.71 -1967.20 -1982.01 -1992.09 -1991.20 -1988.75 -1964.05 -1867.41 -1701.14 -1132.67 -731.30 -446.92 -245.43 -180.79 -174.59 -181.79 -80.91 -25.76 134.09 142.86 152.95 163.69 171.78 190.37 193.98 204.61 210.99 212.70 211.46 211.63 208.44 197.25 194.69 191.95 199.04 202.11 200.83 205.45 209.65 214.91 221.79 222.98 227.44 230.12 232.14 235.01 236.46 243.11 251.25 256.47 263.53 258.41 256.79 255.08 252.39 253.76 249.01 255.33 251.43 247.54 252.70 257.92 264.91 275.42 286.28 301.75 316.85 328.23 350.53 365.61 392.98 417.34 432.86 448.31 456.07 473.27 484.97 486.50 481.38 470.44 455.71 446.10 435.20 418.26 398.97 369.08 336.17 279.60 225.95 210.76 170.78 136.33 118.01 -40.62 -620.27 -978.19 -1196.45 -1210.32 -1241.54 -1403.37 -2575.50 -3903.98 -4739.20 -5327.55 -5371.99 -5364.90 -5127.24 -4531.11 -2648.48 -1588.31 -719.13 -211.34 -198.24 -231.00 -308.67 -422.48 -619.77 -910.62 -1184.27 -1357.85 -1613.52 -1879.95 -2012.47 -2206.38 -2369.06 -2506.04 -2765.12 -3074.44 -3417.18 -3725.37 -3850.98 -3850.97
-1976.43 -1976.36 -1985.49 -1988.32 -1964.39 -1970.73 -1977.22 -1959.66 -1977.39 -1978.25 -1985.74 -1938.96 -1904.37 -1964.62 -1991.77 -1975.74 -1916.91 -1827.99 -1479.91 -1170.38 -667.98 -408.76 -257.64 -185.33 -194.26 -175.20 -46.70 34.91 107.15 144.61 146.78 164.54 173.97 179.25 191.39 186.48 198.94 193.66 198.22 182.35 181.81 184.70 183.70 181.42 189.64 191.07 198.78 206.18 214.07 218.69 223.01 227.13 229.98 232.69 236.10 240.79 245.64 257.71 265.25 258.28 245.93 243.78 242.59 244.15 239.96 239.81 243.03 243.84 241.61 247.14 256.89 262.77 270.36 288.52 296.14 313.33 327.43 345.69 360.22 391.10 422.26 432.57 448.04 458.89 483.22 489.48 490.71 489.26 480.28 451.18 437.54 400.15 388.10 355.79 338.15 283.09 237.19 224.69 204.67 149.92 119.90 63.35 -356.32 -1029.79 -1142.69 -1143.16 -1179.89 -1252.54 -1390.65 -2500.37 -3855.57 -5069.21 -5319.21 -5386.88 -5400.31 -5325.83 -5145.88 -4430.88 -2702.67 -1608.48 -428.99 -264.55 -254.73 -303.22 -517.18 -791.37 -894.01 -1327.44 -1441.00 -1640.90 -1912.59 -2112.30 -2263.80 -2348.74 -2480.54 -2713.82 -3070.71 -3396.36 -3771.93 -3907.37 -3907.57
-1993.77 -1995.03 -2002.77 -1968.61 -1951.68 -1993.88 -1997.88 -2007.03 -2029.52 -2019.49 -2004.24 -1984.48 -1969.18 -1990.28 -1989.28 -1981.09 -1942.69 -1848.70 -1645.27 -1414.10 -1158.31 -703.26 -417.31 -223.68 -195.04 -195.84 -138.24 -86.92 -36.83 44.87 143.59 146.53 157.75 161.67 162.87 164.78 174.43 164.22 156.08 164.80 165.74 158.85 165.12 168.86 171.35 176.64 201.92 206.29 213.47 218.30 223.84 229.55 231.10 233.50 235.51 245.70 254.49 263.05 270.52 250.28 237.50 236.13 232.85 232.73 232.25 230.91 234.74 234.88 238.53 242.19 248.42 256.71 267.71 279.22 295.03 310.88 330.52 345.46 368.95 391.95 413.39 431.96 451.93 476.35 492.75 495.92 493.52 491.37 483.65 445.41 424.92 370.75 353.72 342.69 286.07 256.25 231.04 201.28 165.94 117.82 113.49 -71.32 -355.22 -912.79 -1070.84 -1103.84 -1178.32 -1285.65 -1545.72 -2631.49 -4206.85 -5002.92 -5340.50 -5392.59 -5418.37 -5420.72 -5245.67 -4882.21 -3389.58 -1695.14 -534.95 -276.94 -283.65 -354.38 -495.57 -735.00 -935.59 -1318.78 -1633.07 -1861.16 -1989.52 -2109.02 -2245.55 -2334.71 -2437.47 -2640.13 -2983.77 -3225.92 -3615.98 -3809.68 -3809.77
-2009.34 -2009.27 -1966.88 -2012.85 -2000.49 -2009.49 -2035.37 -2034.36 -2031.45 -2031.45 -2030.35 -2019.15 -2004.13 -1990.86 -1975.55 -1975.28 -1959.05 -1952.03 -1847.78 -1774.83 -1435.23 -956.07 -604.37 -322.89 -222.13 -192.28 -207.63 -200.22 -135.72 -42.68 55.71 100.05 96.79 151.37 156.28 160.12 161.46 153.83 148.57 147.42 142.38 139.93 140.83 151.02 162.59 168.74 192.74 205.49 209.68 220.75 224.94 232.17 236.90 242.41 255.66 254.81 264.89 284.70 275.99 251.58 237.09 229.31 226.27 222.78 222.28 223.37 227.19 229.07 231.73 233.64 241.40 253.71 264.35 268.07 289.63 307.95 323.15 351.93 364.25 392.68 412.03 434.36 458.72 483.78 494.67 499.22 491.65 482.61 463.11 423.30 403.57 364.94 332.39 280.53 256.04 222.00 220.27 180.16 129.06 53.53 -96.80 -487.12 -877.21 -1023.79 -1079.16 -1107.92 -1204.08 -1367.25 -2023.85 -2993.77 -4531.67 -5123.35 -5357.79 -5399.66 -5424.82 -5450.25 -5377.92 -5079.92 -3507.37 -2222.78 -614.14 -313.71 -298.46 -396.15 -517.05 -780.54 -1182.24 -1438.30 -1767.04 -1940.94 -2050.24 -2135.05 -2290.57 -2352.59 -2453.03 -2640.09 -2935.89 -3283.22 -3500.78 -3807.53 -3807.62
-2019.95 -2021.16 -2004.33 -2001.10 -2022.02 -2042.58 -2049.06 -2034.44 -2037.22 -2021.47 -2028.54 -2022.84 -2003.89 -1998.65 -1976.30 -1926.06 -1955.27 -1948.97 -1924.55 -1802.62 -1688.94 -1303.64 -623.01 -410.18 -220.38 -190.16 -206.28 -233.69 -235.20 -142.31 -60.19 -72.18 38.90 95.00 115.59 133.64 145.18 127.25 113.43 117.83 124.02 122.95 127.92 136.61 149.76 159.62 177.08 202.34 211.87 222.70 225.07 233.78 240.73 248.46 268.70 276.06 288.53 301.80 293.24 256.18 229.60 224.48 221.39 217.38 217.11 218.71 220.64 221.96 226.50 227.45 233.85 243.82 256.17 262.84 280.00 303.27 322.03 355.34 365.94 389.38 411.88 440.48 452.83 485.57 497.83 502.79 493.11 458.95 426.14 390.56 359.98 331.44 307.38 270.56 228.43 196.80 161.64 136.63 34.37 -158.18 -386.21 -801.15 -1019.48 -1010.37 -1058.60 -1125.45 -1263.04 -1400.26 -1784.92 -3225.81 -4904.55 -5209.77 -5363.01 -5395.73 -5428.31 -5470.10 -5401.64 -5189.81 -3670.25 -2176.13 -751.74 -315.59 -313.76 -425.36 -636.77 -861.68 -1035.32 -1433.89 -1755.95 -1969.50 -2100.24 -2192.93 -2282.20 -2396.56 -2523.33 -2743.30 -2884.58 -3481.97 -3677.74 -3842.91 -3842.74
-2022.52 -2022.45 -2026.44 -2021.54 -2059.29 -2062.59 -2060.69 -2053.28 -2037.69 -2024.15 -2023.83 -2017.00 -2006.87 -1999.28 -1984.34 -1906.59 -1935.09 -1957.82 -1947.95 -1894.76 -1799.83 -1397.95 -929.07 -548.13 -266.06 -195.52 -192.10 -210.40 -224.41 -217.88 -222.59 -228.80 -168.31 -100.77 0.99 6.21 28.59 27.64 29.25 31.07 -14.27 76.27 118.04 127.10 140.42 148.73 172.38 199.28 207.03 218.50 226.98 237.69 243.49 256.21 286.64 284.51 315.76 311.75 294.06 253.51 227.78 219.48 213.90 208.70 207.75 208.48 212.31 218.82 216.90 221.23 228.51 239.59 247.38 264.17 281.10 303.29 319.51 360.00 372.30 399.45 416.71 439.53 455.92 485.70 499.18 500.87 493.06 472.22 398.85 378.83 352.09 387.67 285.15 223.22 188.79 182.05 135.68 83.07 -18.32 -512.58 -824.71 -916.81 -952.44 -1050.89 -1128.06 -1173.52 -1273.00 -1328.67 -2276.41 -3499.32 -4751.49 -5367.23 -5374.79 -5397.64 -5434.72 -5468.34 -5404.08 -5043.57 -3276.29 -1903.26 -564.41 -297.85 -349.13 -523.76 -652.61 -913.05 -1379.25 -1537.01 -1881.23 -2072.93 -2150.57 -2240.75 -2314.81 -2407.85 -2500.10 -2773.86 -3203.79 -3622.37 -3865.01 -4159.60 -4159.69
-2023.31 -2023.20 -2038.37 -2056.83 -2062.38 -2060.06 -2058.58 -2049.19 -2037.98 -2024.96 -2023.56 -2022.35 -2018.22 -2016.97 -1993.50 -1932.22 -1934.14 -1963.31 -1946.49 -1928.32 -1739.04 -1430.80 -928.76 -490.69 -228.26 -203.39 -202.03 -230.40 -240.62 -238.40 -257.28 -265.44 -296.81 -259.98 -162.36 -128.22 -137.54 -173.56 -168.36 -166.17 -142.11 -86.86 58.66 115.82 128.93 150.26 165.30 180.37 202.71 216.88 234.56 248.76 249.08 271.66 307.71 312.99 327.69 317.28 268.94 242.56 225.04 219.45 208.03 206.07 205.14 204.12 207.69 208.11 209.65 213.29 223.05 231.54 246.04 262.62 283.00 298.07 324.58 350.53 366.12 398.32 424.32 443.67 468.04 489.69 493.57 492.11 483.42 434.16 398.12 345.97 313.95 359.87 272.73 180.76 153.43 127.81 102.80 58.33 -269.71 -870.06 -986.85 -986.26 -1013.27 -1071.88 -1161.02 -1201.72 -1265.16 -1584.28 -2489.54 -3520.24 -4653.87 -5275.58 -5382.81 -5399.63 -5438.56 -5445.85 -5244.82 -4805.62 -2892.52 -1782.47 -385.86 -294.78 -390.46 -677.65 -903.53 -1101.96 -1549.60 -1889.75 -2019.64 -2154.30 -2194.31 -2298.89 -2380.09 -2404.55 -2608.60 -2935.36 -3334.62 -3810.06 -4065.24 -4163.67 -4164.53
-1976.76 -1976.70 -2017.10 -2056.48 -2090.76 -2086.10 -2078.87 -2063.15 -2041.57 -2032.30 -2031.81 -2038.30 -2040.23 -2034.65 -2004.73 -1973.17 -1944.02 -1969.12 -1950.16 -1899.84 -1630.45 -1391.33 -857.22 -443.73 -282.92 -315.71 -434.66 -369.13 -363.44 -391.33 -362.56 -363.46 -439.09 -305.18 -286.30 -201.69 -191.17 -216.42 -210.16 -196.36 -176.64 -129.52 -40.06 89.66 123.38 134.17 157.57 182.90 211.64 228.73 239.69 259.37 267.97 298.10 327.65 316.02 307.29 283.52 256.11 233.99 219.68 212.10 205.66 198.90 198.40 198.51 201.89 200.62 202.36 204.11 215.01 223.65 237.75 253.12 280.91 293.97 326.01 342.11 363.67 398.56 420.47 446.14 466.52 478.64 493.38 487.55 470.92 435.19 386.03 356.43 383.84 259.86 221.22 162.61 127.54 116.30 62.21 -200.55 -685.30 -1003.83 -1044.11 -1059.60 -1049.81 -1113.42 -1158.42 -1231.75 -1318.35 -1789.91 -2835.27 -4079.34 -4775.13 -5314.33 -5382.81 -5401.38 -5430.65 -5449.99 -5335.81 -4448.89 -2729.30 -1270.02 -425.32 -352.62 -563.99 -844.61 -1230.65 -1553.50 -1864.07 -2070.14 -2131.49 -2219.10 -2241.61 -2300.44 -2393.51 -2460.37 -2601.07 -2781.33 -3236.81 -3869.59 -4166.38 -4240.99 -4241.07
-2009.11 -2020.87 -2066.87 -2077.08 -2100.87 -2108.22 -2089.72 -2071.70 -2060.00 -2054.99 -2048.24 -2048.16 -2054.24 -2040.12 -2017.24 -1992.15 -1978.67 -1987.13 -1957.78 -1870.10 -1644.92 -1243.10 -824.11 -569.00 -574.13 -600.06 -632.05 -703.56 -811.59 -737.65 -795.82 -819.32 -819.08 -696.51 -418.28 -241.82 -219.00 -221.40 -225.94 -219.41 -199.33 -158.43 -107.38 -16.66 105.38 135.72 165.44 194.40 231.19 238.78 247.46 257.66 278.08 320.05 314.09 289.08 283.89 263.03 245.69 233.73 218.80 208.10 201.21 195.35 194.15 194.32 194.65 195.40 197.98 198.40 206.04 219.44 230.58 245.48 276.61 291.44 319.56 339.30 357.10 380.64 408.60 442.49 457.25 472.71 487.99 475.80 454.74 433.26 392.00 359.15 432.17 349.65 209.50 138.58 119.25 87.78 -178.36 -865.51 -1030.30 -1112.72 -1080.61 -1090.78 -1129.14 -1122.85 -1187.56 -1269.98 -1350.61 -2025.20 -2848.52 -4475.21 -5188.77 -5362.39 -5379.64 -5399.54 -5436.41 -5431.31 -5120.54 -4764.62 -2128.36 -608.27 -367.09 -515.54 -675.10 -997.73 -1463.82 -1905.52 -2041.78 -2182.86 -2203.70 -2239.92 -2274.10 -2308.32 -2361.06 -2496.51 -2766.10 -3022.22 -3467.22 -3854.12 -4157.12 -4230.81 -4230.89
-2088.43 -2088.34 -2067.11 -2073.70 -2103.56 -2124.04 -2118.34 -2100.93 -2083.95 -2081.99 -2089.73 -2072.00 -2074.45 -2064.08 -2029.41 -1979.25 -1975.69 -1996.99 -1996.32 -1917.39 -1749.26 -1339.73 -1045.39 -902.74 -906.02 -1028.47 -1102.16 -1195.59 -1216.81 -1384.62 -1352.36 -1234.28 -1331.50 -882.85 -460.93 -284.42 -255.66 -239.55 -241.21 -246.26 -283.52 -257.87 -175.15 -99.01 54.36 142.05 167.14 199.25 228.18 244.39 268.71 286.23 309.82 327.14 321.05 287.79 264.64 253.89 233.52 223.67 211.40 202.96 196.86 191.82 188.96 189.64 190.41 192.79 190.64 190.77 202.02 213.56 220.28 236.68 260.18 276.48 306.04 329.49 354.02 372.80 401.62 419.55 447.92 460.19 462.19 451.93 437.11 402.70 373.64 347.09 319.19 246.47 205.67 120.46 114.14 -66.39 -506.87 -914.92 -1121.09 -1110.91 -1106.51 -1118.60 -1163.16 -1177.33 -1267.97 -1409.97 -1833.44 -2651.37 -3651.32 -4732.53 -5260.55 -5324.43 -5378.50 -5408.77 -5443.60 -5371.40 -5098.07 -3888.87 -1658.79 -638.73 -383.67 -501.43 -826.47 -1048.07 -1425.33 -1860.41 -1978.05 -2150.56 -2218.85 -2252.01 -2277.95 -2308.82 -2487.92 -2623.52 -3021.48 -3270.18 -3702.97 -3978.84 -4154.11 -4217.46 -4217.54
-2070.19 -2070.16 -2087.59 -2110.10 -2126.21 -2135.83 -2141.20 -2126.21 -2111.67 -2118.35 -2128.49 -2102.17 -2095.67 -2083.45 -2044.38 -2019.58 -2023.03 -2043.62 -2034.22 -1962.98 -1857.84 -1670.43 -1512.66 -1463.87 -1440.17 -1706.02 -1754.28 -1754.60 -1856.40 -1813.96 -1861.07 -1877.86 -1834.75 -1149.41 -666.51 -453.90 -306.36 -287.87 -313.68 -333.06 -337.03 -252.92 -200.22 -114.83 -12.04 134.93 158.92 175.53 219.52 241.92 269.26 307.24 323.55 314.07 298.92 260.07 230.10 230.05 223.72 214.65 205.02 194.54 190.66 188.18 186.13 185.50 185.38 182.51 184.50 186.73 191.28 200.45 214.19 238.85 246.98 270.71 292.59 325.38 354.01 376.27 394.36 410.51 433.83 437.72 440.44 438.61 386.08 366.71 336.24 311.47 279.31 231.40 199.21 135.00 -134.93 -542.48 -731.69 -1075.01 -1077.38 -1065.99 -1108.59 -1183.82 -1262.18 -1314.06 -1436.41 -1878.36 -2220.91 -3409.15 -4506.68 -5037.55 -5229.88 -5310.48 -5374.08 -5410.47 -5448.73 -5367.57 -4999.31 -3246.70 -1538.78 -614.91 -384.91 -483.25 -836.60 -1290.64 -1514.25 -1785.15 -2023.87 -2145.46 -2227.96 -2268.09 -2308.68 -2378.54 -2509.50 -2672.19 -3048.72 -3562.19 -3798.49 -4056.79 -4147.22 -4199.74 -4199.82
-2132.30 -2132.23 -2102.49 -2085.03 -2110.10 -2143.36 -2149.32 -2139.89 -2140.40 -2134.00 -2135.44 -2129.22 -2119.30 -2109.24 -2085.32 -2072.97 -2072.80 -2068.05 -2057.67 -2048.20 -2012.96 -1903.97 -1848.07 -1813.45 -1866.04 -1913.69 -1970.39 -1973.69 -2055.37 -2083.98 -2128.50 -2111.56 -2035.01 -1889.54 -1332.56 -761.49 -413.63 -342.43 -378.18 -374.55 -375.29 -294.20 -216.90 -197.06 38.49 136.28 154.62 177.97 223.41 238.16 258.79 282.84 300.92 275.46 256.10 222.13 217.64 211.05 211.72 198.80 195.61 189.93 186.75 184.02 180.60 179.94 179.53 178.83 180.49 183.43 187.66 194.47 211.62 225.08 232.13 276.68 286.61 319.81 347.61 373.08 388.06 402.84 417.94 414.90 407.96 398.11 377.73 331.91 312.26 281.48 253.74 207.38 192.18 134.99 -294.37 -743.27 -1154.11 -1095.60 -1050.91 -1099.17 -1211.73 -1517.83 -1538.62 -1989.68 -2209.24 -2474.91 -3786.70 -4295.57 -4927.83 -5197.39 -5310.48 -5341.72 -5393.66 -5427.15 -5451.20 -5343.72 -4450.28 -3652.82 -1719.03 -610.85 -469.45 -727.14 -973.19 -1381.84 -1571.98 -1821.52 -2014.20 -2149.39 -2229.14 -2279.55 -2340.98 -2523.16 -2589.71 -2729.59 -3114.88 -3476.07 -3826.08 -4039.63 -4142.32 -4190.50 -4190.58
-2142.91 -2142.85 -2130.22 -2098.35 -2090.94 -2132.53 -2155.08 -2157.50 -2155.70 -2150.91 -2151.14 -2123.02 -2110.15 -2095.51 -2117.98 -2113.86 -2099.55 -2094.34 -2091.91 -2076.77 -2087.06 -2083.89 -2038.64 -2039.88 -2054.27 -2077.30 -2085.68 -2118.16 -2128.42 -2156.33 -2174.71 -2177.35 -2161.36 -2014.21 -1480.72 -1063.04 -619.78 -479.46 -394.18 -388.76 -384.63 -308.13 -244.37 -212.53 81.79 135.38 142.14 174.20 208.85 237.87 245.15 247.19 260.78 228.94 226.28 205.22 195.24 193.64 192.08 178.84 182.05 180.90 180.74 176.61 176.51 176.28 175.89 175.17 176.07 179.21 185.34 189.66 212.21 219.68 229.97 264.78 283.43 301.56 331.02 362.99 381.31 394.87 398.37 400.96 390.28 366.58 335.74 327.37 299.55 258.19 216.75 200.12 176.58 129.86 -300.86 -750.84 -1097.13 -1096.27 -1102.77 -1239.54 -1638.71 -1929.32 -2102.76 -2570.27 -3145.60 -3817.02 -4422.62 -4995.10 -5280.10 -5380.49 -5379.39 -5398.01 -5425.53 -5444.94 -5453.54 -5400.50 -4775.98 -2652.59 -1524.17 -478.38 -595.75 -859.71 -1050.71 -1507.42 -1736.93 -1923.68 -2154.92 -2214.34 -2240.15 -2286.24 -2419.02 -2584.67 -2692.27 -2895.78 -3086.04 -3478.87 -3830.25 -4034.69 -4158.97 -4184.34 -4184.41
-2152.94 -2152.88 -2156.65 -2138.78 -2134.39 -2123.31 -2143.55 -2155.50 -2147.71 -2157.71 -2144.57 -2099.32 -2107.00 -2083.99 -2133.37 -2131.17 -2123.26 -2112.92 -2107.43 -2114.66 -2107.59 -2105.39 -2094.52 -2108.66 -2106.06 -2129.80 -2139.89 -2147.13 -2162.33 -2178.01 -2189.77 -2199.79 -2190.82 -2101.51 -1677.46 -1364.28 -924.13 -562.84 -403.35 -389.12 -364.92 -290.21 -259.99 -209.89 -85.44 114.29 141.19 173.44 208.12 225.23 212.21 208.07 221.69 206.08 183.43 180.66 184.74 176.21 171.05 170.88 171.98 171.99 174.02 172.72 170.74 171.52 170.91 171.76 170.56 174.51 180.66 188.94 199.09 214.99 228.61 245.44 280.36 301.56 329.58 343.20 370.09 384.00 387.67 381.66 374.54 346.70 325.98 287.57 245.58 217.36 189.78 162.22 135.30 4.96 -463.45 -945.27 -1123.39 -1233.88 -1511.04 -1941.44 -3027.79 -2942.19 -3455.93 -4069.88 -4482.70 -4893.27 -5073.33 -5404.49 -5388.05 -5507.92 -5556.54 -5522.52 -5437.19 -5398.73 -5325.68 -5135.12 -4115.88 -2470.97 -926.12 -516.87 -621.54 -889.74 -1191.44 -1522.40 -1813.38 -1993.60 -2188.04 -2225.74 -2239.38 -2254.53 -2338.26 -2512.71 -2703.20 -2976.51 -3297.78 -3738.02 -3959.89 -4094.90 -4170.37 -4183.69 -4183.76
-2162.01 -2161.94 -2166.44 -2169.02 -2178.39 -2162.96 -2159.72 -2151.41 -2136.35 -2155.99 -2154.84 -2129.81 -2135.21 -2161.84 -2160.36 -2152.98 -2146.04 -2139.14 -2137.74 -2130.86 -2141.20 -2138.08 -2135.65 -2141.12 -2137.49 -2151.62 -2157.65 -2166.87 -2178.62 -2186.61 -2203.53 -2202.48 -2180.10 -2169.75 -1972.57 -1662.65 -982.26 -690.55 -438.69 -383.39 -341.02 -286.39 -287.68 -254.80 -116.38 6.13 109.62 158.06 177.96 184.41 186.38 184.75 170.42 187.40 172.85 159.48 164.81 165.40 164.78 160.24 161.83 161.70 162.41 162.90 166.42 167.57 168.17 168.58 169.77 171.29 175.79 182.58 192.45 209.38 229.21 244.86 278.37 302.74 314.59 334.13 351.96 371.69 371.49 365.89 347.27 335.72 311.26 290.94 231.66 204.91 161.21 121.34 13.60 -376.62 -1136.81 -1151.29 -1297.11 -1669.39 -2167.48 -2916.84 -3908.41 -4575.42 -4768.80 -4990.80 -5109.30 -5290.54 -5441.39 -5568.99 -5456.15 -5377.67 -5529.15 -5019.81 -5129.60 -4799.79 -4629.36 -3984.64 -3641.49 -1809.22 -657.60 -606.68 -735.42 -1116.49 -1473.18 -1692.83 -1950.07 -2123.90 -2226.92 -2236.99 -2239.40 -2248.26 -2320.05 -2483.70 -2692.26 -2990.07 -3437.61 -3820.02 -4111.67 -4166.19 -4169.19 -4176.30 -4176.38
-2158.77 -2158.69 -2162.19 -2162.08 -2166.04 -2167.08 -2166.35 -2160.30 -2146.66 -2168.27 -2178.14 -2174.08 -2174.91 -2169.89 -2174.19 -2174.50 -2170.07 -2170.41 -2163.08 -2164.80 -2169.63 -2162.90 -2167.09 -2172.62 -2170.10 -2188.66 -2183.21 -2188.37 -2197.09 -2207.94 -2219.13 -2197.25 -2158.66 -2146.13 -2083.16 -1786.92 -1304.42 -723.88 -524.72 -405.38 -358.29 -288.49 -265.24 -243.32 -156.36 -1.50 134.41 137.73 151.46 161.14 158.24 156.73 140.76 150.84 142.88 143.50 146.53 148.74 147.96 147.39 150.24 149.56 150.44 155.73 165.17 167.07 166.97 167.18 167.97 168.93 173.76 179.91 193.22 209.76 222.52 243.94 262.97 291.18 306.55 336.87 351.05 359.35 362.59 355.20 342.25 323.05 285.51 302.15 203.31 170.96 119.98 115.84 -118.85 -452.59 -892.63 -1372.06 -1857.93 -2792.99 -3469.88 -4632.69 -4899.64 -5083.17 -5297.77 -5382.90 -5499.02 -5612.65 -5663.60 -5825.55 -4507.33 -3463.47 -2311.65 -1688.21 -3130.23 -2288.08 -2035.66 -2104.66 -1429.68 -789.56 -542.38 -571.49 -823.80 -1240.00 -1492.10 -1813.79 -2037.60 -2185.43 -2224.06 -2232.85 -2239.62 -2250.05 -2324.60 -2469.47 -2861.04 -3077.50 -3389.78 -3958.12 -4086.79 -4160.82 -4167.24 -4170.14 -4170.20
-2140.07 -2141.17 -2146.21 -2149.66 -2155.42 -2155.35 -2159.31 -2154.98 -2168.75 -2179.59 -2178.89 -2176.96 -2175.46 -2176.75 -2187.39 -2202.25 -2200.16 -2207.60 -2202.08 -2202.42 -2203.43 -2193.33 -2193.91 -2195.38 -2205.41 -2204.26 -2213.96 -2211.17 -2216.98 -2221.27 -2221.11 -2212.35 -2185.06 -2176.31 -2160.56 -1918.00 -1456.71 -982.43 -585.42 -439.05 -395.53 -301.52 -253.28 -242.58 -159.47 -20.25 65.03 111.67 138.73 140.91 145.37 133.28 133.46 133.68 135.36 121.46 129.65 140.42 135.12 142.12 140.92 144.08 145.24 146.03 156.67 165.35 166.56 166.05 166.23 168.35 173.75 180.58 194.65 206.60 222.54 244.63 262.69 282.08 302.87 320.46 335.52 344.77 352.61 344.83 330.20 299.49 265.89 231.80 184.21 168.13 117.01 88.50 -457.11 -1058.82 -1486.22 -1965.15 -2996.12 -3658.89 -4556.84 -4744.91 -5218.40 -5319.63 -5461.33 -5649.85 -5269.09 -4962.21 -3993.24 -2878.39 -1454.56 -241.01 -110.28 -155.50 111.50 111.99 -78.15 -847.16 -568.22 -452.36 -410.04 -582.97 -804.30 -1242.63 -1530.30 -1853.23 -2053.17 -2165.35 -2214.01 -2231.24 -2239.40 -2249.55 -2303.46 -2457.24 -2885.28 -3100.47 -3531.86 -3841.00 -4113.89 -4145.83 -4157.66 -4165.92 -4167.49
-2150.47 -2150.41 -2149.84 -2154.23 -2157.40 -2157.17 -2162.58 -2171.21 -2184.07 -2186.07 -2190.24 -2188.25 -2187.76 -2188.81 -2203.87 -2217.73 -2216.31 -2223.19 -2223.68 -2224.74 -2226.40 -2222.81 -2225.48 -2225.03 -2227.98 -2227.24 -2235.74 -2240.26 -2231.04 -2223.06 -2209.36 -2200.53 -2188.61 -2166.40 -2111.59 -1886.18 -1670.99 -1123.74 -638.45 -455.77 -415.27 -319.31 -270.20 -245.42 -199.83 -140.19 -55.70 30.04 112.26 79.59 87.35 80.40 87.66 49.88 -21.16 -27.63 2.27 66.82 51.10 -1.98 69.85 129.20 137.54 145.31 156.29 177.10 178.97 165.05 164.06 166.51 174.05 177.71 192.18 204.26 214.73 240.27 255.81 271.97 290.37 305.54 327.98 334.32 342.13 339.26 330.46 297.57 274.97 236.37 182.96 159.42 100.50 64.03 -1216.60 -1534.49 -2331.48 -2858.57 -4193.43 -4598.73 -4877.18 -5079.17 -5304.39 -5469.92 -5611.99 -4756.38 -3221.09 -2755.67 -1646.31 -533.24 129.49 145.82 131.30 133.72 120.12 135.11 129.54 42.93 -171.21 -372.93 -469.86 -585.59 -931.87 -1196.59 -1619.28 -1944.24 -2093.97 -2196.33 -2221.60 -2229.31 -2234.69 -2250.63 -2288.87 -2422.22 -2765.46 -2962.26 -3465.30 -3907.72 -4114.42 -4145.98 -4158.62 -4166.46 -4166.53
-2162.88 -2162.82 -2163.27 -2165.35 -2171.65 -2169.64 -2172.35 -2181.69 -2197.42 -2203.02 -2200.82 -2201.33 -2201.39 -2203.22 -2215.49 -2235.57 -2240.04 -2241.89 -2243.15 -2248.34 -2244.73 -2246.82 -2242.67 -2245.23 -2251.39 -2248.89 -2250.98 -2258.92 -2240.47 -2216.63 -2211.11 -2193.58 -2178.91 -2108.01 -2030.68 -1879.16 -1742.47 -1400.77 -781.43 -588.37 -443.69 -347.80 -298.63 -263.78 -237.15 -189.04 -122.84 -7.29 25.48 13.42 -22.42 -89.72 -84.31 -63.12 -105.51 -100.79 -54.38 -85.43 -43.49 -47.49 8.66 120.81 125.74 136.93 162.05 174.83 185.23 172.59 163.27 165.49 174.87 177.31 193.42 198.93 215.65 234.63 251.57 278.57 286.45 293.83 307.25 325.95 333.23 331.48 324.49 300.89 288.81 289.62 182.00 130.98 62.88 -602.97 -1520.05 -1817.76 -2298.20 -3721.09 -4585.82 -4930.51 -4967.11 -5072.47 -5237.78 -4975.02 -4007.98 -1634.39 -464.99 -134.91 130.30 175.16 174.74 172.67 174.74 180.67 180.06 171.36 142.11 91.82 -46.36 -420.03 -596.58 -819.14 -1012.45 -1370.60 -1653.17 -1955.31 -2148.35 -2221.67 -2237.96 -2242.31 -2244.71 -2270.05 -2332.47 -2452.63 -2733.38 -2967.62 -3406.30 -3877.42 -4079.80 -4144.49 -4153.95 -4166.03 -4166.10
-2175.30 -2175.25 -2174.89 -2179.31 -2178.38 -2185.80 -2184.45 -2195.62 -2205.52 -2213.07 -2214.75 -2216.87 -2220.55 -2222.98 -2233.84 -2251.88 -2262.83 -2264.86 -2264.16 -2269.62 -2265.28 -2264.91 -2264.10 -2264.89 -2267.13 -2258.87 -2264.64 -2261.69 -2247.48 -2236.36 -2228.76 -2210.68 -2149.84 -2086.13 -1897.25 -1792.85 -1631.34 -1454.59 -1008.87 -637.68 -534.62 -422.86 -370.42 -287.64 -261.43 -226.23 -168.88 -136.73 -121.79 -94.90 -114.28 -139.41 -133.11 -120.62 -128.13 -111.84 -95.01 -88.76 -61.19 -62.32 21.61 106.73 107.85 127.17 156.64 163.42 169.46 173.14 164.31 161.46 171.28 178.58 186.62 197.31 218.25 229.83 237.16 267.17 278.41 285.75 294.15 307.72 322.41 315.21 300.99 286.47 339.00 359.78 216.72 -110.41 -607.76 -1048.41 -1412.31 -1702.19 -2397.23 -3301.80 -4132.51 -4113.35 -4151.74 -3320.31 -3546.43 -2932.54 -1288.39 123.94 155.21 159.87 171.01 184.75 198.28 211.25 206.46 200.63 183.29 168.70 150.82 129.79 -136.44 -518.10 -806.19 -980.14 -1296.60 -1460.26 -1731.47 -2081.62 -2181.95 -2222.53 -2235.70 -2243.27 -2251.31 -2283.68 -2370.22 -2530.70 -2736.26 -2907.25 -3276.93 -3743.55 -3990.87 -4105.51 -4162.98 -4167.37 -4167.43
-2189.27 -2191.03 -2192.56 -2192.56 -2194.56 -2196.57 -2199.47 -2208.46 -2217.42 -2225.01 -2226.81 -2229.68 -2230.50 -2231.61 -2248.05 -2264.27 -2273.62 -2273.92 -2278.47 -2278.11 -2283.52 -2283.76 -2282.17 -2274.64 -2279.12 -2271.45 -2271.09 -2262.28 -2252.99 -2245.05 -2236.41 -2220.49 -2172.07 -2088.00 -1909.25 -1685.55 -1513.93 -1198.26 -1022.22 -689.01 -535.66 -440.71 -364.00 -285.78 -273.28 -233.12 -189.01 -177.52 -156.50 -146.66 -143.10 -135.59 -137.79 -134.21 -117.64 -102.57 -76.09 -56.43 -52.06 -44.69 5.21 35.30 66.57 105.02 123.48 135.33 146.24 156.24 155.95 158.89 169.05 177.58 187.22 195.58 211.37 229.52 243.23 255.92 262.39 278.45 289.11 291.86 297.12 303.13 285.63 248.96 299.43 265.01 143.44 -174.37 -795.35 -1106.17 -1407.11 -1598.04 -2081.70 -2756.20 -3013.47 -3032.86 -2647.70 -2078.33 -852.36 -191.34 77.16 151.12 188.11 203.67 224.93 252.88 275.69 250.84 228.79 202.75 186.15 156.84 139.80 126.11 -99.66 -765.04 -1183.99 -1334.54 -1482.53 -1615.88 -1800.12 -2041.20 -2220.11 -2236.32 -2248.14 -2252.71 -2254.75 -2281.10 -2383.26 -2459.26 -2647.40 -2963.52 -3284.92 -3668.59 -3938.78 -4116.37 -4163.37 -4171.23 -4171.29
-2212.45 -2212.42 -2224.72 -2216.57 -2224.49 -2220.77 -2227.53 -2225.33 -2229.99 -2231.40 -2235.04 -2237.19 -2240.23 -2243.48 -2253.48 -2267.81 -2272.28 -2272.94 -2279.31 -2281.82 -2284.49 -2294.32 -2291.14 -2283.80 -2281.50 -2278.96 -2274.52 -2266.88 -2260.35 -2256.09 -2252.79 -2210.70 -2102.78 -1999.81 -1784.83 -1551.64 -1358.37 -1140.52 -842.55 -706.48 -559.97 -457.38 -373.30 -285.94 -266.57 -220.49 -207.68 -189.26 -165.21 -161.66 -148.35 -142.85 -140.02 -132.90 -112.71 -97.59 -72.77 -52.81 -40.53 -31.11 -27.39 -20.48 -17.09 53.48 115.39 126.35 137.04 146.06 149.88 153.18 162.95 176.61 184.98 197.57 209.59 221.79 235.36 240.15 252.77 257.50 267.45 282.98 280.57 273.23 265.29 242.57 225.46 198.82 130.07 96.60 -755.27 -1479.74 -1463.98 -1453.34 -1638.60 -1782.16 -1913.56 -1856.03 -1204.99 -361.12 149.29 126.92 193.13 208.57 233.29 242.09 257.32 291.72 288.99 255.78 219.54 203.17 186.12 142.28 125.76 93.20 -322.76 -1259.08 -1414.51 -1633.47 -1866.07 -1893.66 -2012.09 -2171.00 -2231.74 -2254.25 -2254.86 -2256.30 -2261.93 -2277.31 -2332.14 -2424.95 -2635.87 -2939.33 -3303.43 -3750.14 -4024.88 -4118.71 -4164.28 -4173.95 -4174.02
-2241.99 -2243.52 -2246.12 -2247.50 -2248.61 -2249.81 -2245.98 -2246.41 -2240.99 -2238.09 -2242.60 -2242.43 -2247.11 -2249.77 -2259.24 -2263.97 -2270.35 -2271.69 -2273.96 -2278.19 -2280.69 -2297.15 -2300.40 -2293.97 -2285.46 -2278.85 -2273.89 -2270.65 -2268.41 -2264.85 -2257.52 -2234.03 -2070.51 -1892.18 -1742.29 -1506.04 -1211.25 -915.82 -850.06 -696.02 -570.69 -482.86 -386.48 -315.53 -261.77 -246.73 -214.29 -197.76 -180.75 -164.19 -155.51 -157.50 -147.19 -131.21 -116.09 -98.02 -79.04 -53.26 -34.59 -22.01 -17.95 -12.55 -8.70 38.27 115.73 125.76 132.70 137.62 146.00 152.15 164.15 173.79 181.63 192.58 201.77 211.54 216.48 232.42 240.88 252.09 255.96 266.79 266.58 258.15 247.94 211.86 182.22 139.60 118.84 89.28 -779.33 -1516.88 -1527.75 -1492.03 -1562.04 -1627.40 -1628.99 -1361.98 -293.23 148.80 187.51 208.80 230.12 247.05 266.87 285.53 285.20 259.45 230.26 220.80 184.54 177.63 160.68 129.47 111.96 87.97 -753.36 -1516.42 -1698.38 -1914.10 -1954.01 -2047.26 -2180.56 -2211.91 -2250.25 -2257.98 -2257.44 -2257.93 -2266.29 -2295.11 -2323.63 -2409.01 -2613.10 -2800.13 -3390.58 -3848.16 -4108.89 -4165.13 -4168.74 -4175.74 -4175.81
-2255.94 -2257.21 -2257.82 -2259.78 -2260.56 -2264.36 -2266.01 -2258.83 -2252.37 -2249.37 -2250.84 -2254.77 -2255.14 -2259.88 -2262.87 -2273.84 -2279.96 -2283.75 -2284.01 -2286.27 -2291.96 -2300.90 -2303.19 -2291.31 -2285.51 -2278.57 -2274.10 -2271.35 -2268.55 -2262.94 -2247.31 -2167.03 -2047.96 -1830.96 -1686.42 -1441.13 -1244.90 -1007.20 -830.26 -708.76 -580.55 -494.23 -387.04 -323.75 -282.41 -235.30 -222.52 -206.73 -194.79 -180.05 -173.34 -170.98 -152.81 -135.85 -112.06 -88.67 -71.71 -56.26 -27.56 -16.89 -9.99 -3.62 2.79 32.68 104.34 117.09 132.57 137.63 146.24 151.67 159.31 167.68 175.60 180.01 191.65 206.04 206.27 222.22 232.52 237.90 239.50 243.17 251.92 248.50 226.31 204.21 180.13 163.07 122.33 88.33 -844.61 -1388.00 -1581.80 -1545.53 -1550.23 -1525.32 -1377.81 -750.53 -149.59 198.88 256.18 269.50 282.41 291.61 264.48 267.16 236.57 223.16 191.79 179.18 148.64 137.57 126.67 105.39 90.07 59.52 -115.86 -1737.44 -1890.20 -1949.99 -2057.71 -2153.41 -2195.05 -2246.38 -2252.60 -2258.04 -2258.81 -2261.78 -2277.49 -2310.98 -2363.49 -2468.40 -2739.89 -3056.20 -3559.93 -3983.57 -4142.18 -4165.74 -4169.76 -4178.32 -4178.38
-2267.99 -2267.93 -2270.71 -2268.67 -2269.45 -2270.89 -2275.75 -2270.38 -2262.57 -2260.13 -2262.35 -2265.96 -2271.81 -2272.55 -2282.24 -2290.52 -2293.82 -2288.27 -2292.83 -2299.28 -2310.72 -2308.21 -2303.05 -2293.44 -2285.87 -2279.01 -2274.96 -2273.71 -2268.28 -2253.50 -2229.88 -2151.54 -1973.00 -1810.87 -1617.25 -1404.18 -1270.76 -1009.21 -817.72 -664.66 -596.33 -497.09 -429.69 -371.12 -301.26 -258.09 -237.01 -218.29 -199.24 -190.43 -181.00 -176.68 -160.44 -136.56 -110.85 -84.94 -60.83 -43.61 -21.67 -14.44 -5.95 -0.88 9.39 19.38 49.71 82.88 118.22 130.77 142.28 150.06 153.12 162.27 169.77 173.89 182.89 194.08 200.17 207.31 215.07 221.45 227.06 235.58 236.97 236.32 212.71 200.89 176.13 157.04 123.10 78.55 -300.59 -1248.77 -1527.63 -1570.88 -1548.25 -1421.06 -1122.13 -372.27 121.38 263.69 311.44 311.98 280.59 265.59 230.01 224.05 198.81 176.73 154.95 134.85 133.03 122.27 116.34 101.49 58.12 -902.22 -1356.95 -1879.13 -1965.34 -2008.56 -2118.80 -2171.18 -2212.85 -2240.43 -2251.97 -2256.90 -2260.18 -2265.44 -2278.69 -2303.36 -2406.60 -2534.44 -2734.16 -3175.76 -3588.59 -3999.56 -4139.03 -4171.24 -4174.56 -4181.50 -4181.56
-2280.25 -2280.20 -2280.42 -2281.69 -2284.67 -2287.11 -2285.97 -2282.80 -2270.69 -2268.02 -2273.20 -2278.02 -2276.63 -2280.94 -2289.38 -2297.13 -2298.66 -2292.21 -2297.83 -2304.69 -2312.99 -2308.96 -2301.89 -2294.46 -2284.91 -2281.12 -2280.32 -2277.84 -2274.01 -2250.46 -2186.61 -2115.10 -1926.83 -1771.04 -1655.54 -1358.27 -1247.77 -1033.04 -829.86 -687.03 -563.47 -514.12 -463.14 -392.68 -335.00 -274.38 -240.84 -223.50 -203.44 -197.44 -190.15 -176.51 -155.55 -140.85 -115.88 -87.50 -58.92 -41.67 -22.43 -8.44 0.39 8.56 22.92 31.19 41.78 52.63 90.76 126.05 133.80 143.42 149.14 156.76 164.16 169.88 175.79 180.33 193.27 197.25 198.98 209.65 210.10 212.70 209.40 198.00 199.74 181.17 175.04 148.18 121.11 96.54 -361.50 -878.03 -1499.12 -1533.65 -1494.99 -1209.72 -795.96 -57.25 91.14 282.98 306.80 296.40 276.65 237.38 204.87 191.02 170.72 166.31 135.59 123.90 120.68 114.77 110.64 68.56 -414.04 -1431.29 -1828.21 -1893.42 -1999.73 -2060.81 -2138.41 -2182.91 -2220.50 -2237.89 -2246.68 -2253.15 -2259.71 -2264.72 -2280.56 -2309.90 -2395.19 -2582.12 -2788.47 -3202.53 -3798.06 -4006.68 -4153.62 -4170.03 -4181.01 -4184.92 -4185.30
-2291.73 -2291.68 -2293.05 -2296.72 -2296.95 -2295.65 -2297.54 -2297.53 -2286.61 -2282.17 -2283.74 -2286.19 -2291.06 -2299.59 -2301.48 -2296.66 -2298.36 -2296.85 -2304.41 -2309.67 -2312.23 -2310.09 -2302.53 -2296.33 -2287.67 -2284.17 -2285.52 -2284.71 -2279.70 -2255.91 -2165.26 -2091.06 -1959.94 -1844.84 -1707.88 -1448.28 -1288.27 -988.62 -917.48 -746.96 -604.77 -529.63 -456.62 -392.49 -345.92 -289.31 -264.37 -235.02 -209.11 -199.15 -193.12 -169.95 -154.89 -126.55 -101.70 -72.43 -50.30 -30.58 -18.06 -3.79 6.19 17.09 24.92 40.27 53.48 67.45 79.18 110.57 133.46 137.54 144.39 149.76 156.40 162.09 168.03 171.40 178.10 186.18 189.98 193.94 192.14 188.57 190.05 187.56 171.39 166.89 151.80 138.52 112.58 99.79 -190.28 -463.70 -1062.64 -1385.51 -1314.47 -913.03 -443.74 -67.47 88.99 216.34 251.46 247.71 241.39 205.42 183.21 167.01 160.35 140.47 120.07 117.32 107.37 101.81 -44.07 -450.65 -1213.36 -1657.62 -1801.61 -1962.73 -2037.38 -2126.27 -2169.27 -2197.65 -2224.47 -2237.11 -2244.66 -2251.50 -2260.03 -2266.36 -2278.85 -2292.67 -2387.97 -2588.55 -3025.57 -3285.41 -3735.13 -4076.62 -4166.71 -4175.49 -4182.02 -4189.34 -4189.40
-2295.82 -2295.48 -2296.29 -2297.17 -2297.28 -2298.96 -2301.99 -2300.45 -2296.85 -2295.62 -2303.84 -2307.12 -2308.68 -2310.84 -2313.16 -2302.96 -2300.68 -2302.53 -2306.49 -2315.23 -2317.38 -2315.00 -2309.41 -2303.57 -2292.71 -2291.40 -2291.72 -2284.25 -2279.92 -2240.87 -2176.66 -2115.82 -1979.71 -1877.36 -1730.52 -1464.07 -1187.34 -1027.96 -835.21 -724.02 -641.30 -540.13 -437.38 -389.25 -320.07 -297.09 -265.53 -234.48 -214.75 -201.58 -189.45 -185.63 -166.26 -130.39 -107.47 -77.11 -47.07 -31.09 -10.76 -0.03 12.64 18.75 26.00 42.99 54.00 62.80 74.76 104.71 119.60 137.21 137.80 144.34 149.30 156.22 160.43 163.03 167.13 170.61 170.55 172.99 174.24 173.81 165.77 161.81 151.88 141.69 143.47 130.22 111.79 95.93 32.61 -157.27 -549.19 -978.28 -907.37 -547.31 -169.20 52.85 123.77 185.84 196.79 200.68 197.90 159.48 156.22 134.35 122.28 119.35 102.19 102.52 88.90 -264.33 -639.84 -1022.55 -1343.96 -1657.80 -1889.12 -2013.55 -2053.52 -2139.29 -2176.32 -2194.64 -2219.28 -2231.06 -2240.10 -2251.45 -2260.22 -2267.04 -2272.92 -2291.16 -2392.69 -2510.38 -3074.14 -3664.86 -3984.58 -4108.27 -4165.97 -4177.73 -4186.79 -4194.22 -4194.28
-2296.48 -2298.13 -2299.43 -2299.96 -2299.40 -2300.35 -2302.16 -2304.50 -2312.32 -2313.56 -2316.37 -2317.57 -2321.96 -2322.38 -2318.22 -2317.97 -2312.68 -2310.25 -2313.76 -2322.17 -2320.19 -2319.31 -2316.07 -2310.49 -2306.98 -2305.02 -2298.76 -2290.76 -2282.29 -2248.67 -2212.88 -2125.79 -2005.47 -1792.06 -1654.82 -1404.56 -1155.55 -988.74 -890.25 -817.33 -694.90 -583.14 -487.01 -390.11 -342.53 -301.66 -282.69 -252.27 -224.19 -210.24 -198.15 -193.87 -157.45 -125.58 -99.49 -69.34 -45.45 -26.55 -9.21 1.64 9.50 15.94 23.64 37.20 50.74 52.46 71.84 85.91 112.14 129.12 136.16 136.43 141.82 147.23 148.10 158.94 159.06 159.07 155.26 161.81 162.89 155.50 155.17 137.03 138.18 134.15 125.82 108.20 95.76 70.04 52.38 -73.37 -327.57 -292.02 -391.64 -267.64 -9.21 101.75 109.01 70.01 105.89 163.30 159.94 136.40 120.45 123.49 114.57 103.67 95.16 -9.59 -89.91 -889.54 -1179.20 -1298.83 -1453.16 -1722.28 -1923.87 -2005.22 -2100.70 -2138.19 -2172.29 -2199.79 -2214.35 -2221.56 -2232.17 -2242.07 -2257.06 -2264.01 -2272.99 -2282.54 -2373.53 -2594.94 -3356.63 -3928.88 -4076.23 -4151.80 -4164.67 -4184.39 -4190.14 -4203.35 -4201.66
-2308.84 -2308.77 -2307.68 -2310.00 -2307.61 -2309.49 -2311.36 -2314.46 -2320.26 -2322.72 -2324.46 -2329.26 -2332.32 -2333.39 -2330.33 -2325.20 -2321.80 -2321.10 -2320.71 -2331.34 -2331.74 -2324.19 -2324.95 -2318.60 -2315.42 -2313.90 -2308.61 -2303.74 -2294.50 -2268.22 -2246.23 -2140.42 -1933.57 -1808.53 -1603.22 -1424.08 -1161.07 -1027.12 -905.05 -825.85 -696.59 -583.30 -508.11 -431.37 -361.58 -316.61 -295.93 -263.50 -240.93 -232.94 -206.09 -182.82 -154.87 -105.38 -69.02 -56.78 -33.26 -17.24 -1.67 3.55 8.76 12.91 23.25 31.97 42.53 49.35 58.25 78.48 101.01 113.78 123.82 134.43 137.00 139.48 139.70 147.30 146.77 148.44 145.34 139.77 140.33 131.65 132.19 130.39 130.87 109.80 105.47 95.91 74.68 60.43 30.91 -19.06 -111.96 -128.91 -132.91 -16.12 93.54 78.13 8.65 -74.14 -77.09 4.45 41.93 99.93 88.01 102.49 104.49 80.36 -189.88 -537.78 -783.90 -1048.49 -1227.01 -1407.30 -1511.56 -1763.57 -1936.07 -2014.04 -2099.70 -2148.23 -2168.65 -2195.02 -2206.14 -2218.20 -2231.70 -2238.71 -2248.11 -2258.24 -2270.10 -2280.96 -2360.31 -2460.39 -3049.21 -3891.23 -4145.06 -4164.76 -4185.19 -4195.37 -4191.89 -4205.74 -4209.89
-2320.27 -2320.20 -2318.54 -2320.40 -2315.95 -2323.03 -2323.84 -2324.94 -2331.51 -2333.44 -2335.35 -2339.53 -2342.43 -2343.58 -2343.38 -2338.87 -2336.58 -2333.48 -2330.79 -2344.23 -2341.89 -2335.92 -2333.84 -2334.61 -2332.00 -2326.71 -2315.54 -2307.39 -2308.10 -2290.17 -2250.11 -2161.01 -2024.34 -1872.99 -1671.07 -1516.29 -1184.79 -1100.29 -1010.69 -855.78 -773.66 -633.32 -518.60 -421.97 -384.43 -329.85 -312.61 -281.02 -255.83 -233.56 -196.11 -177.46 -141.52 -109.17 -50.65 -35.02 -21.54 -6.58 -1.19 4.19 7.23 12.94 17.44 27.38 36.64 44.26 52.90 70.47 85.65 106.36 112.58 120.80 131.27 133.13 133.29 133.99 142.38 135.31 130.76 133.89 130.32 123.02 123.78 122.06 102.17 91.87 76.49 76.44 63.27 41.21 22.95 -10.39 -54.47 -51.44 -22.55 40.85 57.95 -14.65 -81.24 -136.54 -172.89 -242.90 -223.37 -205.34 -159.06 -92.43 -152.09 -307.97 -371.02 -834.17 -1043.79 -1250.60 -1345.00 -1469.91 -1627.38 -1741.79 -2016.21 -2057.90 -2121.03 -2154.38 -2173.05 -2184.87 -2200.55 -2210.49 -2228.19 -2238.10 -2246.38 -2252.86 -2262.43 -2276.41 -2358.07 -2651.58 -3386.35 -3936.24 -4156.45 -4183.23 -4197.47 -4205.42 -4206.59 -4216.13 -4216.98
-2331.79 -2331.72 -2333.72 -2328.06 -2330.33 -2332.78 -2333.76 -2335.80 -2340.39 -2344.45 -2348.42 -2351.87 -2349.13 -2353.91 -2350.15 -2346.87 -2343.65 -2343.96 -2347.94 -2349.17 -2348.40 -2343.89 -2343.91 -2338.50 -2335.23 -2334.66 -2324.52 -2318.89 -2313.94 -2290.25 -2247.71 -2169.05 -2055.13 -1912.02 -1717.90 -1544.75 -1325.58 -1196.31 -1012.80 -902.83 -794.23 -712.69 -578.02 -466.50 -392.90 -360.82 -325.61 -299.04 -258.82 -237.41 -197.32 -155.32 -128.34 -96.65 -66.59 -37.20 -19.26 -6.23 0.79 4.20 6.23 7.85 13.79 19.03 27.92 38.55 48.65 61.01 79.70 85.38 100.76 116.12 123.84 127.06 118.16 125.76 120.34 113.44 115.39 116.76 115.58 107.39 98.77 91.18 79.50 73.55 67.97 39.68 34.90 20.58 2.92 -30.96 -60.14 -13.17 30.19 17.14 -34.64 -94.28 -142.61 -171.84 -199.95 -354.27 -453.37 -529.52 -503.50 -417.21 -593.62 -713.93 -728.14 -938.35 -1102.54 -1429.37 -1444.11 -1628.85 -1750.16 -1847.68 -2028.27 -2105.76 -2120.49 -2155.79 -2171.98 -2181.98 -2196.13 -2207.06 -2222.59 -2239.88 -2246.93 -2253.37 -2259.44 -2271.09 -2371.61 -2691.28 -3319.82 -3924.72 -4162.86 -4190.20 -4194.18 -4207.30 -4215.18 -4220.36 -4221.73
-2343.47 -2341.94 -2343.36 -2342.30 -2338.68 -2340.89 -2342.16 -2346.49 -2349.57 -2353.62 -2355.72 -2358.49 -2360.27 -2364.91 -2360.58 -2357.25 -2357.84 -2358.81 -2356.10 -2358.51 -2361.26 -2359.84 -2354.51 -2346.17 -2341.44 -2343.38 -2339.08 -2330.90 -2322.93 -2302.32 -2279.42 -2194.73 -2060.37 -1887.41 -1749.64 -1590.04 -1480.36 -1256.42 -1049.31 -904.94 -787.16 -702.07 -610.13 -485.17 -418.37 -376.33 -355.99 -312.08 -264.67 -211.49 -183.95 -134.04 -112.37 -79.23 -62.37 -36.55 -20.61 -8.51 0.38 4.60 4.05 3.49 7.48 13.95 18.30 29.63 48.11 53.68 53.04 68.53 79.59 89.48 98.47 104.59 101.53 106.89 106.71 102.89 101.48 103.92 94.91 93.06 69.35 62.48 53.15 39.87 16.42 9.41 -4.68 -9.36 -69.67 -138.27 -63.95 -9.28 -19.51 -107.22 -143.96 -162.10 -235.54 -262.52 -355.58 -432.47 -450.26 -575.71 -731.75 -842.68 -888.11 -1041.61 -1127.57 -1130.30 -1421.76 -1611.54 -1682.45 -1822.45 -1847.81 -1948.39 -2035.13 -2105.09 -2131.88 -2147.04 -2169.64 -2176.98 -2194.46 -2204.48 -2219.04 -2231.66 -2242.26 -2250.51 -2256.11 -2272.70 -2315.29 -2696.84 -3376.53 -3897.38 -4166.47 -4178.01 -4201.58 -4215.21 -4218.07 -4223.20 -4223.27
