-4844.41 -4841.97 -4842.14 -4844.50 -4858.03 -4860.72 -4870.77 -4881.56 -4898.40 -4907.29 -4909.78 -4924.92 -4934.70 -4929.82 -4938.68 -4912.70 -4910.23 -4919.03 -4928.71 -4954.50 -4981.75 -5026.12 -5036.71 -5018.15 -5088.44 -5158.24 -5232.06 -5234.07 -5204.63 -5181.10 -5137.30 -5082.17 -4828.08 -4609.72 -4392.54 -4060.46 -3479.29 -3363.91 -3735.08 -3972.33 -4266.43 -4245.08 -4757.23 -5169.01 -5126.98 -5379.67 -5417.24 -5421.52 -5421.26 -5416.84 -5406.52 -5400.60 -5374.91 -5382.81 -5367.61 -5352.40 -5343.25 -5334.10 -5329.14 -5321.63 -5309.76 -5295.12 -5285.90 -5272.13 -5247.11 -5211.80 -5193.45 -5183.85 -5162.27 -5105.79 -4957.40 -4618.94 -4147.79 -3393.86 -3156.11 -2336.16 -1891.52 -1615.37 -1163.68 -651.76 -7.89 57.70 126.44 160.66 182.12 197.37 217.33 252.52 277.99 284.29 295.05 292.57 316.33 330.61 313.66 338.92 148.83 4.40 -175.12 -866.39 -1649.11 -1743.42 -1364.75 -335.80 -657.33 -507.75 -307.08 -312.39 -404.90 -1027.57 -2558.47 -5340.86 -6259.33 -6561.38 -6807.96 -6806.11 -6530.99 -6415.68 -5916.39 -3684.23 -2450.51 -1457.88 -1566.67 -1778.96 -1917.42 -2103.49 -2169.73 -2227.58 -2233.82 -2221.05 -2208.49 -2201.53 -2205.81 -2224.43 -2289.22 -2377.72 -2518.86 -2668.19 -2730.41 -2809.77 -2809.74
-4832.85 -4832.79 -4838.50 -4834.08 -4836.87 -4839.02 -4848.03 -4851.08 -4859.50 -4866.55 -4881.42 -4893.92 -4906.94 -4914.63 -4911.24 -4902.41 -4907.13 -4920.95 -4932.79 -4952.40 -4966.98 -4978.52 -4976.84 -4738.60 -4430.25 -4345.98 -4753.98 -4939.24 -4904.94 -5084.50 -4951.78 -4576.94 -4304.78 -3888.90 -3344.95 -2870.64 -2564.78 -2572.16 -2790.64 -2769.26 -3098.05 -3558.50 -3490.67 -4136.94 -4479.86 -4861.85 -5393.23 -5394.06 -5416.48 -5419.94 -5417.02 -5415.82 -5406.71 -5393.70 -5382.76 -5369.67 -5351.29 -5338.16 -5336.05 -5327.66 -5314.67 -5302.94 -5295.40 -5275.38 -5263.25 -5222.71 -5210.63 -5183.66 -5143.15 -4989.12 -4745.95 -4263.63 -3908.02 -3467.98 -2668.97 -2052.68 -1599.21 -1276.39 -972.93 -641.02 109.51 116.57 143.62 189.03 202.10 250.45 327.02 346.43 449.31 473.67 442.89 426.86 443.80 417.42 489.68 526.96 79.04 -301.98 -1484.01 -4066.03 -3520.23 -3096.10 -2908.06 -1857.30 -1938.88 -1563.97 -1721.49 -587.12 -510.47 -439.50 -2005.34 -4192.87 -6182.26 -6085.46 -6295.52 -5925.52 -5922.27 -5862.72 -5364.07 -4395.43 -2021.39 -1492.12 -1512.92 -1706.18 -1839.50 -2022.87 -2180.97 -2245.94 -2245.20 -2231.58 -2213.81 -2205.30 -2204.38 -2237.57 -2291.35 -2337.74 -2504.21 -2667.51 -2775.94 -2883.35 -2883.41
-4855.03 -4858.71 -4860.75 -4856.34 -4853.96 -4848.91 -4851.21 -4849.63 -4859.17 -4870.91 -4870.80 -4882.79 -4902.39 -4906.90 -4912.11 -4913.87 -4935.17 -4948.59 -4957.28 -4964.32 -4966.37 -4914.28 -4584.20 -4036.08 -3327.08 -3469.52 -3482.67 -4198.78 -4288.37 -4593.27 -4361.37 -3644.94 -3035.93 -2729.19 -2415.33 -2123.38 -1986.97 -1990.69 -2114.73 -2165.29 -2346.18 -2358.01 -2604.76 -2946.94 -3724.99 -4189.93 -4825.17 -5210.29 -5288.27 -5205.09 -5272.39 -5354.03 -5408.67 -5368.70 -5386.09 -5376.81 -5358.33 -5349.87 -5343.90 -5339.15 -5330.90 -5316.54 -5304.45 -5292.84 -5271.81 -5261.85 -5261.64 -5248.93 -5116.91 -4890.98 -4494.39 -4090.37 -3778.67 -3428.56 -2644.81 -1553.65 -698.81 -514.79 -163.49 -265.90 132.26 140.33 144.28 202.11 236.81 310.05 411.34 593.27 781.03 797.02 741.82 689.12 761.95 622.37 751.75 615.80 280.33 -490.29 -1531.44 -3208.51 -4046.07 -4314.90 -4111.66 -3776.91 -3536.88 -3208.71 -2445.07 -1740.09 -913.90 -1038.17 -2385.83 -5102.69 -5871.37 -5519.04 -5519.79 -5472.21 -5498.93 -5773.76 -5524.02 -4415.24 -2048.62 -1481.75 -1508.46 -1777.79 -1938.41 -2040.66 -2189.53 -2250.61 -2251.94 -2237.98 -2220.19 -2210.95 -2205.65 -2223.75 -2262.12 -2368.58 -2490.78 -2682.26 -2833.14 -2892.49 -2894.14
-4917.11 -4910.59 -4902.11 -4899.27 -4890.60 -4890.35 -4886.44 -4888.84 -4872.15 -4893.06 -4897.56 -4908.04 -4928.88 -4953.80 -4984.88 -4967.44 -4991.19 -4991.60 -4997.39 -4994.18 -4988.18 -4857.93 -4187.01 -3172.19 -2476.19 -2367.20 -2809.05 -3143.19 -3082.61 -3523.15 -3712.44 -3057.06 -2205.38 -1943.95 -1868.65 -1733.53 -1529.22 -1650.46 -1608.24 -1906.52 -1723.97 -2073.94 -2208.92 -2425.51 -2791.38 -3158.76 -4167.80 -4645.83 -4695.19 -4771.01 -4925.39 -5165.47 -5136.32 -5276.90 -5353.17 -5371.74 -5359.30 -5361.37 -5355.95 -5345.20 -5339.52 -5334.12 -5322.76 -5316.96 -5299.05 -5285.83 -5190.58 -5222.26 -5102.63 -4699.41 -4365.86 -3886.93 -3458.92 -3066.77 -2257.81 -466.94 -152.50 -51.89 106.13 155.19 175.54 185.10 191.65 216.90 232.36 306.44 370.38 595.35 798.83 809.62 908.02 894.14 905.24 845.39 825.40 510.30 415.22 228.55 130.63 -1395.88 -2811.72 -4896.19 -4695.02 -4437.24 -4391.57 -4298.00 -3647.76 -2976.87 -2310.42 -1834.57 -2272.27 -2890.39 -2595.46 -2325.51 -2579.55 -2207.25 -3726.01 -4241.02 -4390.67 -4749.06 -2093.00 -1713.30 -1614.45 -1763.03 -2051.56 -2175.50 -2218.71 -2253.16 -2254.31 -2240.78 -2223.42 -2217.11 -2213.00 -2233.22 -2283.81 -2388.17 -2503.16 -2683.98 -2783.54 -2902.10 -2902.16
-4960.50 -4960.41 -4943.85 -4941.09 -4941.70 -4951.23 -4959.63 -4952.77 -4959.47 -4953.43 -4951.83 -4959.52 -5004.65 -5023.01 -5037.22 -5040.13 -5036.64 -5077.67 -5087.27 -5082.32 -5031.85 -4824.85 -3998.12 -3179.65 -2051.14 -1947.34 -1954.25 -2141.11 -2311.97 -2631.26 -2653.68 -2353.99 -1957.65 -1649.95 -1326.58 -759.12 -816.43 -768.84 -995.55 -1187.00 -1201.71 -1897.98 -2055.89 -2095.48 -2170.11 -2351.11 -2971.31 -3452.59 -3886.37 -3607.56 -3710.88 -4045.03 -4382.85 -4653.45 -5054.62 -5165.66 -5357.63 -5325.13 -5254.47 -5311.46 -5319.64 -5337.55 -5287.10 -5265.83 -5200.02 -4972.83 -4979.04 -4376.18 -4048.18 -3694.62 -3122.21 -3231.41 -3262.57 -2745.18 -1974.17 -475.22 130.31 149.15 148.21 171.92 197.19 210.12 233.60 261.95 287.42 309.62 352.82 459.46 489.36 579.23 655.05 782.19 816.68 834.29 818.64 614.45 572.00 223.67 146.67 -468.13 -1556.43 -3942.12 -5165.56 -4920.82 -4759.13 -4638.16 -4614.91 -4485.23 -3967.21 -2907.72 -2343.25 -1421.45 -1004.34 -1032.55 -1132.76 -1349.13 -1763.30 -2191.27 -2865.19 -4007.53 -2893.51 -2042.73 -1633.28 -1808.38 -2003.09 -2154.96 -2245.10 -2260.31 -2255.58 -2245.72 -2223.39 -2218.22 -2230.30 -2233.66 -2278.34 -2410.60 -2510.27 -2736.20 -2892.86 -2910.23 -2909.29
-4963.19 -4963.14 -4957.08 -4966.76 -4966.72 -4976.73 -4978.22 -4991.14 -5006.59 -5020.99 -5028.27 -5036.61 -5054.84 -5083.58 -5103.73 -5161.08 -5168.26 -5222.88 -5180.65 -5182.29 -5140.52 -4803.43 -3797.42 -2868.52 -2057.41 -1963.24 -1979.76 -2000.40 -1946.47 -2038.38 -2123.02 -2060.52 -1686.42 -1145.51 -602.95 -290.12 -7.44 35.61 -194.24 -204.56 -210.64 -1038.83 -2022.79 -2094.23 -1801.65 -2157.42 -2344.02 -2432.42 -2611.45 -2602.34 -2817.32 -2956.25 -3364.18 -3691.57 -4234.17 -4816.06 -4972.51 -5100.28 -5106.24 -5165.59 -5124.61 -4859.16 -5036.76 -5002.28 -4720.11 -4382.36 -4314.73 -3502.32 -3353.85 -2569.88 -2533.38 -2279.57 -1927.02 -1492.04 -576.67 -60.32 156.59 180.23 184.30 196.01 225.04 246.76 263.30 298.30 313.52 328.79 351.90 389.20 437.39 490.31 508.63 567.09 606.13 704.86 726.14 724.88 651.97 453.22 251.42 124.02 -1437.82 -2970.10 -5062.76 -4980.13 -4711.21 -4648.60 -4766.17 -4870.29 -4786.57 -4239.85 -3362.79 -2594.09 -1464.63 -1026.09 -871.12 -824.15 -1196.17 -1262.87 -1843.99 -2886.18 -2509.00 -1976.04 -1719.43 -1827.37 -1954.66 -2108.10 -2218.38 -2247.78 -2254.48 -2247.03 -2231.46 -2225.32 -2232.46 -2243.55 -2284.79 -2362.86 -2480.86 -2673.45 -2813.62 -2919.76 -2919.83
-4923.34 -4923.31 -4916.93 -4945.10 -4949.92 -4958.76 -4985.06 -5017.67 -5045.34 -5063.45 -5076.90 -5109.06 -5123.87 -5167.54 -5196.77 -5227.07 -5232.30 -5274.63 -5279.69 -5290.40 -5208.02 -4943.43 -3868.43 -3134.49 -2293.56 -2298.42 -2404.87 -2369.89 -2055.62 -1946.57 -1934.70 -1819.18 -1665.85 -545.99 -92.93 223.46 214.46 224.33 185.09 136.70 23.84 -374.44 -1098.48 -749.71 -973.36 -1763.25 -1949.62 -2138.36 -2145.70 -2221.94 -2299.75 -2246.16 -2231.48 -3117.68 -3117.12 -3546.13 -3945.91 -4247.33 -4245.76 -4359.52 -4088.87 -4322.79 -4095.68 -4199.03 -3725.83 -3159.16 -2662.04 -2532.95 -2263.18 -2220.73 -2001.05 -1820.05 -1414.90 -946.08 126.14 140.37 175.14 212.84 239.94 220.16 256.09 279.84 292.44 310.85 347.38 368.32 395.35 395.32 421.88 458.31 476.04 485.26 509.67 548.65 583.63 671.79 662.85 553.95 257.80 138.48 -414.56 -1126.33 -3881.56 -4520.01 -4868.42 -4708.98 -4773.39 -4937.49 -5056.85 -5118.18 -4432.26 -3524.48 -2762.87 -1738.75 -1142.63 -918.44 -870.10 -946.23 -1206.83 -1678.61 -2151.45 -2000.96 -1742.25 -1889.50 -2048.68 -2162.81 -2242.71 -2248.76 -2255.99 -2252.11 -2250.37 -2240.22 -2246.31 -2273.96 -2300.35 -2396.59 -2506.64 -2756.70 -2924.12 -3076.93 -3077.18
-4871.84 -4877.84 -4877.75 -4890.94 -4909.76 -4936.38 -4959.62 -4998.91 -5039.70 -5077.12 -5103.64 -5133.37 -5156.38 -5191.53 -5232.00 -5292.72 -5327.23 -5347.44 -5365.91 -5353.85 -5276.42 -5131.09 -4434.55 -3535.86 -3479.27 -3122.51 -3375.08 -3419.25 -2654.19 -2327.23 -2030.95 -1789.02 -1318.44 -306.67 86.06 225.85 244.30 268.12 262.24 232.41 207.83 37.69 -75.80 -120.96 -167.71 -1033.52 -1325.64 -1555.77 -1749.35 -1970.06 -1954.33 -1999.86 -2094.91 -2047.47 -2304.82 -2644.96 -2801.63 -2868.35 -2926.84 -2817.41 -2841.23 -3055.09 -2785.21 -2994.35 -2725.63 -2407.44 -2408.75 -2240.37 -2231.54 -2217.22 -1734.57 -676.53 -116.17 108.67 153.78 192.56 206.01 233.95 251.39 262.30 280.13 307.26 316.97 341.25 363.85 394.53 407.34 410.42 413.43 436.60 456.24 471.06 488.06 504.49 524.09 628.38 698.46 612.09 341.86 157.93 137.50 116.94 -500.28 -2445.98 -4242.96 -4957.40 -4872.15 -4901.49 -5028.13 -5218.46 -5179.17 -5015.58 -3766.39 -3319.66 -2394.86 -1341.18 -1106.13 -923.81 -945.77 -1069.63 -1424.49 -1732.81 -1707.72 -1831.85 -2048.92 -2123.32 -2220.97 -2258.00 -2268.10 -2266.65 -2258.88 -2251.09 -2262.78 -2291.96 -2349.25 -2492.29 -2591.55 -2783.94 -2980.96 -3167.40 -3167.47
-4833.43 -4837.13 -4839.28 -4855.78 -4873.42 -4915.28 -4937.52 -4976.65 -5028.10 -5063.62 -5115.72 -5136.55 -5165.83 -5202.90 -5257.32 -5298.73 -5341.87 -5363.64 -5380.96 -5391.14 -5368.85 -5266.74 -4916.51 -4613.06 -4516.35 -4752.17 -4662.48 -4193.13 -3199.66 -2530.34 -2196.05 -2034.40 -1624.88 -678.21 183.85 230.48 246.26 304.72 310.96 259.39 221.18 183.60 171.51 166.50 165.10 78.70 -61.53 -266.08 -546.99 -903.28 -1254.53 -1472.62 -1942.75 -2002.90 -2021.60 -2035.21 -2164.47 -2261.51 -2145.87 -2210.20 -2181.27 -2139.18 -2226.05 -2281.37 -2324.07 -2188.88 -2167.34 -2208.21 -2051.81 -1372.51 -855.86 109.11 125.17 148.13 208.67 287.23 271.99 263.37 289.99 293.66 292.83 332.43 335.44 366.83 385.88 406.59 410.42 412.64 413.13 423.84 436.54 433.53 453.53 463.37 504.31 523.82 611.34 713.87 519.07 274.89 160.89 154.78 112.03 -1520.48 -3271.42 -4672.21 -4916.22 -4797.45 -4917.59 -5063.02 -5188.07 -5297.63 -5142.65 -4661.71 -3619.33 -2935.40 -2442.69 -1415.70 -1236.30 -1131.39 -1116.13 -1244.50 -1528.86 -1749.67 -1872.99 -2052.42 -2125.37 -2232.19 -2275.05 -2277.52 -2265.06 -2265.10 -2278.75 -2319.21 -2375.83 -2487.67 -2661.48 -2786.58 -2993.21 -3146.93 -3181.81
-4806.70 -4809.53 -4814.40 -4828.07 -4849.30 -4881.11 -4917.38 -4976.26 -5032.94 -5061.90 -5108.35 -5135.20 -5164.89 -5208.34 -5253.74 -5316.22 -5342.77 -5373.12 -5382.07 -5393.59 -5396.54 -5380.94 -5329.07 -5238.31 -5249.48 -5278.46 -5129.26 -4938.47 -4303.09 -3527.51 -2715.02 -2245.53 -1374.06 -317.71 190.55 218.37 262.68 298.35 329.22 305.46 295.95 236.95 220.51 184.68 180.30 172.57 162.75 146.27 -66.57 -236.85 -153.00 -219.37 -997.86 -1651.79 -1622.55 -1603.30 -1761.99 -1837.99 -1844.46 -1855.65 -1815.84 -1889.65 -1968.94 -1967.66 -2106.75 -2138.21 -2237.67 -2167.81 -1513.84 -433.35 19.40 120.66 145.06 169.05 222.46 306.70 307.17 303.97 313.27 320.97 337.09 372.95 370.91 380.34 395.86 407.02 412.84 413.31 413.41 413.45 417.82 429.16 439.69 441.10 473.76 506.19 563.06 654.86 657.05 554.50 211.29 189.94 166.39 -949.10 -1882.53 -3268.91 -5005.27 -4959.87 -4829.47 -4959.72 -4992.88 -5184.19 -5312.15 -5218.70 -4887.27 -4291.91 -3796.08 -3100.43 -2164.01 -1342.97 -1112.62 -990.57 -1270.63 -1543.88 -1765.95 -1898.11 -2104.25 -2194.03 -2263.72 -2266.94 -2271.45 -2273.90 -2292.06 -2321.31 -2391.54 -2490.06 -2603.76 -2732.75 -3001.59 -3154.06 -3192.44
-4787.27 -4787.22 -4792.82 -4809.25 -4837.54 -4868.42 -4902.23 -4955.96 -5024.94 -5067.58 -5098.43 -5137.91 -5170.12 -5201.09 -5262.80 -5312.74 -5340.15 -5363.75 -5376.24 -5393.98 -5399.90 -5392.90 -5374.64 -5378.45 -5374.83 -5372.87 -5367.83 -5244.35 -5054.61 -4708.50 -3478.18 -2486.11 -1427.55 -325.94 185.35 205.70 264.35 287.24 314.41 340.96 332.56 270.15 255.85 240.84 216.44 189.36 178.56 177.65 157.33 146.96 141.39 81.05 -179.60 -542.96 -1078.52 -1238.50 -1325.29 -1366.04 -1428.44 -1573.38 -1533.53 -1501.49 -1589.50 -1738.87 -1850.15 -2008.82 -2247.21 -1882.15 -401.22 127.81 136.01 130.66 175.78 199.98 278.00 333.93 343.66 334.31 340.74 360.27 369.83 380.59 379.42 388.41 400.43 409.64 415.88 414.67 415.56 413.73 416.86 417.91 422.59 433.40 453.45 480.57 508.02 545.42 667.28 548.98 304.79 229.95 200.53 19.49 7.95 -1420.25 -4890.59 -5041.31 -4862.13 -4905.01 -5012.27 -5183.68 -5322.99 -5421.92 -5399.21 -5260.38 -5148.56 -4679.17 -3535.70 -2212.62 -1413.41 -961.38 -1091.77 -1370.49 -1500.01 -1803.30 -1871.00 -2077.57 -2157.61 -2246.77 -2269.62 -2278.48 -2297.20 -2345.16 -2411.40 -2543.43 -2688.57 -2793.32 -2995.53 -3197.75 -3197.81
-4780.61 -4781.62 -4789.16 -4804.10 -4829.21 -4860.28 -4897.80 -4958.31 -5018.38 -5072.07 -5105.88 -5147.80 -5188.62 -5215.66 -5257.05 -5306.50 -5339.01 -5359.19 -5378.99 -5388.47 -5394.16 -5394.82 -5393.89 -5393.66 -5398.33 -5401.03 -5392.85 -5382.90 -5355.94 -5098.91 -3396.33 -1883.27 -1102.40 184.23 187.71 207.80 243.61 285.02 311.74 345.65 351.21 316.32 283.49 284.65 261.47 237.60 215.79 195.95 182.42 172.64 151.51 140.78 129.01 -21.24 -260.88 -613.50 -517.17 -827.16 -838.85 -995.88 -1174.38 -1099.76 -1068.54 -1322.58 -1100.21 -1525.34 -1220.60 -694.17 -126.74 147.18 161.36 183.60 214.16 227.94 263.38 312.21 335.98 342.15 348.52 370.84 385.63 387.18 401.35 401.91 408.34 416.63 423.21 422.54 427.77 423.60 426.21 422.71 417.85 421.99 424.74 455.91 476.28 490.17 530.33 522.47 557.65 491.30 276.72 159.98 140.92 -728.73 -3507.14 -4449.22 -4800.53 -4884.52 -5012.29 -5048.88 -5227.76 -5390.62 -5448.47 -5464.21 -5413.66 -5171.68 -4451.93 -3253.98 -1551.79 -914.45 -890.84 -1061.59 -1171.63 -1368.55 -1629.81 -1949.45 -2072.44 -2123.95 -2256.35 -2277.20 -2314.64 -2349.48 -2425.34 -2558.26 -2671.02 -2917.51 -3004.60 -3164.14 -3200.19
-4788.28 -4788.21 -4799.42 -4817.59 -4835.21 -4881.48 -4901.58 -4974.15 -5026.67 -5098.85 -5127.25 -5166.09 -5193.16 -5236.09 -5266.83 -5316.16 -5337.85 -5357.17 -5375.48 -5385.40 -5389.94 -5387.70 -5384.73 -5382.90 -5392.23 -5399.29 -5410.75 -5413.06 -5351.95 -5117.28 -3295.79 -1816.25 -564.19 192.24 211.10 246.15 264.06 286.39 309.78 334.44 348.52 343.74 331.42 321.21 297.80 289.96 255.91 214.22 193.43 185.27 166.25 153.39 143.11 136.36 129.42 -26.34 -94.43 -55.04 -319.09 -651.31 -540.25 -468.10 -597.31 -561.11 -192.07 -300.61 -414.04 154.37 155.00 179.26 177.91 206.81 269.19 275.54 263.59 299.63 329.20 353.72 365.36 382.94 391.49 399.26 411.86 415.99 426.15 431.01 439.27 441.71 443.31 437.99 437.20 429.91 421.07 415.58 420.77 432.67 444.41 454.14 449.80 499.50 651.54 630.49 327.66 211.62 170.32 114.76 -163.81 -2634.32 -3725.26 -4602.47 -4803.64 -4860.64 -5179.42 -5340.47 -5458.69 -5494.34 -5505.21 -5370.84 -4859.85 -3040.42 -1690.75 -825.03 -774.97 -832.57 -1036.56 -1188.42 -1411.75 -1761.16 -1899.66 -2100.44 -2241.98 -2304.83 -2334.36 -2383.01 -2532.37 -2665.86 -2823.51 -2898.61 -3065.96 -3206.52 -3206.59
-4796.58 -4796.51 -4807.58 -4829.62 -4852.12 -4893.60 -4930.21 -5001.65 -5075.68 -5102.68 -5147.93 -5191.38 -5212.41 -5248.04 -5277.66 -5305.93 -5335.88 -5353.43 -5366.61 -5378.26 -5384.77 -5380.36 -5372.68 -5373.90 -5377.20 -5385.13 -5397.78 -5412.27 -5412.26 -5153.26 -3838.24 -1493.59 175.38 195.29 229.16 248.18 270.22 302.66 319.39 342.57 352.87 356.45 362.60 364.46 354.08 370.61 318.68 266.66 236.55 204.52 184.34 176.40 164.14 151.31 139.24 134.33 130.01 125.15 56.58 -43.40 -30.56 -72.15 28.58 117.58 134.19 163.66 175.17 178.27 188.28 210.42 237.74 239.13 268.07 284.71 314.02 316.75 345.79 362.82 373.04 388.03 396.23 410.61 421.27 428.02 440.31 441.00 454.89 455.98 460.43 458.55 449.84 436.28 428.82 419.51 417.64 423.21 436.01 445.04 456.33 462.69 770.51 799.90 548.32 284.48 181.31 142.22 13.97 -1996.95 -3912.09 -4529.24 -4747.63 -4845.99 -5086.86 -5199.75 -5421.49 -5487.82 -5515.37 -5469.23 -4972.94 -3380.58 -1829.99 -658.79 -627.26 -666.97 -874.55 -1086.65 -1372.21 -1570.66 -1716.89 -1986.62 -2205.05 -2257.67 -2315.72 -2424.54 -2560.51 -2713.04 -2798.05 -2955.03 -3098.91 -3209.29 -3209.35
-4800.18 -4800.11 -4812.75 -4832.34 -4864.38 -4892.94 -4950.32 -4996.16 -5073.98 -5110.81 -5162.63 -5185.38 -5225.10 -5257.65 -5280.63 -5311.65 -5332.43 -5352.44 -5368.66 -5382.18 -5384.47 -5379.61 -5374.05 -5373.03 -5377.22 -5384.98 -5395.16 -5347.92 -5300.45 -4049.18 -2533.06 -365.39 175.68 206.28 247.43 262.63 276.51 304.86 333.53 346.87 361.20 368.60 382.82 394.20 414.13 373.70 347.17 279.19 262.21 212.85 203.42 196.87 180.93 175.65 160.96 154.28 141.55 127.84 131.36 138.05 116.93 141.26 153.28 170.96 169.42 180.19 214.55 216.50 211.04 253.24 266.84 252.88 266.38 288.12 317.09 324.71 340.11 357.09 371.06 388.80 398.29 417.01 429.62 441.81 449.91 456.86 472.52 474.28 475.08 480.16 467.92 452.50 447.21 427.39 421.80 425.25 430.60 453.32 471.45 524.53 657.03 744.88 677.01 405.10 223.90 192.63 136.61 -898.81 -3885.03 -4933.33 -4782.91 -4925.17 -5004.58 -5186.10 -5298.25 -5475.44 -5508.19 -5465.82 -4988.98 -3897.45 -2261.82 -733.66 -547.60 -582.60 -743.72 -855.04 -1116.41 -1380.07 -1635.38 -1906.48 -2113.19 -2224.80 -2295.44 -2378.93 -2480.95 -2664.25 -2841.26 -3099.93 -3314.32 -3347.57 -3347.77
-4806.87 -4807.66 -4820.99 -4840.83 -4869.29 -4904.11 -4958.59 -5015.54 -5066.01 -5114.70 -5161.73 -5193.95 -5229.57 -5255.55 -5290.70 -5313.77 -5337.92 -5355.91 -5372.48 -5383.89 -5390.23 -5385.74 -5380.34 -5372.96 -5380.32 -5380.10 -5321.09 -4590.42 -3812.06 -3041.72 -876.95 -113.92 168.75 191.17 250.28 268.19 286.74 312.50 331.08 356.25 367.42 380.55 394.70 427.22 452.99 437.89 356.14 341.49 297.65 252.57 221.24 212.19 193.63 181.79 175.68 169.12 163.50 152.78 154.14 149.48 149.22 167.05 184.36 198.82 212.51 232.02 262.56 242.91 235.38 254.36 264.80 263.49 271.07 293.51 308.55 335.78 343.61 358.27 374.12 395.67 402.65 421.21 431.62 445.82 457.74 468.06 478.40 488.26 491.15 492.94 484.76 480.01 469.98 434.74 428.53 427.67 436.83 447.60 477.94 511.23 610.62 776.22 813.72 503.17 297.57 207.66 136.48 -1900.99 -3798.28 -5078.05 -4863.24 -4893.77 -5007.65 -5144.74 -5274.72 -5477.10 -5503.59 -5478.34 -5278.09 -4062.38 -2016.52 -709.46 -529.65 -508.63 -538.39 -762.29 -882.49 -1202.75 -1460.83 -1736.95 -1901.62 -2080.80 -2219.18 -2294.95 -2381.98 -2583.49 -2824.98 -3090.10 -3349.74 -3457.29 -3474.45
-4824.62 -4824.54 -4846.93 -4853.46 -4899.47 -4927.92 -4997.94 -5027.40 -5080.42 -5135.94 -5175.64 -5204.38 -5239.63 -5260.82 -5302.89 -5315.78 -5342.25 -5357.95 -5376.04 -5390.64 -5395.81 -5392.88 -5378.54 -5366.18 -5298.48 -5281.01 -5087.77 -3870.25 -3231.01 -1902.72 -357.87 149.86 188.19 203.53 232.40 277.68 293.41 328.69 348.29 373.54 397.75 409.06 417.47 440.81 469.17 482.48 434.47 363.85 305.00 280.58 244.17 228.20 211.05 199.85 189.68 179.39 176.54 167.40 164.97 172.83 192.96 207.53 223.21 258.97 265.28 265.12 268.29 267.26 267.52 267.32 268.24 274.79 284.64 298.41 323.04 337.57 348.43 363.16 371.99 394.46 405.18 424.42 437.82 451.10 464.89 478.09 487.28 500.32 512.94 512.39 503.86 489.88 477.78 472.93 452.73 440.31 435.53 452.23 481.34 515.27 579.85 767.94 885.17 612.05 302.69 201.23 135.20 111.11 -2975.22 -4998.84 -4872.40 -4894.74 -4946.37 -5085.42 -5185.57 -5386.85 -5490.11 -5470.48 -5168.97 -4731.16 -1993.63 -835.41 -450.14 -443.09 -463.26 -712.32 -884.26 -1216.40 -1509.47 -1541.44 -1803.71 -1975.60 -2125.85 -2254.53 -2365.65 -2597.44 -2803.94 -3176.46 -3414.61 -3506.08 -3506.15
-4864.45 -4864.36 -4893.01 -4898.99 -4932.58 -4969.39 -5012.57 -5049.30 -5081.52 -5136.38 -5160.54 -5203.38 -5228.94 -5253.93 -5283.55 -5311.50 -5330.68 -5351.08 -5363.89 -5382.26 -5386.64 -5376.39 -5316.33 -5294.41 -5058.33 -4327.89 -3731.63 -3002.64 -2319.50 -663.11 110.10 161.84 185.68 213.66 248.37 278.37 304.60 324.16 340.83 387.50 407.49 421.12 428.33 450.26 486.28 500.05 431.25 381.09 315.46 291.44 267.57 239.91 228.46 211.37 200.18 191.13 190.28 182.80 204.05 201.32 216.43 238.21 265.56 281.84 287.59 287.90 279.09 272.31 273.19 274.22 275.77 292.09 297.72 311.92 321.10 330.71 345.28 363.79 374.25 390.87 410.75 434.06 444.37 459.25 475.83 492.49 500.22 513.94 521.82 533.46 533.51 516.52 506.29 490.34 466.49 450.00 440.04 449.01 489.29 517.41 557.03 661.80 855.61 626.73 357.48 248.29 135.37 -570.89 -3350.85 -4474.26 -4668.75 -4721.64 -4892.98 -5002.96 -5198.36 -5345.45 -5456.42 -5435.03 -5291.81 -3836.06 -2195.72 -861.26 -482.72 -410.30 -475.46 -592.21 -917.06 -1070.30 -1209.96 -1499.41 -1802.31 -1931.42 -2094.46 -2205.73 -2383.02 -2479.61 -2846.83 -3138.85 -3294.98 -3381.43 -3381.40
-4924.83 -4924.72 -4943.78 -4959.35 -4996.40 -5020.40 -5052.05 -5079.74 -5105.11 -5123.78 -5150.27 -5195.26 -5214.21 -5244.59 -5272.74 -5294.10 -5306.12 -5321.42 -5337.57 -5329.90 -5326.33 -5292.10 -5224.88 -4947.18 -4270.89 -3847.35 -2578.58 -2038.47 -940.51 133.40 158.16 173.35 199.07 240.01 258.35 287.86 324.24 338.11 355.33 392.21 409.86 434.90 460.63 494.55 507.19 514.33 429.14 379.07 338.74 296.69 277.16 248.83 238.78 224.43 217.76 214.33 213.96 216.73 219.95 235.91 248.20 274.35 287.33 292.12 290.02 289.67 286.18 280.90 283.54 283.67 284.55 291.49 303.07 313.28 320.70 335.65 352.92 362.16 377.65 392.51 417.73 434.68 446.90 466.76 483.14 499.61 518.37 524.08 538.71 560.91 555.25 546.86 524.50 508.81 466.73 456.61 449.51 443.27 463.77 503.62 540.72 521.55 858.83 769.45 357.56 196.65 127.64 -1056.07 -3364.56 -4294.96 -4450.69 -4617.30 -4854.33 -5014.62 -5262.63 -5369.04 -5411.78 -5373.13 -5166.06 -3845.87 -2255.00 -721.42 -421.62 -383.73 -431.91 -594.86 -782.98 -957.45 -1113.20 -1383.46 -1749.19 -1860.76 -2008.40 -2221.15 -2371.08 -2486.81 -2611.83 -2954.97 -3126.37 -3340.05 -3340.12
-4979.17 -4977.02 -4990.26 -5017.33 -5036.45 -5061.14 -5105.90 -5104.13 -5110.50 -5127.80 -5147.77 -5182.51 -5206.71 -5226.23 -5253.26 -5272.35 -5289.30 -5301.11 -5314.46 -5235.97 -5153.08 -4927.60 -4471.11 -3966.27 -3484.08 -2788.12 -2364.77 -1406.96 -582.22 155.23 170.83 191.73 226.80 252.46 261.36 317.25 335.28 355.40 373.46 392.34 410.68 457.15 497.29 514.09 535.21 526.68 458.95 437.83 366.04 307.25 278.50 253.90 245.62 240.58 229.65 226.92 221.05 230.33 243.24 257.32 255.73 279.40 296.91 289.41 286.85 286.89 285.88 284.73 283.91 284.48 288.27 293.58 303.38 313.57 323.24 334.98 342.02 356.48 379.22 388.58 418.80 430.05 441.57 469.55 486.52 501.80 531.13 544.60 556.30 567.71 568.32 569.16 547.93 527.41 508.21 481.78 458.11 446.18 458.56 476.24 497.02 513.93 756.94 747.52 457.06 200.90 135.12 -968.39 -2992.61 -4418.53 -4599.65 -4555.38 -4776.76 -4970.94 -5142.28 -5357.58 -5356.83 -5352.56 -5081.20 -3821.56 -2094.51 -635.39 -393.33 -356.06 -409.50 -514.11 -593.33 -799.79 -1197.69 -1367.21 -1528.54 -1774.09 -1988.26 -2122.75 -2283.57 -2438.25 -2636.25 -2869.48 -3015.99 -3136.06 -3135.98
-5017.60 -5017.51 -5037.37 -5060.47 -5081.95 -5120.28 -5130.61 -5139.49 -5133.32 -5144.55 -5157.96 -5182.75 -5206.31 -5229.85 -5251.52 -5253.30 -5265.63 -5258.67 -5085.79 -5028.63 -4647.36 -4223.89 -3730.93 -2894.10 -2493.82 -2214.30 -2156.94 -1414.27 -148.45 169.33 191.95 225.44 240.97 260.47 291.01 318.99 338.96 355.45 370.44 391.88 415.22 443.53 489.85 525.01 526.88 515.01 456.27 436.71 363.14 333.22 296.99 271.90 256.64 250.64 244.52 245.93 240.77 253.95 267.28 278.92 289.61 287.05 289.67 286.83 286.49 285.62 285.17 284.31 283.93 285.00 289.74 297.12 303.51 309.33 322.99 330.30 344.72 358.01 376.62 394.15 406.70 433.81 453.55 463.94 486.66 506.79 527.94 549.26 563.24 577.04 584.46 584.09 565.14 538.28 521.42 485.15 465.12 450.20 450.29 453.82 448.89 444.67 671.38 786.79 444.91 186.87 128.02 -64.60 -1752.29 -3821.95 -4487.98 -4599.22 -4683.89 -4892.65 -5118.41 -5271.57 -5303.51 -5255.52 -4931.56 -3847.33 -1543.26 -807.17 -381.51 -332.64 -340.94 -502.22 -667.74 -742.72 -990.48 -1207.91 -1454.82 -1687.77 -1968.67 -2103.09 -2276.65 -2434.35 -2646.59 -2810.60 -2968.89 -3081.73 -3081.80
-5049.13 -5049.04 -5070.99 -5086.11 -5112.58 -5148.93 -5166.43 -5157.79 -5149.50 -5153.31 -5170.83 -5195.30 -5220.46 -5235.62 -5232.86 -5216.82 -5095.77 -4966.39 -4609.98 -4059.57 -3571.51 -3347.41 -2572.89 -2126.55 -2088.25 -1963.41 -1252.21 -376.10 168.46 186.22 228.82 248.89 260.56 273.33 301.66 323.37 344.45 360.94 387.26 402.35 445.14 454.90 496.02 506.46 463.76 469.95 440.82 409.04 366.53 330.07 300.50 284.02 263.62 254.70 251.15 251.13 249.97 255.47 264.73 288.56 289.08 287.12 286.75 286.56 285.66 284.50 284.50 283.99 284.29 286.32 289.02 294.91 302.55 307.87 323.15 329.76 344.30 355.05 376.16 391.84 406.76 422.96 442.44 464.23 485.08 505.57 525.81 554.63 573.04 590.66 591.61 591.09 571.45 532.69 515.55 496.52 463.97 440.95 440.81 440.17 441.35 405.63 510.59 630.02 311.60 201.36 131.93 103.75 -1728.07 -4278.50 -4595.90 -4551.37 -4754.01 -4961.61 -5161.55 -5247.87 -5267.54 -5190.75 -4741.25 -3786.75 -1388.03 -578.70 -301.69 -296.64 -323.18 -423.77 -558.59 -622.22 -874.79 -1245.83 -1506.92 -1563.79 -1917.60 -2187.03 -2319.54 -2468.41 -2583.93 -2786.42 -2862.12 -2950.67 -2950.64
-5077.97 -5078.21 -5093.06 -5119.43 -5147.56 -5175.33 -5186.59 -5185.00 -5163.95 -5169.87 -5185.07 -5204.70 -5208.08 -5190.34 -5163.55 -4921.64 -4624.44 -3957.74 -3454.45 -3147.91 -3044.57 -2158.96 -2078.72 -1869.80 -1848.29 -1299.86 -466.10 143.90 172.15 204.95 237.43 256.34 274.87 297.74 321.14 338.30 361.72 379.51 394.20 410.16 466.89 493.38 507.48 493.67 450.94 429.01 400.20 383.33 351.28 329.18 298.85 291.25 275.32 263.21 259.96 257.15 261.17 269.66 271.20 281.10 286.27 286.48 286.47 285.77 284.68 284.27 283.78 283.94 284.59 286.04 289.20 297.81 301.30 311.26 318.82 328.76 336.77 353.41 375.48 387.57 411.61 429.40 436.88 462.48 486.43 514.67 534.53 569.92 586.56 594.16 596.91 594.90 578.43 532.32 516.80 498.72 472.66 433.48 417.06 404.21 395.54 377.51 379.61 317.57 236.99 182.81 126.34 63.97 -1189.15 -3828.77 -4605.16 -4606.22 -4802.30 -4965.49 -5127.55 -5187.55 -5208.48 -5143.91 -4735.45 -3128.10 -1317.56 -468.09 -289.76 -275.24 -303.92 -355.32 -439.16 -602.70 -828.36 -1167.89 -1302.39 -1513.11 -1912.01 -2174.85 -2352.48 -2441.17 -2568.22 -2667.39 -2801.28 -2923.59 -2923.67
-5102.15 -5102.06 -5123.90 -5143.71 -5159.89 -5192.98 -5210.61 -5209.42 -5203.93 -5196.41 -5195.57 -5176.48 -5140.29 -4949.93 -4544.96 -4096.50 -3428.74 -3051.51 -2538.07 -2175.92 -1864.82 -1715.65 -1725.34 -1679.75 -1475.28 -864.75 -93.12 168.17 184.96 216.55 246.32 267.83 285.63 309.34 328.06 341.73 376.24 388.51 410.12 436.03 454.65 500.17 511.03 482.43 431.62 410.33 378.75 354.57 336.66 323.02 297.56 290.61 278.03 268.75 264.33 264.10 269.49 274.85 276.94 277.64 283.86 286.97 287.05 286.13 285.12 284.54 283.42 283.01 284.54 287.08 290.47 297.86 300.84 309.20 319.79 328.47 339.34 357.45 375.28 379.53 417.43 427.20 436.83 464.16 481.05 514.10 541.60 563.00 586.33 598.41 601.08 594.70 581.19 549.80 517.84 498.70 456.63 434.31 399.45 367.02 351.42 344.07 369.63 381.25 250.72 170.03 115.87 67.11 -1342.58 -3803.89 -4371.62 -4498.23 -4647.87 -4803.83 -5028.15 -5083.72 -5096.01 -4945.58 -4654.30 -2713.61 -1605.44 -370.94 -241.75 -239.97 -280.25 -302.74 -369.89 -569.28 -743.17 -1004.85 -1252.24 -1419.75 -1937.28 -2169.86 -2338.23 -2482.25 -2574.05 -2709.64 -2806.67 -2915.54 -2924.38
-5124.30 -5124.21 -5145.37 -5165.73 -5183.03 -5210.29 -5233.10 -5232.21 -5219.36 -5210.39 -5182.54 -5056.91 -4711.90 -4555.68 -4038.18 -3351.10 -2857.38 -2279.14 -1963.66 -1843.35 -1661.61 -1589.08 -1612.35 -1632.67 -1407.85 -451.69 17.36 175.61 206.69 228.01 255.20 279.31 303.10 316.25 340.70 354.73 380.43 398.04 418.71 455.43 483.90 506.59 465.39 432.61 407.38 384.72 354.27 336.12 314.89 302.07 293.11 284.83 279.72 272.03 270.91 270.92 273.85 277.50 280.49 284.66 290.40 288.56 287.77 286.82 285.87 284.59 283.71 282.99 284.02 287.18 290.64 297.08 304.18 311.53 318.00 327.25 342.46 356.53 373.62 383.65 403.15 419.84 436.78 463.98 479.56 510.82 528.51 554.89 582.55 601.12 604.27 592.57 571.16 554.97 509.18 492.43 459.57 439.93 411.44 376.75 319.36 294.45 274.61 239.85 225.06 160.98 129.23 96.50 -765.83 -4118.13 -4587.38 -4507.77 -4656.24 -4791.32 -4935.45 -4999.16 -5045.63 -4748.62 -4114.11 -2417.56 -680.41 -290.80 -202.68 -227.44 -252.78 -291.17 -356.39 -519.17 -731.13 -870.49 -1067.48 -1394.62 -1742.53 -2133.22 -2330.77 -2489.27 -2666.45 -2734.45 -2872.99 -2937.75 -2937.84
-5158.55 -5158.45 -5177.73 -5192.92 -5228.47 -5252.32 -5264.33 -5267.26 -5249.76 -5242.58 -5158.57 -4893.63 -4245.94 -3520.40 -2725.82 -2544.90 -2242.04 -2085.24 -1896.46 -1766.36 -1629.56 -1553.47 -1585.77 -1621.42 -1099.77 -374.82 8.26 195.58 242.45 249.16 269.54 300.67 309.30 326.61 347.56 359.30 389.45 406.06 426.20 461.57 495.84 497.06 450.80 427.34 380.60 375.18 350.04 316.53 303.36 287.03 280.44 277.03 276.05 273.73 273.17 276.50 278.03 283.59 287.79 292.08 296.58 290.74 289.51 287.01 285.83 284.08 283.24 282.93 283.97 285.82 291.48 295.17 302.51 311.07 316.52 326.68 338.09 352.46 367.07 381.12 404.89 419.18 441.25 455.91 491.98 509.77 534.03 564.27 586.02 599.32 599.26 593.22 568.93 552.93 519.73 496.02 475.68 444.64 421.29 376.34 347.56 315.51 306.08 264.20 209.90 170.67 123.26 102.58 -1231.49 -3652.20 -4253.93 -4586.39 -4696.34 -4713.77 -4869.77 -4936.43 -4938.37 -4508.44 -3413.02 -1827.36 -534.44 -187.28 -171.76 -222.92 -252.41 -302.71 -384.57 -483.96 -630.12 -823.48 -998.69 -1208.95 -1706.83 -2038.13 -2323.25 -2604.62 -2818.74 -2893.63 -3012.86 -3056.85 -3057.02
-5213.87 -5214.48 -5231.79 -5248.71 -5274.47 -5289.39 -5317.59 -5312.11 -5259.80 -5225.73 -5005.86 -4611.24 -3495.28 -2838.21 -2286.83 -1993.94 -1983.34 -2005.37 -1926.41 -1759.12 -1652.27 -1598.06 -1600.16 -1642.47 -827.48 -58.89 150.88 177.92 224.16 253.34 277.67 303.52 317.12 336.29 351.31 360.85 405.18 426.23 448.13 476.81 501.65 488.28 444.45 397.85 361.37 339.43 327.27 314.12 295.04 273.15 271.59 264.62 261.82 274.99 278.22 287.92 293.64 295.83 302.27 301.25 300.45 297.00 291.30 288.63 286.46 284.01 282.84 282.81 283.36 285.71 290.93 294.13 301.59 307.99 316.41 323.86 331.88 348.30 363.19 375.87 395.34 416.40 443.55 462.76 482.33 504.08 524.93 563.29 573.28 588.22 591.90 581.47 561.88 547.72 517.95 501.59 488.00 437.79 424.57 384.87 365.46 354.56 328.90 270.12 218.53 163.99 122.59 64.24 -243.72 -1811.93 -3828.59 -4441.94 -4374.66 -4548.44 -4760.41 -4820.05 -4680.18 -4066.50 -2167.70 -773.68 -245.60 -140.17 -140.76 -201.00 -237.20 -303.46 -372.54 -483.57 -640.46 -744.43 -1069.73 -1333.25 -1744.27 -2075.69 -2341.30 -2578.60 -2823.44 -3000.70 -3155.97 -3187.29 -3187.46
-5294.11 -5293.96 -5304.42 -5294.63 -5297.22 -5301.95 -5244.25 -5202.17 -5136.50 -4690.25 -4182.20 -3667.18 -2930.61 -2009.69 -1762.34 -1624.24 -1728.99 -1832.66 -1846.90 -1654.31 -1601.17 -1602.22 -1622.45 -1570.22 -715.79 59.75 146.41 162.14 214.15 248.79 288.89 301.53 315.19 336.70 349.95 370.07 407.93 447.97 479.66 491.55 475.46 422.66 398.91 377.14 329.95 301.04 299.71 287.27 273.04 268.23 255.73 248.71 253.10 262.39 280.68 288.67 303.51 305.33 308.32 312.34 313.52 303.09 294.26 288.91 286.62 283.71 282.74 282.64 283.12 286.16 289.47 294.50 300.87 305.32 313.18 322.83 334.26 347.93 360.39 375.83 389.96 410.98 438.45 456.39 473.30 507.06 523.75 556.06 565.88 575.22 578.07 571.87 557.03 535.88 517.42 501.44 482.86 449.95 431.60 378.77 364.08 331.94 289.08 248.88 206.53 167.12 135.03 77.46 -300.81 -1087.08 -2813.90 -4243.38 -4198.97 -4438.67 -4631.60 -4633.68 -4249.13 -3594.40 -1487.75 -353.96 -159.40 -90.38 -153.48 -193.84 -218.01 -276.38 -307.39 -396.96 -522.37 -779.33 -1225.72 -1542.10 -1917.66 -2215.31 -2430.47 -2535.31 -2816.62 -2898.27 -3226.22 -3286.24 -3286.40
-5333.37 -5331.78 -5245.13 -5053.67 -5026.46 -5027.16 -4846.13 -4423.67 -4188.98 -3727.21 -3024.31 -2271.04 -2150.27 -1812.52 -1631.74 -1573.81 -1597.61 -1614.42 -1537.70 -1289.79 -1372.33 -1313.52 -1357.26 -1261.67 -732.47 3.35 156.47 188.18 219.38 243.56 297.83 307.00 319.11 347.35 368.48 383.99 406.80 444.63 473.87 468.91 445.56 396.74 367.29 331.79 302.59 291.08 276.25 266.66 263.44 245.67 243.82 239.89 244.30 246.06 258.93 273.90 303.25 317.35 335.49 348.68 334.78 306.62 296.19 289.80 287.57 284.05 282.20 281.74 282.19 284.76 287.15 292.41 299.31 307.26 313.21 319.28 330.62 341.79 362.98 380.41 394.43 410.78 430.24 449.05 469.43 497.82 516.01 530.89 559.16 564.88 562.39 558.21 549.31 529.74 512.55 500.31 469.03 439.88 420.20 380.17 362.39 313.48 272.94 231.82 202.22 172.31 131.36 55.91 -173.98 -1010.57 -2587.17 -3894.40 -4136.14 -4356.78 -4616.91 -4645.66 -3559.38 -2508.45 -727.35 -288.10 -70.74 -89.50 -136.76 -180.73 -214.63 -255.94 -298.98 -393.68 -538.27 -837.77 -1326.35 -1824.63 -2125.42 -2258.16 -2476.25 -2619.00 -2768.96 -2892.65 -3207.18 -3499.65 -3499.94
-4816.69 -4817.22 -4419.34 -4354.27 -4221.23 -3830.13 -3612.26 -3132.35 -2672.45 -2312.37 -2252.56 -1972.12 -1807.05 -1743.00 -1712.08 -1680.77 -1624.00 -1492.45 -1315.87 -1064.62 -792.03 -648.34 -887.67 -981.41 -416.94 145.35 161.08 194.91 223.83 248.83 287.60 308.28 322.09 343.92 361.38 411.89 439.97 462.33 452.83 431.37 415.43 384.62 334.91 307.68 299.96 275.76 268.15 253.74 244.51 236.65 233.68 232.22 230.47 228.95 230.76 263.53 289.16 310.11 347.39 366.42 359.78 327.64 304.35 294.91 289.14 285.35 280.99 280.07 280.93 282.25 285.48 294.22 299.72 309.51 314.47 323.26 335.33 345.46 360.83 375.65 398.34 415.25 431.35 443.74 473.84 494.82 511.93 523.45 542.75 551.25 548.58 549.24 542.71 527.30 513.50 501.39 452.44 421.33 396.73 350.05 305.67 268.95 250.73 219.80 189.26 168.24 118.51 -116.44 -683.43 -1281.59 -2635.70 -3360.38 -4196.08 -4487.33 -4658.30 -4621.35 -3400.55 -1690.17 -440.91 -150.30 -24.70 -71.36 -141.68 -193.05 -214.21 -239.60 -290.71 -389.86 -630.65 -1088.16 -1281.61 -1690.98 -2063.98 -2367.84 -2542.80 -2635.48 -2878.66 -3037.50 -3310.33 -3518.75 -3518.84
-3261.47 -3263.62 -3233.18 -2917.73 -2985.67 -2385.09 -2334.45 -2095.24 -2048.78 -1893.00 -1818.03 -1796.13 -1813.30 -1806.49 -1785.37 -1788.02 -1713.51 -1552.60 -1224.18 -963.70 -476.97 -400.99 -412.79 -450.66 2.56 155.52 172.30 228.68 232.90 252.20 279.61 315.00 333.54 348.40 382.49 425.73 450.24 435.80 417.27 389.21 363.83 358.32 315.60 305.09 282.08 258.22 251.97 243.05 237.11 228.12 227.91 224.62 223.67 224.79 226.36 244.85 258.04 276.79 306.22 358.99 381.28 330.45 303.74 295.35 291.23 286.72 280.65 279.41 278.95 280.63 283.11 289.65 297.43 304.69 315.35 328.15 338.46 349.97 361.70 377.60 396.24 420.29 440.46 459.21 476.88 494.98 508.16 519.81 525.30 539.23 533.04 530.12 519.76 516.05 506.94 454.19 434.75 390.20 354.57 352.16 311.35 267.59 229.26 197.44 176.72 139.34 84.87 -693.50 -1274.20 -1951.75 -2877.57 -3445.03 -4553.67 -4845.32 -4861.67 -4228.97 -3015.74 -1374.45 -359.17 -24.64 -16.32 -48.45 -129.98 -186.31 -203.23 -233.53 -308.40 -443.46 -667.97 -1115.40 -1436.78 -1574.45 -2068.50 -2377.78 -2548.20 -2713.16 -2953.70 -3259.50 -3345.12 -3527.59 -3527.69
-2015.47 -2017.64 -2073.25 -2192.94 -2041.10 -1980.49 -1893.05 -1833.72 -1823.62 -1822.96 -1824.07 -1839.79 -1851.37 -1863.91 -1859.50 -1853.53 -1818.09 -1687.59 -1487.56 -1058.04 -534.17 -227.05 -83.16 -34.24 139.91 153.50 176.27 200.81 228.28 252.86 255.30 291.80 331.92 356.13 401.30 426.02 399.51 400.36 377.26 351.66 337.08 335.17 306.35 276.94 257.95 246.68 239.48 233.16 227.60 218.96 219.05 217.74 216.28 218.64 225.14 230.67 244.36 255.22 298.08 319.69 336.98 341.85 317.39 296.58 290.53 286.56 280.69 277.92 277.18 278.71 282.25 286.86 294.89 305.86 315.07 331.28 336.72 349.18 360.53 380.09 400.38 418.56 437.11 453.95 480.77 490.75 504.59 513.43 519.92 524.34 514.24 507.33 498.49 486.04 475.53 452.04 419.28 404.28 344.64 322.01 310.86 262.60 200.07 186.37 171.90 134.56 -205.72 -1033.60 -1235.37 -1717.63 -2419.30 -4000.77 -5169.09 -5075.73 -4863.62 -4339.85 -2548.64 -761.62 -84.72 -2.06 -5.57 -62.44 -118.11 -190.33 -202.03 -238.69 -318.59 -474.53 -700.08 -938.09 -1287.07 -1809.86 -2239.48 -2461.00 -2566.16 -2717.84 -3040.79 -3247.35 -3439.14 -3540.91 -3541.03
-1752.95 -1753.47 -1799.59 -1811.18 -1802.68 -1799.22 -1811.37 -1826.59 -1840.40 -1852.06 -1867.27 -1879.48 -1896.75 -1899.43 -1899.13 -1888.80 -1844.48 -1753.44 -1590.29 -1010.99 -858.01 -387.93 -68.45 86.66 141.05 149.30 172.88 211.77 253.96 268.69 254.58 262.23 288.63 305.10 377.89 388.92 359.08 343.14 327.51 323.75 315.40 289.50 269.49 244.20 234.46 231.98 228.57 224.53 218.85 217.35 215.03 212.45 212.39 213.99 219.61 227.95 235.79 248.68 277.70 308.08 322.63 331.05 315.75 304.12 293.37 287.23 279.72 275.04 274.20 276.36 280.46 284.03 294.89 305.41 313.99 332.02 344.15 356.69 364.91 386.24 408.47 414.84 449.88 461.96 473.17 492.93 502.01 508.51 509.87 508.82 503.91 496.71 494.34 469.90 439.49 420.93 411.98 377.00 330.82 285.53 266.54 232.94 201.54 180.20 159.42 -58.22 -189.46 -820.62 -1276.00 -1476.20 -2948.18 -4132.88 -5029.22 -5238.66 -4996.38 -3867.94 -1560.30 -499.70 -34.25 32.72 -5.40 -56.36 -115.84 -188.13 -212.73 -241.39 -350.36 -465.40 -810.76 -1077.31 -1647.30 -2035.72 -2205.27 -2430.97 -2583.48 -2650.53 -2991.68 -3243.30 -3363.86 -3441.29 -3441.09
-1792.34 -1792.00 -1808.08 -1815.97 -1828.33 -1843.73 -1848.36 -1856.46 -1876.27 -1891.56 -1896.09 -1901.19 -1914.24 -1917.10 -1912.93 -1903.35 -1862.62 -1803.69 -1556.09 -1176.34 -683.75 -365.84 -80.23 128.85 140.96 150.05 176.31 192.37 223.39 224.77 236.84 255.73 267.50 288.70 309.72 317.21 316.38 308.78 301.93 294.38 276.53 267.87 247.95 231.89 227.32 223.47 220.41 216.43 214.52 213.33 210.92 209.75 211.22 213.74 218.05 222.81 228.76 237.20 244.59 280.51 306.71 328.61 326.83 302.28 293.22 284.48 279.47 273.25 271.91 273.01 276.83 281.64 296.59 303.99 313.40 337.53 346.36 361.55 373.29 397.50 409.16 429.59 458.62 474.62 485.35 496.03 499.30 502.41 502.15 490.13 489.83 486.98 478.56 455.23 416.04 404.50 387.95 344.31 330.39 276.03 227.43 200.22 168.71 160.79 129.90 -373.67 -721.69 -1194.22 -1256.79 -1660.70 -3096.93 -3989.70 -5254.75 -5303.29 -4791.39 -3527.05 -1782.93 -377.58 -34.06 54.18 3.41 -49.96 -123.02 -183.35 -233.32 -257.66 -392.00 -489.48 -724.83 -1270.74 -1684.89 -2027.96 -2285.15 -2408.77 -2555.27 -2678.94 -2855.05 -3108.10 -3276.37 -3452.54 -3452.71
-1838.18 -1837.95 -1843.10 -1857.03 -1859.03 -1866.84 -1875.27 -1901.11 -1901.69 -1914.74 -1922.78 -1922.84 -1928.82 -1930.12 -1922.09 -1910.33 -1876.56 -1716.17 -1498.73 -1167.54 -748.69 -412.46 -157.18 95.54 130.30 149.29 160.28 177.83 198.14 208.78 233.71 247.75 248.56 263.53 298.41 308.63 289.54 280.09 276.92 270.47 265.75 255.58 247.34 227.99 223.40 217.80 216.84 211.98 209.54 209.24 208.80 208.77 210.06 213.30 217.15 221.14 227.05 234.11 239.68 274.18 309.77 315.34 319.37 315.53 307.01 285.48 281.05 267.83 268.35 271.23 274.68 279.28 291.01 304.37 313.49 335.40 348.76 362.99 382.43 402.66 419.93 445.76 458.38 476.33 490.20 490.84 495.30 498.88 492.43 478.32 477.38 477.82 468.66 446.40 406.10 389.71 356.90 322.26 288.04 243.50 198.37 177.77 135.13 122.85 -248.77 -846.10 -1297.65 -1310.12 -1458.79 -1808.73 -3037.52 -4541.09 -5091.24 -5256.44 -4728.82 -3110.68 -1458.16 -150.62 43.84 66.48 10.73 -50.72 -128.68 -181.62 -249.24 -285.06 -361.66 -577.44 -856.53 -1194.75 -1520.36 -1906.30 -2133.74 -2264.42 -2483.56 -2655.93 -2815.08 -3060.90 -3222.97 -3450.16 -3449.97
-1874.68 -1875.15 -1881.81 -1886.98 -1898.96 -1896.14 -1901.40 -1912.96 -1915.23 -1925.56 -1942.04 -1946.59 -1946.44 -1944.26 -1929.99 -1898.95 -1826.11 -1664.86 -1433.91 -1070.12 -504.82 -308.53 -115.63 -43.52 46.07 134.92 152.50 171.60 181.66 195.89 227.03 228.43 228.15 246.56 287.46 298.23 272.29 273.16 261.61 253.74 249.60 240.83 229.86 220.14 215.15 214.15 211.32 207.60 207.44 207.56 207.04 208.53 210.79 214.23 216.99 219.56 224.97 230.73 245.00 261.11 317.08 334.92 352.92 342.21 325.40 312.78 295.85 264.42 263.31 268.49 273.80 277.83 291.16 306.09 318.49 337.50 346.70 366.64 387.45 398.87 428.08 447.37 459.52 467.00 487.38 489.64 490.92 487.06 479.43 474.95 468.71 460.68 456.24 431.28 403.66 366.01 341.39 313.74 249.21 222.23 190.35 163.64 139.49 118.57 -373.64 -1045.24 -1269.27 -1282.64 -1416.79 -1935.05 -3073.97 -4651.56 -5170.72 -5186.50 -4971.34 -3905.67 -889.24 -423.17 12.37 42.71 5.37 -67.08 -142.42 -192.59 -248.20 -325.30 -449.24 -723.10 -1037.52 -1253.39 -1399.51 -1711.36 -1987.50 -2303.59 -2423.98 -2588.13 -2789.31 -3018.20 -3215.53 -3468.11 -3468.10
-1903.92 -1903.89 -1907.90 -1916.56 -1922.52 -1930.53 -1939.46 -1946.71 -1960.56 -1962.77 -1957.55 -1958.44 -1956.16 -1956.02 -1938.31 -1877.08 -1791.89 -1600.48 -1189.85 -760.97 -434.97 -227.03 -186.69 -143.32 -41.33 127.03 143.72 155.47 165.05 179.96 191.91 203.69 213.59 218.74 247.28 250.00 249.55 258.44 243.42 233.84 234.03 228.93 217.30 211.68 211.19 206.86 206.65 205.36 203.85 204.93 206.25 207.82 211.08 212.76 216.10 219.32 223.54 229.79 240.85 260.10 295.33 308.83 312.79 309.75 306.09 305.00 285.71 258.71 261.22 263.96 271.29 276.14 296.22 304.61 316.88 339.65 347.62 372.21 387.74 416.18 436.19 452.87 458.71 474.33 487.55 488.90 486.50 474.74 472.60 463.27 456.09 453.85 441.70 424.55 402.12 364.67 323.88 282.23 238.96 222.58 171.00 168.45 130.00 -28.39 -833.27 -1220.19 -1205.93 -1221.74 -1340.59 -2094.19 -2966.75 -4995.50 -5143.20 -5299.85 -5127.13 -3947.06 -2080.16 -947.81 -227.71 -30.36 -30.54 -60.98 -152.84 -201.69 -250.85 -329.18 -535.11 -782.77 -1093.65 -1222.56 -1484.95 -1670.69 -1957.28 -2261.72 -2409.61 -2540.08 -2732.95 -3057.32 -3266.44 -3490.18 -3490.09
-1926.26 -1926.21 -1930.82 -1941.16 -1943.59 -1948.78 -1952.58 -1964.38 -1974.41 -1977.03 -1980.68 -1980.28 -1978.87 -1968.04 -1939.43 -1875.33 -1770.29 -1535.81 -1005.09 -713.97 -431.34 -228.87 -170.51 -182.79 -89.46 80.01 133.55 141.99 155.73 171.71 178.63 191.68 202.24 208.00 232.42 236.22 220.03 226.98 219.33 215.30 211.32 210.48 209.30 200.63 199.87 198.81 199.76 201.09 199.99 202.87 205.31 207.96 210.68 212.95 215.66 218.35 221.86 224.15 231.00 248.20 258.25 278.72 277.85 267.69 265.92 264.74 251.22 249.83 250.03 260.93 266.72 275.21 293.14 304.64 317.84 341.28 355.24 379.17 390.34 405.41 434.14 446.80 465.57 482.25 488.96 488.62 484.95 474.36 468.41 457.45 448.54 438.22 419.36 408.50 390.13 363.35 322.09 248.54 223.11 186.68 149.35 140.30 107.60 -440.09 -908.73 -1159.21 -1160.83 -1193.85 -1424.46 -2349.90 -3522.78 -4867.40 -5270.75 -5310.67 -5210.96 -4495.10 -3214.42 -1675.95 -1166.56 -62.86 -74.50 -65.83 -124.60 -203.35 -242.81 -358.67 -636.31 -933.52 -1131.26 -1315.68 -1574.46 -1808.38 -1951.68 -2186.37 -2378.85 -2617.70 -2930.33 -3264.07 -3455.62 -3562.61 -3562.36
-1944.42 -1944.36 -1952.91 -1965.33 -1966.74 -1959.79 -1953.41 -1930.19 -1956.34 -1939.75 -1961.84 -1972.83 -1983.09 -1972.40 -1958.57 -1882.93 -1748.38 -1585.98 -1104.19 -769.10 -490.93 -280.04 -201.46 -186.93 -132.41 -3.90 19.98 140.56 143.24 153.19 164.99 176.52 191.00 190.32 196.24 202.98 205.72 205.58 208.67 205.51 194.45 192.03 185.90 190.06 192.24 189.18 191.27 191.83 194.30 200.40 204.39 206.91 209.92 212.50 214.66 217.04 220.81 222.47 223.79 227.16 229.61 231.84 235.31 241.71 245.93 244.29 248.26 245.20 245.40 255.65 261.90 271.68 288.49 303.51 320.79 337.66 349.72 372.91 391.11 414.22 436.37 452.11 462.97 478.68 488.62 487.84 481.70 476.04 467.54 447.56 437.61 427.09 409.86 394.20 372.96 338.31 285.92 226.04 200.70 168.61 130.75 122.64 86.37 -661.72 -1074.70 -1174.38 -1159.22 -1234.94 -1408.36 -2577.78 -3878.23 -4706.68 -5292.27 -5339.05 -5346.40 -5143.55 -4535.59 -2671.23 -1649.03 -702.42 -115.69 -94.29 -148.59 -227.39 -292.97 -456.92 -774.33 -1018.66 -1190.57 -1410.43 -1676.34 -1833.61 -2049.10 -2254.76 -2428.31 -2713.86 -3004.36 -3301.05 -3595.44 -3734.41 -3734.49
-1962.32 -1962.25 -1974.72 -1977.39 -1942.74 -1956.21 -1968.61 -1958.13 -1970.99 -1973.62 -1980.99 -1930.88 -1892.92 -1960.40 -1952.98 -1902.18 -1810.57 -1698.70 -1379.43 -1108.46 -658.55 -435.49 -295.84 -216.94 -196.92 -136.53 -19.15 39.05 107.18 145.49 147.76 166.39 175.91 173.71 181.84 179.23 189.44 186.66 195.47 185.01 183.13 180.82 177.61 169.77 177.66 175.25 177.78 183.46 189.73 193.36 201.62 205.29 209.15 212.27 214.68 217.03 220.31 222.99 223.96 223.16 222.95 224.95 229.03 232.88 230.43 234.05 239.34 240.96 241.17 248.95 261.33 269.14 281.05 306.32 314.24 333.32 349.41 367.58 383.53 412.56 442.18 451.97 463.09 480.10 489.92 489.44 482.14 477.05 465.66 435.30 426.06 399.31 394.23 355.97 342.48 297.07 258.39 208.76 185.83 167.22 137.71 111.53 -199.98 -932.46 -1130.40 -1167.63 -1191.71 -1283.30 -1412.65 -2509.62 -3839.62 -5034.79 -5282.37 -5351.83 -5373.64 -5339.01 -5151.99 -4444.43 -2698.87 -1573.52 -332.74 -168.27 -185.95 -223.91 -385.04 -672.94 -753.36 -1120.33 -1216.42 -1424.98 -1681.10 -1935.09 -2152.20 -2274.71 -2443.22 -2690.49 -3000.17 -3279.12 -3594.55 -3724.06 -3724.34
-1983.36 -1985.03 -1995.43 -1951.11 -1929.99 -1985.09 -1993.26 -2007.08 -2034.51 -2020.35 -2014.36 -1993.66 -1975.63 -1997.91 -1950.85 -1922.63 -1840.69 -1725.36 -1510.08 -1292.64 -1052.26 -702.08 -469.67 -274.23 -209.50 -196.34 -103.30 -70.12 -24.34 48.37 144.11 146.52 158.30 161.52 161.99 163.54 170.81 163.61 156.76 165.34 168.75 158.20 154.98 151.80 156.02 159.89 175.72 178.16 186.17 192.61 198.76 207.33 209.36 211.97 214.25 219.01 223.16 224.84 227.03 220.02 218.03 218.69 221.22 223.03 222.28 223.68 229.24 231.46 237.24 242.47 254.78 266.13 281.33 299.83 312.87 330.67 352.33 367.06 389.97 410.30 431.88 446.36 466.04 488.59 492.60 493.06 486.27 479.50 470.79 425.04 404.97 368.30 357.65 338.61 288.29 262.67 244.10 199.38 165.47 150.82 137.78 -80.32 -302.86 -866.43 -1082.71 -1132.62 -1222.06 -1332.53 -1588.71 -2626.61 -4174.43 -4963.26 -5295.88 -5353.89 -5396.42 -5422.29 -5253.55 -4909.47 -3394.75 -1646.42 -466.73 -201.67 -213.51 -251.64 -333.38 -590.87 -781.60 -1118.03 -1404.83 -1624.78 -1767.74 -1925.78 -2121.83 -2251.78 -2401.41 -2644.76 -2960.02 -3161.29 -3459.56 -3563.77 -3563.86
-2012.65 -2012.59 -1981.31 -2011.66 -2003.88 -2012.64 -2049.05 -2045.11 -2050.14 -2069.59 -2077.61 -2061.07 -2028.01 -2009.72 -1971.22 -1951.22 -1905.19 -1860.66 -1725.94 -1626.28 -1305.44 -913.24 -654.38 -413.96 -274.76 -224.50 -214.16 -204.16 -122.24 -33.78 74.31 117.22 114.39 147.65 155.46 158.70 158.96 153.95 150.14 149.07 147.10 144.86 138.28 137.32 147.42 152.08 166.58 175.90 180.16 194.72 200.11 208.42 212.74 215.35 221.06 221.23 229.01 235.38 230.08 220.47 215.98 214.65 215.37 215.32 216.29 219.97 223.24 228.00 232.45 236.39 247.68 263.76 276.83 282.59 308.41 327.71 344.92 370.51 384.57 409.71 427.99 444.57 477.81 492.65 494.09 495.23 491.31 481.11 458.64 411.23 386.43 355.50 331.13 288.59 263.47 226.59 221.33 193.70 143.34 22.58 -180.53 -537.79 -813.22 -1016.03 -1099.21 -1141.39 -1251.70 -1404.19 -2032.61 -2959.13 -4487.81 -5077.78 -5308.02 -5362.83 -5400.08 -5445.16 -5374.47 -5095.73 -3488.87 -2173.43 -557.97 -259.73 -224.78 -276.86 -354.41 -605.75 -999.37 -1234.19 -1536.93 -1717.23 -1843.04 -1958.54 -2184.86 -2278.95 -2416.98 -2641.69 -2926.03 -3181.68 -3348.15 -3560.23 -3560.31
-2045.80 -2047.67 -2031.95 -2013.60 -2039.97 -2064.56 -2079.87 -2072.09 -2088.86 -2092.21 -2104.40 -2096.32 -2075.32 -2064.43 -2011.78 -1924.23 -1928.61 -1908.16 -1850.70 -1671.83 -1572.36 -1229.61 -690.45 -512.37 -317.07 -264.94 -258.72 -258.17 -251.31 -141.33 -19.99 -15.76 79.99 113.01 122.60 128.88 141.30 140.91 133.59 131.22 109.75 99.29 123.94 129.87 141.16 146.88 156.74 171.58 181.69 196.29 199.41 209.82 215.62 218.22 224.63 224.65 231.56 238.78 227.28 217.23 211.31 211.41 211.94 211.64 213.53 216.26 219.80 222.38 228.49 233.29 241.04 254.64 269.15 274.48 296.53 320.69 339.99 370.82 384.10 406.21 425.27 449.47 457.06 486.20 495.16 497.71 491.10 469.12 445.41 389.49 350.90 318.35 305.72 269.32 222.27 196.79 162.10 136.89 99.22 -111.73 -560.42 -799.95 -971.94 -1002.58 -1072.35 -1167.60 -1323.54 -1464.57 -1879.62 -3247.91 -4841.23 -5160.34 -5323.93 -5361.03 -5403.12 -5456.34 -5384.71 -5180.64 -3627.54 -2117.97 -701.90 -273.91 -242.66 -299.75 -461.79 -668.17 -853.72 -1225.34 -1532.41 -1755.56 -1919.91 -2047.53 -2178.96 -2348.16 -2519.40 -2716.62 -2837.54 -3263.34 -3429.18 -3581.23 -3581.16
-2070.18 -2070.12 -2059.32 -2048.31 -2094.99 -2101.38 -2105.88 -2113.15 -2112.09 -2116.56 -2121.52 -2110.79 -2102.50 -2075.89 -2040.37 -1922.84 -1934.45 -1951.67 -1916.06 -1822.00 -1705.01 -1332.44 -942.59 -642.30 -381.70 -294.53 -282.34 -280.86 -266.91 -234.56 -207.74 -184.96 -108.02 -45.06 49.36 22.17 20.24 51.37 64.79 56.45 -12.78 20.05 64.36 103.06 125.68 133.00 154.19 169.10 178.74 192.20 200.28 214.04 224.24 227.90 236.10 246.78 248.47 230.73 220.53 211.23 208.54 207.47 208.10 208.30 207.48 208.58 212.85 219.65 220.45 229.98 235.97 252.51 264.22 283.22 300.96 322.23 338.44 373.99 385.87 409.84 429.91 445.07 457.80 479.79 493.85 494.02 482.46 475.06 416.58 372.57 331.21 366.40 295.55 231.62 204.62 194.71 136.40 99.90 76.35 -334.43 -880.21 -906.81 -934.86 -1059.17 -1168.01 -1227.26 -1328.68 -1393.70 -2424.52 -3551.38 -4746.96 -5314.89 -5335.08 -5365.33 -5409.24 -5452.92 -5389.90 -5036.48 -3213.37 -1820.38 -511.40 -259.38 -248.23 -372.01 -482.85 -742.62 -1183.29 -1324.81 -1665.41 -1879.17 -1993.91 -2125.90 -2240.61 -2368.04 -2475.94 -2679.28 -3002.48 -3348.75 -3542.51 -3761.73 -3761.83
-2079.62 -2079.51 -2072.94 -2091.15 -2101.01 -2100.77 -2103.19 -2117.46 -2122.32 -2129.60 -2127.77 -2123.75 -2118.25 -2102.50 -2051.44 -1957.65 -1932.08 -1954.22 -1914.27 -1878.92 -1663.10 -1394.28 -977.11 -637.30 -373.12 -330.06 -301.16 -323.60 -315.08 -289.52 -294.72 -272.51 -292.80 -238.40 -124.09 -122.96 -160.05 -165.92 -131.23 -133.90 -116.82 -77.89 -2.26 67.57 104.82 139.32 150.09 157.36 186.86 196.96 209.81 227.42 227.00 231.40 242.14 250.64 250.79 235.62 215.33 211.38 205.43 204.63 205.31 205.53 205.39 205.31 207.80 211.21 215.85 222.98 233.49 242.51 260.23 279.98 299.50 314.63 339.99 360.23 375.57 400.02 428.80 445.59 463.27 477.62 481.81 480.40 462.87 404.62 389.45 331.93 286.07 337.69 262.99 198.86 189.89 136.58 105.54 81.92 -190.61 -769.57 -983.23 -961.83 -1000.28 -1086.01 -1207.45 -1250.77 -1314.06 -1636.60 -2640.17 -3704.45 -4745.60 -5259.42 -5343.60 -5364.24 -5413.17 -5428.54 -5227.27 -4787.36 -2802.25 -1678.74 -327.57 -246.60 -282.45 -521.57 -751.43 -935.18 -1349.39 -1692.07 -1823.72 -1995.74 -2066.68 -2233.66 -2342.37 -2367.42 -2506.56 -2762.79 -3058.16 -3341.17 -3629.25 -3732.81 -3742.17
-2026.92 -2026.86 -2051.45 -2088.94 -2122.82 -2119.75 -2116.76 -2117.97 -2125.66 -2134.61 -2136.80 -2142.71 -2140.41 -2120.14 -2058.38 -2006.06 -1959.10 -1957.83 -1925.42 -1856.09 -1597.78 -1421.02 -984.78 -640.57 -460.21 -479.03 -582.29 -505.74 -465.46 -472.13 -419.25 -406.18 -472.90 -362.07 -367.32 -243.05 -211.45 -228.00 -209.30 -180.68 -128.88 -87.26 -49.24 21.03 50.49 114.65 146.63 164.99 196.72 206.43 215.50 239.99 235.69 237.99 262.11 273.46 248.78 234.36 217.71 208.79 202.17 201.79 203.52 200.60 201.12 202.89 204.12 205.40 210.10 214.22 227.34 237.09 252.07 267.16 293.65 307.29 340.48 351.55 368.70 399.71 418.32 440.09 455.50 463.78 477.00 472.61 454.64 422.81 378.87 352.07 372.71 261.36 221.76 176.71 142.90 113.96 79.42 -129.82 -568.30 -980.10 -1034.27 -1043.94 -1030.83 -1133.61 -1190.76 -1271.91 -1362.61 -1820.09 -2870.96 -4182.20 -4828.58 -5283.21 -5343.08 -5371.79 -5406.88 -5431.91 -5312.53 -4408.28 -2639.07 -1182.55 -359.47 -227.47 -422.75 -623.55 -1094.22 -1442.53 -1684.06 -1893.43 -1975.34 -2116.66 -2165.49 -2259.52 -2359.72 -2413.56 -2477.30 -2599.73 -2886.13 -3335.58 -3681.71 -3797.23 -3797.31
-2043.34 -2050.24 -2085.30 -2098.19 -2121.38 -2134.45 -2122.18 -2122.70 -2132.57 -2147.14 -2147.05 -2147.53 -2146.41 -2120.88 -2070.42 -2013.33 -1989.63 -1982.19 -1932.27 -1832.87 -1634.06 -1329.38 -1018.29 -804.64 -761.17 -761.92 -763.16 -823.40 -892.53 -799.75 -818.88 -830.51 -812.98 -731.53 -548.05 -335.50 -255.26 -223.32 -211.76 -196.19 -151.13 -127.52 -93.79 -61.75 66.87 117.27 147.42 163.61 210.89 216.71 222.52 229.77 238.33 256.78 291.87 281.86 259.22 228.64 216.20 207.65 200.86 197.86 196.55 197.12 196.77 197.89 198.37 201.26 206.32 209.74 218.48 233.64 244.60 257.21 289.88 301.64 324.86 343.38 357.91 379.02 405.57 433.39 448.56 457.41 470.34 463.44 447.59 431.44 388.54 347.49 408.04 340.27 209.17 136.75 115.94 94.89 -102.72 -656.77 -981.23 -1122.93 -1076.32 -1087.67 -1149.29 -1136.78 -1213.62 -1301.27 -1387.68 -2075.54 -2936.26 -4568.75 -5184.77 -5306.36 -5350.84 -5373.53 -5427.13 -5423.20 -5090.90 -4724.43 -2058.70 -539.89 -277.62 -271.13 -363.96 -640.30 -1174.51 -1707.32 -1907.50 -2086.60 -2099.23 -2164.14 -2236.79 -2276.07 -2318.87 -2402.40 -2536.08 -2679.26 -2989.12 -3303.47 -3642.50 -3786.09 -3786.18
-2033.50 -2033.39 -2052.62 -2073.48 -2097.13 -2100.39 -2109.51 -2113.16 -2133.86 -2157.31 -2170.34 -2153.04 -2150.54 -2132.00 -2075.67 -1995.24 -1979.13 -1987.11 -1974.19 -1879.29 -1739.42 -1426.55 -1214.42 -1096.31 -1054.05 -1124.29 -1177.86 -1243.91 -1233.64 -1339.66 -1295.98 -1178.62 -1250.96 -940.62 -613.73 -457.52 -360.38 -264.12 -243.60 -245.70 -269.29 -240.87 -201.88 -136.48 15.30 129.80 149.09 168.94 204.19 220.38 228.96 243.41 272.18 293.68 305.52 263.72 239.91 221.93 210.64 202.07 198.68 194.89 192.96 192.10 191.72 193.64 194.52 197.77 200.71 202.26 215.04 227.49 234.74 248.92 274.24 289.24 311.03 329.69 350.24 365.99 395.05 410.92 434.98 441.20 436.87 438.73 434.73 406.82 364.83 351.11 311.86 239.43 203.18 117.03 110.81 -79.30 -424.80 -753.26 -1149.94 -1132.08 -1124.84 -1133.43 -1201.42 -1208.85 -1298.32 -1426.01 -1825.29 -2653.63 -3764.33 -4857.22 -5247.49 -5292.65 -5349.26 -5386.14 -5432.16 -5360.03 -5070.57 -3852.75 -1606.82 -570.73 -286.24 -294.14 -519.94 -701.64 -1114.56 -1622.20 -1766.36 -2026.64 -2156.90 -2215.97 -2252.08 -2276.06 -2373.46 -2457.27 -2671.42 -2795.08 -3129.55 -3364.06 -3602.23 -3765.13 -3765.21
-1995.35 -1995.31 -2026.66 -2046.76 -2071.05 -2081.69 -2083.84 -2101.27 -2136.32 -2165.76 -2184.40 -2157.70 -2151.36 -2127.82 -2065.78 -2030.74 -2023.13 -2030.60 -2009.27 -1922.68 -1824.99 -1687.82 -1579.59 -1537.67 -1509.41 -1714.26 -1751.96 -1746.76 -1793.35 -1740.59 -1755.80 -1751.13 -1668.58 -1125.89 -773.67 -634.10 -471.20 -371.96 -397.35 -416.50 -374.39 -315.40 -247.84 -172.89 -68.12 115.47 149.48 163.02 203.52 217.87 230.85 274.60 300.29 305.57 274.07 243.23 228.23 219.98 207.65 196.79 194.17 190.36 188.78 188.87 188.89 189.80 189.85 188.16 193.57 197.37 204.03 214.37 227.33 249.92 257.19 279.26 299.63 321.40 348.21 367.60 388.84 404.00 420.70 421.93 412.35 413.86 379.30 371.75 336.84 314.68 277.33 231.20 191.24 130.03 -199.72 -619.05 -793.48 -1051.53 -1125.40 -1116.46 -1158.92 -1220.40 -1295.37 -1353.98 -1464.85 -1908.12 -2202.94 -3402.77 -4544.00 -5107.48 -5233.84 -5292.76 -5348.53 -5388.16 -5438.27 -5356.55 -4971.30 -3231.58 -1504.30 -558.07 -268.25 -274.33 -550.94 -976.76 -1213.40 -1537.25 -1834.39 -2023.30 -2174.58 -2243.05 -2270.21 -2295.87 -2372.81 -2471.14 -2658.81 -2912.46 -3107.02 -3351.91 -3544.41 -3756.24 -3756.32
-2040.31 -2040.24 -2007.44 -1997.94 -2042.94 -2064.17 -2079.23 -2113.40 -2143.90 -2176.50 -2181.62 -2174.32 -2163.71 -2146.38 -2107.13 -2075.71 -2062.32 -2053.45 -2033.28 -2016.87 -1978.51 -1898.89 -1868.31 -1845.23 -1886.83 -1927.29 -1977.44 -1969.34 -2043.70 -2027.92 -2048.85 -2008.23 -1909.68 -1766.32 -1349.73 -898.41 -596.46 -466.43 -509.53 -517.31 -500.17 -398.82 -268.56 -234.84 -26.33 122.28 147.46 165.41 210.19 219.07 249.21 285.62 291.77 261.13 252.03 240.31 216.08 208.09 199.33 191.62 189.70 188.07 186.72 185.35 183.42 181.73 182.77 183.02 187.04 192.54 199.46 207.64 224.55 237.03 243.86 278.71 290.37 316.62 342.03 365.42 379.89 391.11 399.28 396.54 385.39 374.07 362.20 326.60 315.24 307.18 240.78 190.18 165.87 131.65 -455.09 -974.48 -1240.96 -1150.70 -1109.28 -1148.74 -1262.26 -1511.52 -1540.28 -2015.07 -2267.21 -2529.24 -3864.41 -4343.49 -4914.84 -5181.00 -5282.28 -5314.54 -5361.11 -5399.72 -5437.01 -5336.44 -4411.66 -3588.52 -1663.41 -550.86 -284.96 -459.91 -664.14 -1082.30 -1301.15 -1618.10 -1862.40 -2056.44 -2192.94 -2252.86 -2267.14 -2299.84 -2359.77 -2438.35 -2620.62 -2838.84 -3091.04 -3358.67 -3537.08 -3747.52 -3747.59
-2042.83 -2042.77 -2028.74 -1990.17 -1997.31 -2055.19 -2088.89 -2124.29 -2149.12 -2183.00 -2192.21 -2160.18 -2147.34 -2132.07 -2135.00 -2115.50 -2087.41 -2079.65 -2075.87 -2054.65 -2075.22 -2092.51 -2067.37 -2077.32 -2093.84 -2120.70 -2123.93 -2153.24 -2140.20 -2134.39 -2133.94 -2114.01 -2084.47 -1909.87 -1468.62 -1145.59 -779.01 -641.59 -533.52 -507.06 -507.29 -393.62 -296.83 -257.94 15.09 111.47 142.69 164.60 195.21 211.73 241.23 273.05 280.12 235.70 225.18 222.11 205.70 197.17 188.06 183.00 182.70 181.17 182.30 179.70 181.00 180.27 180.82 180.14 182.62 187.82 196.62 201.06 223.56 231.72 240.14 268.60 285.95 300.73 327.33 352.37 370.29 382.10 382.63 382.64 368.93 337.47 321.18 311.49 283.28 269.00 216.33 179.69 138.23 114.80 -486.37 -991.97 -1122.56 -1138.10 -1150.53 -1253.43 -1672.35 -1899.32 -2070.52 -2616.73 -3308.72 -3975.06 -4551.30 -5078.68 -5296.38 -5389.52 -5377.40 -5386.44 -5405.07 -5420.81 -5437.64 -5391.53 -4741.57 -2555.87 -1418.90 -384.78 -382.39 -553.50 -777.17 -1330.01 -1557.05 -1780.71 -2065.41 -2152.53 -2199.17 -2227.61 -2251.09 -2286.21 -2356.54 -2459.52 -2586.73 -2791.40 -3070.49 -3437.87 -3666.07 -3802.47 -3802.36
-2061.20 -2061.15 -2064.75 -2045.10 -2029.79 -2044.75 -2075.58 -2118.28 -2158.82 -2175.20 -2182.96 -2134.18 -2144.27 -2121.55 -2154.93 -2131.50 -2113.17 -2098.30 -2092.18 -2099.18 -2101.66 -2121.76 -2136.67 -2170.80 -2168.13 -2198.17 -2208.91 -2208.38 -2193.73 -2182.89 -2180.14 -2174.20 -2128.08 -2009.45 -1644.58 -1389.21 -1032.53 -721.14 -552.75 -512.44 -334.14 -273.46 -278.36 -242.75 -53.93 122.36 141.48 162.10 184.04 209.43 234.47 254.02 252.39 230.52 200.91 192.24 193.66 181.64 177.10 176.74 175.06 174.37 177.30 174.57 174.31 176.66 174.88 177.84 178.94 183.78 190.80 199.45 208.44 225.89 238.44 251.54 282.15 298.60 326.97 337.20 360.16 371.49 373.61 366.95 351.25 316.68 298.21 284.24 253.42 222.21 197.55 167.12 130.62 -192.51 -992.09 -1057.01 -1139.49 -1277.51 -1500.45 -1921.13 -3055.86 -2925.74 -3402.81 -4051.65 -4628.66 -5031.84 -5197.46 -5518.25 -5450.70 -5583.20 -5623.37 -5566.54 -5435.67 -5374.15 -5308.49 -5116.25 -4069.92 -2406.96 -818.61 -414.51 -433.13 -610.48 -891.38 -1325.59 -1677.09 -1881.28 -2109.98 -2163.14 -2196.84 -2217.63 -2243.82 -2285.02 -2336.21 -2446.49 -2585.35 -2922.64 -3195.91 -3607.32 -3825.03 -4023.93 -4024.01
-2086.44 -2086.40 -2091.76 -2095.28 -2101.46 -2059.59 -2081.92 -2136.63 -2144.12 -2148.94 -2193.77 -2176.05 -2180.56 -2198.09 -2176.53 -2146.35 -2126.69 -2116.19 -2114.71 -2112.83 -2126.88 -2155.30 -2192.80 -2212.73 -2211.33 -2228.37 -2232.33 -2226.20 -2216.94 -2199.91 -2197.96 -2197.33 -2161.67 -2105.08 -1888.20 -1613.34 -1075.93 -832.62 -578.01 -459.80 -344.29 -270.59 -286.57 -245.43 -53.63 63.69 123.57 153.09 177.73 204.25 223.84 233.29 201.46 216.06 194.37 174.47 174.18 172.60 171.35 166.87 167.50 166.71 168.48 168.47 169.76 171.52 172.55 174.39 176.67 178.93 184.01 192.99 202.46 220.64 238.50 251.15 277.69 298.77 310.54 332.84 348.38 359.88 358.85 352.05 322.63 309.78 280.32 248.43 215.49 210.75 173.77 140.47 -547.23 -1046.36 -1185.37 -1164.58 -1327.51 -1732.62 -2206.26 -2930.51 -3915.00 -4573.57 -4749.09 -4979.18 -5164.79 -5410.14 -5609.06 -5806.30 -5114.46 -4806.81 -5341.20 -5041.34 -5125.26 -4805.85 -4634.79 -3967.33 -3606.32 -1775.46 -577.93 -439.78 -516.44 -791.91 -1095.35 -1326.72 -1628.23 -1956.65 -2134.45 -2170.92 -2199.84 -2212.95 -2244.73 -2282.81 -2331.58 -2418.73 -2682.02 -3020.36 -3568.47 -3833.43 -3934.79 -4041.81 -4041.81
-2135.28 -2135.25 -2131.81 -2147.58 -2155.07 -2160.52 -2167.52 -2176.62 -2167.53 -2174.19 -2221.75 -2218.42 -2214.56 -2202.01 -2179.40 -2154.81 -2128.10 -2124.11 -2120.35 -2122.67 -2128.88 -2165.76 -2209.70 -2230.04 -2236.31 -2248.97 -2248.23 -2247.17 -2241.56 -2235.37 -2235.93 -2239.68 -2223.37 -2168.99 -2000.80 -1717.18 -1328.91 -833.52 -610.22 -385.58 -288.22 -265.95 -271.46 -241.11 -126.71 48.83 135.02 139.07 158.51 173.21 187.31 185.93 159.45 166.81 153.29 154.33 157.66 156.87 155.32 154.50 156.08 155.39 159.20 163.03 168.49 170.77 171.97 172.29 173.43 175.73 180.95 189.00 203.96 219.53 231.27 249.02 265.64 292.60 305.63 333.31 345.68 350.74 351.40 345.97 325.18 303.14 261.87 262.89 188.80 168.53 127.18 122.17 -552.03 -944.51 -1280.42 -1388.38 -1893.41 -2843.85 -3524.21 -4665.72 -4922.20 -5093.90 -5297.19 -5411.20 -5619.77 -5845.82 -5985.19 -4665.71 -4160.63 -2906.01 -1788.79 -1168.32 -2946.95 -2271.98 -2009.00 -2085.13 -1373.14 -744.91 -454.39 -404.37 -570.36 -891.42 -1113.62 -1433.92 -1723.61 -2030.95 -2116.61 -2154.73 -2194.23 -2215.49 -2248.45 -2282.33 -2396.08 -2456.66 -2655.01 -3218.80 -3517.80 -3927.28 -4069.48 -4129.79 -4129.83
-2195.22 -2199.01 -2198.32 -2193.13 -2191.95 -2201.10 -2203.33 -2205.15 -2214.37 -2221.60 -2220.75 -2218.57 -2214.58 -2205.95 -2174.08 -2148.17 -2128.12 -2124.46 -2123.31 -2124.46 -2138.25 -2179.35 -2219.58 -2243.00 -2255.31 -2255.97 -2262.30 -2260.82 -2262.91 -2266.26 -2261.72 -2266.12 -2259.31 -2230.83 -2120.93 -1824.41 -1385.23 -1001.89 -615.86 -409.93 -290.58 -267.15 -260.63 -254.54 -143.66 35.43 93.46 129.02 151.06 156.71 164.21 144.32 144.77 145.17 146.31 143.89 143.49 147.13 145.94 149.92 148.03 149.20 155.87 164.31 178.78 175.58 170.92 171.11 171.94 175.41 181.80 189.99 203.64 214.56 229.53 249.90 265.92 283.33 303.47 317.12 332.40 340.62 344.81 337.61 314.03 290.80 249.68 219.92 175.32 155.95 120.59 114.40 -582.01 -1163.05 -1661.72 -2027.47 -3052.46 -3713.38 -4590.37 -4772.50 -5248.07 -5347.82 -5498.46 -5726.72 -5235.41 -4866.26 -3245.42 -1155.79 -762.05 -142.26 -50.00 -62.45 130.53 120.76 -39.46 -779.48 -506.59 -385.85 -307.65 -407.68 -559.76 -950.67 -1226.85 -1517.31 -1746.76 -1979.30 -2087.24 -2152.19 -2202.17 -2217.73 -2241.33 -2288.75 -2434.19 -2520.31 -2782.88 -3054.25 -3618.83 -3865.99 -4073.66 -4152.23 -4161.02
-2232.55 -2232.50 -2225.73 -2231.81 -2239.11 -2233.73 -2239.03 -2236.31 -2229.91 -2226.87 -2228.62 -2225.94 -2223.04 -2215.70 -2187.97 -2151.74 -2136.82 -2132.03 -2132.11 -2136.15 -2152.45 -2176.80 -2240.35 -2264.62 -2272.90 -2272.81 -2279.61 -2283.08 -2276.53 -2285.68 -2288.65 -2292.15 -2295.95 -2265.36 -2142.76 -1854.08 -1577.99 -1072.72 -643.85 -401.36 -312.35 -273.28 -267.89 -254.92 -204.41 -114.32 22.31 105.21 130.67 134.36 136.49 136.42 134.21 94.26 54.67 72.47 96.54 132.28 131.15 131.29 137.98 140.25 148.04 167.43 179.71 189.09 183.30 169.60 169.97 173.73 181.59 185.61 201.03 212.46 221.55 246.83 260.38 273.32 292.93 306.25 326.18 331.52 334.65 329.53 311.36 273.38 243.21 189.02 147.94 133.31 116.95 108.89 -1210.08 -1579.54 -2393.84 -2964.14 -4236.46 -4618.72 -4869.82 -5111.23 -5354.85 -5552.01 -5699.52 -4967.59 -3196.90 -1572.94 -1463.56 -750.28 122.51 134.56 133.73 154.29 153.04 163.05 141.48 70.67 -111.02 -265.34 -335.60 -424.57 -720.00 -969.77 -1412.74 -1727.91 -1868.40 -2048.87 -2108.56 -2153.76 -2194.29 -2218.65 -2250.18 -2308.09 -2488.72 -2551.77 -2817.02 -3178.60 -3625.71 -3896.72 -4104.87 -4150.60 -4150.69
-2247.81 -2247.75 -2247.98 -2250.15 -2257.00 -2254.75 -2253.71 -2249.42 -2243.20 -2240.61 -2237.34 -2237.44 -2235.71 -2221.86 -2202.06 -2169.97 -2156.42 -2146.88 -2148.54 -2159.45 -2167.13 -2216.13 -2258.16 -2283.56 -2294.89 -2292.74 -2294.41 -2299.19 -2304.11 -2301.91 -2303.77 -2301.47 -2302.93 -2287.65 -2204.26 -1944.98 -1618.05 -1297.56 -748.62 -534.73 -345.36 -279.57 -273.11 -258.28 -220.09 -174.25 -77.00 72.00 97.53 110.11 42.56 -31.51 5.96 30.96 -34.91 -6.35 60.56 54.40 118.37 125.52 130.60 139.48 135.22 149.25 177.03 180.22 187.58 174.17 166.01 172.06 182.69 185.44 201.85 208.69 223.21 242.18 257.20 279.26 291.78 300.88 312.89 325.58 326.31 318.62 305.27 268.41 234.99 190.25 130.92 122.41 116.25 -574.55 -1470.26 -1856.93 -2355.10 -3815.01 -4627.25 -4927.40 -4961.37 -5122.68 -5325.37 -4965.30 -3602.82 -1578.07 -699.71 -48.59 129.47 162.21 160.37 161.36 177.65 181.30 185.88 174.65 160.10 129.69 98.00 -292.62 -493.49 -657.14 -842.46 -1184.05 -1463.97 -1787.72 -1981.30 -2102.46 -2164.18 -2192.41 -2212.98 -2246.44 -2325.46 -2414.88 -2603.79 -2784.89 -3068.02 -3375.74 -3684.23 -3998.02 -4072.30 -4125.64 -4125.71
-2255.74 -2255.68 -2257.30 -2260.88 -2261.74 -2265.66 -2263.95 -2262.63 -2252.73 -2250.27 -2250.09 -2251.81 -2253.74 -2242.29 -2222.15 -2186.69 -2177.09 -2174.37 -2172.23 -2181.01 -2193.16 -2224.75 -2271.87 -2299.97 -2311.41 -2304.38 -2308.64 -2312.17 -2314.98 -2315.69 -2310.98 -2302.27 -2298.61 -2294.09 -2204.45 -2122.35 -1726.71 -1395.40 -910.62 -587.16 -453.57 -339.27 -306.28 -269.33 -235.42 -185.15 -122.22 -86.39 -99.71 -104.59 -130.57 -174.57 -136.14 -113.77 -179.82 -140.16 -136.86 -76.00 82.88 102.86 120.85 127.44 124.62 140.39 164.74 165.21 170.25 172.46 164.94 168.89 179.31 186.32 194.45 206.24 226.01 237.81 246.69 274.26 288.84 294.61 302.60 312.61 317.84 298.45 273.78 258.14 273.18 274.96 161.86 -22.82 -538.94 -1172.28 -1519.51 -1740.35 -2416.71 -3334.54 -4162.63 -4123.40 -4138.46 -3248.75 -3510.14 -2600.06 -1085.85 116.95 127.20 156.16 173.67 181.61 188.73 192.42 203.29 203.53 200.51 188.48 174.19 143.25 60.76 -266.30 -636.33 -806.00 -1110.53 -1268.71 -1556.84 -1925.48 -2044.29 -2097.86 -2163.93 -2198.12 -2223.87 -2281.33 -2445.55 -2561.77 -2756.76 -2872.72 -3162.63 -3525.98 -3717.79 -3919.70 -4054.39 -4126.00 -4126.06
-2250.21 -2248.77 -2251.46 -2254.87 -2255.65 -2259.37 -2261.47 -2260.37 -2257.84 -2257.88 -2259.21 -2261.43 -2260.99 -2253.93 -2231.68 -2220.30 -2199.48 -2191.96 -2202.84 -2203.55 -2221.70 -2263.94 -2300.16 -2311.29 -2322.82 -2310.57 -2311.05 -2321.26 -2320.91 -2313.39 -2310.84 -2306.29 -2299.64 -2295.15 -2269.12 -2169.29 -1992.00 -1406.30 -1224.60 -901.00 -577.92 -433.55 -332.43 -271.37 -244.80 -236.05 -198.44 -174.46 -207.67 -216.58 -237.04 -228.43 -216.50 -200.07 -173.07 -150.10 -145.53 -145.79 -90.81 57.61 86.84 94.23 121.26 126.99 132.69 143.02 151.13 159.22 160.72 167.60 176.86 184.93 195.19 203.82 219.38 237.63 252.69 265.29 272.60 287.76 297.50 298.65 295.52 289.83 261.29 226.64 219.26 192.71 132.17 -38.44 -487.08 -1076.90 -1475.78 -1607.39 -2082.55 -2740.24 -3041.24 -2996.95 -2523.96 -1877.96 -701.54 116.38 122.57 147.56 180.22 210.85 215.54 234.90 250.81 229.10 222.77 215.36 209.77 181.41 165.10 148.46 50.96 -490.53 -995.42 -1131.27 -1277.84 -1414.35 -1615.54 -1886.31 -2102.99 -2128.69 -2175.79 -2202.21 -2223.79 -2287.75 -2523.13 -2652.77 -2796.78 -2965.34 -3168.51 -3480.57 -3695.97 -3932.05 -4050.67 -4126.42 -4126.48
-2218.80 -2218.70 -2210.08 -2225.19 -2216.58 -2226.04 -2226.07 -2242.50 -2249.69 -2257.78 -2262.16 -2264.60 -2266.11 -2266.81 -2256.85 -2241.03 -2245.08 -2241.18 -2239.90 -2238.37 -2256.56 -2294.74 -2318.16 -2315.40 -2319.97 -2312.66 -2312.44 -2315.47 -2316.58 -2313.62 -2313.26 -2309.52 -2301.80 -2286.39 -2250.37 -2173.87 -2083.66 -1832.23 -1334.02 -1115.06 -869.31 -664.89 -555.55 -340.11 -394.76 -280.89 -279.47 -310.83 -285.36 -275.90 -266.93 -242.67 -219.98 -202.84 -175.15 -157.19 -139.48 -123.34 -119.40 -29.57 5.73 22.87 92.50 111.15 133.30 136.31 143.89 152.52 158.71 162.95 171.42 183.79 192.88 204.91 217.81 230.43 244.48 249.46 262.04 266.81 277.48 291.81 287.61 276.32 252.53 224.67 192.96 165.86 126.89 -33.57 -757.46 -1578.12 -1502.25 -1450.38 -1625.31 -1777.31 -1935.32 -1841.20 -1098.39 -291.49 143.10 153.95 183.91 206.21 228.81 236.55 249.95 279.20 272.39 249.40 224.44 215.43 207.45 170.23 155.66 125.01 -183.33 -953.19 -1222.55 -1418.34 -1637.20 -1681.10 -1836.44 -2032.68 -2134.95 -2186.51 -2190.76 -2203.53 -2229.41 -2277.11 -2402.63 -2597.52 -2786.85 -3012.02 -3305.53 -3616.63 -3807.63 -3959.25 -4052.98 -4126.99 -4127.06
-2179.61 -2178.19 -2180.22 -2184.63 -2185.53 -2187.61 -2201.11 -2216.37 -2235.78 -2256.75 -2265.02 -2266.81 -2271.03 -2273.60 -2280.04 -2278.82 -2275.92 -2276.18 -2290.03 -2301.08 -2301.51 -2324.38 -2328.84 -2321.83 -2318.20 -2315.39 -2312.15 -2313.37 -2316.70 -2317.04 -2315.79 -2315.25 -2301.39 -2273.82 -2242.00 -2176.88 -2051.47 -1879.98 -1855.19 -1483.72 -1164.77 -986.70 -873.55 -702.49 -495.18 -485.09 -388.96 -357.39 -329.83 -294.78 -273.16 -261.74 -233.53 -210.33 -188.15 -164.24 -145.52 -105.54 -68.86 -59.43 -49.74 -28.15 -8.34 81.04 133.03 136.50 139.44 144.83 153.59 160.35 171.40 180.57 189.97 199.57 210.03 220.05 224.75 241.73 252.70 263.55 267.43 277.09 276.98 266.77 243.80 207.49 184.13 139.17 119.15 -14.93 -865.33 -1590.73 -1566.71 -1510.07 -1558.36 -1613.88 -1620.73 -1353.68 -179.38 143.39 182.65 213.26 239.57 243.24 260.93 276.65 280.66 272.33 249.93 236.22 201.63 187.31 160.25 143.27 126.93 109.18 -267.13 -1033.36 -1513.92 -1691.47 -1716.94 -1838.32 -2016.19 -2077.99 -2163.44 -2201.84 -2209.26 -2211.58 -2228.19 -2278.94 -2352.08 -2506.31 -2739.16 -2924.18 -3302.49 -3629.20 -3914.33 -4075.14 -4094.84 -4127.25 -4127.31
-2166.56 -2167.43 -2170.51 -2172.16 -2172.48 -2176.63 -2185.82 -2215.17 -2237.95 -2265.17 -2270.36 -2274.54 -2276.15 -2282.36 -2287.59 -2299.73 -2306.55 -2311.91 -2313.16 -2315.00 -2325.68 -2340.16 -2335.88 -2324.10 -2321.52 -2321.83 -2319.43 -2321.57 -2319.35 -2318.47 -2317.71 -2312.01 -2297.96 -2260.60 -2228.42 -2154.67 -2061.56 -1927.66 -1738.33 -1632.70 -1499.77 -1383.51 -1160.45 -835.08 -683.43 -549.38 -496.86 -412.56 -359.17 -323.60 -297.15 -273.12 -249.14 -239.10 -202.36 -161.21 -133.18 -101.46 -44.80 -30.27 -18.10 -4.05 12.74 70.40 129.65 133.20 137.94 144.08 152.24 157.59 165.30 173.89 183.77 188.49 199.84 215.04 215.82 231.57 243.91 250.44 252.11 256.81 264.29 256.66 232.12 204.00 178.45 162.31 124.11 72.48 -621.22 -1324.81 -1585.90 -1543.52 -1539.62 -1522.74 -1383.96 -634.14 74.70 200.63 238.53 272.99 291.15 293.94 278.98 263.07 246.83 249.90 223.47 210.95 178.15 156.16 131.26 119.23 107.33 76.97 0.70 -645.34 -1355.47 -1730.68 -1834.31 -1961.77 -2035.28 -2147.81 -2171.15 -2204.98 -2215.09 -2219.69 -2238.36 -2275.74 -2332.36 -2467.85 -2721.21 -2994.87 -3359.04 -3615.86 -3851.57 -4054.87 -4073.27 -4129.46 -4129.52
-2174.80 -2174.75 -2179.31 -2176.64 -2177.37 -2179.18 -2194.46 -2219.24 -2248.08 -2274.75 -2279.93 -2284.61 -2290.69 -2294.38 -2306.11 -2317.09 -2321.69 -2323.79 -2330.63 -2335.28 -2344.00 -2337.24 -2338.77 -2331.46 -2326.56 -2328.07 -2326.08 -2324.89 -2321.51 -2319.44 -2318.58 -2311.60 -2288.91 -2261.29 -2215.91 -2133.48 -2079.61 -1870.30 -1728.29 -1631.97 -1547.11 -1413.73 -1269.22 -1038.45 -743.75 -591.37 -507.49 -427.40 -367.02 -342.70 -307.30 -293.64 -280.40 -248.42 -200.37 -157.10 -116.33 -82.27 -34.27 -20.11 -4.92 1.06 14.46 63.74 106.48 121.14 135.54 138.29 147.87 155.66 159.06 168.36 176.79 181.44 190.98 203.94 211.79 219.80 229.39 236.05 240.68 249.59 250.79 245.90 219.57 206.58 175.68 155.66 126.87 102.78 -72.96 -1168.65 -1512.92 -1547.80 -1532.01 -1423.48 -853.46 -13.97 162.15 260.47 312.39 327.77 299.34 277.38 245.29 223.12 194.86 198.78 176.52 168.71 149.23 130.72 119.93 117.50 88.99 -30.82 -193.13 -686.37 -1741.84 -1794.97 -1936.16 -2049.64 -2117.33 -2145.62 -2184.34 -2203.23 -2215.20 -2223.96 -2241.34 -2273.34 -2347.99 -2446.60 -2592.88 -2980.42 -3280.83 -3530.54 -3797.93 -4033.06 -4052.28 -4133.90 -4133.96
-2189.56 -2189.51 -2189.48 -2190.92 -2194.62 -2199.26 -2210.36 -2234.16 -2257.21 -2279.62 -2289.57 -2295.38 -2295.16 -2301.74 -2310.43 -2326.04 -2331.85 -2336.58 -2339.05 -2347.93 -2355.59 -2340.05 -2336.19 -2331.01 -2327.48 -2328.11 -2326.33 -2324.96 -2323.64 -2321.54 -2316.49 -2309.20 -2284.71 -2259.62 -2224.37 -2114.68 -2069.37 -1917.38 -1808.40 -1691.15 -1519.77 -1421.72 -1352.59 -1131.90 -892.45 -625.07 -482.89 -427.82 -368.98 -352.34 -330.69 -309.93 -286.90 -263.05 -215.71 -165.75 -117.64 -83.73 -37.61 -7.95 6.81 17.37 30.99 35.89 66.71 96.79 127.58 136.41 140.26 148.99 155.36 163.31 173.00 178.48 184.34 188.90 202.06 208.68 211.39 223.48 225.23 227.93 226.44 213.66 210.45 192.97 179.33 151.37 127.55 111.59 -133.31 -723.81 -1480.80 -1509.13 -1474.87 -1196.32 -531.38 135.26 203.90 304.08 324.70 314.80 293.20 261.93 240.42 195.64 171.30 165.23 160.01 160.96 136.75 124.51 118.75 108.16 64.07 -293.81 -633.86 -1201.85 -1753.21 -1787.11 -1928.98 -2088.18 -2139.64 -2167.15 -2190.27 -2202.25 -2214.31 -2225.68 -2250.35 -2277.60 -2331.95 -2436.66 -2572.79 -2813.43 -3150.39 -3446.70 -3814.24 -3994.33 -4057.20 -4112.31 -4127.89
-2214.96 -2214.93 -2227.44 -2236.48 -2226.01 -2221.07 -2238.91 -2249.57 -2265.47 -2287.72 -2296.14 -2298.00 -2302.47 -2308.09 -2315.49 -2326.44 -2329.35 -2336.15 -2338.97 -2347.42 -2351.04 -2342.75 -2331.78 -2328.16 -2327.24 -2327.84 -2328.00 -2328.10 -2327.65 -2324.54 -2317.70 -2310.60 -2290.51 -2265.30 -2226.54 -2147.34 -2093.58 -1954.95 -1923.49 -1759.49 -1520.85 -1373.94 -1292.73 -1134.42 -928.41 -679.79 -567.79 -462.65 -383.54 -358.92 -342.78 -311.08 -295.29 -247.51 -203.64 -150.83 -105.22 -63.23 -32.41 1.19 15.26 29.25 37.84 52.26 56.72 94.63 123.64 131.75 138.96 141.60 149.77 155.54 162.58 170.33 176.27 181.53 188.60 198.09 203.19 208.39 208.24 205.48 205.52 200.80 185.82 180.91 161.97 146.03 122.98 111.65 7.46 -215.67 -927.40 -1356.48 -1280.89 -873.43 -274.42 137.14 236.63 284.30 283.34 277.86 251.31 226.94 210.23 177.21 162.54 140.63 132.07 129.28 121.68 120.02 107.32 60.90 -10.58 -1140.46 -1353.08 -1510.79 -1624.06 -1864.55 -1959.40 -2055.41 -2134.95 -2179.46 -2194.13 -2200.94 -2212.41 -2229.93 -2260.91 -2279.68 -2330.55 -2409.45 -2615.70 -2752.04 -2948.09 -3377.90 -3683.77 -3863.28 -3912.30 -4110.85 -4110.91
-2259.91 -2265.33 -2265.15 -2268.58 -2266.10 -2272.55 -2277.56 -2274.46 -2287.55 -2291.70 -2296.42 -2299.35 -2301.78 -2306.09 -2310.55 -2316.94 -2319.82 -2324.81 -2328.43 -2340.80 -2344.03 -2335.65 -2331.21 -2328.12 -2326.67 -2328.58 -2329.74 -2331.32 -2331.26 -2328.54 -2322.28 -2316.13 -2289.96 -2266.41 -2230.88 -2152.61 -2060.02 -1993.17 -1859.14 -1721.56 -1535.70 -1342.93 -1156.73 -1018.26 -807.20 -705.65 -581.26 -467.97 -406.51 -377.50 -358.83 -352.00 -316.88 -260.72 -222.35 -166.61 -103.51 -70.24 -22.42 0.94 23.80 33.06 41.89 57.26 63.90 72.40 95.02 121.40 134.34 141.16 142.39 150.30 155.69 164.25 168.10 172.66 179.99 184.39 185.70 189.14 191.32 190.80 183.48 182.31 173.36 158.82 153.67 138.25 123.18 108.89 84.08 69.44 -412.08 -926.41 -843.96 -460.15 -50.13 159.61 232.59 247.55 230.61 231.95 212.36 197.79 170.18 136.03 123.71 123.19 118.52 116.28 108.44 102.17 -50.20 -103.62 -442.57 -1234.54 -1481.89 -1620.98 -1672.74 -1872.40 -2021.09 -2088.39 -2142.31 -2172.49 -2190.21 -2201.50 -2210.41 -2227.48 -2251.34 -2277.75 -2329.58 -2370.10 -2491.70 -2687.30 -2880.01 -3075.77 -3302.48 -3629.10 -3905.00 -4047.48 -4047.68
-2309.23 -2316.26 -2307.81 -2308.08 -2311.98 -2316.76 -2316.87 -2311.19 -2299.61 -2294.73 -2295.87 -2297.90 -2300.79 -2302.38 -2305.06 -2302.79 -2304.14 -2306.10 -2308.70 -2317.79 -2336.56 -2332.67 -2333.03 -2329.49 -2330.56 -2331.33 -2330.35 -2334.28 -2336.56 -2333.79 -2330.86 -2319.01 -2297.19 -2243.93 -2208.22 -2132.67 -2049.12 -1972.95 -1877.07 -1757.44 -1531.06 -1380.42 -1191.56 -949.31 -846.68 -720.81 -640.32 -532.38 -444.50 -408.57 -397.15 -386.01 -306.05 -256.15 -212.67 -157.17 -102.20 -60.79 -23.91 -0.07 16.88 28.88 39.59 52.85 64.65 66.51 85.28 103.93 132.21 135.75 141.04 140.98 148.30 155.33 156.19 167.28 168.39 172.05 169.74 176.04 177.47 171.03 171.54 152.63 154.82 147.36 136.49 121.73 112.08 88.38 71.88 60.62 -124.65 -119.36 -288.56 -175.05 88.15 187.73 181.61 161.35 170.97 200.00 188.35 170.83 123.95 124.47 120.26 117.97 116.47 105.21 97.22 -94.53 -430.60 -631.30 -969.94 -1261.09 -1503.33 -1622.14 -1791.21 -1911.07 -2026.70 -2100.01 -2146.90 -2163.19 -2181.80 -2192.59 -2209.55 -2225.83 -2254.37 -2272.78 -2323.70 -2370.62 -2502.57 -2643.53 -2781.78 -2911.12 -3144.85 -3412.02 -3697.76 -3947.80 -3947.11
-2343.46 -2343.38 -2341.93 -2345.35 -2340.27 -2342.59 -2338.94 -2329.65 -2310.11 -2300.29 -2299.24 -2302.80 -2305.59 -2306.39 -2306.12 -2302.83 -2301.88 -2304.69 -2306.49 -2317.04 -2326.98 -2332.45 -2333.41 -2330.59 -2331.64 -2331.85 -2331.92 -2337.39 -2338.43 -2336.58 -2335.36 -2321.12 -2285.26 -2254.13 -2195.30 -2131.57 -2020.19 -1954.93 -1836.17 -1657.65 -1474.20 -1328.17 -1204.81 -1027.48 -890.56 -729.42 -657.43 -559.30 -493.11 -474.45 -437.17 -413.83 -357.88 -255.41 -170.70 -138.66 -87.18 -47.86 -13.83 -0.39 13.46 23.22 38.22 48.28 59.35 64.42 73.34 96.00 126.19 131.71 134.45 138.60 142.16 146.51 147.75 156.41 157.85 161.58 157.95 152.34 155.34 145.82 146.14 147.02 147.08 126.06 120.77 113.27 96.35 80.88 58.35 50.79 36.14 35.41 -3.48 92.80 179.58 168.37 113.58 85.69 78.69 131.46 133.81 122.10 114.79 116.45 116.70 112.53 104.07 87.63 67.57 -253.51 -722.23 -984.54 -1088.96 -1321.71 -1554.14 -1649.75 -1800.33 -1924.18 -2007.67 -2107.44 -2147.54 -2166.13 -2183.45 -2190.98 -2201.98 -2222.77 -2258.43 -2280.87 -2328.66 -2361.83 -2451.47 -2596.95 -2781.22 -2975.78 -3272.28 -3536.46 -3847.15 -3974.09 -4004.47
-2358.75 -2358.68 -2356.37 -2358.94 -2353.24 -2360.96 -2355.83 -2336.32 -2327.75 -2310.12 -2308.72 -2312.17 -2314.77 -2314.55 -2314.14 -2311.23 -2311.98 -2310.93 -2309.91 -2335.86 -2339.76 -2342.44 -2339.27 -2336.27 -2334.14 -2333.25 -2336.81 -2338.98 -2340.86 -2338.92 -2335.35 -2324.94 -2305.38 -2277.59 -2219.44 -2162.17 -1978.16 -1894.41 -1801.62 -1628.78 -1512.08 -1348.97 -1172.59 -989.87 -891.27 -751.75 -708.02 -629.86 -584.75 -535.88 -466.55 -426.66 -371.24 -305.36 -141.86 -102.24 -67.19 -31.92 -16.64 -1.83 8.76 21.88 30.49 43.08 53.47 60.05 69.03 87.18 107.30 124.21 128.09 130.39 135.60 137.81 139.92 139.93 151.72 145.36 139.94 142.23 142.39 135.85 134.26 138.08 124.07 112.55 101.97 98.90 85.36 63.27 53.91 43.61 35.78 54.22 93.04 145.51 152.23 91.05 21.88 -33.23 -13.29 -15.23 72.28 78.71 97.37 103.60 59.80 46.24 76.67 11.90 -209.34 -772.48 -981.64 -1035.23 -1175.37 -1289.95 -1678.98 -1771.75 -1905.67 -1989.20 -2077.36 -2110.15 -2148.90 -2164.78 -2182.09 -2193.57 -2205.56 -2219.56 -2249.65 -2277.80 -2328.32 -2383.92 -2482.86 -2607.53 -2806.21 -3076.17 -3370.37 -3770.84 -3968.86 -4133.37 -4150.75
-2373.29 -2373.22 -2376.61 -2368.15 -2370.67 -2372.84 -2368.62 -2355.50 -2333.04 -2327.17 -2322.54 -2326.53 -2322.78 -2326.22 -2322.64 -2319.91 -2317.80 -2319.29 -2324.11 -2338.90 -2344.53 -2347.97 -2346.27 -2341.55 -2341.26 -2339.95 -2341.44 -2341.77 -2342.20 -2338.63 -2333.60 -2324.45 -2310.06 -2285.07 -2234.33 -2154.39 -2013.68 -1921.05 -1758.93 -1628.30 -1499.72 -1425.22 -1243.57 -1054.43 -889.30 -808.89 -742.88 -689.65 -604.17 -560.26 -481.79 -434.23 -391.45 -284.93 -200.18 -120.04 -72.88 -36.46 -15.63 -4.04 6.28 15.58 26.12 33.35 44.51 55.25 65.31 76.84 98.86 104.88 125.69 128.27 131.26 131.90 127.20 132.34 129.96 124.34 126.29 127.67 128.56 122.46 116.51 110.57 103.97 101.12 96.68 67.05 60.23 51.40 43.53 45.30 39.35 79.06 133.54 127.25 77.13 21.56 -29.11 -73.49 -83.69 -75.88 -50.23 30.55 -22.75 26.50 -74.11 -124.32 -95.38 -260.17 -585.75 -1035.34 -1044.57 -1176.05 -1295.34 -1409.53 -1691.95 -1884.85 -1933.46 -2058.86 -2112.41 -2125.66 -2149.23 -2167.96 -2178.54 -2206.11 -2219.14 -2228.50 -2255.27 -2281.97 -2319.37 -2376.51 -2435.66 -2597.27 -2880.48 -3225.60 -3474.52 -3856.46 -4079.56 -4200.08 -4219.57
-2395.18 -2391.90 -2394.44 -2392.77 -2384.73 -2387.05 -2381.96 -2372.90 -2354.32 -2337.39 -2334.92 -2337.05 -2339.01 -2343.82 -2336.68 -2331.62 -2329.14 -2330.23 -2331.53 -2340.97 -2359.90 -2365.05 -2352.86 -2347.82 -2345.43 -2344.55 -2344.99 -2344.24 -2344.04 -2341.30 -2337.94 -2327.69 -2310.12 -2278.76 -2243.54 -2178.66 -2112.35 -1959.58 -1789.62 -1622.50 -1466.88 -1356.11 -1218.93 -1058.24 -937.66 -838.77 -800.92 -703.79 -624.67 -537.73 -498.49 -426.40 -367.23 -270.45 -216.61 -134.08 -83.68 -47.28 -21.76 -5.37 1.35 7.57 16.31 27.15 33.53 46.19 65.16 70.46 69.57 85.03 108.77 118.22 120.77 122.37 120.39 121.09 119.75 118.35 116.69 118.10 113.97 113.50 94.61 87.47 77.79 67.92 46.71 46.12 42.29 41.75 43.66 63.34 84.19 109.11 112.90 41.32 -5.35 -30.36 -81.56 -106.35 -151.62 -169.38 -196.02 -156.99 -268.01 -266.72 -355.28 -598.65 -628.99 -680.32 -1014.97 -1161.39 -1229.53 -1377.64 -1410.93 -1572.49 -1737.51 -1903.14 -1988.96 -2047.01 -2113.43 -2123.46 -2146.53 -2161.42 -2183.06 -2201.47 -2222.50 -2239.22 -2251.85 -2275.54 -2310.83 -2378.56 -2495.39 -2642.37 -2966.50 -3236.12 -3638.31 -3886.71 -4071.30 -4220.18 -4220.24
-2426.17 -2422.18 -2423.78 -2422.69 -2422.91 -2420.84 -2422.06 -2397.39 -2375.57 -2359.69 -2351.47 -2355.54 -2359.02 -2356.80 -2351.13 -2342.13 -2335.65 -2336.80 -2339.27 -2346.30 -2357.88 -2367.64 -2358.39 -2352.46 -2348.66 -2347.04 -2347.80 -2346.80 -2347.01 -2345.81 -2343.76 -2333.12 -2319.00 -2293.42 -2237.64 -2183.96 -2117.02 -1969.44 -1759.99 -1643.44 -1542.66 -1417.61 -1274.87 -1102.24 -1071.19 -943.08 -805.95 -747.64 -672.76 -589.54 -507.80 -409.49 -325.51 -263.32 -189.71 -134.78 -84.69 -54.68 -14.72 -8.14 2.30 7.46 14.81 18.19 23.73 34.06 45.28 53.30 58.28 72.49 85.62 89.88 101.83 111.62 112.54 108.63 104.05 106.72 96.24 94.44 83.94 86.66 65.28 64.88 61.69 50.74 41.31 38.30 34.94 50.86 74.85 84.48 92.42 89.29 65.60 -51.17 -77.39 -93.41 -125.97 -143.23 -171.87 -205.81 -277.41 -394.89 -443.81 -513.69 -651.57 -757.55 -918.58 -986.64 -1158.52 -1338.39 -1445.07 -1483.67 -1637.34 -1780.07 -1902.99 -2014.98 -2052.18 -2075.28 -2113.50 -2129.24 -2145.59 -2161.17 -2181.09 -2205.05 -2222.11 -2239.20 -2248.07 -2279.59 -2359.11 -2476.58 -2582.36 -2820.92 -3041.90 -3381.97 -3878.17 -4039.18 -4167.54 -4218.62 -4218.68
-2453.13 -2450.85 -2450.57 -2451.49 -2448.20 -2453.69 -2445.55 -2418.22 -2392.49 -2375.14 -2376.33 -2376.35 -2376.54 -2372.40 -2361.67 -2347.66 -2347.78 -2345.71 -2347.68 -2348.43 -2353.66 -2355.46 -2358.72 -2352.63 -2344.40 -2347.62 -2352.05 -2350.94 -2350.09 -2347.52 -2342.61 -2337.62 -2318.18 -2311.93 -2259.40 -2148.94 -2069.82 -1940.43 -1847.55 -1740.61 -1560.55 -1450.33 -1319.70 -1168.21 -1060.13 -908.22 -807.38 -776.21 -741.54 -613.56 -510.67 -387.67 -348.73 -258.11 -186.21 -146.73 -104.95 -56.25 -24.10 -15.36 -2.73 2.79 2.89 5.82 16.05 24.25 26.66 34.51 41.69 51.28 54.09 50.49 71.93 63.10 69.24 73.38 78.32 73.92 74.09 73.06 65.91 57.75 51.38 49.25 42.12 49.05 54.65 60.39 66.39 76.99 91.13 88.02 66.75 43.98 -39.89 -138.69 -156.85 -151.77 -170.22 -194.94 -235.45 -268.30 -327.74 -452.74 -506.15 -628.07 -726.85 -836.83 -1074.20 -1147.98 -1318.09 -1534.93 -1647.70 -1657.38 -1713.44 -1823.10 -1941.51 -2030.43 -2067.20 -2096.42 -2115.86 -2127.83 -2142.68 -2163.40 -2180.85 -2205.07 -2217.32 -2234.19 -2239.84 -2283.00 -2378.40 -2500.82 -2694.10 -2967.28 -3188.83 -3710.35 -4105.14 -4208.19 -4211.29 -4216.16 -4216.22
-2468.02 -2467.95 -2469.82 -2468.68 -2467.54 -2468.52 -2452.18 -2438.29 -2399.41 -2387.02 -2383.84 -2384.63 -2385.35 -2383.86 -2376.35 -2359.10 -2353.95 -2353.08 -2356.14 -2356.70 -2355.67 -2355.49 -2352.88 -2348.28 -2347.63 -2350.90 -2357.02 -2355.01 -2353.50 -2350.44 -2343.80 -2339.48 -2332.87 -2306.99 -2276.37 -2183.89 -2127.20 -2056.95 -1952.17 -1797.18 -1682.93 -1481.32 -1275.11 -1152.14 -1038.58 -934.03 -864.77 -794.30 -721.00 -583.87 -487.56 -417.16 -379.85 -280.21 -208.97 -147.50 -116.96 -63.58 -44.92 -29.13 -16.94 -6.49 -4.22 -2.72 6.23 9.04 12.90 16.01 20.93 24.43 34.25 37.01 41.79 41.71 33.39 39.17 52.67 45.39 50.24 46.45 47.00 41.32 44.90 51.07 64.23 86.72 103.24 95.77 103.28 90.77 88.59 63.65 -2.80 -108.60 -139.52 -188.82 -219.68 -219.25 -212.91 -269.75 -334.22 -370.22 -425.96 -493.11 -584.15 -703.41 -840.83 -1072.04 -1267.43 -1409.24 -1495.34 -1557.62 -1736.81 -1823.63 -1877.87 -1926.09 -2020.46 -2072.82 -2094.99 -2110.70 -2130.32 -2140.78 -2142.36 -2170.02 -2183.27 -2204.05 -2210.98 -2212.01 -2229.52 -2261.61 -2407.94 -2568.20 -2768.83 -3210.14 -3510.65 -3920.21 -4102.04 -4205.12 -4205.51 -4210.29 -4210.35
-2475.38 -2475.31 -2476.63 -2476.89 -2476.29 -2473.68 -2467.43 -2445.80 -2414.29 -2396.88 -2391.88 -2394.67 -2396.92 -2393.21 -2380.76 -2368.05 -2365.00 -2361.66 -2361.81 -2364.50 -2361.62 -2358.64 -2353.33 -2348.74 -2347.28 -2350.05 -2356.73 -2358.53 -2357.43 -2352.69 -2348.88 -2344.48 -2332.65 -2300.30 -2270.65 -2198.64 -2163.33 -2074.40 -2033.33 -1884.65 -1834.98 -1619.07 -1396.55 -1200.09 -1117.65 -1044.33 -950.30 -857.80 -721.14 -582.68 -510.73 -456.54 -394.13 -313.03 -229.55 -188.61 -142.53 -87.59 -57.07 -36.04 -33.54 -24.06 -21.77 -13.37 -7.41 -7.73 -1.23 2.17 7.01 11.54 21.95 30.07 34.24 24.64 18.70 14.93 13.31 11.74 20.02 30.07 30.64 51.33 52.56 75.71 124.44 122.50 126.76 111.29 90.39 64.78 22.39 -34.85 -111.54 -162.40 -196.38 -240.70 -262.11 -295.70 -293.97 -341.19 -427.05 -436.26 -569.86 -654.48 -692.04 -838.30 -1103.53 -1303.97 -1422.59 -1644.66 -1701.60 -1749.15 -1809.80 -1931.52 -1970.23 -2020.92 -2079.89 -2091.85 -2111.02 -2126.82 -2143.99 -2151.99 -2157.76 -2165.64 -2186.08 -2200.01 -2207.62 -2195.35 -2195.25 -2222.80 -2461.83 -2697.48 -3032.31 -3530.81 -3819.50 -4029.95 -4193.36 -4198.22 -4193.94 -4198.80 -4199.27
-2474.96 -2474.90 -2472.98 -2475.30 -2476.64 -2477.56 -2473.38 -2453.59 -2422.71 -2403.66 -2401.52 -2400.91 -2404.72 -2400.92 -2394.60 -2384.13 -2376.28 -2379.03 -2380.63 -2376.05 -2374.84 -2369.24 -2357.17 -2355.30 -2349.84 -2353.04 -2362.01 -2364.35 -2359.03 -2356.60 -2354.71 -2350.20 -2343.56 -2312.75 -2260.83 -2228.55 -2196.37 -2160.77 -2021.43 -1981.22 -1882.00 -1664.03 -1497.45 -1343.27 -1195.00 -1082.05 -1005.19 -856.43 -761.73 -590.32 -553.48 -486.26 -427.52 -354.55 -258.44 -209.27 -157.82 -117.98 -95.41 -63.48 -47.15 -42.79 -40.27 -32.32 -20.61 -20.81 -20.57 -11.07 -3.69 6.36 34.65 59.04 43.75 33.74 36.30 21.24 24.47 17.60 31.32 41.34 64.67 91.76 95.36 136.59 131.59 135.47 109.93 38.53 27.87 -33.63 -82.58 -117.97 -160.46 -220.48 -240.44 -285.09 -362.74 -378.09 -387.59 -480.12 -602.81 -788.39 -736.59 -870.54 -922.68 -1004.54 -1280.20 -1488.69 -1633.68 -1763.53 -1819.28 -1885.08 -1961.82 -2010.70 -2050.85 -2068.96 -2106.45 -2112.84 -2125.74 -2137.08 -2145.99 -2162.63 -2170.83 -2189.81 -2198.56 -2204.07 -2211.44 -2204.21 -2196.91 -2239.79 -2379.50 -2761.10 -3190.99 -3624.20 -3899.66 -4099.96 -4190.47 -4187.00 -4184.20 -4186.20 -4186.26
-2451.43 -2454.86 -2456.77 -2458.48 -2460.42 -2463.42 -2454.75 -2437.61 -2420.89 -2410.84 -2407.59 -2409.99 -2411.17 -2412.97 -2411.90 -2411.21 -2398.12 -2401.92 -2415.76 -2409.64 -2412.45 -2379.72 -2368.32 -2357.98 -2353.15 -2356.57 -2367.18 -2369.20 -2364.35 -2361.37 -2359.05 -2355.04 -2344.19 -2322.05 -2300.13 -2275.95 -2227.01 -2185.54 -2102.81 -2036.83 -1919.00 -1761.67 -1582.82 -1419.85 -1235.48 -1101.40 -948.36 -868.08 -687.08 -643.44 -594.42 -521.03 -454.60 -366.57 -308.43 -228.47 -200.14 -149.65 -126.24 -100.89 -84.46 -72.04 -49.30 -41.31 -38.14 -37.13 -37.32 -29.14 -11.01 30.68 91.03 127.02 100.65 61.27 90.68 80.76 74.31 83.15 85.11 87.97 112.65 123.95 133.51 139.68 106.13 84.44 12.86 -37.74 -70.07 -135.84 -171.00 -195.42 -221.86 -257.25 -270.83 -332.52 -384.72 -469.43 -517.68 -575.42 -768.57 -996.28 -1109.94 -1219.47 -1210.61 -1355.67 -1506.21 -1676.11 -1776.19 -1828.73 -1905.21 -1993.04 -2055.28 -2061.54 -2086.38 -2088.15 -2114.57 -2131.95 -2140.95 -2149.56 -2157.95 -2170.81 -2186.86 -2198.87 -2207.72 -2208.25 -2223.04 -2222.85 -2220.18 -2238.37 -2410.97 -2953.52 -3530.66 -3931.76 -4089.04 -4162.55 -4184.96 -4179.50 -4172.80 -4174.30 -4174.36
-2403.04 -2403.01 -2402.91 -2399.15 -2410.78 -2414.28 -2418.28 -2416.29 -2412.83 -2413.56 -2415.20 -2415.77 -2420.35 -2423.55 -2428.40 -2437.82 -2451.28 -2456.04 -2445.71 -2456.85 -2444.43 -2419.92 -2375.78 -2355.44 -2351.46 -2352.68 -2368.17 -2379.12 -2369.76 -2366.42 -2364.79 -2361.17 -2352.32 -2342.42 -2321.94 -2304.14 -2270.60 -2200.05 -2154.62 -2079.68 -1959.92 -1786.64 -1611.37 -1435.03 -1267.85 -1127.58 -917.67 -830.40 -730.01 -665.31 -620.94 -561.43 -479.74 -374.85 -302.27 -277.96 -230.87 -191.24 -170.47 -122.65 -111.52 -81.92 -67.88 -63.21 -56.64 -56.88 -48.65 -40.69 -7.85 59.70 118.49 151.35 150.18 149.83 136.15 135.13 137.92 130.62 122.54 134.37 131.27 93.37 86.98 41.54 1.52 -16.58 -96.43 -105.29 -140.82 -180.17 -196.65 -249.07 -249.40 -303.58 -373.12 -504.41 -556.01 -654.16 -654.99 -706.89 -1027.52 -1179.00 -1365.42 -1482.26 -1435.21 -1609.01 -1736.26 -1837.24 -1891.73 -1924.17 -1954.20 -2013.22 -2066.85 -2095.31 -2112.19 -2119.31 -2131.19 -2144.04 -2149.54 -2168.66 -2177.34 -2190.63 -2196.27 -2206.85 -2215.37 -2231.69 -2245.16 -2242.01 -2256.93 -2285.18 -2479.68 -2849.94 -3693.34 -4091.50 -4152.79 -4169.80 -4178.25 -4163.41 -4155.09 -4159.16 -4159.22
-2367.63 -2367.58 -2369.49 -2374.56 -2372.16 -2383.89 -2385.25 -2396.23 -2403.72 -2416.78 -2422.37 -2424.74 -2430.09 -2436.43 -2458.30 -2474.43 -2486.89 -2495.71 -2491.93 -2483.78 -2459.75 -2443.41 -2383.23 -2357.49 -2350.05 -2356.05 -2382.78 -2385.58 -2376.99 -2373.39 -2370.80 -2367.99 -2368.57 -2362.21 -2350.42 -2320.41 -2284.62 -2254.47 -2198.42 -2110.58 -1990.61 -1736.78 -1616.14 -1445.02 -1290.48 -1094.44 -991.78 -849.31 -797.96 -712.75 -630.64 -585.74 -499.77 -417.26 -373.69 -336.74 -318.49 -257.08 -200.25 -170.53 -128.24 -108.41 -84.19 -86.20 -82.91 -86.66 -74.91 -61.66 -11.65 78.51 139.67 153.43 158.15 153.21 139.71 144.08 129.69 127.80 107.47 104.27 67.59 33.96 14.66 -37.17 -71.06 -114.88 -141.01 -162.64 -189.61 -217.94 -261.93 -301.32 -316.32 -327.23 -508.93 -598.07 -703.23 -779.95 -954.25 -1240.52 -1280.42 -1501.28 -1583.48 -1713.02 -1789.06 -1768.23 -1898.90 -1978.56 -2016.48 -2002.41 -2013.83 -2052.00 -2100.22 -2131.61 -2147.81 -2139.89 -2145.93 -2159.22 -2169.41 -2179.96 -2192.81 -2207.92 -2210.26 -2214.50 -2225.73 -2243.28 -2265.51 -2288.75 -2295.26 -2301.87 -2360.70 -2824.46 -3589.90 -3999.32 -4121.71 -4152.70 -4164.90 -4156.12 -4140.54 -4140.43 -4139.68
-2364.33 -2364.26 -2364.87 -2363.34 -2364.40 -2366.45 -2374.30 -2393.45 -2410.86 -2424.14 -2429.22 -2430.48 -2432.72 -2442.57 -2466.84 -2485.43 -2510.18 -2509.03 -2513.47 -2510.83 -2481.40 -2457.62 -2382.55 -2355.48 -2372.32 -2400.84 -2404.36 -2396.94 -2391.38 -2388.45 -2379.88 -2378.25 -2374.38 -2373.50 -2356.73 -2339.08 -2324.88 -2297.60 -2250.78 -2198.10 -2023.42 -1773.40 -1692.96 -1511.68 -1379.83 -1215.22 -1057.51 -911.44 -839.94 -796.95 -652.96 -581.28 -524.43 -511.54 -427.64 -407.33 -337.68 -302.80 -242.93 -213.13 -175.20 -145.91 -138.21 -139.06 -128.32 -113.77 -108.10 -75.50 -20.07 59.82 111.23 130.44 132.83 93.45 108.45 75.50 65.52 16.21 12.86 10.72 -11.70 -75.93 -94.41 -139.31 -150.96 -170.52 -203.14 -238.37 -265.75 -333.41 -324.44 -383.90 -414.27 -393.83 -615.55 -823.91 -1007.69 -981.65 -1368.10 -1549.24 -1700.90 -1736.20 -1843.83 -1929.62 -1928.11 -1920.13 -1992.79 -2066.01 -2064.25 -2058.93 -2085.52 -2116.61 -2118.50 -2149.00 -2163.04 -2152.98 -2162.14 -2177.27 -2180.67 -2196.61 -2215.39 -2222.35 -2226.69 -2236.88 -2250.26 -2263.20 -2297.13 -2305.78 -2323.63 -2314.82 -2365.43 -3103.84 -3490.39 -4009.92 -4154.87 -4162.26 -4153.49 -4135.59 -4115.80 -4118.60 -4118.65
