-5366.93 -5366.85 -5365.14 -5369.55 -5375.55 -5384.02 -5388.53 -5386.32 -5382.04 -5384.82 -5395.62 -5426.58 -5429.97 -5456.24 -5472.57 -5488.36 -5490.72 -5495.96 -5514.58 -5498.02 -5490.37 -5453.15 -5384.22 -5104.43 -4417.51 -3987.56 -2662.99 -2175.78 -1342.95 -456.32 60.99 146.34 201.49 234.59 236.05 250.84 264.64 269.98 302.22 350.97 409.30 415.60 455.72 510.10 526.27 587.24 602.18 541.70 474.88 378.03 320.03 294.29 276.85 261.25 251.41 241.70 227.97 225.50 226.88 241.28 262.15 287.05 297.99 283.18 274.54 272.23 265.76 271.37 277.09 282.77 298.27 307.79 316.91 324.08 332.25 342.84 356.02 361.65 372.25 381.59 408.59 425.94 436.71 461.06 473.67 497.76 529.87 540.88 563.49 603.90 611.38 641.75 667.81 692.75 688.08 673.96 712.34 659.91 575.41 485.25 476.96 494.80 433.32 618.80 355.59 112.23 -319.82 -1186.82 -2844.89 -3734.17 -4136.61 -4374.24 -4595.98 -4728.90 -4945.54 -5038.94 -5069.43 -5024.36 -4821.88 -3548.02 -2010.23 -527.68 -239.04 -206.34 -258.42 -429.87 -620.25 -801.33 -957.87 -1228.27 -1586.95 -1692.80 -1833.49 -2036.07 -2176.12 -2280.19 -2397.41 -2731.30 -2896.18 -3101.83 -3101.89
-5358.89 -5359.85 -5356.96 -5364.92 -5369.55 -5373.50 -5376.49 -5369.51 -5358.33 -5347.30 -5344.21 -5371.19 -5396.78 -5409.40 -5428.91 -5446.23 -5459.58 -5468.49 -5481.27 -5393.84 -5307.45 -5078.06 -4619.08 -4110.51 -3620.53 -2887.53 -2405.50 -1691.88 -1067.36 -308.50 80.80 199.48 236.08 242.16 241.80 268.68 280.98 305.33 320.60 351.51 430.14 489.45 507.40 533.50 565.43 592.45 591.12 573.57 504.96 377.25 322.17 297.27 281.62 268.19 256.83 250.59 236.03 236.81 244.94 263.11 289.07 281.78 265.70 255.51 253.26 257.36 255.25 260.54 273.81 274.79 288.08 297.42 308.89 322.82 329.99 340.75 348.02 360.37 377.65 387.07 414.55 423.30 435.99 462.46 478.18 509.03 550.61 568.61 588.97 606.20 628.93 641.78 680.29 706.57 727.18 756.50 747.40 630.00 536.75 546.23 608.86 576.13 538.92 645.50 531.74 249.52 -95.96 -1103.23 -2677.04 -3876.79 -4281.61 -4308.58 -4514.90 -4679.37 -4828.45 -5019.51 -5012.43 -5001.81 -4738.81 -3526.13 -1857.52 -447.15 -215.95 -184.66 -243.49 -352.57 -436.99 -648.30 -1045.67 -1214.22 -1373.46 -1609.51 -1813.31 -1941.70 -2088.40 -2233.04 -2419.64 -2643.56 -2783.66 -2895.31 -2895.22
-5329.11 -5329.06 -5327.62 -5333.76 -5328.62 -5354.79 -5355.50 -5340.82 -5310.63 -5305.95 -5321.10 -5346.50 -5364.74 -5391.22 -5404.97 -5401.16 -5420.90 -5412.14 -5231.57 -5174.20 -4791.00 -4365.50 -3870.31 -3018.97 -2598.50 -2265.97 -2119.78 -1699.89 -702.53 63.43 192.33 237.61 242.50 249.52 262.39 273.30 284.49 312.66 320.33 361.45 455.12 505.48 540.27 563.36 574.39 571.40 520.32 509.59 393.02 381.59 345.57 319.49 288.11 272.57 263.87 256.81 249.08 254.07 260.36 265.26 260.09 253.74 255.04 252.43 252.00 251.91 252.79 258.08 263.05 271.56 281.15 298.90 305.58 314.63 330.25 336.76 349.86 362.10 379.41 396.55 405.55 428.01 453.13 464.15 488.33 523.73 549.02 578.11 598.52 615.44 641.85 660.25 695.50 719.84 730.61 752.16 732.22 665.22 587.79 647.10 727.40 658.09 657.99 714.38 497.07 231.43 97.01 -335.22 -1894.95 -3546.30 -4124.39 -4339.67 -4420.07 -4594.33 -4796.30 -4933.83 -4957.05 -4906.25 -4594.46 -3553.72 -1328.05 -617.42 -210.15 -167.28 -180.53 -346.61 -517.90 -595.08 -843.13 -1059.45 -1302.32 -1525.20 -1794.84 -1921.76 -2080.31 -2227.36 -2427.30 -2584.57 -2733.34 -2837.85 -2837.91
-5288.68 -5288.63 -5281.69 -5293.31 -5300.15 -5303.51 -5300.30 -5300.65 -5281.49 -5281.76 -5297.96 -5316.58 -5350.23 -5366.24 -5363.40 -5353.08 -5230.97 -5103.28 -4745.65 -4192.98 -3704.82 -3481.31 -2701.47 -2233.88 -2181.20 -1955.14 -1538.01 -1124.09 -60.79 192.20 243.33 247.84 254.43 260.55 274.63 284.18 293.00 318.65 345.83 368.47 453.99 477.52 549.81 561.85 532.74 524.15 505.21 475.92 408.26 390.26 365.23 334.67 292.89 277.52 271.66 266.94 254.85 255.62 258.01 264.92 258.48 253.17 252.44 251.87 251.47 251.44 252.04 255.60 259.21 267.72 274.39 286.04 298.78 308.86 328.41 334.89 349.07 358.07 379.26 394.86 406.81 424.66 447.90 471.73 500.34 526.69 547.40 586.94 608.54 632.89 646.70 673.83 707.81 728.39 739.46 748.77 703.83 669.06 604.04 693.75 753.94 795.33 705.65 700.76 400.66 226.87 197.38 -510.73 -2150.41 -3587.96 -4198.31 -4276.60 -4477.07 -4659.96 -4835.59 -4909.40 -4921.46 -4844.00 -4414.83 -3497.21 -1181.59 -403.11 -140.20 -140.45 -169.38 -273.74 -413.73 -479.94 -731.45 -1098.84 -1354.17 -1402.56 -1743.56 -2001.32 -2121.94 -2256.84 -2363.53 -2554.18 -2622.41 -2702.94 -2702.92
-5242.86 -5245.61 -5241.25 -5238.31 -5247.61 -5248.97 -5264.54 -5252.36 -5251.60 -5248.00 -5265.14 -5295.33 -5302.18 -5288.19 -5274.58 -5035.85 -4740.61 -4077.57 -3574.09 -3272.32 -3170.16 -2277.45 -2183.96 -1957.43 -1864.08 -1500.91 -896.05 -388.88 185.30 249.05 255.50 262.08 268.96 279.57 290.09 298.71 313.45 335.31 373.66 396.37 433.73 487.84 534.91 538.60 505.42 476.67 464.62 453.35 411.74 383.30 360.21 335.05 311.92 291.25 281.18 273.62 262.25 259.81 258.67 256.24 253.70 252.96 252.08 251.56 251.12 251.21 251.63 253.70 258.18 263.71 272.39 287.36 295.52 308.27 321.19 334.76 342.21 358.37 381.25 393.68 415.06 436.76 449.01 475.92 507.98 535.49 562.23 610.28 627.67 646.09 668.58 683.22 702.42 730.64 744.77 755.95 735.63 706.83 713.23 789.37 769.15 812.63 791.43 786.89 580.73 231.85 -100.48 -1183.52 -2146.00 -3400.92 -4098.81 -4294.41 -4520.74 -4666.44 -4801.74 -4848.11 -4863.12 -4799.67 -4412.73 -2866.70 -1119.46 -302.67 -133.29 -125.14 -159.38 -214.27 -299.51 -463.53 -686.82 -1021.49 -1150.64 -1350.16 -1735.07 -1985.14 -2150.63 -2230.84 -2340.49 -2429.96 -2555.24 -2671.15 -2671.22
-5188.98 -5188.94 -5179.05 -5193.58 -5199.52 -5203.04 -5208.38 -5210.98 -5193.53 -5204.21 -5210.82 -5221.07 -5197.19 -5019.81 -4622.25 -4185.20 -3525.08 -3155.73 -2644.85 -2284.45 -1974.45 -1824.72 -1812.06 -1733.58 -1620.05 -1302.92 -299.49 182.04 232.58 257.03 264.62 271.30 279.44 292.21 300.76 308.94 334.69 358.97 398.43 420.77 465.25 521.10 542.10 527.19 484.54 457.38 453.79 423.49 387.42 369.67 347.35 334.18 317.96 302.22 281.69 274.78 269.87 266.63 264.26 261.69 259.24 252.92 252.21 251.54 251.15 251.09 251.37 252.00 256.85 263.34 271.24 284.77 290.50 303.11 320.09 331.02 343.27 362.37 381.82 389.22 429.08 437.14 455.10 486.97 514.45 542.97 574.61 603.35 628.92 660.35 677.08 696.33 710.01 734.51 753.33 765.19 777.15 788.83 756.19 746.95 666.95 774.69 761.20 789.50 552.85 225.56 -274.95 -1147.10 -2411.89 -3447.53 -3835.53 -4166.02 -4365.66 -4515.26 -4706.89 -4750.13 -4757.56 -4615.54 -4338.76 -2470.34 -1401.37 -216.02 -96.76 -99.11 -143.11 -167.77 -235.74 -432.40 -602.77 -856.91 -1094.74 -1254.79 -1757.12 -1974.84 -2131.98 -2263.53 -2343.65 -2467.18 -2558.34 -2658.49 -2666.11
-5130.91 -5130.87 -5122.03 -5122.48 -5134.50 -5149.80 -5166.07 -5165.14 -5161.71 -5179.30 -5165.26 -5032.76 -4739.75 -4595.99 -4095.70 -3421.07 -2935.99 -2368.77 -2053.79 -1940.33 -1764.17 -1686.93 -1679.83 -1660.50 -1542.33 -840.58 -67.87 217.34 252.01 261.35 270.87 279.76 292.44 298.04 312.67 326.23 359.21 411.25 417.35 467.90 516.58 545.49 507.04 485.97 465.67 435.44 413.17 400.40 371.71 359.44 345.93 326.87 324.67 306.69 286.14 284.29 277.59 276.43 274.10 269.49 267.82 255.97 252.59 251.98 251.61 251.21 251.31 251.70 252.39 259.36 267.28 279.75 291.21 304.07 315.73 328.29 343.75 361.78 380.16 395.39 424.50 438.28 464.91 491.88 516.85 547.10 566.17 595.34 629.15 670.16 681.88 699.83 710.70 727.72 760.99 767.65 763.66 720.45 672.01 658.92 594.90 703.60 688.95 645.51 497.45 211.85 168.03 -863.49 -2103.75 -3507.61 -3932.21 -4080.42 -4379.37 -4500.89 -4623.83 -4673.24 -4712.50 -4433.00 -3826.39 -2193.05 -521.80 -149.33 -66.91 -95.63 -123.13 -161.76 -225.23 -384.79 -589.12 -721.87 -908.74 -1221.78 -1558.21 -1934.14 -2118.58 -2266.21 -2428.03 -2488.11 -2614.57 -2672.39 -2672.47
-5084.83 -5084.78 -5068.80 -5070.34 -5065.85 -5077.96 -5119.21 -5125.59 -5140.86 -5136.40 -5086.31 -4841.73 -4222.03 -3515.49 -2747.76 -2587.27 -2295.59 -2152.20 -1973.67 -1848.84 -1718.71 -1641.17 -1637.55 -1618.85 -1328.94 -635.37 -9.41 246.73 258.02 268.98 285.74 291.85 295.63 315.12 330.53 354.45 407.88 425.56 443.18 495.05 535.63 543.08 486.96 465.70 433.05 419.70 401.08 376.40 363.70 351.07 339.51 329.39 323.08 312.27 298.41 292.05 287.49 286.20 286.65 281.36 278.32 258.92 253.58 252.57 251.90 251.42 251.45 251.75 252.59 256.05 268.61 275.31 288.75 303.24 312.55 327.62 336.70 355.34 373.52 393.00 426.26 446.31 474.92 490.13 535.10 555.03 580.73 613.76 641.67 672.12 686.55 700.41 711.62 725.96 753.72 777.37 785.39 759.41 704.54 622.84 548.42 633.88 706.30 651.48 344.02 221.56 140.20 -795.26 -2458.96 -3342.70 -3633.33 -4203.72 -4407.06 -4431.31 -4566.85 -4620.08 -4619.73 -4212.25 -3158.41 -1632.91 -388.03 -57.56 -45.65 -99.15 -128.62 -177.40 -255.50 -351.36 -487.76 -670.69 -832.98 -1032.88 -1510.00 -1828.30 -2101.64 -2368.29 -2570.07 -2637.44 -2746.33 -2783.17 -2783.33
-5060.23 -5058.72 -5043.78 -5036.94 -5039.40 -5051.21 -5070.17 -5089.79 -5069.22 -5063.12 -4889.79 -4520.70 -3429.97 -2812.95 -2284.40 -2009.27 -2017.31 -2057.84 -1990.23 -1833.59 -1731.04 -1670.71 -1647.76 -1600.46 -1136.59 -307.71 220.81 251.84 260.87 274.34 288.88 295.35 310.91 328.59 345.47 368.74 431.48 449.78 470.46 504.00 542.62 515.18 474.35 455.87 413.31 396.58 384.59 372.64 359.14 342.54 339.62 325.68 317.51 315.64 314.48 316.22 316.96 309.94 319.31 311.72 305.98 276.85 259.13 256.77 253.40 251.92 251.72 251.94 252.44 256.12 266.80 273.54 286.66 297.59 309.47 319.89 327.46 348.69 367.75 388.71 415.68 443.87 479.08 507.43 529.14 550.88 582.29 615.20 646.96 667.92 681.66 703.24 717.26 731.84 757.44 777.16 780.16 750.76 729.36 695.29 612.25 482.29 778.80 562.39 352.61 183.05 -31.33 -691.10 -1502.00 -2178.00 -3428.01 -4044.38 -4058.20 -4268.34 -4467.87 -4516.14 -4385.34 -3801.52 -1971.38 -626.10 -121.08 -20.91 -24.69 -85.47 -120.26 -181.36 -244.39 -349.20 -495.47 -589.29 -894.66 -1144.87 -1539.20 -1855.80 -2107.23 -2331.29 -2570.26 -2732.74 -2877.74 -2903.91 -2904.08
-5062.77 -5062.68 -5036.92 -5003.92 -4990.31 -4994.26 -4933.16 -4918.42 -4894.06 -4465.16 -3982.49 -3529.77 -2824.53 -1942.21 -1723.44 -1618.81 -1742.32 -1862.27 -1897.23 -1714.50 -1664.15 -1654.17 -1644.74 -1588.28 -1222.30 -494.03 59.45 246.86 264.36 277.52 294.75 307.04 321.65 336.63 348.87 372.83 430.26 471.55 502.74 542.11 548.22 473.26 438.97 434.57 391.48 372.68 367.36 354.95 346.60 338.17 323.91 315.94 314.90 313.75 319.36 322.54 342.22 336.61 336.79 341.88 342.52 301.32 278.99 265.58 254.35 252.47 252.10 252.18 252.61 255.02 260.51 269.97 282.85 292.35 303.53 315.84 329.10 348.14 362.18 391.18 408.55 441.34 474.02 507.28 526.83 555.50 594.27 611.73 657.06 670.71 685.39 707.35 719.33 745.53 765.00 770.58 733.52 669.03 656.62 584.39 584.96 423.88 561.94 453.84 261.86 167.60 44.86 -416.96 -591.20 -1086.91 -2657.79 -3777.69 -3864.23 -4146.87 -4334.90 -4344.74 -3982.96 -3357.76 -1329.88 -233.32 -47.16 14.93 -45.11 -84.93 -106.03 -155.56 -181.72 -258.44 -372.18 -616.69 -1042.07 -1345.75 -1703.52 -1985.33 -2185.12 -2282.21 -2545.56 -2619.28 -2936.26 -2991.85 -2992.00
-5030.22 -5026.94 -4902.26 -4673.85 -4628.39 -4638.37 -4466.43 -4064.89 -3863.40 -3466.49 -2793.61 -2093.82 -2005.13 -1718.35 -1566.31 -1547.02 -1590.41 -1624.88 -1569.55 -1333.45 -1427.08 -1349.32 -1352.01 -1399.47 -1206.97 -415.46 157.21 246.21 262.23 283.54 305.09 315.31 329.58 352.42 365.84 376.37 419.32 471.98 520.93 541.78 531.59 484.44 407.61 376.65 366.56 357.37 344.44 337.07 334.62 313.81 311.98 310.02 308.73 305.26 313.00 314.81 350.59 366.40 386.42 397.78 385.90 328.32 316.88 274.42 264.48 255.37 255.56 253.98 253.05 253.66 254.02 263.33 276.95 288.03 298.11 309.21 321.95 336.59 362.26 393.03 416.37 441.04 465.85 491.98 527.89 558.94 601.38 614.09 649.88 675.23 689.24 710.52 720.94 747.11 770.63 767.61 716.89 636.21 584.27 572.44 520.88 523.79 512.66 297.33 250.79 176.35 46.18 -237.50 -322.10 -806.28 -2449.03 -3503.01 -3685.55 -3999.88 -4297.50 -4331.55 -3320.96 -2315.20 -606.14 -182.88 24.29 8.45 -37.97 -77.99 -105.95 -138.12 -171.19 -254.41 -384.09 -663.66 -1136.69 -1614.42 -1901.36 -2023.37 -2218.52 -2350.05 -2488.03 -2600.07 -2908.84 -3192.61 -3192.89
-4449.83 -4450.43 -4009.49 -3915.32 -3766.83 -3368.73 -3176.97 -2722.50 -2286.35 -1982.42 -1997.14 -1774.36 -1637.41 -1623.89 -1623.98 -1620.36 -1596.80 -1492.24 -1336.96 -1095.53 -832.23 -684.49 -882.34 -1018.63 -702.19 28.51 212.01 243.67 261.10 288.65 312.49 333.08 349.18 370.43 382.74 415.85 454.30 486.85 491.84 482.12 476.57 455.72 409.30 364.44 344.03 324.53 328.75 317.62 312.23 302.36 299.07 296.86 295.97 296.08 300.02 308.68 328.10 359.53 404.13 431.16 428.52 390.49 354.50 315.26 278.53 265.58 257.41 258.06 255.20 253.73 254.09 264.01 272.24 289.03 296.72 311.79 327.45 337.74 357.20 382.57 413.26 441.30 465.35 486.35 532.96 561.10 590.78 614.84 645.90 676.01 690.75 710.09 723.90 747.68 768.60 767.99 748.86 736.20 677.01 659.76 635.34 711.63 462.86 267.78 227.17 159.01 77.18 -127.69 -401.16 -979.68 -2166.26 -2523.31 -3205.26 -3779.06 -4125.69 -4135.37 -3078.55 -1521.42 -335.77 -61.89 57.81 15.11 -49.53 -92.61 -107.71 -124.72 -161.32 -243.01 -464.11 -901.59 -1080.38 -1471.72 -1828.01 -2110.94 -2273.69 -2353.06 -2580.47 -2732.09 -2988.27 -3197.42 -3197.49
-2841.66 -2843.87 -2778.34 -2420.15 -2480.41 -1864.21 -1835.65 -1639.90 -1630.09 -1534.05 -1509.66 -1556.91 -1615.64 -1671.44 -1682.78 -1709.53 -1670.74 -1535.72 -1232.56 -982.86 -506.32 -427.03 -413.10 -589.61 -144.12 146.73 221.59 244.93 260.57 282.32 303.02 354.72 384.29 385.72 420.78 463.97 486.50 477.60 456.37 431.91 427.18 417.11 375.45 346.82 321.66 315.71 305.46 300.57 299.02 288.67 289.33 284.54 283.75 284.72 288.47 300.34 305.48 334.13 359.19 417.76 440.05 400.60 361.90 304.21 291.33 280.89 265.21 261.71 257.90 255.47 254.32 259.97 273.58 282.47 296.89 308.48 321.58 340.99 353.45 382.41 408.07 443.83 475.24 493.16 527.47 557.85 582.58 620.82 631.33 674.98 694.16 715.00 738.90 755.47 765.75 778.84 755.25 744.69 736.47 722.17 837.91 664.49 303.09 229.78 189.22 113.28 38.81 -141.85 -526.34 -986.81 -1388.64 -1896.27 -2635.97 -3104.58 -3862.91 -3177.64 -2485.33 -1157.31 -251.53 50.42 55.61 29.04 -45.14 -91.98 -100.32 -116.24 -174.04 -293.51 -493.41 -923.43 -1224.51 -1344.54 -1816.52 -2108.54 -2262.19 -2413.90 -2641.26 -2935.01 -3014.33 -3190.72 -3190.80
-1558.81 -1561.05 -1574.29 -1664.51 -1496.80 -1442.49 -1371.07 -1345.01 -1396.27 -1434.57 -1497.23 -1556.96 -1651.45 -1700.52 -1734.30 -1759.55 -1750.53 -1653.31 -1471.10 -1064.31 -553.43 -245.34 -105.08 -143.30 65.41 196.27 232.69 244.78 253.49 277.94 292.25 338.74 394.35 424.33 459.43 469.10 459.48 459.69 434.13 392.15 389.75 383.14 347.44 315.30 307.52 301.55 288.62 286.13 284.19 271.69 276.57 273.90 270.01 274.53 280.92 284.63 298.91 312.20 349.43 364.98 406.03 413.24 384.87 313.29 296.64 289.55 278.43 269.51 263.26 259.61 254.65 259.19 273.12 283.64 294.54 309.95 317.17 335.62 348.71 386.19 411.29 437.36 464.44 485.08 534.64 547.30 576.07 611.96 636.43 660.36 700.96 716.73 741.05 743.34 752.76 771.33 733.59 685.82 668.53 704.99 813.35 480.47 289.68 238.09 170.60 111.78 -10.09 -100.82 -310.12 -537.73 -822.34 -1436.48 -2029.49 -1964.83 -2045.55 -2172.26 -1551.82 -394.35 20.71 66.06 57.44 7.32 -39.25 -96.55 -100.50 -118.79 -183.78 -318.28 -520.86 -741.49 -1065.68 -1560.73 -1972.71 -2178.19 -2263.35 -2399.53 -2709.86 -2912.80 -3091.08 -3187.16 -3187.24
-1276.39 -1276.96 -1282.78 -1270.52 -1237.68 -1237.25 -1270.73 -1316.71 -1387.33 -1444.16 -1526.99 -1586.06 -1665.05 -1707.50 -1757.38 -1786.60 -1774.13 -1706.89 -1562.69 -1011.57 -863.44 -400.96 -91.79 -2.68 85.10 173.45 220.98 243.87 250.72 266.41 284.48 303.09 343.21 364.17 439.62 436.29 416.62 421.10 389.41 361.04 363.34 358.39 338.11 298.20 278.44 273.58 270.63 266.78 257.61 257.92 260.02 255.17 256.24 261.10 263.29 278.21 288.40 302.02 327.81 355.16 402.35 411.14 368.08 348.25 319.25 301.85 283.33 272.15 266.86 263.71 257.36 254.80 269.83 281.68 292.05 311.72 323.56 341.47 353.66 387.94 409.75 421.61 461.22 483.51 511.62 539.28 578.09 603.56 627.64 672.13 685.20 726.45 744.74 736.71 703.38 762.25 759.50 635.04 580.06 770.57 661.59 297.63 264.55 222.81 143.24 91.28 6.06 -86.36 -265.73 -330.29 -852.23 -1195.12 -1422.90 -1572.90 -1670.95 -1335.82 -522.03 -97.31 81.94 88.44 48.87 7.31 -40.52 -97.64 -108.56 -123.43 -208.90 -306.79 -618.29 -867.39 -1407.38 -1775.62 -1925.65 -2129.74 -2263.44 -2316.87 -2646.50 -2886.46 -3001.61 -3069.84 -3069.59
-1311.78 -1311.46 -1292.54 -1266.55 -1268.11 -1289.09 -1307.68 -1352.57 -1414.19 -1492.56 -1552.62 -1602.07 -1672.87 -1728.42 -1760.38 -1788.29 -1782.57 -1743.55 -1521.43 -1163.10 -686.79 -371.67 -83.38 37.17 98.88 144.77 203.48 227.07 242.90 250.97 268.20 292.71 306.99 340.13 370.88 368.67 371.99 384.53 367.24 344.77 326.66 304.69 270.82 257.40 263.33 256.17 253.09 247.17 245.93 245.21 245.22 242.31 246.73 254.48 256.21 263.79 276.85 294.36 307.16 336.58 373.38 402.18 368.69 342.31 325.88 312.34 292.93 276.46 273.25 265.71 260.39 255.99 270.91 280.52 291.37 314.06 323.28 343.05 357.45 380.21 398.85 424.75 457.98 495.09 519.45 546.37 577.22 590.38 631.46 663.78 685.28 714.01 728.93 711.37 676.97 726.77 723.23 652.14 595.29 617.93 336.39 309.82 260.64 208.94 120.46 65.35 -19.65 -145.31 -222.23 -343.76 -762.49 -1022.47 -1366.23 -1387.53 -1261.30 -887.16 -398.08 -11.83 95.68 98.52 48.96 7.36 -47.91 -93.38 -126.80 -138.56 -241.31 -323.39 -529.72 -1044.57 -1441.48 -1755.23 -1991.33 -2096.45 -2220.73 -2328.80 -2492.16 -2731.78 -2893.20 -3062.79 -3062.87
-1369.13 -1369.08 -1340.41 -1325.83 -1313.95 -1324.28 -1351.92 -1422.85 -1448.79 -1524.78 -1576.64 -1629.50 -1687.82 -1728.03 -1769.93 -1783.75 -1774.83 -1657.57 -1457.72 -1142.81 -740.99 -411.18 -163.49 7.89 41.62 114.17 148.21 199.05 232.32 239.38 259.26 271.13 278.07 305.47 354.78 355.73 319.15 316.60 329.45 300.16 293.66 271.74 253.44 249.83 251.55 243.94 243.47 231.84 226.92 234.38 236.39 235.10 237.23 245.75 246.48 255.77 269.07 292.20 304.98 335.28 368.79 375.89 363.67 367.35 362.42 335.24 318.39 298.05 279.70 266.61 262.05 255.58 269.15 282.55 290.63 310.91 323.54 336.80 360.74 380.08 409.45 435.87 460.17 489.71 527.63 542.47 574.07 589.93 635.78 672.21 684.18 691.64 689.01 693.12 648.38 673.13 683.27 703.00 829.32 474.09 294.14 264.05 238.44 212.62 131.34 51.74 -76.45 -140.70 -254.78 -371.09 -736.21 -1129.63 -1292.62 -1353.26 -1204.89 -748.61 -259.40 98.38 133.14 100.29 46.81 -0.84 -57.47 -95.20 -137.78 -160.29 -218.63 -401.09 -650.14 -960.14 -1270.20 -1621.27 -1825.93 -1936.72 -2124.73 -2286.80 -2432.70 -2669.35 -2823.60 -3042.02 -3041.82
-1429.83 -1430.14 -1408.89 -1382.84 -1390.41 -1381.16 -1403.67 -1443.58 -1475.08 -1542.47 -1614.15 -1656.55 -1708.42 -1748.92 -1773.43 -1775.68 -1732.53 -1594.98 -1383.28 -1039.57 -493.94 -304.96 -133.01 -80.92 -38.19 41.40 99.22 161.38 176.50 213.16 247.70 249.85 254.52 276.18 319.34 303.66 288.87 283.54 280.81 277.58 264.09 252.30 243.95 237.28 231.58 233.26 228.60 223.05 223.55 226.34 227.19 227.72 232.58 239.12 241.18 246.46 262.27 274.69 294.19 312.97 372.62 399.79 414.83 402.33 403.92 396.42 369.36 329.28 281.87 266.92 262.41 257.00 272.06 288.51 300.97 314.67 323.91 337.64 361.16 375.60 408.91 432.84 450.55 473.59 508.04 542.37 574.31 591.32 631.53 668.20 687.91 679.64 643.51 616.09 611.92 615.92 612.97 735.53 755.34 357.08 282.84 232.51 231.04 208.78 138.25 33.75 -49.03 -137.98 -209.38 -387.89 -720.24 -1175.65 -1315.43 -1322.70 -1268.67 -966.52 -98.12 27.02 120.18 74.81 37.75 -18.19 -75.35 -108.71 -140.73 -192.06 -293.33 -533.05 -817.12 -1014.10 -1132.85 -1412.11 -1672.50 -1956.00 -2060.22 -2205.66 -2393.29 -2605.46 -2798.12 -3042.51 -3042.58
-1491.45 -1491.52 -1472.00 -1446.52 -1447.83 -1465.98 -1497.12 -1524.49 -1580.08 -1615.08 -1644.69 -1691.58 -1736.31 -1763.99 -1775.74 -1756.25 -1690.19 -1527.72 -1140.48 -729.79 -417.48 -219.56 -177.24 -145.43 -91.14 -7.70 61.08 104.44 127.25 196.82 222.62 235.32 239.64 249.45 271.37 267.97 271.66 269.64 263.90 253.41 250.47 244.55 230.80 222.14 223.90 220.08 203.46 206.57 204.14 199.65 200.90 205.40 224.00 225.16 235.80 244.37 255.62 267.84 280.96 303.17 356.87 376.65 375.67 385.26 390.35 379.69 362.01 313.57 284.56 266.24 258.56 260.29 281.91 290.31 302.42 315.66 326.82 343.04 359.55 392.23 412.92 435.06 449.12 470.87 497.01 527.44 568.41 591.32 603.47 663.16 686.60 685.34 636.90 602.03 561.67 537.96 624.68 853.46 488.56 314.92 236.33 228.86 220.43 188.36 75.19 -16.82 -82.83 -137.38 -189.99 -386.74 -628.27 -1250.65 -1298.43 -1349.88 -1308.91 -977.65 -443.94 -120.00 29.01 39.28 14.91 -15.64 -85.82 -116.74 -141.95 -202.76 -377.65 -598.74 -875.65 -978.91 -1203.52 -1368.99 -1624.83 -1903.38 -2033.29 -2145.92 -2320.54 -2634.19 -2836.14 -3049.40 -3049.34
-1551.31 -1551.33 -1528.09 -1522.39 -1508.07 -1516.34 -1540.69 -1574.38 -1614.98 -1641.35 -1683.08 -1733.50 -1762.14 -1778.27 -1784.93 -1751.90 -1669.20 -1458.80 -957.52 -677.53 -409.53 -217.88 -163.41 -169.46 -115.23 -42.74 -9.98 26.68 105.28 169.66 188.53 218.52 231.71 238.73 247.46 255.62 248.94 248.40 240.98 230.96 221.74 223.16 211.18 207.25 215.57 176.93 149.34 157.45 155.30 154.78 165.23 191.66 214.51 218.35 232.85 241.22 248.58 256.48 271.58 292.33 332.02 339.25 345.67 336.14 337.91 315.42 301.50 286.12 268.28 259.89 257.69 266.88 281.02 291.99 304.03 318.15 332.54 352.19 366.39 382.95 410.49 423.59 448.85 462.25 494.61 511.16 541.11 581.75 604.68 651.77 677.15 668.89 597.38 590.66 557.96 502.97 622.69 563.84 344.30 309.48 256.81 228.90 191.96 120.04 59.82 -27.24 -99.04 -137.64 -208.89 -456.53 -797.81 -1210.95 -1341.54 -1352.03 -1332.48 -1148.67 -783.32 -363.50 -256.51 27.74 10.77 -13.94 -60.23 -115.34 -138.82 -222.47 -471.63 -736.17 -912.63 -1063.58 -1285.22 -1489.24 -1610.84 -1819.82 -1992.69 -2206.38 -2504.35 -2827.75 -3010.34 -3109.52 -3109.29
-1609.86 -1609.85 -1589.22 -1592.19 -1582.09 -1568.91 -1584.16 -1581.67 -1624.77 -1641.68 -1699.42 -1737.85 -1777.08 -1804.38 -1804.83 -1764.11 -1653.37 -1508.24 -1053.11 -730.47 -466.24 -267.60 -196.79 -181.87 -144.48 -67.84 -61.50 5.39 31.76 93.69 98.76 136.75 202.11 190.02 202.24 221.30 231.84 231.06 229.18 218.48 173.88 162.45 142.80 161.08 131.08 103.79 114.22 114.00 127.33 134.39 150.17 160.44 184.70 212.77 229.55 236.00 244.24 249.94 257.55 284.52 296.33 282.32 294.48 291.78 299.03 281.41 287.65 265.96 259.78 255.37 260.79 276.24 295.02 300.54 309.01 324.40 340.74 359.51 371.43 392.31 412.85 431.11 448.77 459.25 480.55 514.59 549.46 576.44 590.37 654.67 672.60 685.42 622.72 547.48 509.50 528.78 518.90 384.91 351.01 308.21 265.16 230.98 165.52 92.60 28.18 -45.58 -99.99 -158.67 -216.93 -566.18 -927.11 -1172.84 -1344.89 -1358.65 -1372.95 -1346.56 -1182.56 -665.41 -411.13 -164.38 -7.46 -36.67 -81.86 -137.05 -179.96 -313.97 -601.97 -814.62 -952.49 -1144.58 -1375.99 -1514.93 -1704.25 -1880.63 -2030.14 -2293.54 -2572.51 -2858.20 -3142.37 -3272.70 -3272.79
-1668.04 -1668.01 -1656.99 -1638.51 -1612.87 -1618.19 -1638.77 -1644.63 -1677.50 -1699.50 -1745.39 -1717.79 -1704.71 -1793.95 -1814.58 -1786.33 -1715.87 -1623.27 -1324.18 -1064.38 -633.78 -421.71 -290.28 -216.20 -190.82 -125.92 -79.21 -43.07 -0.99 50.75 54.05 99.14 141.39 129.99 170.89 180.58 213.40 202.69 200.62 143.54 104.90 121.59 126.82 105.26 96.58 71.92 71.17 49.93 85.09 107.02 133.53 145.20 178.89 210.60 227.84 231.81 239.10 252.33 267.80 270.62 269.88 263.68 273.60 273.66 261.43 260.01 263.09 261.49 255.48 258.96 273.36 289.76 297.69 313.45 322.92 336.97 349.79 367.41 378.55 391.99 418.19 430.72 449.45 462.73 484.62 512.80 547.99 562.66 581.94 639.20 667.36 692.21 662.69 608.61 661.71 648.93 394.46 377.81 346.96 299.26 274.61 216.96 130.86 35.54 -18.41 -65.83 -125.79 -180.70 -220.33 -547.23 -931.33 -1268.85 -1338.57 -1357.22 -1374.20 -1412.91 -1370.09 -1178.67 -692.21 -408.43 -81.49 -68.80 -113.46 -136.84 -266.12 -526.97 -584.46 -909.87 -980.90 -1159.04 -1389.29 -1605.43 -1795.17 -1901.21 -2043.31 -2270.40 -2562.85 -2830.43 -3135.05 -3257.68 -3257.96
-1727.13 -1728.55 -1723.35 -1660.20 -1631.08 -1694.24 -1696.44 -1723.90 -1784.64 -1772.11 -1798.51 -1793.54 -1804.38 -1848.62 -1819.71 -1813.58 -1750.86 -1656.29 -1456.46 -1250.30 -1023.02 -686.19 -461.94 -273.96 -209.53 -194.47 -114.37 -93.91 -68.01 -37.45 19.96 31.00 47.92 65.30 88.71 123.25 168.16 156.96 110.56 65.93 58.06 74.84 82.99 71.48 75.06 40.43 12.24 -9.56 41.29 85.60 132.88 152.34 169.41 207.27 221.65 234.05 252.63 260.36 273.84 252.11 252.26 250.30 249.33 250.06 248.19 251.89 255.60 255.15 256.03 259.51 275.14 289.72 304.06 324.20 335.96 350.07 366.55 371.55 388.25 403.75 418.42 432.49 453.65 476.98 489.09 502.35 543.71 558.76 565.18 619.57 647.70 651.27 620.85 621.78 546.79 395.39 360.91 339.28 304.60 267.37 253.73 198.91 129.46 21.82 -47.38 -88.29 -148.24 -202.30 -274.03 -560.34 -1009.82 -1240.86 -1333.55 -1355.20 -1390.18 -1438.20 -1410.91 -1334.49 -917.59 -461.10 -154.64 -105.04 -134.86 -161.18 -216.69 -439.55 -606.03 -907.59 -1164.81 -1348.61 -1468.67 -1600.05 -1764.40 -1876.98 -2003.94 -2225.69 -2520.77 -2711.92 -2999.64 -3096.70 -3096.79
-1791.26 -1791.23 -1746.62 -1763.06 -1751.17 -1754.43 -1801.44 -1799.13 -1817.43 -1861.74 -1889.56 -1885.07 -1871.18 -1867.36 -1854.14 -1848.09 -1824.95 -1791.68 -1673.95 -1582.36 -1275.50 -893.99 -644.88 -411.65 -278.15 -231.02 -217.34 -211.51 -129.11 -87.53 -35.11 -1.76 12.69 53.72 53.72 57.38 102.73 93.88 66.55 21.23 12.15 28.43 30.41 15.29 13.26 -9.55 1.81 13.28 44.83 97.35 139.67 165.50 184.65 222.66 235.17 241.08 268.82 288.40 278.69 253.04 239.55 234.43 234.77 231.35 231.49 240.24 251.61 250.45 254.72 260.34 275.29 290.26 311.46 328.34 343.46 360.59 371.86 382.09 391.12 409.50 423.70 439.39 454.71 479.28 492.24 503.51 529.67 553.30 571.56 614.91 635.48 630.02 599.09 538.54 469.31 338.85 340.67 313.04 265.53 236.93 220.01 146.75 60.04 -40.03 -103.07 -127.58 -171.84 -223.80 -396.97 -650.23 -1096.44 -1267.38 -1327.56 -1360.51 -1390.53 -1445.86 -1439.53 -1389.00 -980.60 -623.56 -199.59 -139.90 -141.36 -178.03 -235.82 -452.15 -802.55 -1022.71 -1294.59 -1437.03 -1542.55 -1635.78 -1821.06 -1900.33 -2016.76 -2223.13 -2490.79 -2733.73 -2892.84 -3096.16 -3096.24
-1855.24 -1857.32 -1830.29 -1795.08 -1812.22 -1834.08 -1858.42 -1859.38 -1884.51 -1905.59 -1935.11 -1936.58 -1934.68 -1939.80 -1900.81 -1829.13 -1850.21 -1839.38 -1797.83 -1633.27 -1540.34 -1208.35 -681.83 -508.71 -320.68 -273.26 -267.14 -268.47 -256.12 -174.66 -84.20 -73.53 -12.02 20.50 26.75 13.17 35.57 23.53 -9.06 -25.69 -38.50 -33.32 -5.25 -15.13 -24.94 -15.54 0.44 42.94 102.92 134.21 153.47 184.82 219.69 232.68 242.84 250.26 275.88 292.03 269.61 244.87 228.37 226.09 225.73 226.51 228.63 234.08 243.27 240.27 251.39 261.23 275.08 290.51 319.09 329.40 346.82 364.51 374.71 389.71 398.27 412.54 423.98 441.21 449.10 471.11 482.70 497.36 518.08 549.64 567.79 601.97 596.15 594.05 601.19 439.09 346.57 308.41 275.83 263.84 238.29 229.21 191.70 95.37 22.03 -56.54 -107.22 -145.58 -191.97 -230.33 -341.76 -720.65 -1193.54 -1296.21 -1344.25 -1360.14 -1394.36 -1449.15 -1439.04 -1410.38 -1019.29 -616.52 -247.00 -160.97 -158.09 -199.35 -327.06 -508.74 -673.29 -1008.36 -1289.21 -1483.24 -1616.61 -1717.62 -1824.34 -1972.09 -2122.67 -2297.65 -2412.01 -2821.21 -2979.58 -3123.02 -3122.95
-1905.22 -1905.17 -1881.28 -1865.82 -1913.22 -1919.02 -1911.49 -1927.54 -1937.82 -1949.31 -1967.14 -1972.94 -1974.30 -1963.01 -1942.06 -1837.29 -1863.73 -1887.66 -1865.92 -1782.97 -1672.59 -1310.77 -930.00 -635.54 -383.04 -301.31 -293.09 -295.11 -279.64 -246.33 -210.05 -177.79 -130.44 -89.28 -28.63 -44.11 -77.08 -69.79 -60.21 -62.43 -97.79 -83.29 -50.41 -39.62 -38.97 -11.84 40.93 74.97 129.07 159.20 194.25 227.85 230.83 242.01 264.24 279.46 290.92 271.79 250.85 229.56 226.40 222.91 222.84 223.13 223.56 226.89 231.64 241.16 247.16 264.16 274.04 302.11 318.62 337.26 351.96 367.77 380.03 403.34 407.50 419.54 426.91 436.89 449.62 461.22 478.58 488.11 514.61 533.69 570.61 579.14 571.11 548.17 560.12 381.36 306.90 293.70 239.52 232.78 222.29 162.42 75.05 29.38 -25.77 -110.60 -153.49 -170.84 -198.29 -212.81 -493.67 -805.73 -1154.17 -1342.25 -1344.09 -1364.81 -1401.65 -1449.45 -1443.36 -1385.40 -892.75 -518.21 -194.57 -152.67 -161.82 -261.90 -352.60 -579.75 -983.55 -1104.32 -1411.00 -1600.31 -1686.98 -1795.74 -1893.07 -1991.09 -2082.15 -2270.49 -2579.17 -2913.02 -3098.86 -3311.66 -3311.75
-1937.26 -1937.15 -1920.85 -1932.84 -1938.09 -1935.01 -1940.90 -1956.61 -1967.40 -1988.34 -1996.75 -1998.19 -2003.35 -2002.31 -1958.71 -1877.17 -1864.39 -1895.25 -1870.11 -1838.66 -1633.38 -1372.07 -963.51 -630.07 -374.71 -334.40 -311.84 -337.67 -331.33 -307.06 -311.69 -284.10 -302.38 -241.64 -142.60 -128.14 -174.31 -188.70 -159.75 -164.10 -149.75 -107.87 -75.71 -49.98 -43.51 12.42 44.04 79.25 162.19 179.98 217.90 232.93 237.61 255.25 275.47 285.05 287.22 270.20 236.12 229.58 212.17 209.07 207.64 214.90 221.53 222.59 224.83 231.05 244.30 257.76 273.22 290.95 317.63 337.20 356.82 368.40 389.16 404.80 410.23 420.22 430.69 437.76 448.93 457.99 476.11 479.10 504.93 534.57 555.33 553.25 563.35 474.52 359.01 280.14 264.64 234.58 192.22 166.52 147.47 58.66 -32.66 -68.06 -91.61 -131.54 -169.36 -177.54 -194.57 -272.21 -534.03 -790.88 -1116.91 -1300.84 -1347.99 -1363.59 -1406.49 -1445.41 -1414.68 -1326.86 -774.81 -469.69 -122.17 -139.94 -197.66 -405.64 -611.82 -764.52 -1150.05 -1465.05 -1570.93 -1712.25 -1766.61 -1898.16 -1989.68 -2000.69 -2115.87 -2359.27 -2642.54 -2912.75 -3194.69 -3293.45 -3301.68
-1905.43 -1905.37 -1919.99 -1954.37 -1986.29 -1979.42 -1975.60 -1979.26 -1994.28 -2005.86 -2019.26 -2034.61 -2039.42 -2029.74 -1978.48 -1936.54 -1899.21 -1905.81 -1882.84 -1820.30 -1571.72 -1398.84 -970.82 -633.47 -458.79 -480.76 -589.35 -516.63 -480.48 -489.47 -438.53 -424.77 -492.47 -378.85 -384.78 -263.59 -234.51 -257.37 -242.68 -217.84 -171.91 -131.74 -95.23 -66.94 -59.92 -23.74 59.90 117.95 193.54 224.92 231.90 235.45 251.79 276.22 307.31 309.08 282.17 256.66 232.22 220.31 177.43 169.14 201.21 201.48 208.20 212.52 219.06 221.49 235.18 246.18 268.31 289.79 310.39 328.43 356.33 366.77 396.16 405.31 411.29 421.54 428.97 441.54 448.10 452.55 472.26 484.66 515.90 528.66 548.68 542.68 520.00 444.58 319.28 270.53 228.14 209.59 155.14 122.51 72.75 7.83 -71.96 -100.58 -102.93 -142.31 -158.87 -180.16 -206.10 -321.44 -621.77 -970.80 -1151.03 -1310.14 -1347.27 -1369.89 -1400.83 -1444.68 -1427.09 -1225.13 -743.49 -344.64 -143.78 -139.25 -332.07 -508.08 -945.87 -1267.03 -1477.06 -1662.88 -1727.04 -1830.74 -1862.49 -1929.36 -2004.45 -2047.31 -2093.66 -2204.77 -2481.22 -2917.76 -3255.16 -3366.91 -3366.99
-1939.24 -1946.15 -1973.66 -1980.01 -1999.87 -2009.75 -1999.94 -1999.27 -2016.67 -2039.22 -2044.74 -2051.44 -2059.36 -2038.31 -1997.40 -1950.79 -1933.14 -1932.95 -1893.72 -1799.31 -1608.69 -1310.40 -1005.37 -796.99 -758.69 -762.84 -768.58 -832.32 -904.75 -814.98 -836.91 -850.49 -834.79 -754.78 -572.30 -361.90 -285.60 -256.61 -250.10 -236.96 -198.48 -177.44 -132.00 -107.73 -53.75 -9.83 78.04 143.32 216.13 228.85 240.37 247.66 263.84 305.69 335.42 313.14 291.94 249.72 230.78 213.10 172.77 155.47 169.70 180.87 187.52 190.41 200.98 219.60 232.86 241.40 257.07 286.60 302.91 319.67 351.77 368.23 389.53 400.24 404.62 413.29 424.12 438.21 447.22 454.87 469.95 489.12 525.02 530.62 535.66 528.16 493.50 436.41 305.63 274.55 232.17 171.51 127.20 73.50 35.15 -15.00 -81.15 -111.87 -142.57 -138.14 -160.83 -183.49 -208.97 -386.14 -648.24 -1101.15 -1280.00 -1323.18 -1352.36 -1371.43 -1422.06 -1444.99 -1378.35 -1297.03 -591.19 -185.18 -133.88 -182.23 -265.00 -513.98 -1017.54 -1519.18 -1699.45 -1847.95 -1838.56 -1878.57 -1925.84 -1948.63 -1974.27 -2035.56 -2155.65 -2288.75 -2587.52 -2896.48 -3227.60 -3366.31 -3366.40
-1942.30 -1942.20 -1953.92 -1968.16 -1990.69 -1997.84 -2003.04 -2006.14 -2031.63 -2061.06 -2081.24 -2068.59 -2072.52 -2058.24 -2009.52 -1939.15 -1929.61 -1944.80 -1936.33 -1849.13 -1716.51 -1408.96 -1202.02 -1088.23 -1051.12 -1125.78 -1181.21 -1251.53 -1244.37 -1352.93 -1311.32 -1196.76 -1270.41 -962.24 -637.59 -483.82 -389.40 -296.54 -280.54 -285.64 -313.17 -289.14 -243.29 -167.05 -92.60 20.95 108.82 171.19 227.20 235.86 255.47 273.45 307.11 338.35 347.96 303.29 258.35 231.33 220.30 189.82 154.76 152.41 159.88 160.32 166.72 173.71 200.77 218.95 225.76 236.82 257.85 278.41 289.12 309.43 334.83 353.33 375.63 388.52 404.02 411.78 422.28 427.20 445.10 451.82 468.35 492.60 518.66 512.62 482.76 499.66 576.43 412.31 303.56 268.43 239.16 157.30 105.27 66.13 14.26 -23.08 -102.44 -122.57 -158.36 -158.54 -177.85 -201.67 -283.65 -450.76 -780.28 -1115.12 -1287.90 -1300.93 -1350.76 -1382.95 -1432.20 -1441.34 -1386.02 -1056.55 -471.62 -211.15 -144.92 -201.86 -408.38 -567.47 -949.37 -1427.47 -1550.78 -1779.44 -1890.17 -1929.14 -1935.83 -1948.84 -2024.46 -2097.36 -2296.75 -2413.72 -2737.78 -2967.03 -3195.65 -3355.87 -3355.94
-1914.12 -1914.09 -1939.52 -1958.76 -1980.13 -1988.41 -1993.53 -2009.58 -2045.13 -2083.95 -2106.04 -2082.59 -2080.85 -2063.80 -2011.12 -1979.65 -1976.37 -1993.45 -1975.79 -1897.78 -1803.96 -1671.95 -1567.59 -1531.29 -1505.80 -1715.18 -1755.10 -1753.11 -1802.50 -1751.43 -1769.83 -1766.16 -1685.97 -1146.14 -795.94 -658.12 -497.97 -399.90 -430.65 -453.18 -415.15 -358.98 -286.81 -191.14 -132.62 -30.04 118.50 193.32 238.17 249.38 270.58 304.14 331.21 331.55 300.58 271.91 230.50 228.96 213.77 180.31 152.61 146.08 149.94 154.11 155.63 154.72 185.09 217.94 224.98 235.48 254.82 268.19 286.15 316.12 328.49 347.11 367.98 385.93 402.97 414.59 421.34 430.64 444.11 450.23 472.17 482.04 522.27 524.94 455.23 425.47 527.01 387.87 285.76 246.04 177.01 129.55 92.40 45.88 -1.02 -62.45 -107.59 -136.65 -165.76 -187.22 -211.13 -286.80 -350.58 -582.15 -857.59 -1050.31 -1161.65 -1260.67 -1338.47 -1382.02 -1442.11 -1445.66 -1359.50 -896.76 -451.80 -217.02 -151.86 -179.55 -433.85 -826.76 -1040.80 -1334.43 -1606.84 -1772.50 -1897.79 -1948.42 -1955.95 -1964.06 -2025.71 -2114.40 -2289.02 -2535.30 -2720.93 -2961.09 -3149.49 -3357.05 -3357.12
-1967.76 -1967.69 -1929.70 -1919.11 -1960.63 -1983.26 -1997.87 -2030.76 -2064.67 -2103.53 -2111.95 -2106.75 -2101.60 -2089.70 -2055.50 -2030.23 -2020.90 -2018.45 -2004.58 -1993.26 -1956.81 -1885.48 -1858.22 -1839.38 -1884.37 -1927.50 -1980.28 -1975.30 -2051.06 -2038.04 -2060.86 -2022.58 -1925.43 -1783.40 -1368.79 -919.58 -620.36 -492.50 -538.64 -550.30 -536.05 -435.80 -297.46 -250.24 -141.90 -31.27 92.84 204.55 236.51 245.46 285.11 315.23 324.76 285.70 263.81 248.66 230.91 221.17 198.43 161.40 147.71 142.33 143.25 146.47 147.15 137.48 139.63 195.60 220.58 232.49 246.74 260.86 282.66 301.46 312.37 345.57 356.70 380.69 396.58 410.85 418.31 427.11 443.53 450.76 479.04 493.90 508.55 518.66 547.36 544.98 376.05 285.35 273.48 185.10 121.74 94.86 60.14 23.79 -25.57 -84.64 -129.02 -195.30 -209.40 -306.48 -365.20 -395.38 -649.50 -756.17 -865.81 -954.31 -1097.26 -1192.09 -1307.53 -1379.07 -1437.27 -1449.79 -1225.05 -999.12 -490.18 -204.84 -178.35 -342.76 -529.47 -921.24 -1120.09 -1408.73 -1627.31 -1794.17 -1909.62 -1950.75 -1950.78 -1963.26 -2013.28 -2084.26 -2254.87 -2466.73 -2712.19 -2975.94 -3149.66 -3357.57 -3357.63
-1977.50 -1977.44 -1959.46 -1920.22 -1924.01 -1983.33 -2017.25 -2054.56 -2080.36 -2116.52 -2130.25 -2102.23 -2092.14 -2081.62 -2090.05 -2076.01 -2052.68 -2049.61 -2050.08 -2033.44 -2059.30 -2080.76 -2059.11 -2071.79 -2091.52 -2121.70 -2126.96 -2158.93 -2147.52 -2143.89 -2145.32 -2127.20 -2098.75 -1925.87 -1486.93 -1165.10 -800.83 -665.09 -559.71 -535.15 -539.90 -425.01 -319.26 -267.28 -153.12 -27.49 97.48 215.38 237.02 246.19 269.28 293.49 299.17 265.28 252.98 244.09 229.29 215.43 179.28 148.87 145.79 145.07 142.72 140.76 140.30 134.07 130.93 157.87 217.52 225.39 242.14 251.72 280.41 293.97 306.03 333.57 348.05 355.11 379.99 401.78 411.92 426.85 439.87 454.58 470.16 484.08 486.60 505.50 593.90 533.40 323.19 277.47 263.66 186.23 113.52 78.94 43.51 5.84 -20.16 -69.93 -211.71 -262.03 -302.86 -402.22 -548.61 -659.68 -766.99 -856.12 -876.09 -904.94 -946.50 -1080.19 -1243.61 -1334.96 -1443.10 -1458.29 -1318.63 -715.10 -408.46 -169.97 -263.53 -431.95 -632.17 -1151.17 -1357.31 -1559.06 -1812.98 -1879.93 -1906.15 -1917.04 -1926.33 -1950.09 -2008.78 -2105.58 -2224.75 -2423.27 -2698.46 -3062.03 -3287.02 -3420.79 -3420.68
-2001.77 -2001.71 -2001.34 -1980.82 -1965.24 -1980.26 -2010.44 -2054.72 -2097.45 -2115.97 -2128.23 -2083.48 -2096.31 -2078.03 -2114.89 -2096.22 -2080.90 -2071.00 -2069.86 -2081.22 -2088.33 -2111.31 -2129.24 -2167.17 -2166.40 -2199.91 -2212.79 -2214.02 -2201.35 -2192.13 -2190.98 -2186.34 -2141.93 -2024.69 -1661.88 -1407.66 -1052.51 -743.16 -577.26 -538.78 -363.56 -300.70 -292.23 -266.65 -181.06 1.95 120.33 219.82 235.42 241.30 258.47 273.32 272.24 262.27 240.60 235.88 228.85 207.51 173.39 152.97 149.76 148.29 145.20 141.72 139.51 135.46 133.04 132.44 187.22 220.09 233.56 250.33 262.34 283.79 300.65 304.21 330.58 349.86 374.25 383.40 399.55 422.96 435.14 445.51 463.95 463.01 445.09 459.34 540.59 498.87 320.30 265.46 237.02 163.90 108.35 51.87 14.96 -44.23 -102.62 -189.06 -442.48 -441.59 -544.87 -673.21 -751.64 -835.54 -859.03 -866.55 -876.10 -887.48 -928.40 -977.68 -1133.42 -1310.79 -1392.91 -1384.52 -1115.06 -648.24 -229.31 -173.85 -303.54 -473.21 -726.78 -1135.36 -1461.67 -1644.19 -1845.43 -1881.40 -1897.02 -1905.40 -1914.56 -1944.88 -1988.99 -2092.35 -2225.94 -2558.60 -2829.13 -3237.19 -3451.88 -3649.45 -3649.52
-2030.40 -2030.36 -2034.05 -2036.65 -2043.36 -2001.60 -2023.29 -2078.94 -2087.21 -2094.03 -2142.61 -2129.08 -2135.57 -2158.08 -2141.04 -2114.35 -2098.86 -2092.02 -2096.04 -2096.51 -2114.76 -2146.93 -2188.08 -2210.59 -2210.95 -2231.16 -2236.52 -2232.84 -2225.05 -2209.22 -2209.00 -2209.45 -2175.46 -2119.74 -1904.32 -1630.55 -1095.10 -853.07 -600.47 -484.90 -369.75 -297.57 -299.75 -244.85 -145.37 -84.46 69.22 203.98 234.08 239.95 253.63 258.47 245.80 254.56 238.75 223.86 204.57 185.30 170.05 155.10 153.67 152.27 149.28 145.87 151.68 146.26 144.24 140.58 169.01 195.93 222.22 237.82 249.36 267.19 277.00 292.00 317.90 343.56 354.53 374.36 389.74 408.56 418.95 439.03 445.68 438.14 424.98 572.04 515.72 353.38 269.34 233.34 171.43 110.39 53.54 35.11 -42.65 -137.77 -233.81 -355.35 -575.04 -749.51 -793.77 -845.11 -845.76 -865.52 -876.95 -855.50 -855.26 -856.83 -867.79 -860.69 -951.91 -1052.04 -1112.11 -1018.97 -956.31 -454.25 -129.24 -242.37 -373.59 -633.63 -907.67 -1116.88 -1390.40 -1699.06 -1853.22 -1878.11 -1888.54 -1889.21 -1909.03 -1939.77 -1982.73 -2064.71 -2323.65 -2660.10 -3206.04 -3468.55 -3568.53 -3673.33 -3673.33
-2081.57 -2081.54 -2077.67 -2094.19 -2101.86 -2107.61 -2115.69 -2126.30 -2117.03 -2125.75 -2176.28 -2176.18 -2175.26 -2164.89 -2147.53 -2125.22 -2103.57 -2102.83 -2103.23 -2108.79 -2117.98 -2158.84 -2206.51 -2229.30 -2237.93 -2253.54 -2253.78 -2254.69 -2250.40 -2245.59 -2247.15 -2252.23 -2236.95 -2183.61 -2016.59 -1734.00 -1346.96 -853.12 -630.92 -407.84 -311.71 -289.57 -286.00 -242.72 -148.19 -73.94 65.56 127.50 221.40 234.14 236.02 235.54 231.35 226.85 187.23 169.74 140.34 143.46 145.39 154.34 155.10 150.74 160.54 178.33 189.84 169.81 156.36 158.44 153.47 148.01 193.27 226.96 243.88 258.27 266.47 283.49 299.67 320.51 337.18 370.75 380.19 397.11 414.19 422.26 425.46 415.46 384.40 663.33 342.36 270.47 236.13 146.70 94.25 56.69 35.77 -36.60 -161.56 -350.77 -442.96 -659.43 -794.17 -845.11 -886.78 -897.85 -891.76 -879.70 -869.25 -841.65 -808.76 -762.22 -696.43 -679.44 -668.53 -541.12 -507.79 -504.07 -329.10 -154.31 -127.92 -234.55 -415.89 -715.84 -919.32 -1205.33 -1471.40 -1760.27 -1826.67 -1851.79 -1876.33 -1885.23 -1909.16 -1936.66 -2044.81 -2102.40 -2298.38 -2859.96 -3159.06 -3567.19 -3706.97 -3766.13 -3766.17
-2143.97 -2148.09 -2148.14 -2142.98 -2141.57 -2151.47 -2155.34 -2157.88 -2170.51 -2179.53 -2179.34 -2179.71 -2178.41 -2174.17 -2145.92 -2123.02 -2106.64 -2107.23 -2109.46 -2112.47 -2130.30 -2174.48 -2217.91 -2243.91 -2259.10 -2261.14 -2269.57 -2269.39 -2273.03 -2277.98 -2274.17 -2279.32 -2273.52 -2245.74 -2136.59 -1840.89 -1402.61 -1019.98 -634.98 -430.66 -312.35 -288.79 -277.10 -264.37 -156.22 -80.08 -15.82 51.16 176.62 209.28 218.65 190.24 203.61 176.58 125.74 -0.89 -19.00 77.20 112.88 149.91 149.36 147.19 169.70 206.99 223.34 221.38 209.90 198.43 176.14 150.54 187.69 217.93 234.57 249.61 263.20 283.35 298.29 306.72 324.52 340.13 350.41 368.04 400.03 408.16 406.63 402.58 417.17 390.39 272.14 268.67 191.07 83.40 -42.32 -58.15 -68.72 -175.38 -414.91 -526.75 -594.62 -630.74 -858.25 -889.47 -909.54 -900.86 -879.20 -858.89 -745.98 -703.61 -627.13 -580.50 -391.83 -254.43 -35.81 -119.22 -133.70 -174.89 -101.34 -68.75 -78.38 -246.85 -387.61 -749.02 -1007.27 -1269.83 -1483.59 -1698.95 -1788.62 -1837.86 -1872.69 -1882.66 -1896.19 -1940.45 -2080.98 -2165.77 -2426.97 -2697.73 -3261.14 -3508.42 -3715.64 -3792.78 -3801.05
-2183.44 -2183.38 -2177.10 -2184.35 -2192.61 -2187.61 -2195.19 -2193.86 -2188.80 -2186.93 -2191.23 -2190.86 -2190.82 -2186.14 -2162.42 -2129.13 -2116.20 -2116.67 -2119.51 -2126.95 -2146.84 -2173.15 -2241.08 -2268.04 -2278.61 -2280.05 -2289.19 -2294.31 -2287.90 -2298.73 -2302.43 -2306.55 -2311.01 -2281.03 -2158.71 -1870.73 -1594.94 -1090.16 -661.81 -420.03 -331.61 -292.73 -286.31 -264.28 -193.90 -137.46 -76.75 -2.25 81.01 99.23 114.87 108.73 101.95 48.38 -19.89 -63.87 -33.07 30.53 53.81 82.58 109.29 132.67 168.17 213.42 227.60 238.44 245.96 220.31 203.16 180.69 186.84 198.38 231.46 246.00 253.97 272.10 283.58 293.54 308.99 318.43 338.85 348.80 379.76 393.14 396.47 396.57 500.50 557.41 267.77 225.05 131.02 53.92 -155.17 -163.36 -346.02 -460.02 -713.63 -742.67 -693.12 -764.47 -894.48 -920.18 -923.47 -880.62 -837.42 -708.92 -522.87 -432.12 -202.97 -90.99 -80.21 87.49 61.38 114.26 58.55 30.93 -72.79 -112.51 -146.23 -245.39 -518.98 -752.82 -1173.48 -1464.06 -1585.44 -1746.18 -1793.90 -1829.12 -1858.72 -1872.39 -1900.98 -1955.79 -2134.16 -2196.37 -2461.27 -2823.36 -3270.50 -3541.30 -3748.37 -3793.32 -3793.41
-2200.86 -2200.81 -2201.67 -2204.68 -2213.31 -2211.58 -2212.20 -2208.55 -2203.09 -2203.97 -2201.77 -2204.01 -2204.63 -2194.59 -2177.65 -2149.18 -2138.26 -2133.42 -2137.67 -2153.46 -2163.08 -2216.05 -2260.78 -2288.79 -2303.10 -2302.25 -2306.01 -2312.45 -2319.05 -2317.07 -2319.33 -2317.37 -2319.18 -2304.51 -2220.89 -1961.78 -1634.89 -1314.47 -765.79 -551.79 -362.61 -297.35 -289.65 -268.88 -218.83 -155.52 -85.77 -14.31 10.72 8.09 -26.37 -85.67 -95.16 -85.33 -99.40 -72.33 -48.49 -34.67 12.87 36.03 59.08 123.78 173.34 198.69 217.05 234.23 256.33 251.37 235.40 196.66 173.45 189.89 221.96 236.93 247.82 262.12 276.04 294.31 297.84 304.33 318.78 336.19 346.22 349.13 366.01 391.03 496.90 967.09 262.55 182.51 86.84 -52.20 -190.92 -247.55 -376.00 -705.78 -839.25 -849.54 -803.16 -868.58 -910.38 -899.72 -833.53 -701.44 -572.88 -352.42 -159.83 -22.46 57.09 120.27 134.84 169.68 163.71 153.41 122.62 48.94 -81.35 -212.98 -278.42 -448.48 -629.87 -947.10 -1206.41 -1510.20 -1681.45 -1785.51 -1838.81 -1855.12 -1866.94 -1895.53 -1970.65 -2058.14 -2246.48 -2428.16 -2712.24 -3020.79 -3329.98 -3644.10 -3717.53 -3770.14 -3770.20
-2209.87 -2209.81 -2212.02 -2216.88 -2218.65 -2224.44 -2223.80 -2223.51 -2214.38 -2214.38 -2216.47 -2220.53 -2224.67 -2216.76 -2199.31 -2167.64 -2161.11 -2162.62 -2163.10 -2175.67 -2191.55 -2225.92 -2276.14 -2307.10 -2321.77 -2317.35 -2323.19 -2327.24 -2331.43 -2332.64 -2329.08 -2320.60 -2316.65 -2311.91 -2221.79 -2139.72 -1743.64 -1412.04 -926.96 -603.06 -469.24 -354.58 -320.66 -281.14 -239.91 -179.85 -101.48 -91.04 -103.83 -121.21 -132.60 -158.09 -161.93 -133.13 -115.24 -87.47 -78.54 -62.32 -32.00 -39.67 -1.45 80.19 153.53 183.40 212.50 230.46 240.90 248.15 239.56 219.22 184.44 164.66 192.52 224.98 246.06 250.60 253.70 271.39 281.93 288.25 303.23 318.65 326.76 322.64 335.27 382.74 397.52 814.20 388.97 150.14 -4.88 -129.36 -191.56 -244.39 -427.51 -638.80 -792.74 -760.62 -750.13 -678.16 -742.11 -712.97 -549.82 -425.78 -312.76 -176.61 15.82 96.70 177.72 178.47 183.54 180.34 166.83 148.40 121.40 44.77 -163.55 -289.83 -414.09 -579.21 -872.15 -1016.14 -1283.13 -1629.08 -1734.83 -1771.68 -1826.90 -1854.91 -1872.53 -1924.56 -2086.05 -2202.81 -2397.73 -2514.32 -2806.26 -3171.16 -3363.95 -3566.40 -3700.77 -3771.37 -3771.43
-2204.15 -2202.70 -2206.05 -2210.79 -2213.84 -2218.69 -2222.99 -2222.83 -2221.44 -2223.62 -2226.88 -2231.19 -2233.27 -2228.43 -2210.22 -2201.51 -2184.67 -2180.79 -2195.45 -2199.67 -2221.76 -2267.89 -2307.14 -2321.86 -2336.16 -2326.50 -2328.65 -2340.73 -2340.32 -2334.30 -2331.01 -2326.36 -2319.11 -2314.01 -2287.81 -2187.09 -2009.26 -1422.46 -1240.44 -915.86 -592.59 -446.87 -344.87 -280.71 -251.53 -236.03 -186.18 -153.24 -179.39 -191.45 -215.80 -191.34 -175.84 -154.04 -128.02 -98.75 -83.64 -68.34 -55.26 -40.59 -16.44 17.80 110.01 153.88 183.83 195.03 210.64 222.52 226.90 218.68 177.15 159.50 181.28 211.01 228.45 242.21 246.42 255.99 264.01 278.94 298.11 312.14 317.62 319.42 346.17 376.78 392.21 639.70 519.19 160.05 32.03 -93.52 -186.90 -244.95 -374.08 -545.91 -617.10 -595.68 -527.78 -559.50 -515.61 -439.13 -374.35 -393.36 -204.42 -38.33 14.83 91.63 161.95 178.65 170.38 160.32 151.03 132.94 79.03 -11.54 -238.40 -436.69 -705.24 -882.41 -1029.19 -1148.25 -1326.74 -1579.95 -1780.46 -1795.73 -1830.60 -1848.85 -1867.12 -1927.27 -2161.01 -2290.72 -2435.77 -2606.31 -2811.50 -3125.17 -3341.95 -3578.85 -3697.17 -3771.85 -3771.92
-2171.24 -2171.14 -2163.42 -2180.85 -2174.56 -2185.57 -2187.21 -2205.64 -2214.58 -2224.64 -2232.08 -2236.34 -2240.47 -2242.86 -2235.96 -2223.57 -2230.65 -2229.91 -2233.80 -2235.58 -2258.21 -2300.87 -2327.74 -2327.83 -2334.60 -2331.00 -2332.63 -2337.90 -2339.63 -2336.63 -2336.61 -2332.26 -2323.58 -2306.58 -2269.91 -2192.13 -2101.15 -1848.74 -1349.55 -1129.57 -882.34 -676.32 -565.46 -347.78 -398.84 -280.07 -274.29 -298.18 -265.30 -251.41 -236.06 -208.29 -182.24 -163.66 -134.95 -115.49 -90.49 -65.88 -47.07 -23.27 -5.20 4.77 29.37 58.85 97.27 143.34 193.14 185.43 192.37 189.28 177.24 155.10 166.99 181.74 211.39 225.71 234.87 241.16 256.25 260.20 271.11 299.13 312.90 312.49 326.79 364.16 382.43 400.48 479.45 122.44 -75.00 -288.25 -248.00 -234.82 -294.63 -390.17 -442.14 -434.87 -408.66 -425.80 -411.94 -378.13 -324.55 -261.92 -145.41 -99.09 3.40 106.64 144.09 156.40 150.61 147.38 141.51 91.95 30.77 -160.46 -396.05 -671.92 -901.19 -1132.84 -1375.85 -1399.94 -1531.52 -1712.91 -1803.76 -1837.87 -1839.11 -1845.12 -1868.28 -1913.98 -2037.84 -2233.35 -2424.36 -2652.05 -2947.45 -3260.67 -3453.06 -3605.43 -3698.97 -3771.72 -3771.78
-2130.81 -2129.45 -2132.14 -2139.44 -2142.76 -2147.14 -2161.83 -2179.94 -2201.50 -2225.20 -2236.18 -2239.08 -2245.41 -2250.25 -2260.46 -2261.47 -2262.19 -2265.54 -2284.77 -2299.99 -2303.88 -2330.80 -2338.58 -2336.73 -2336.44 -2336.83 -2335.97 -2338.23 -2342.60 -2342.91 -2341.64 -2340.29 -2324.57 -2295.93 -2262.37 -2196.16 -2069.05 -1896.13 -1870.51 -1497.40 -1176.98 -997.63 -882.69 -708.60 -497.34 -485.29 -380.87 -344.37 -311.70 -269.70 -240.43 -225.27 -191.90 -168.34 -145.24 -122.12 -101.75 -60.76 -24.17 -5.20 12.16 29.93 39.30 60.11 68.18 96.84 143.64 149.63 146.04 154.15 150.72 152.14 146.77 145.98 169.98 207.32 220.05 231.37 242.93 254.67 266.16 278.05 289.41 302.32 322.95 336.09 347.81 344.44 339.37 115.33 -123.36 -325.48 -339.75 -312.39 -334.84 -365.45 -369.83 -346.90 -319.53 -313.03 -259.05 -243.82 -140.43 -88.04 -18.65 45.09 94.06 118.94 137.90 141.39 133.53 126.89 113.68 35.72 -76.22 -218.56 -492.98 -786.48 -1097.36 -1379.22 -1439.26 -1545.78 -1702.50 -1751.47 -1822.25 -1850.95 -1852.61 -1850.36 -1863.05 -1912.30 -1985.36 -2140.76 -2375.67 -2562.53 -2943.70 -3272.06 -3558.41 -3720.13 -3739.76 -3770.57 -3770.63
-2116.89 -2117.92 -2122.26 -2126.95 -2130.18 -2136.49 -2146.91 -2180.03 -2205.15 -2234.83 -2241.06 -2246.90 -2250.78 -2259.38 -2267.19 -2282.22 -2293.18 -2301.98 -2308.16 -2313.77 -2328.25 -2348.95 -2348.28 -2341.83 -2341.87 -2346.79 -2345.75 -2350.07 -2347.50 -2346.80 -2345.68 -2338.53 -2323.46 -2283.52 -2249.78 -2173.91 -2079.38 -1944.27 -1752.95 -1645.90 -1511.37 -1393.63 -1168.26 -840.26 -685.43 -544.99 -488.52 -398.65 -338.78 -296.60 -262.66 -234.66 -206.08 -192.76 -155.19 -115.65 -88.74 -59.36 -5.02 10.24 21.40 35.06 45.69 63.20 73.64 84.68 104.98 123.19 128.79 135.22 141.04 144.55 144.40 145.30 146.52 191.89 202.27 223.03 235.93 242.76 252.06 261.66 278.87 296.86 302.68 321.71 315.18 306.96 277.56 185.56 -250.19 -303.04 -338.77 -338.54 -342.92 -337.60 -311.82 -227.74 -183.07 -166.94 -88.91 -58.86 0.79 51.67 104.66 101.54 124.79 129.38 134.82 133.50 118.72 97.38 76.36 -9.56 -104.34 -302.27 -490.66 -857.16 -1178.54 -1360.68 -1535.24 -1656.72 -1721.00 -1812.27 -1826.39 -1849.93 -1854.16 -1855.32 -1870.75 -1907.82 -1964.34 -2101.31 -2357.07 -2632.62 -2999.32 -3257.68 -3494.60 -3698.70 -3716.40 -3770.77 -3770.84
-2123.65 -2123.59 -2130.34 -2130.28 -2134.14 -2138.00 -2155.56 -2183.19 -2214.26 -2243.60 -2249.63 -2256.89 -2265.07 -2271.83 -2285.83 -2300.65 -2307.74 -2313.47 -2325.68 -2335.28 -2348.20 -2346.58 -2352.06 -2350.30 -2348.64 -2355.19 -2355.18 -2355.83 -2352.33 -2350.61 -2347.97 -2340.38 -2315.15 -2285.42 -2237.24 -2153.23 -2097.89 -1886.25 -1742.85 -1644.65 -1558.79 -1423.67 -1277.03 -1043.68 -745.67 -587.40 -499.26 -414.00 -344.96 -315.93 -271.80 -253.42 -236.50 -201.16 -152.52 -110.85 -71.48 -40.19 3.16 14.60 27.35 35.81 51.51 67.66 79.72 90.56 106.11 113.22 122.67 131.38 139.08 142.30 144.98 146.77 147.35 159.72 193.93 217.72 227.35 232.45 239.72 258.20 265.44 281.28 284.31 291.63 289.86 285.40 262.85 203.82 -44.53 -244.54 -314.67 -336.47 -336.44 -303.94 -229.93 -107.20 -12.31 31.19 71.48 90.74 110.89 110.54 128.13 128.82 127.56 130.16 129.36 122.58 100.68 59.69 22.44 -29.83 -167.90 -438.43 -667.61 -965.53 -1326.55 -1436.81 -1629.67 -1737.23 -1789.99 -1809.44 -1836.36 -1845.24 -1853.11 -1858.03 -1873.36 -1904.78 -1980.23 -2080.00 -2227.81 -2617.43 -2919.48 -3171.14 -3439.28 -3673.56 -3692.46 -3772.63 -3772.69
-2136.66 -2136.61 -2138.67 -2142.21 -2148.62 -2156.32 -2170.61 -2196.98 -2222.93 -2247.60 -2259.49 -2268.46 -2269.96 -2279.41 -2289.98 -2310.18 -2318.40 -2327.68 -2334.76 -2347.48 -2360.34 -2350.56 -2352.15 -2350.49 -2352.49 -2356.59 -2357.52 -2357.51 -2356.90 -2354.33 -2347.85 -2339.06 -2311.75 -2284.27 -2246.70 -2133.45 -2087.04 -1933.37 -1822.77 -1704.05 -1531.05 -1431.67 -1360.48 -1137.44 -895.32 -622.90 -474.92 -415.25 -348.57 -327.92 -298.19 -272.72 -244.91 -218.79 -170.75 -121.06 -75.15 -43.40 0.08 24.62 36.97 45.58 62.67 70.70 82.85 92.21 102.77 112.14 119.52 129.51 136.69 142.81 146.62 149.88 150.00 169.23 196.61 214.35 219.79 227.30 232.42 241.61 254.27 256.46 270.07 274.61 284.53 265.25 250.43 230.57 15.63 -128.41 -303.87 -321.52 -316.52 -242.78 -127.26 68.45 62.66 121.07 131.47 143.69 147.99 139.08 135.35 122.92 123.71 126.51 118.90 112.61 87.37 56.94 9.25 -85.82 -246.79 -544.71 -766.57 -1008.00 -1358.73 -1480.42 -1627.86 -1775.78 -1810.17 -1827.86 -1839.80 -1844.46 -1851.40 -1860.23 -1882.75 -1909.56 -1964.49 -2070.47 -2207.83 -2449.64 -2788.30 -3085.26 -3452.70 -3632.88 -3694.64 -3748.11 -3763.62
-2160.61 -2160.57 -2174.71 -2185.94 -2179.70 -2177.05 -2198.55 -2211.50 -2230.53 -2256.00 -2266.96 -2271.15 -2277.93 -2285.75 -2295.56 -2310.15 -2315.82 -2327.36 -2334.99 -2347.19 -2357.65 -2352.39 -2347.99 -2348.78 -2353.50 -2357.60 -2361.12 -2362.54 -2362.67 -2358.93 -2350.14 -2341.26 -2317.80 -2289.64 -2248.79 -2166.70 -2111.49 -1969.86 -1937.91 -1772.68 -1532.70 -1384.82 -1301.81 -1141.22 -933.73 -680.14 -563.41 -453.24 -367.55 -336.49 -314.87 -276.67 -259.33 -206.19 -162.85 -111.90 -66.40 -28.19 0.26 31.70 43.37 54.60 62.46 75.74 85.49 95.34 100.95 110.83 120.58 125.34 133.15 139.18 144.48 148.80 151.70 154.14 172.47 187.00 213.57 220.40 223.06 231.38 235.89 247.79 251.28 261.33 266.42 257.88 249.78 245.22 132.18 32.33 -166.21 -277.21 -263.38 -156.38 -12.77 95.81 145.12 164.07 159.90 154.56 146.56 133.26 118.22 102.15 107.62 106.93 98.49 93.68 61.48 34.07 -76.35 -252.86 -449.15 -751.15 -904.36 -1148.80 -1327.46 -1577.45 -1663.14 -1745.54 -1806.49 -1835.28 -1842.73 -1844.60 -1851.15 -1865.53 -1894.99 -1913.33 -1964.58 -2043.86 -2251.14 -2388.17 -2584.92 -3015.22 -3320.38 -3499.71 -3546.99 -3743.27 -3743.33
-2202.86 -2208.33 -2210.15 -2216.86 -2219.26 -2227.28 -2235.67 -2236.68 -2253.42 -2259.66 -2267.40 -2273.97 -2277.83 -2283.79 -2290.81 -2300.69 -2307.19 -2316.43 -2323.31 -2341.84 -2348.63 -2346.13 -2347.53 -2349.02 -2352.82 -2360.57 -2363.54 -2366.80 -2366.94 -2363.32 -2354.53 -2346.77 -2316.92 -2290.91 -2252.47 -2171.36 -2076.69 -2008.42 -1872.96 -1734.73 -1548.14 -1354.37 -1166.63 -1026.96 -813.11 -709.40 -579.85 -461.73 -395.07 -362.17 -338.54 -328.83 -288.71 -230.22 -190.51 -135.24 -73.60 -40.93 4.91 27.19 47.45 55.21 61.76 74.88 80.74 86.81 95.03 106.31 112.29 125.84 130.13 136.83 142.80 148.32 153.45 156.30 158.97 155.55 173.40 187.42 209.38 216.57 219.82 235.32 242.62 249.61 259.32 256.16 250.47 245.15 230.69 166.04 25.61 -142.05 -127.10 -30.59 75.45 138.37 159.24 163.00 145.62 139.15 127.03 100.74 80.07 67.88 69.52 77.38 33.66 47.61 34.77 -60.39 -223.45 -388.93 -565.55 -876.74 -1161.87 -1342.66 -1395.66 -1594.06 -1721.63 -1775.11 -1812.82 -1831.48 -1840.75 -1845.94 -1851.61 -1866.24 -1888.54 -1913.74 -1965.31 -2005.65 -2127.38 -2323.13 -2516.09 -2711.23 -2936.81 -3262.23 -3536.72 -3676.43 -3676.64
-2248.31 -2254.74 -2252.03 -2254.18 -2264.05 -2271.25 -2274.97 -2272.57 -2265.88 -2262.91 -2266.36 -2272.04 -2278.02 -2280.74 -2287.30 -2286.91 -2291.86 -2296.99 -2303.21 -2317.23 -2340.84 -2342.45 -2347.70 -2350.53 -2357.10 -2362.16 -2363.57 -2369.34 -2371.93 -2368.34 -2363.10 -2348.67 -2324.21 -2267.33 -2229.03 -2150.78 -2065.23 -1987.83 -1890.99 -1770.82 -1543.78 -1392.65 -1203.28 -959.80 -856.31 -727.34 -644.93 -532.79 -439.34 -400.32 -383.31 -368.21 -282.99 -234.47 -186.71 -132.95 -76.65 -38.11 -0.99 21.93 36.36 47.26 57.23 67.19 76.08 74.54 87.90 95.79 108.60 119.51 130.53 133.11 142.08 148.24 150.84 157.74 163.89 161.16 157.35 161.06 180.81 183.36 194.89 214.53 229.58 244.30 247.49 249.09 247.17 245.38 242.66 215.10 121.72 118.86 55.56 63.17 131.61 161.43 158.23 141.38 127.95 116.08 91.35 75.16 32.43 38.35 40.15 26.05 9.63 -15.50 -25.91 -237.85 -403.25 -538.09 -714.68 -993.70 -1262.49 -1374.96 -1528.41 -1635.53 -1730.55 -1784.36 -1819.42 -1828.34 -1836.85 -1843.01 -1854.65 -1868.43 -1893.38 -1911.11 -1961.10 -2007.55 -2139.04 -2279.26 -2416.37 -2544.70 -2776.96 -3040.75 -3325.66 -3572.59 -3572.55
-2279.60 -2279.53 -2281.77 -2289.61 -2289.72 -2296.35 -2298.12 -2292.11 -2276.13 -2269.30 -2271.04 -2277.79 -2283.14 -2286.25 -2290.49 -2288.06 -2290.40 -2296.38 -2301.47 -2316.24 -2329.70 -2341.12 -2347.11 -2351.78 -2356.44 -2360.41 -2363.96 -2371.06 -2372.83 -2370.11 -2367.18 -2350.59 -2310.13 -2276.69 -2215.05 -2149.31 -2035.64 -1969.61 -1850.00 -1671.16 -1487.63 -1341.62 -1218.10 -1040.65 -902.96 -739.40 -666.18 -565.22 -493.60 -473.27 -432.44 -405.27 -346.03 -242.49 -155.73 -122.64 -72.72 -31.02 0.97 15.42 29.17 38.73 50.67 57.90 65.83 68.46 74.84 90.42 104.37 114.64 124.39 132.21 138.83 144.52 147.55 155.18 158.35 159.50 159.79 159.48 164.14 155.46 168.88 199.52 225.91 229.17 240.12 245.92 245.72 245.24 241.42 237.44 211.41 191.27 154.20 155.25 166.87 159.89 143.39 113.01 85.30 71.10 50.96 36.45 4.13 11.76 16.02 -14.73 -84.17 -158.59 -224.09 -374.57 -543.28 -734.66 -839.16 -1106.59 -1334.52 -1414.21 -1538.55 -1644.67 -1712.79 -1793.30 -1823.78 -1833.56 -1843.61 -1845.85 -1852.81 -1870.06 -1901.10 -1922.99 -1968.83 -2000.81 -2089.16 -2232.82 -2415.07 -2607.87 -2901.54 -3163.17 -3471.54 -3596.14 -3625.71
-2292.79 -2292.72 -2298.00 -2301.92 -2300.91 -2314.03 -2314.53 -2300.48 -2294.83 -2281.05 -2282.42 -2288.26 -2293.25 -2296.92 -2299.56 -2298.19 -2301.64 -2302.23 -2302.60 -2335.71 -2341.45 -2349.14 -2350.89 -2352.64 -2356.07 -2358.61 -2366.93 -2370.87 -2373.18 -2370.44 -2365.41 -2352.24 -2329.32 -2299.11 -2238.28 -2179.09 -1992.93 -1908.49 -1815.40 -1642.48 -1526.16 -1363.51 -1187.81 -1004.52 -905.74 -765.06 -719.71 -640.56 -592.66 -540.67 -469.00 -426.46 -366.52 -301.94 -135.17 -95.51 -58.24 -23.04 -6.03 8.69 19.62 32.60 40.16 50.63 58.85 62.50 69.45 85.83 100.70 115.07 120.36 127.56 134.24 139.81 144.84 147.37 156.61 155.57 152.60 151.73 152.05 151.80 167.18 189.58 201.65 216.82 225.14 240.32 245.03 243.75 240.98 236.65 231.70 215.19 189.59 180.70 165.19 142.05 118.70 79.10 54.20 24.66 11.47 -10.42 -43.50 -33.10 -99.07 -141.20 -144.25 -275.16 -390.63 -634.73 -736.45 -824.06 -977.57 -1084.92 -1453.16 -1534.28 -1645.28 -1707.19 -1782.15 -1803.67 -1828.83 -1839.30 -1848.66 -1852.56 -1860.71 -1872.08 -1897.44 -1922.92 -1971.34 -2024.31 -2121.14 -2243.47 -2439.20 -2706.22 -2997.83 -3394.33 -3590.56 -3751.91 -3768.95
-2304.93 -2304.86 -2313.17 -2310.31 -2317.62 -2325.79 -2326.91 -2319.28 -2301.80 -2299.02 -2299.35 -2305.74 -2302.18 -2310.50 -2309.05 -2308.38 -2307.32 -2311.11 -2317.56 -2336.71 -2344.52 -2352.84 -2355.56 -2356.42 -2360.51 -2361.18 -2368.46 -2370.19 -2371.90 -2367.07 -2361.01 -2348.97 -2331.70 -2304.65 -2251.08 -2169.61 -2027.78 -1934.64 -1772.47 -1642.18 -1514.17 -1440.65 -1259.41 -1071.01 -906.54 -826.29 -759.44 -704.78 -615.42 -571.28 -489.60 -441.52 -396.20 -287.37 -201.49 -118.97 -71.05 -32.10 -10.21 2.24 13.27 22.97 33.61 38.81 48.63 57.59 66.54 78.44 98.96 105.55 119.90 127.34 132.79 139.54 140.15 144.97 147.54 145.60 145.56 141.85 140.45 142.66 151.22 160.06 170.33 199.66 212.74 215.94 233.93 239.73 237.34 235.45 231.43 217.85 191.97 178.98 155.41 129.88 101.02 66.95 43.68 -5.14 -22.70 -46.90 -95.24 -133.81 -236.69 -258.33 -281.48 -378.98 -506.10 -812.62 -829.52 -998.22 -1105.17 -1206.08 -1465.60 -1634.07 -1674.34 -1779.69 -1820.43 -1823.91 -1836.87 -1845.52 -1850.30 -1870.16 -1879.90 -1882.84 -1907.64 -1931.06 -1965.83 -2018.29 -2075.31 -2233.48 -2512.95 -2854.06 -3099.86 -3478.15 -3698.69 -3816.95 -3835.75
-2324.71 -2322.72 -2328.63 -2332.79 -2332.54 -2338.09 -2339.70 -2337.01 -2322.63 -2311.64 -2313.98 -2318.46 -2322.33 -2329.52 -2323.76 -2320.54 -2319.41 -2322.44 -2325.30 -2337.47 -2359.09 -2366.11 -2358.62 -2358.44 -2360.49 -2363.22 -2367.21 -2368.34 -2369.54 -2366.90 -2362.25 -2350.24 -2329.82 -2296.43 -2259.21 -2192.95 -2126.02 -1972.60 -1802.89 -1636.24 -1481.71 -1372.11 -1235.91 -1075.89 -956.41 -857.54 -819.63 -722.02 -641.79 -551.08 -511.69 -438.47 -376.55 -278.88 -224.01 -138.47 -85.95 -46.92 -20.11 -1.86 5.76 12.50 21.52 31.89 37.63 49.92 69.22 76.18 80.14 98.94 113.56 123.73 129.00 134.16 135.47 136.61 137.89 138.21 137.90 136.82 135.87 138.10 142.32 141.26 149.09 175.77 180.45 197.25 213.03 230.38 223.43 213.63 216.78 210.11 179.28 152.36 136.67 114.87 72.56 42.74 -9.02 -36.61 -63.57 -104.81 -185.43 -199.69 -273.53 -471.86 -536.02 -544.01 -799.02 -976.60 -1054.47 -1201.30 -1226.16 -1360.07 -1510.38 -1657.64 -1725.00 -1774.50 -1824.86 -1829.61 -1838.56 -1847.36 -1858.77 -1873.55 -1889.33 -1899.24 -1908.54 -1927.94 -1959.54 -2022.41 -2135.26 -2278.58 -2597.74 -2863.97 -3261.46 -3506.90 -3689.80 -3835.79 -3835.85
-2353.67 -2351.02 -2356.29 -2362.91 -2368.77 -2371.30 -2378.33 -2361.92 -2346.02 -2336.26 -2331.26 -2339.91 -2345.73 -2344.60 -2339.16 -2331.62 -2326.52 -2329.86 -2333.10 -2341.69 -2354.51 -2367.18 -2360.44 -2359.62 -2358.19 -2359.73 -2365.47 -2367.02 -2367.34 -2367.12 -2364.72 -2351.50 -2336.58 -2309.04 -2251.45 -2197.09 -2129.38 -1981.38 -1772.44 -1656.87 -1557.31 -1433.60 -1292.12 -1121.12 -1090.91 -963.38 -826.27 -768.14 -691.90 -607.54 -524.74 -424.79 -338.34 -274.88 -199.03 -141.47 -89.16 -57.77 -14.47 -7.24 5.16 11.25 19.45 23.40 29.73 40.87 53.50 63.00 75.49 93.95 105.80 113.39 119.81 126.62 130.31 129.96 128.41 130.78 130.93 130.95 130.50 133.15 132.67 136.11 141.95 151.79 150.20 164.73 191.05 203.56 194.02 190.39 188.99 174.06 162.86 125.51 113.00 91.95 52.07 24.12 -24.45 -68.03 -140.01 -252.08 -289.14 -348.47 -490.07 -593.82 -733.65 -813.29 -991.79 -1172.19 -1276.79 -1301.66 -1442.25 -1564.91 -1672.06 -1771.47 -1793.64 -1805.06 -1829.72 -1837.36 -1841.95 -1852.72 -1861.97 -1880.89 -1892.67 -1904.40 -1908.84 -1934.91 -2009.41 -2121.31 -2223.00 -2456.23 -2672.74 -3009.57 -3500.31 -3659.11 -3786.13 -3835.47 -3835.53
-2378.72 -2377.61 -2382.15 -2388.42 -2390.94 -2405.12 -2402.14 -2382.34 -2364.38 -2354.46 -2360.03 -2365.08 -2366.77 -2363.53 -2352.70 -2338.98 -2340.30 -2339.35 -2341.52 -2342.32 -2348.26 -2351.81 -2358.39 -2354.92 -2350.02 -2355.38 -2364.53 -2365.16 -2365.73 -2365.05 -2359.62 -2354.77 -2332.94 -2325.50 -2271.28 -2160.21 -2080.56 -1951.42 -1858.98 -1752.68 -1574.60 -1465.90 -1336.51 -1186.76 -1079.66 -928.65 -828.28 -797.12 -762.16 -633.22 -529.09 -404.09 -363.96 -271.08 -197.01 -155.68 -111.45 -60.48 -24.84 -14.46 0.55 7.10 9.44 13.70 24.71 35.22 42.51 53.28 66.66 81.70 93.09 95.82 113.53 116.77 119.64 121.28 122.15 121.08 123.54 124.99 126.35 126.66 131.10 135.08 139.26 143.47 152.09 154.67 163.86 180.92 175.44 158.01 157.15 148.64 127.63 94.28 72.55 64.60 21.06 -16.75 -77.87 -123.37 -193.51 -322.20 -374.46 -500.80 -602.52 -701.82 -933.82 -999.13 -1161.61 -1370.56 -1474.75 -1472.96 -1512.55 -1607.23 -1712.60 -1787.53 -1812.01 -1829.46 -1837.70 -1840.63 -1846.13 -1857.10 -1871.14 -1884.68 -1892.29 -1903.08 -1903.09 -1938.94 -2029.28 -2148.10 -2335.95 -2602.81 -2820.35 -3337.07 -3728.98 -3829.39 -3832.77 -3836.74 -3836.80
-2391.95 -2391.88 -2399.58 -2405.50 -2410.92 -2419.42 -2411.15 -2402.33 -2374.78 -2367.68 -2368.82 -2374.91 -2378.12 -2378.31 -2371.52 -2353.61 -2347.96 -2346.50 -2349.31 -2349.63 -2348.80 -2349.15 -2348.69 -2344.55 -2348.41 -2355.20 -2364.56 -2364.78 -2364.29 -2362.64 -2355.63 -2351.65 -2344.91 -2317.72 -2286.78 -2193.30 -2136.68 -2066.61 -1962.72 -1808.90 -1695.72 -1495.93 -1291.24 -1169.77 -1057.03 -953.79 -884.80 -814.69 -741.00 -602.80 -505.24 -433.26 -394.47 -292.97 -218.55 -155.09 -122.57 -66.32 -45.39 -26.15 -12.52 0.59 3.79 8.01 22.08 28.24 34.83 45.26 56.10 64.39 79.48 89.97 104.64 108.49 110.25 114.94 117.45 116.65 118.17 119.37 122.09 123.49 128.76 132.13 138.65 144.36 148.70 154.89 158.85 163.41 160.93 154.46 144.43 122.06 108.21 76.09 22.28 7.48 2.33 -80.00 -158.34 -214.50 -284.01 -359.68 -454.59 -577.02 -713.90 -939.65 -1130.67 -1261.72 -1335.16 -1390.65 -1555.42 -1630.86 -1669.36 -1708.58 -1789.80 -1827.74 -1840.88 -1848.32 -1853.97 -1857.40 -1852.86 -1865.29 -1874.19 -1887.23 -1886.03 -1883.90 -1892.63 -1920.56 -2059.65 -2214.08 -2410.64 -2845.90 -3142.88 -3547.97 -3727.62 -3830.26 -3832.42 -3837.56 -3837.62
-2398.03 -2397.96 -2405.45 -2411.11 -2418.04 -2425.74 -2426.34 -2411.23 -2388.44 -2378.08 -2380.35 -2386.47 -2392.27 -2390.03 -2378.20 -2364.74 -2361.22 -2355.94 -2354.70 -2356.37 -2353.27 -2350.08 -2345.37 -2342.35 -2343.97 -2348.88 -2359.48 -2363.34 -2362.44 -2361.08 -2357.95 -2353.89 -2341.24 -2308.40 -2279.11 -2205.91 -2171.08 -2083.14 -2041.77 -1894.79 -1845.80 -1631.88 -1410.87 -1215.84 -1134.23 -1061.79 -968.03 -875.77 -739.05 -599.47 -526.65 -469.91 -405.49 -323.61 -236.76 -194.24 -145.80 -87.58 -54.29 -30.10 -25.10 -11.74 -5.13 6.37 14.50 21.52 31.26 39.87 51.54 56.82 69.96 78.61 97.20 98.38 102.41 105.63 110.27 111.47 112.64 115.89 117.18 120.29 125.13 129.80 138.45 142.43 147.95 153.19 154.03 155.64 155.01 145.75 131.40 114.85 84.49 32.77 -4.22 -51.17 -64.50 -133.84 -239.47 -267.42 -409.41 -505.51 -553.22 -703.74 -964.46 -1161.93 -1277.56 -1487.54 -1536.74 -1569.77 -1622.84 -1731.96 -1762.22 -1802.70 -1848.60 -1850.47 -1858.64 -1864.36 -1871.02 -1869.73 -1866.56 -1866.14 -1879.43 -1886.94 -1885.65 -1866.64 -1860.31 -1882.32 -2113.25 -2343.63 -2674.15 -3168.18 -3452.50 -3661.78 -3822.53 -3828.37 -3825.77 -3834.12 -3836.33
-2397.75 -2397.69 -2401.50 -2410.33 -2419.24 -2430.00 -2431.44 -2418.78 -2396.81 -2385.46 -2388.60 -2393.59 -2401.61 -2399.25 -2394.05 -2382.89 -2373.75 -2374.68 -2373.43 -2367.25 -2365.06 -2359.16 -2347.06 -2345.12 -2342.86 -2348.30 -2358.26 -2363.44 -2361.09 -2360.57 -2358.66 -2355.47 -2349.48 -2318.00 -2266.20 -2233.87 -2201.86 -2166.40 -2028.37 -1988.66 -1890.96 -1674.43 -1508.77 -1355.57 -1208.28 -1095.50 -1020.49 -870.72 -775.44 -603.26 -563.72 -495.00 -435.11 -360.56 -261.76 -210.72 -153.53 -111.69 -86.37 -52.07 -33.42 -24.20 -16.15 -5.37 12.09 15.42 23.93 36.55 47.15 55.15 64.77 77.89 87.90 90.88 92.87 98.32 99.97 106.17 106.41 110.77 113.31 117.88 122.67 129.64 133.08 139.53 144.75 151.16 152.14 152.16 146.64 139.09 117.82 75.26 53.47 0.08 -92.23 -118.88 -146.98 -258.34 -399.40 -601.02 -566.81 -709.45 -769.46 -855.45 -1131.49 -1335.96 -1474.78 -1598.28 -1645.50 -1702.72 -1770.68 -1808.55 -1839.04 -1847.88 -1872.80 -1873.34 -1874.09 -1875.49 -1876.67 -1879.15 -1881.23 -1891.19 -1891.59 -1890.65 -1889.63 -1874.33 -1861.60 -1896.07 -2031.40 -2408.32 -2833.08 -3263.11 -3536.46 -3736.21 -3827.35 -3830.92 -3830.57 -3836.48 -3836.54
-2375.09 -2379.35 -2386.39 -2394.02 -2402.52 -2413.46 -2413.48 -2404.72 -2395.09 -2392.00 -2395.20 -2403.00 -2408.61 -2412.42 -2412.23 -2411.23 -2396.46 -2396.92 -2409.44 -2400.21 -2401.80 -2367.81 -2355.77 -2346.11 -2342.14 -2347.62 -2360.28 -2364.77 -2362.25 -2360.66 -2360.41 -2357.04 -2347.55 -2325.53 -2303.22 -2278.99 -2230.33 -2189.06 -2106.96 -2041.91 -1925.46 -1768.18 -1591.34 -1428.22 -1244.38 -1111.01 -958.05 -878.82 -697.13 -651.34 -599.61 -524.68 -456.60 -364.96 -303.78 -223.08 -190.68 -137.43 -110.44 -80.63 -60.59 -43.21 -17.65 -5.68 5.80 10.08 19.24 29.75 41.94 53.53 65.91 73.68 81.00 87.15 83.93 88.83 95.22 99.76 100.45 102.67 104.19 112.42 116.14 126.13 131.80 135.25 143.54 147.26 148.17 137.63 126.34 106.20 89.76 52.18 31.09 -41.86 -103.08 -201.28 -265.98 -345.71 -556.42 -804.31 -931.54 -1050.71 -1048.21 -1196.77 -1347.29 -1513.66 -1609.42 -1656.69 -1725.54 -1805.01 -1859.17 -1857.77 -1873.87 -1866.79 -1883.03 -1890.91 -1888.84 -1888.30 -1887.25 -1889.36 -1897.27 -1900.49 -1900.16 -1896.74 -1898.88 -1892.22 -1882.55 -1894.64 -2062.29 -2599.55 -3174.25 -3573.40 -3730.03 -3804.14 -3827.17 -3833.30 -3832.33 -3841.35 -3841.42
-2327.85 -2327.82 -2333.84 -2333.92 -2354.12 -2364.98 -2375.48 -2381.66 -2386.38 -2395.30 -2401.25 -2408.69 -2417.69 -2423.40 -2429.23 -2438.55 -2450.20 -2452.36 -2438.97 -2448.34 -2433.40 -2407.00 -2362.18 -2341.94 -2338.75 -2341.02 -2358.88 -2371.07 -2364.40 -2362.72 -2362.87 -2360.81 -2353.10 -2343.55 -2323.17 -2305.35 -2271.44 -2202.21 -2156.65 -2081.51 -1962.24 -1789.51 -1615.78 -1440.01 -1272.79 -1130.63 -922.19 -833.38 -732.05 -664.49 -619.77 -556.52 -472.55 -365.97 -292.29 -262.17 -211.41 -167.13 -142.90 -94.67 -75.98 -43.86 -24.61 -11.23 -0.20 3.94 16.66 25.80 38.86 45.50 56.95 67.06 70.95 72.51 73.18 80.73 88.83 87.69 91.35 95.13 99.87 103.47 111.62 117.32 125.45 128.98 135.23 139.52 134.83 122.14 111.91 69.34 69.03 11.77 -61.57 -206.20 -268.98 -382.00 -398.10 -471.26 -814.40 -976.47 -1181.32 -1305.21 -1266.55 -1443.18 -1572.86 -1670.90 -1720.40 -1746.38 -1770.64 -1821.79 -1868.49 -1888.03 -1896.89 -1896.19 -1897.35 -1900.18 -1898.21 -1906.66 -1906.39 -1910.04 -1905.89 -1905.92 -1905.74 -1912.08 -1919.01 -1908.64 -1918.01 -1939.19 -2129.04 -2497.09 -3338.28 -3737.14 -3800.87 -3821.42 -3836.53 -3836.01 -3835.99 -3846.43 -3846.50
-2294.07 -2294.02 -2302.24 -2311.51 -2315.89 -2335.09 -2343.50 -2362.59 -2376.80 -2398.34 -2410.27 -2417.60 -2427.66 -2436.84 -2459.95 -2475.94 -2486.80 -2493.89 -2486.61 -2476.05 -2448.89 -2431.07 -2368.90 -2343.11 -2336.28 -2343.41 -2371.53 -2376.48 -2369.99 -2368.08 -2366.93 -2365.63 -2367.06 -2361.42 -2349.82 -2319.63 -2284.55 -2253.72 -2198.44 -2110.11 -1989.88 -1736.38 -1615.07 -1442.99 -1289.40 -1092.88 -988.23 -844.29 -791.88 -705.89 -619.37 -571.51 -481.72 -399.27 -348.93 -309.84 -286.61 -221.61 -161.35 -127.25 -84.55 -54.44 -28.95 -22.89 -16.05 -9.86 4.22 13.67 23.99 33.46 40.03 53.73 62.61 64.45 67.29 70.89 77.45 79.74 83.90 89.80 92.15 98.28 105.15 112.39 119.60 122.22 122.07 122.29 108.90 94.66 62.13 24.01 8.25 -8.77 -200.80 -298.68 -414.24 -509.62 -696.04 -1003.18 -1057.44 -1295.57 -1391.75 -1531.60 -1614.01 -1597.93 -1729.90 -1807.22 -1841.72 -1820.93 -1827.06 -1859.05 -1898.65 -1922.52 -1931.93 -1916.57 -1911.11 -1913.65 -1917.18 -1918.76 -1920.03 -1926.04 -1913.74 -1911.35 -1914.89 -1921.24 -1934.20 -1951.43 -1949.35 -1953.84 -2010.95 -2473.40 -3239.98 -3650.57 -3778.02 -3816.46 -3837.44 -3838.51 -3833.66 -3846.66 -3850.20
-2292.95 -2292.88 -2299.96 -2302.16 -2310.63 -2318.41 -2335.22 -2362.56 -2385.82 -2405.52 -2418.86 -2423.03 -2430.54 -2443.37 -2469.23 -2487.50 -2511.45 -2507.92 -2510.20 -2505.69 -2472.67 -2447.17 -2369.07 -2341.16 -2358.55 -2388.09 -2392.99 -2387.07 -2382.74 -2381.44 -2374.27 -2373.72 -2371.74 -2370.98 -2354.80 -2337.00 -2322.12 -2294.26 -2246.59 -2193.74 -2019.12 -1767.22 -1686.24 -1505.69 -1370.94 -1204.76 -1047.03 -900.44 -824.82 -781.92 -632.40 -563.31 -498.16 -480.12 -395.08 -368.94 -295.63 -258.27 -193.96 -157.12 -115.65 -81.55 -62.03 -62.99 -44.30 -25.19 -18.22 -3.17 6.82 8.95 22.42 41.96 50.79 46.62 54.66 53.42 64.57 64.90 72.99 80.67 83.44 89.28 92.17 99.34 103.25 103.79 92.27 68.88 49.28 -11.22 0.97 -58.08 -91.90 -76.11 -307.76 -526.10 -724.83 -711.15 -1115.80 -1312.18 -1478.08 -1532.82 -1652.47 -1745.49 -1751.58 -1747.48 -1820.95 -1891.47 -1886.76 -1876.78 -1895.61 -1919.97 -1917.19 -1938.82 -1945.72 -1926.86 -1926.98 -1933.05 -1926.86 -1931.58 -1938.27 -1939.17 -1932.37 -1926.75 -1931.87 -1937.43 -1960.30 -1965.12 -1976.49 -1965.20 -2015.41 -2757.04 -3145.01 -3672.79 -3827.35 -3843.16 -3839.19 -3842.82 -3840.65 -3854.64 -3854.71
-2319.07 -2318.99 -2331.92 -2310.25 -2322.01 -2325.70 -2364.55 -2384.62 -2400.14 -2427.19 -2445.44 -2440.37 -2466.37 -2487.38 -2485.13 -2522.09 -2538.21 -2523.06 -2534.72 -2520.07 -2497.66 -2494.08 -2463.08 -2438.54 -2457.81 -2475.10 -2430.88 -2406.88 -2399.31 -2390.38 -2383.75 -2379.62 -2378.80 -2375.19 -2367.90 -2350.01 -2333.39 -2302.38 -2252.41 -2166.27 -2029.62 -1837.51 -1784.15 -1639.01 -1435.48 -1246.31 -1036.44 -791.90 -689.81 -623.03 -526.71 -542.37 -538.92 -485.04 -472.43 -425.86 -354.13 -318.47 -273.79 -197.48 -186.51 -147.99 -93.10 -95.05 -70.02 -54.07 -35.88 -28.16 -11.59 -6.58 4.77 30.89 29.98 29.49 37.67 47.05 47.10 52.93 62.27 63.02 67.36 74.93 77.19 69.55 73.94 72.59 40.82 19.84 -39.99 -118.03 -126.22 -237.55 -334.26 -414.51 -529.72 -755.66 -1069.04 -1259.15 -1489.57 -1618.80 -1759.92 -1781.40 -1797.91 -1860.96 -1855.38 -1856.02 -1871.43 -1918.30 -1932.92 -1950.03 -1937.56 -1957.43 -1963.12 -1966.17 -1957.14 -1945.77 -1952.44 -1947.83 -1945.59 -1951.12 -1945.91 -1956.18 -1949.00 -1950.44 -1944.85 -1968.93 -1989.51 -2025.06 -1999.65 -1986.95 -2159.88 -2659.09 -3141.90 -3660.72 -3857.70 -3855.92 -3854.54 -3855.39 -3848.09 -3851.92 -3855.02
-2434.40 -2418.76 -2468.59 -2445.74 -2458.92 -2505.41 -2477.69 -2521.34 -2565.25 -2470.28 -2584.93 -2536.82 -2581.16 -2599.75 -2573.38 -2621.36 -2590.41 -2619.33 -2682.22 -2673.42 -2724.29 -2690.53 -2679.65 -2723.42 -2638.42 -2577.34 -2468.91 -2431.31 -2411.50 -2406.22 -2403.15 -2394.28 -2387.03 -2383.41 -2382.13 -2362.93 -2345.07 -2326.70 -2312.47 -2272.16 -2133.32 -1990.07 -1839.17 -1765.99 -1391.22 -971.43 -709.71 -632.70 -548.49 -511.21 -492.19 -604.20 -587.17 -565.46 -541.58 -521.73 -479.70 -364.22 -441.82 -360.01 -246.31 -164.56 -150.19 -143.10 -132.79 -116.39 -96.55 -72.31 -44.35 -24.78 -10.29 -4.42 -5.79 14.71 21.70 25.61 28.63 37.71 41.92 47.56 52.31 50.02 50.64 37.51 38.53 36.81 12.33 -45.51 -118.68 -161.91 -379.31 -486.02 -511.50 -913.95 -1105.76 -1089.65 -1348.01 -1519.06 -1844.29 -1856.88 -1903.74 -1926.85 -1933.43 -1939.22 -1913.59 -1908.13 -1913.00 -1950.43 -1959.97 -1976.27 -1998.52 -1996.38 -1990.52 -1982.43 -1972.24 -1967.92 -1964.74 -1960.22 -1965.63 -1967.60 -1966.39 -1965.15 -1980.21 -1988.03 -1999.11 -2038.60 -2043.48 -2115.25 -2202.85 -2195.38 -2161.97 -2675.22 -3254.50 -3747.71 -3844.54 -3859.12 -3858.70 -3859.48 -3857.76 -3855.20 -3855.27
-2873.58 -2837.01 -2865.72 -2717.98 -2764.20 -2908.36 -2971.85 -2926.03 -2941.44 -2871.08 -3152.60 -2944.58 -2997.70 -2966.82 -2939.72 -2976.34 -3164.42 -2976.83 -3038.66 -3244.30 -3137.24 -3168.75 -3226.01 -2963.27 -2754.02 -2565.56 -2489.66 -2451.90 -2440.52 -2426.10 -2421.68 -2415.69 -2408.22 -2398.74 -2388.39 -2374.27 -2365.68 -2375.33 -2360.08 -2304.74 -2303.12 -2202.71 -2031.70 -1755.64 -1079.91 -814.91 -698.60 -605.76 -630.83 -623.64 -672.46 -792.47 -825.31 -763.98 -705.71 -689.96 -716.98 -782.59 -567.74 -538.12 -419.14 -321.89 -304.41 -252.14 -246.41 -201.12 -141.42 -118.80 -92.25 -80.12 -80.69 -76.29 -51.49 -41.32 -3.17 4.29 12.69 16.41 12.90 19.69 22.48 24.35 -2.04 -8.17 -23.97 -40.74 -95.89 -190.86 -206.87 -384.05 -643.06 -965.35 -1163.43 -1427.75 -1556.96 -1478.42 -1666.39 -1730.76 -1939.31 -2018.84 -2050.35 -2034.02 -2000.38 -2015.55 -2010.01 -1980.67 -1997.95 -2015.05 -2012.52 -2017.91 -2043.17 -2039.53 -2029.82 -2017.55 -1989.67 -1991.58 -1994.84 -1988.24 -1994.03 -1989.92 -2019.52 -2003.29 -2014.79 -2024.60 -2045.49 -2120.26 -2181.57 -2366.65 -2401.08 -2569.22 -2790.26 -2925.59 -3293.03 -3710.58 -3858.79 -3860.79 -3860.92 -3860.19 -3859.02 -3855.66 -3855.73
-3641.53 -3640.96 -3652.45 -3508.50 -3556.82 -3535.45 -3536.68 -3601.12 -3682.53 -3625.01 -3679.45 -3598.49 -3579.48 -3810.81 -3698.50 -3491.08 -3667.31 -3691.49 -3889.53 -3666.82 -3655.77 -3372.56 -3308.31 -3075.60 -2880.46 -2603.09 -2535.57 -2495.89 -2488.23 -2478.49 -2446.21 -2442.67 -2421.33 -2412.56 -2412.53 -2389.61 -2387.16 -2407.91 -2388.01 -2364.70 -2331.11 -2383.92 -2222.92 -1725.41 -1143.65 -890.10 -903.36 -933.55 -912.60 -859.53 -869.21 -1382.49 -1201.82 -1099.78 -1276.82 -1105.31 -1268.83 -1266.24 -1079.18 -1038.38 -511.90 -526.43 -532.43 -381.80 -285.10 -263.23 -245.18 -218.37 -216.26 -166.97 -122.91 -122.08 -102.67 -78.77 -45.81 -50.39 -49.22 -51.13 -52.71 -55.73 -47.14 -40.58 -45.00 -103.15 -99.44 -172.48 -221.56 -307.00 -354.32 -482.75 -851.13 -1278.61 -1494.96 -1789.07 -2094.05 -2010.79 -2066.53 -2086.01 -2079.40 -2111.77 -2103.78 -2128.78 -2103.39 -2099.36 -2080.50 -2052.71 -2050.84 -2057.33 -2067.54 -2042.69 -2051.25 -2077.33 -2097.35 -2061.84 -2031.69 -2031.48 -2025.59 -2012.73 -2017.10 -2026.56 -2052.96 -2063.53 -2063.10 -2099.44 -2208.49 -2236.52 -2344.16 -2405.36 -2765.82 -3035.03 -3235.06 -3514.42 -3645.84 -3832.59 -3862.45 -3862.99 -3862.66 -3860.58 -3858.71 -3856.59 -3856.66
-4202.68 -4202.32 -4208.49 -4128.89 -4194.97 -4192.23 -4171.99 -4115.71 -4097.59 -4143.91 -4100.20 -4224.72 -4175.09 -4204.04 -4219.09 -4297.95 -4176.76 -4238.54 -4240.92 -4069.55 -3928.16 -3666.86 -3358.88 -3271.87 -2942.12 -2715.33 -2607.58 -2586.69 -2566.70 -2538.25 -2481.97 -2471.96 -2442.74 -2421.91 -2428.70 -2431.65 -2445.64 -2457.62 -2466.24 -2422.28 -2505.48 -2529.99 -2249.39 -1889.28 -1388.28 -1182.16 -1271.28 -1634.00 -1532.20 -1409.65 -1371.17 -1643.83 -1640.89 -1816.11 -1978.24 -1581.75 -1771.77 -1918.44 -1779.64 -1303.37 -1047.22 -819.15 -733.14 -603.20 -463.68 -411.18 -402.92 -423.23 -332.89 -340.31 -227.93 -177.22 -156.99 -156.19 -140.01 -104.67 -126.49 -112.18 -181.13 -111.07 -131.64 -183.91 -152.72 -221.57 -199.37 -269.47 -357.85 -606.00 -614.77 -809.89 -1071.26 -1478.02 -1919.38 -2224.63 -2358.44 -2342.89 -2274.96 -2296.44 -2259.57 -2216.46 -2181.86 -2195.24 -2208.17 -2257.28 -2205.26 -2234.39 -2146.22 -2169.13 -2176.12 -2123.76 -2121.00 -2159.66 -2149.23 -2111.66 -2105.20 -2098.45 -2064.84 -2046.25 -2037.03 -2063.87 -2103.44 -2160.60 -2229.22 -2295.38 -2433.96 -2500.53 -2605.85 -2661.48 -2960.07 -3176.57 -3527.30 -3701.64 -3848.43 -3871.22 -3868.85 -3866.38 -3866.05 -3862.93 -3860.57 -3857.80 -3857.88
-4381.20 -4381.06 -4380.74 -4360.10 -4384.40 -4378.40 -4394.83 -4396.12 -4372.53 -4437.01 -4419.83 -4448.63 -4438.24 -4453.96 -4457.80 -4451.67 -4484.07 -4452.53 -4329.30 -4204.27 -3947.13 -3816.17 -3663.07 -3382.06 -3122.65 -2902.61 -2727.49 -2691.62 -2638.12 -2554.97 -2531.75 -2509.52 -2492.15 -2485.29 -2468.06 -2484.17 -2499.55 -2530.35 -2552.00 -2517.80 -2594.30 -2648.40 -2647.00 -2353.54 -1934.06 -2071.94 -2493.26 -2505.94 -2562.60 -2192.17 -1844.30 -2023.12 -2238.14 -2330.64 -2550.02 -2332.45 -2518.92 -2289.58 -2177.68 -2123.96 -1511.59 -1274.74 -1002.03 -855.15 -732.50 -729.14 -715.79 -527.84 -591.03 -452.09 -312.38 -314.07 -264.82 -262.22 -265.70 -201.98 -212.89 -256.04 -212.88 -280.06 -323.65 -305.75 -311.08 -371.30 -386.18 -391.93 -683.96 -928.50 -1266.24 -1264.80 -1380.40 -1870.08 -2282.95 -2461.53 -2539.42 -2557.67 -2626.98 -2667.56 -2532.14 -2500.13 -2366.01 -2390.29 -2446.57 -2459.06 -2407.81 -2356.06 -2339.91 -2250.44 -2236.98 -2193.76 -2221.30 -2250.13 -2237.45 -2198.91 -2152.99 -2114.89 -2122.44 -2129.12 -2113.86 -2157.78 -2187.89 -2238.47 -2343.60 -2477.98 -2638.48 -2790.77 -2820.71 -2935.05 -3120.74 -3410.61 -3733.32 -3719.82 -3874.72 -3878.69 -3874.86 -3870.97 -3867.80 -3866.00 -3863.87 -3859.39 -3859.46
-4409.17 -4408.79 -4415.55 -4423.98 -4434.95 -4446.82 -4454.70 -4466.92 -4475.17 -4483.17 -4485.76 -4493.98 -4503.12 -4506.48 -4507.17 -4514.36 -4507.84 -4486.94 -4394.54 -4351.93 -4228.04 -4013.25 -3686.82 -3452.08 -3146.70 -2923.30 -2773.33 -2746.48 -2668.89 -2615.61 -2578.95 -2568.63 -2561.85 -2543.07 -2543.62 -2558.35 -2552.53 -2578.69 -2616.17 -2631.32 -2688.86 -2769.71 -2817.95 -2621.02 -2658.77 -2691.16 -3019.25 -3402.36 -3262.32 -3177.97 -2562.82 -2602.62 -2728.52 -2805.37 -3072.02 -2973.94 -3115.73 -3129.52 -2749.26 -2550.59 -2334.87 -1670.98 -1458.94 -1290.69 -1140.63 -973.64 -963.81 -915.62 -783.68 -561.00 -468.25 -356.04 -338.22 -446.01 -430.83 -324.78 -351.93 -381.55 -392.42 -390.59 -528.23 -530.21 -567.47 -478.19 -684.62 -556.77 -712.56 -1353.35 -1658.73 -1587.96 -1542.64 -2048.22 -2448.29 -2682.16 -2721.00 -2808.79 -2805.77 -2966.06 -2935.57 -2716.99 -2461.00 -2590.59 -2649.55 -2552.87 -2689.41 -2597.45 -2455.02 -2417.83 -2420.90 -2433.25 -2379.05 -2346.81 -2308.84 -2304.11 -2296.81 -2178.21 -2227.84 -2253.49 -2199.74 -2233.23 -2304.51 -2381.52 -2445.87 -2732.00 -2823.11 -3037.63 -3091.33 -3386.03 -3513.89 -3713.02 -3855.02 -3897.77 -3895.05 -3885.17 -3880.26 -3877.02 -3871.29 -3869.17 -3866.18 -3860.74 -3860.81
-4417.22 -4417.14 -4425.79 -4442.50 -4448.43 -4459.25 -4464.24 -4479.38 -4488.71 -4497.81 -4505.73 -4512.85 -4518.80 -4520.92 -4524.79 -4525.06 -4516.38 -4499.16 -4472.99 -4421.01 -4257.32 -4024.52 -3850.18 -3487.28 -3375.05 -3047.30 -2952.57 -2817.43 -2749.56 -2682.73 -2682.54 -2691.75 -2675.20 -2693.33 -2664.63 -2633.03 -2687.04 -2695.61 -2681.29 -2770.78 -2842.19 -2892.58 -2966.96 -3138.38 -3275.68 -3490.96 -3802.43 -3979.69 -3886.88 -3497.02 -3241.49 -2921.96 -3197.94 -3417.56 -3525.34 -3475.89 -3513.66 -3507.84 -3338.15 -3103.37 -2746.97 -2361.88 -2082.40 -1639.99 -1514.75 -1457.84 -1297.04 -1198.91 -1158.43 -1121.56 -940.31 -725.36 -683.82 -686.52 -569.75 -587.77 -488.07 -754.47 -586.32 -611.06 -844.71 -891.13 -1153.00 -1241.14 -1120.32 -1022.32 -1185.20 -1609.68 -1827.18 -2115.11 -2164.77 -2368.17 -2717.91 -2945.75 -2941.89 -3012.90 -3151.67 -3424.54 -3387.39 -2989.16 -2742.57 -2788.24 -2939.47 -2938.85 -2934.49 -2926.25 -2766.10 -2691.36 -2647.92 -2674.36 -2650.24 -2458.50 -2415.14 -2480.62 -2439.52 -2331.20 -2311.37 -2421.29 -2429.64 -2415.08 -2400.22 -2524.32 -2657.90 -2876.00 -3117.11 -3110.89 -3373.84 -3603.72 -3716.02 -3839.57 -3895.96 -3905.09 -3899.76 -3890.91 -3884.35 -3881.31 -3873.53 -3870.82 -3867.73 -3862.19 -3862.26
-4425.80 -4425.71 -4436.53 -4448.39 -4460.20 -4469.76 -4489.86 -4493.07 -4503.82 -4507.63 -4519.31 -4526.13 -4530.09 -4535.53 -4536.70 -4537.43 -4527.23 -4518.59 -4503.43 -4450.65 -4396.98 -4292.30 -4026.25 -3665.60 -3441.18 -3306.02 -3093.41 -2960.95 -2838.04 -2796.69 -2835.25 -2806.63 -2833.68 -2844.37 -2933.94 -2882.96 -2825.43 -2914.26 -2928.74 -2900.35 -2900.47 -3054.39 -3088.20 -3524.39 -3795.51 -4117.91 -4173.08 -4240.40 -4185.47 -3982.98 -3741.99 -3498.77 -3503.56 -3672.03 -3864.54 -3853.75 -3756.89 -3676.26 -3576.03 -3503.68 -3049.04 -2569.44 -2356.23 -2256.83 -2062.35 -2042.36 -1867.96 -1672.33 -1576.51 -1534.59 -1483.78 -1462.82 -1278.09 -883.07 -915.28 -932.32 -1196.73 -1163.63 -1059.85 -1034.43 -1218.14 -1401.32 -1466.48 -1728.35 -1570.79 -1746.00 -2235.55 -2277.52 -2712.91 -2748.16 -2649.55 -2786.12 -3081.93 -3161.89 -3277.75 -3313.49 -3512.17 -3676.54 -3592.52 -3496.71 -3303.51 -3287.63 -3313.30 -3222.09 -3217.50 -3104.42 -3032.62 -3088.96 -3105.67 -2975.91 -2844.16 -2599.59 -2552.66 -2546.06 -2532.58 -2537.29 -2558.41 -2588.61 -2548.87 -2695.92 -2811.76 -2900.35 -2985.79 -3255.17 -3369.70 -3420.42 -3616.28 -3775.63 -3842.61 -3909.68 -3916.47 -3909.11 -3899.47 -3893.44 -3889.95 -3881.39 -3876.55 -3872.68 -3869.96 -3864.36 -3863.83
-4434.76 -4434.68 -4444.25 -4463.90 -4467.39 -4479.71 -4493.23 -4505.73 -4511.52 -4525.72 -4535.83 -4540.53 -4544.19 -4549.56 -4551.99 -4551.90 -4544.93 -4541.89 -4549.22 -4529.78 -4462.04 -4330.52 -4041.81 -3816.07 -3564.05 -3380.73 -3225.89 -3106.57 -2934.37 -2922.78 -3002.53 -2985.05 -3066.12 -3134.23 -3198.07 -3089.50 -3067.82 -3066.60 -3240.49 -3181.70 -3283.96 -3266.36 -3327.94 -3531.27 -3917.09 -4214.90 -4321.77 -4308.24 -4271.48 -4135.31 -3975.92 -3853.28 -3828.40 -3916.17 -3984.66 -3941.88 -3867.77 -3900.21 -3845.35 -3725.53 -3361.20 -3005.49 -2793.57 -2695.10 -2657.41 -2410.18 -2320.36 -2113.66 -2097.39 -2530.11 -2526.73 -1845.37 -1562.42 -1193.60 -1184.11 -1371.20 -1790.91 -1695.34 -1621.09 -1613.97 -1695.32 -1819.29 -1820.34 -2264.82 -2486.35 -2777.13 -2774.73 -3236.39 -3524.44 -3514.44 -3142.32 -3255.90 -3372.89 -3452.84 -3575.27 -3663.26 -3686.99 -3784.72 -3776.75 -3687.35 -3711.73 -3625.15 -3542.24 -3605.06 -3497.19 -3407.66 -3358.44 -3467.48 -3387.62 -3273.93 -3082.62 -2841.59 -2663.95 -2789.10 -2709.02 -2683.81 -2743.71 -2861.38 -2804.65 -2924.79 -3077.55 -3133.59 -3168.54 -3546.43 -3607.38 -3637.41 -3782.33 -3901.00 -3909.62 -3927.20 -3929.78 -3918.36 -3912.53 -3901.02 -3890.99 -3884.64 -3878.20 -3874.04 -3869.93 -3865.33 -3865.41
-4443.64 -4443.56 -4457.05 -4465.56 -4479.24 -4492.52 -4507.32 -4514.86 -4527.72 -4535.06 -4546.53 -4550.42 -4551.83 -4559.80 -4563.30 -4563.40 -4558.35 -4555.95 -4554.71 -4549.08 -4468.77 -4398.75 -4182.24 -4004.33 -3792.41 -3574.71 -3369.41 -3237.27 -3287.49 -3102.58 -3182.94 -3197.78 -3275.89 -3542.10 -3492.64 -3492.99 -3400.65 -3338.32 -3466.39 -3471.20 -3518.97 -3543.12 -3607.81 -3831.27 -4136.86 -4235.70 -4340.26 -4342.73 -4313.42 -4244.33 -4178.87 -4122.54 -4087.53 -4094.14 -4028.84 -4053.41 -4080.08 -4111.54 -4116.79 -4120.95 -3714.07 -3400.44 -3389.81 -3343.83 -3353.87 -2850.08 -2646.26 -2794.81 -3250.77 -3097.39 -2966.58 -2439.88 -2040.13 -1863.24 -1841.74 -2173.22 -2021.29 -2089.41 -2203.15 -2123.28 -2179.38 -2557.10 -2613.34 -3010.68 -2998.55 -3357.74 -3782.28 -3848.65 -3904.55 -3888.49 -3695.34 -3566.31 -3503.43 -3608.58 -3767.83 -3928.93 -3945.13 -3959.26 -3893.07 -3909.30 -3931.62 -3773.16 -3795.25 -3871.29 -3853.74 -3770.70 -3678.30 -3643.14 -3595.06 -3463.18 -3249.40 -3168.51 -3120.02 -3107.02 -3019.55 -3038.52 -2974.47 -2951.39 -3056.35 -3359.46 -3446.57 -3632.43 -3718.67 -3817.79 -3824.38 -3845.86 -3893.20 -3944.45 -3946.15 -3935.03 -3941.19 -3928.15 -3916.36 -3900.44 -3891.77 -3885.75 -3879.84 -3878.07 -3872.26 -3867.35 -3866.96
-4452.28 -4452.20 -4466.64 -4477.68 -4487.91 -4507.42 -4517.36 -4527.82 -4537.61 -4546.95 -4557.99 -4563.65 -4568.91 -4573.25 -4577.84 -4574.71 -4567.80 -4562.34 -4561.59 -4555.12 -4549.13 -4473.16 -4422.20 -4270.00 -4051.89 -3844.36 -3645.23 -3647.46 -3565.69 -3419.79 -3445.27 -3467.21 -3461.51 -3642.99 -3748.92 -3863.44 -3865.61 -3700.12 -3636.79 -3660.77 -3734.99 -3774.78 -3961.73 -4138.60 -4355.47 -4352.63 -4351.93 -4350.77 -4329.87 -4302.92 -4266.63 -4247.79 -4203.34 -4166.15 -4102.00 -4149.71 -4206.64 -4235.05 -4261.22 -4207.48 -4119.05 -3971.44 -3895.69 -3665.80 -3543.16 -3379.12 -3350.69 -3624.18 -3714.19 -3494.17 -3209.24 -2791.97 -2592.26 -2651.94 -2442.84 -2537.64 -2629.88 -2708.42 -2767.98 -2764.98 -2720.78 -2883.71 -2955.94 -3605.19 -3800.87 -3747.30 -4058.15 -4121.56 -4063.98 -3970.38 -3907.12 -3764.01 -3800.56 -3823.41 -3940.07 -3972.14 -4009.26 -4021.57 -3995.63 -3997.42 -3981.98 -3985.04 -4010.55 -4067.24 -3971.18 -3939.81 -3906.16 -3788.18 -3781.25 -3817.00 -3595.57 -3546.57 -3340.27 -3348.79 -3302.41 -3416.44 -3255.07 -3277.85 -3441.68 -3650.61 -3656.88 -3810.60 -3928.08 -3970.92 -3955.87 -3932.42 -3948.79 -3956.61 -3952.29 -3948.62 -3940.64 -3927.20 -3911.64 -3905.03 -3895.33 -3889.26 -3884.17 -3880.63 -3874.69 -3868.38 -3868.46
-4460.65 -4460.56 -4472.49 -4484.17 -4498.02 -4512.48 -4523.68 -4535.95 -4546.87 -4555.66 -4566.31 -4572.80 -4578.81 -4582.73 -4583.30 -4579.44 -4574.64 -4568.56 -4565.55 -4562.03 -4557.07 -4545.95 -4498.14 -4380.18 -4221.38 -4091.84 -4114.12 -3975.87 -3972.32 -3647.39 -3695.66 -3785.89 -3829.14 -3814.10 -3869.22 -4103.74 -4000.84 -3876.94 -3900.93 -3895.73 -3954.26 -4029.01 -4169.69 -4357.21 -4374.16 -4376.78 -4365.26 -4357.30 -4327.71 -4306.33 -4294.37 -4265.64 -4250.46 -4215.92 -4217.24 -4245.72 -4263.09 -4279.55 -4295.84 -4293.13 -4248.36 -4221.28 -4122.52 -4043.72 -3900.75 -3822.49 -3863.07 -3848.50 -4033.18 -4015.45 -3856.89 -3318.69 -3251.79 -3244.25 -3278.28 -3178.21 -2972.07 -3106.73 -3221.64 -3075.08 -3119.87 -3327.32 -3402.69 -3713.66 -3995.94 -4028.69 -4190.28 -4178.40 -4150.60 -4064.46 -3962.83 -3938.99 -3919.83 -3918.55 -3986.32 -4013.66 -4024.78 -4029.04 -4028.91 -4027.55 -4037.55 -4048.11 -4057.22 -4076.11 -4078.38 -4041.29 -4055.95 -4001.58 -3988.15 -3989.10 -3885.10 -3775.92 -3758.54 -3731.18 -3704.55 -3816.20 -3685.54 -3667.95 -3732.70 -3842.08 -3893.91 -3958.99 -3988.53 -4009.45 -4001.90 -3990.56 -3970.75 -3964.08 -3963.03 -3956.66 -3944.81 -3926.51 -3915.54 -3907.86 -3898.61 -3892.12 -3886.21 -3880.87 -3874.73 -3869.84 -3869.92
-4468.60 -4468.50 -4482.71 -4489.38 -4509.63 -4518.76 -4533.37 -4545.72 -4554.78 -4565.72 -4576.64 -4583.14 -4590.01 -4595.64 -4591.26 -4582.99 -4578.17 -4570.90 -4566.81 -4561.74 -4560.14 -4554.46 -4539.84 -4517.66 -4423.99 -4404.50 -4297.84 -4276.40 -4149.50 -4099.61 -4196.55 -4281.46 -4109.93 -4142.44 -4226.98 -4239.17 -4202.95 -4194.90 -4210.83 -4184.17 -4123.84 -4210.83 -4278.28 -4376.38 -4392.43 -4387.78 -4378.24 -4361.86 -4328.84 -4312.56 -4299.04 -4292.62 -4289.28 -4279.67 -4278.78 -4302.95 -4309.15 -4318.54 -4328.75 -4330.30 -4340.79 -4325.72 -4309.44 -4239.47 -4177.87 -4246.82 -4205.49 -4218.25 -4265.37 -4200.51 -4078.93 -3693.69 -3575.81 -3560.81 -3708.59 -3509.30 -3580.61 -3667.69 -3725.68 -3530.31 -3693.12 -3788.74 -3678.82 -3846.77 -4124.57 -4195.26 -4204.43 -4194.13 -4168.85 -4125.96 -4110.08 -4044.56 -4015.78 -4021.63 -4032.15 -4028.54 -4028.77 -4029.59 -4031.24 -4033.74 -4044.09 -4050.49 -4060.36 -4073.33 -4084.76 -4097.63 -4103.75 -4075.36 -4086.13 -4084.33 -4024.66 -4012.36 -3994.38 -3975.09 -3943.40 -3984.89 -3920.35 -3918.60 -3901.85 -3988.81 -4024.52 -4040.04 -4031.17 -4022.60 -4010.19 -4000.63 -3983.93 -3973.21 -3973.14 -3956.24 -3941.33 -3927.35 -3919.88 -3909.53 -3901.88 -3893.57 -3888.66 -3881.04 -3875.00 -3871.26 -3871.06
-4476.14 -4476.44 -4486.10 -4501.11 -4517.45 -4528.18 -4542.06 -4552.78 -4566.07 -4576.10 -4581.87 -4592.75 -4599.83 -4599.74 -4594.69 -4587.09 -4581.28 -4574.93 -4568.80 -4564.05 -4559.71 -4557.00 -4550.44 -4535.47 -4514.71 -4522.31 -4487.53 -4410.36 -4422.41 -4433.10 -4432.65 -4464.42 -4437.63 -4332.04 -4301.31 -4295.76 -4398.27 -4403.78 -4399.06 -4332.50 -4360.83 -4371.31 -4391.53 -4391.56 -4408.45 -4402.83 -4382.57 -4347.68 -4339.39 -4317.76 -4305.11 -4298.20 -4297.15 -4298.23 -4308.23 -4314.45 -4322.86 -4330.10 -4341.37 -4343.65 -4350.14 -4354.14 -4347.75 -4336.69 -4306.53 -4329.19 -4352.06 -4351.79 -4344.88 -4331.20 -4174.89 -4014.55 -4027.19 -4051.90 -4013.39 -4049.68 -3844.25 -3950.14 -3976.80 -3874.31 -3958.40 -4097.32 -4083.08 -4172.96 -4238.87 -4233.34 -4223.23 -4205.54 -4180.08 -4149.97 -4111.33 -4090.97 -4071.32 -4064.41 -4057.38 -4043.54 -4035.58 -4034.68 -4034.94 -4034.18 -4041.46 -4049.54 -4059.80 -4068.84 -4082.12 -4097.32 -4106.31 -4116.38 -4122.90 -4124.04 -4113.55 -4078.93 -4073.47 -4089.46 -4086.86 -4079.39 -4083.10 -4072.91 -4073.90 -4056.34 -4060.12 -4049.21 -4037.39 -4029.07 -4011.49 -4000.21 -3986.30 -3981.88 -3973.92 -3957.48 -3947.18 -3932.22 -3921.17 -3914.22 -3903.29 -3897.20 -3891.06 -3884.16 -3877.17 -3872.35 -3872.19
-4483.28 -4483.17 -4494.78 -4510.05 -4523.19 -4535.53 -4547.92 -4562.92 -4572.66 -4584.64 -4590.24 -4599.71 -4605.81 -4603.67 -4596.50 -4588.99 -4583.02 -4576.38 -4569.74 -4564.61 -4556.06 -4551.57 -4546.92 -4546.08 -4543.85 -4540.59 -4520.69 -4494.13 -4513.31 -4524.98 -4512.15 -4514.28 -4474.34 -4412.17 -4455.21 -4452.98 -4476.96 -4474.07 -4479.36 -4459.06 -4420.43 -4436.80 -4437.12 -4419.72 -4415.31 -4412.62 -4390.02 -4358.50 -4347.39 -4320.31 -4307.26 -4298.91 -4297.56 -4300.15 -4306.17 -4320.27 -4334.05 -4342.61 -4346.36 -4351.81 -4358.01 -4359.20 -4359.86 -4351.00 -4357.83 -4363.71 -4355.18 -4353.57 -4359.81 -4355.64 -4353.76 -4294.89 -4213.00 -4294.72 -4338.22 -4273.18 -4199.35 -4140.18 -4163.77 -4195.19 -4201.31 -4245.93 -4269.34 -4263.87 -4251.77 -4243.91 -4224.46 -4205.30 -4183.20 -4159.00 -4128.77 -4106.08 -4089.57 -4081.71 -4066.92 -4062.26 -4055.32 -4049.53 -4039.48 -4039.53 -4043.12 -4053.59 -4061.29 -4067.42 -4082.65 -4095.89 -4105.47 -4114.88 -4122.45 -4125.64 -4122.29 -4121.92 -4116.95 -4113.05 -4105.24 -4099.02 -4089.94 -4082.38 -4081.32 -4065.95 -4062.62 -4049.99 -4042.49 -4032.68 -4017.72 -4008.76 -4001.90 -3994.59 -3978.15 -3963.20 -3948.63 -3936.29 -3925.06 -3917.88 -3908.38 -3898.00 -3891.33 -3884.45 -3879.44 -3872.87 -3872.96
-4489.82 -4489.71 -4502.10 -4516.55 -4529.69 -4543.64 -4557.55 -4567.48 -4577.05 -4587.51 -4598.02 -4605.50 -4609.47 -4607.05 -4597.88 -4591.14 -4585.24 -4577.88 -4571.96 -4563.90 -4553.39 -4548.64 -4545.25 -4543.82 -4541.16 -4538.62 -4537.04 -4524.94 -4535.21 -4529.22 -4522.99 -4515.77 -4512.67 -4480.87 -4490.67 -4474.44 -4500.41 -4497.56 -4497.08 -4495.28 -4483.11 -4467.41 -4450.81 -4434.70 -4423.50 -4412.89 -4384.25 -4361.19 -4339.75 -4320.56 -4309.59 -4298.81 -4296.20 -4300.15 -4306.75 -4321.67 -4340.39 -4350.42 -4355.27 -4358.72 -4356.80 -4357.82 -4359.46 -4356.82 -4361.01 -4367.24 -4364.05 -4361.57 -4360.18 -4357.47 -4358.69 -4356.13 -4346.41 -4358.45 -4364.99 -4359.60 -4336.30 -4284.01 -4271.43 -4288.61 -4299.93 -4305.05 -4293.85 -4270.07 -4256.63 -4246.52 -4230.17 -4209.16 -4190.14 -4160.26 -4138.22 -4113.82 -4102.87 -4093.21 -4081.64 -4071.77 -4071.01 -4059.01 -4051.22 -4045.07 -4050.55 -4057.83 -4069.38 -4076.06 -4082.59 -4095.28 -4105.30 -4115.47 -4118.93 -4122.37 -4124.62 -4126.97 -4124.07 -4117.90 -4110.26 -4099.71 -4088.89 -4083.97 -4081.25 -4071.66 -4065.14 -4052.79 -4042.75 -4032.99 -4027.19 -4020.30 -4016.96 -3997.01 -3976.96 -3962.99 -3947.04 -3938.55 -3926.12 -3917.94 -3907.41 -3899.60 -3892.76 -3886.43 -3879.51 -3874.56 -3874.66
-4495.25 -4495.38 -4508.16 -4521.97 -4535.78 -4549.14 -4561.81 -4573.56 -4584.32 -4593.85 -4601.85 -4608.27 -4609.63 -4605.35 -4596.17 -4588.33 -4584.13 -4576.68 -4572.12 -4563.07 -4553.13 -4547.04 -4541.08 -4538.87 -4538.47 -4536.38 -4537.27 -4538.17 -4537.97 -4534.54 -4525.61 -4521.84 -4515.75 -4508.14 -4502.11 -4501.34 -4501.43 -4501.42 -4500.47 -4498.39 -4489.31 -4477.75 -4458.91 -4443.32 -4431.40 -4410.01 -4388.59 -4366.39 -4345.13 -4327.11 -4312.73 -4302.30 -4298.64 -4301.17 -4308.66 -4322.90 -4343.43 -4356.75 -4358.04 -4359.69 -4358.15 -4359.40 -4358.84 -4356.42 -4366.60 -4366.52 -4363.84 -4361.41 -4359.11 -4358.23 -4358.71 -4360.54 -4356.02 -4362.29 -4360.43 -4365.22 -4356.96 -4325.86 -4322.30 -4323.58 -4313.93 -4303.95 -4289.50 -4268.30 -4255.60 -4242.75 -4227.12 -4211.34 -4191.80 -4167.88 -4147.13 -4125.02 -4110.94 -4098.49 -4088.21 -4083.67 -4078.37 -4066.03 -4055.62 -4051.50 -4057.98 -4065.99 -4072.55 -4078.71 -4086.58 -4093.11 -4101.02 -4110.08 -4118.08 -4122.87 -4125.68 -4125.44 -4123.22 -4119.76 -4112.97 -4103.07 -4092.04 -4091.37 -4084.44 -4075.33 -4066.04 -4055.19 -4045.70 -4037.41 -4031.79 -4026.74 -4018.91 -3999.24 -3979.60 -3964.73 -3950.74 -3938.82 -3928.51 -3918.22 -3908.44 -3901.12 -3893.75 -3886.54 -3880.44 -3876.40 -3876.43
-4495.33 -4495.51 -4508.21 -4522.03 -4535.85 -4549.21 -4561.88 -4573.63 -4584.39 -4593.92 -4602.08 -4608.34 -4609.66 -4605.43 -4596.25 -4588.40 -4584.21 -4576.75 -4572.20 -4563.14 -4553.85 -4547.11 -4541.14 -4538.93 -4538.36 -4536.44 -4537.33 -4538.23 -4538.40 -4534.89 -4526.69 -4521.91 -4515.82 -4508.21 -4504.20 -4501.40 -4501.49 -4501.48 -4500.54 -4498.74 -4489.73 -4478.25 -4458.96 -4443.89 -4431.46 -4410.06 -4386.68 -4365.16 -4345.18 -4327.17 -4312.30 -4302.37 -4298.71 -4301.24 -4309.96 -4324.51 -4343.52 -4358.01 -4358.11 -4359.95 -4358.23 -4359.48 -4358.92 -4356.50 -4366.70 -4366.61 -4363.93 -4361.49 -4359.19 -4358.31 -4358.74 -4360.72 -4356.09 -4362.31 -4360.51 -4365.07 -4357.08 -4325.95 -4322.38 -4323.66 -4315.10 -4304.04 -4289.59 -4268.38 -4256.34 -4242.83 -4227.20 -4211.42 -4191.89 -4167.96 -4147.21 -4128.31 -4111.01 -4098.56 -4088.28 -4083.74 -4080.43 -4069.11 -4055.69 -4051.56 -4058.03 -4066.05 -4072.83 -4078.76 -4087.33 -4092.30 -4101.09 -4110.15 -4118.15 -4123.56 -4125.75 -4125.50 -4123.29 -4119.82 -4112.43 -4102.63 -4091.97 -4091.44 -4084.49 -4075.39 -4065.33 -4055.25 -4045.77 -4037.47 -4031.86 -4026.99 -4018.50 -3999.30 -3979.66 -3964.79 -3950.80 -3938.89 -3928.58 -3918.29 -3908.51 -3901.20 -3893.82 -3886.62 -3880.51 -3876.51 -3876.46
