-5103.84 -5103.77 -5119.56 -5136.98 -5175.43 -5236.13 -5274.35 -5277.22 -5251.77 -5215.48 -5208.92 -5213.14 -5224.56 -5245.79 -5266.09 -5299.25 -5304.28 -5327.30 -5322.95 -5343.15 -5340.66 -5314.15 -5297.04 -5273.12 -5273.42 -5286.83 -5292.30 -5321.07 -5354.47 -5404.09 -5438.42 -5441.63 -5452.50 -5461.14 -5457.26 -5434.64 -5438.65 -5449.44 -5451.64 -5456.73 -5454.80 -5424.94 -5403.24 -5377.83 -5362.74 -5365.29 -5374.00 -5389.45 -5409.12 -5438.02 -5464.31 -5475.41 -5481.64 -5489.36 -5495.41 -5516.28 -5538.95 -5534.65 -5529.04 -5521.93 -5510.91 -5503.57 -5500.15 -5497.31 -5497.55 -5500.41 -5497.18 -5490.83 -5482.83 -5477.87 -5471.94 -5467.47 -5466.15 -5455.94 -5373.79 -5081.03 -4312.82 -4025.74 -3600.53 -3368.37 -2842.59 -2574.28 -2290.04 -2785.57 -3134.93 -5984.44 -6258.11 -4915.54 -3408.14 -2008.66 -1587.90 -1681.48 -3015.71 -3865.14 -4244.29 -4239.50 -4244.78 -3979.93 -3748.83 -2611.95 -1834.98 -1381.29 -1248.97 -1470.47 -1919.32 -2522.68 -3158.40 -3666.54 -7004.61 -8246.10 -8723.33 -8740.83 -8750.27 -8752.84 -8711.81 -8468.78 -7131.56 -5303.41 -2781.67 -2304.05 -2228.83 -2262.14 -2301.03 -2313.64 -2314.30 -2325.29 -2333.69 -2356.20 -2372.09 -2398.51 -2413.45 -2453.59 -2526.34 -2615.24 -2725.30 -2851.20 -3101.31 -3330.83 -3646.49 -3776.02 -3776.19
-5118.16 -5119.93 -5132.18 -5150.55 -5179.92 -5229.00 -5268.10 -5273.41 -5261.46 -5223.40 -5209.12 -5210.65 -5223.79 -5231.74 -5249.53 -5281.48 -5295.35 -5302.97 -5315.32 -5318.92 -5321.42 -5309.33 -5279.78 -5267.60 -5268.91 -5273.63 -5278.59 -5319.97 -5345.31 -5374.55 -5414.44 -5431.11 -5432.12 -5434.57 -5440.35 -5425.54 -5418.05 -5410.36 -5412.73 -5424.18 -5431.06 -5414.13 -5392.09 -5369.00 -5360.15 -5363.40 -5374.40 -5388.85 -5413.81 -5446.51 -5462.70 -5474.23 -5484.90 -5493.62 -5508.52 -5538.29 -5545.90 -5541.04 -5532.69 -5525.38 -5514.21 -5505.39 -5503.60 -5503.85 -5504.62 -5509.29 -5500.62 -5493.58 -5487.33 -5485.14 -5481.92 -5478.42 -5471.19 -5466.61 -5386.88 -5107.69 -4539.49 -3704.93 -3365.08 -3138.31 -2725.68 -2381.32 -2266.40 -3294.27 -4813.83 -6724.47 -6248.83 -4185.51 -2618.65 -1153.78 -1007.49 -2155.32 -2805.50 -3625.85 -4084.46 -4011.16 -4010.81 -3760.53 -3550.02 -2964.80 -1982.43 -1431.17 -1271.39 -1432.10 -2024.79 -2608.17 -3659.18 -4494.34 -6930.53 -8527.76 -8729.67 -8738.47 -8749.89 -8752.03 -8734.69 -8539.05 -7469.29 -5239.70 -2997.92 -2353.31 -2245.38 -2287.19 -2305.28 -2328.30 -2345.65 -2353.35 -2361.68 -2373.22 -2381.25 -2406.60 -2422.75 -2455.00 -2529.46 -2613.66 -2721.73 -2815.55 -3038.25 -3324.45 -3571.43 -3677.36 -3677.44
-5125.78 -5125.71 -5138.34 -5154.83 -5180.84 -5211.29 -5264.12 -5267.30 -5252.10 -5226.79 -5208.78 -5210.79 -5226.22 -5237.29 -5259.47 -5272.86 -5290.78 -5298.37 -5307.54 -5309.75 -5307.85 -5287.26 -5273.97 -5267.87 -5267.10 -5272.28 -5285.06 -5306.06 -5342.03 -5376.99 -5397.19 -5418.70 -5421.59 -5424.10 -5422.64 -5408.76 -5407.22 -5403.98 -5406.21 -5412.80 -5413.70 -5406.48 -5386.54 -5368.70 -5363.49 -5367.60 -5382.99 -5387.33 -5426.29 -5440.12 -5468.36 -5481.34 -5488.30 -5495.71 -5511.53 -5536.91 -5541.08 -5545.36 -5534.25 -5526.81 -5516.47 -5514.81 -5513.18 -5509.00 -5508.45 -5514.24 -5506.25 -5497.63 -5491.35 -5486.52 -5484.62 -5484.39 -5454.84 -5358.54 -5288.29 -5056.76 -4596.79 -3963.03 -3233.27 -2890.94 -2643.57 -2402.83 -2449.20 -3116.38 -4316.92 -7208.84 -7338.23 -3791.26 -1938.96 -813.80 -1059.23 -1881.15 -3083.76 -3554.55 -3820.39 -3637.32 -3584.13 -3549.04 -3350.38 -2869.21 -1862.64 -1402.45 -1203.99 -1410.85 -1911.20 -2490.87 -3081.78 -4381.33 -6596.04 -8128.52 -8653.51 -8732.50 -8749.36 -8753.83 -8756.03 -8722.20 -7626.45 -5892.63 -3398.00 -2368.63 -2285.72 -2286.80 -2312.96 -2341.57 -2365.86 -2376.72 -2385.24 -2397.01 -2405.38 -2420.74 -2433.43 -2472.11 -2492.10 -2564.69 -2629.13 -2755.96 -3040.14 -3311.35 -3481.86 -3679.99 -3680.06
-5129.77 -5131.33 -5143.74 -5160.38 -5173.74 -5202.79 -5247.42 -5253.98 -5241.87 -5222.34 -5216.45 -5223.33 -5226.99 -5243.53 -5262.59 -5281.97 -5298.92 -5308.45 -5316.38 -5317.21 -5317.16 -5299.75 -5284.85 -5276.12 -5271.79 -5272.82 -5282.38 -5297.83 -5344.43 -5374.01 -5396.26 -5408.11 -5409.87 -5412.94 -5417.11 -5408.96 -5410.98 -5407.52 -5410.60 -5421.40 -5422.46 -5419.10 -5400.79 -5386.19 -5390.06 -5391.16 -5406.36 -5429.07 -5453.88 -5454.23 -5480.95 -5486.67 -5497.94 -5502.96 -5522.48 -5547.11 -5538.41 -5541.61 -5534.82 -5526.45 -5520.19 -5517.04 -5514.41 -5512.26 -5507.77 -5516.17 -5507.31 -5494.79 -5491.35 -5487.96 -5484.25 -5470.66 -5392.58 -5252.61 -5172.73 -4726.38 -4495.96 -3927.64 -3458.10 -2813.76 -2686.91 -2297.27 -2157.66 -3943.71 -5279.17 -7358.63 -6887.73 -3924.96 -1822.22 -929.48 -1176.37 -1856.06 -2438.74 -3718.29 -3651.91 -3378.13 -3137.48 -3054.81 -2906.51 -2499.74 -1744.18 -1340.27 -1209.61 -1603.17 -1942.64 -2494.91 -3180.50 -4410.02 -6211.04 -7916.69 -8454.56 -8732.77 -8748.41 -8757.56 -8760.05 -8662.32 -8224.18 -5983.19 -3606.90 -2468.82 -2281.64 -2287.78 -2324.83 -2354.37 -2378.01 -2394.66 -2397.03 -2412.92 -2420.45 -2432.19 -2444.71 -2466.49 -2496.83 -2595.91 -2671.97 -2792.03 -2937.51 -3217.31 -3509.04 -3690.09 -3690.20
-5129.65 -5129.57 -5143.97 -5159.29 -5170.06 -5177.85 -5189.94 -5222.21 -5225.53 -5220.01 -5225.59 -5228.07 -5232.03 -5248.80 -5276.32 -5300.96 -5318.58 -5330.71 -5336.00 -5339.04 -5331.47 -5319.03 -5294.38 -5284.46 -5281.72 -5281.97 -5289.91 -5302.76 -5335.42 -5364.94 -5385.99 -5388.79 -5393.92 -5400.56 -5406.35 -5415.08 -5414.57 -5434.48 -5437.71 -5458.47 -5448.93 -5441.51 -5434.06 -5441.58 -5447.21 -5444.59 -5456.63 -5481.12 -5477.07 -5488.50 -5506.44 -5516.51 -5510.00 -5517.51 -5533.97 -5557.10 -5540.08 -5535.42 -5530.25 -5527.15 -5523.36 -5519.65 -5516.87 -5514.46 -5510.81 -5510.38 -5504.45 -5494.90 -5492.44 -5489.94 -5481.04 -5461.63 -5404.55 -5153.54 -4822.14 -4521.79 -4151.63 -4084.64 -3669.18 -2950.80 -2665.72 -2204.70 -2141.61 -2744.87 -4204.30 -7055.94 -6982.56 -4686.27 -1637.03 -1114.94 -1260.80 -1903.33 -2833.98 -3580.82 -3465.03 -2895.22 -2784.24 -2820.67 -2782.71 -2299.69 -1772.32 -1468.33 -1333.34 -1575.23 -1980.03 -2551.29 -3373.24 -3983.68 -6514.21 -7711.86 -8483.08 -8711.80 -8763.90 -8767.65 -8768.75 -8743.45 -8599.24 -6716.67 -4637.11 -2546.75 -2299.43 -2286.81 -2322.00 -2356.12 -2389.74 -2411.49 -2428.06 -2433.65 -2436.75 -2450.58 -2461.75 -2494.62 -2538.60 -2594.91 -2688.52 -2769.76 -2936.39 -3204.43 -3505.20 -3629.73 -3651.13
-5120.72 -5120.64 -5137.83 -5153.47 -5163.85 -5167.55 -5173.27 -5171.15 -5190.70 -5215.47 -5230.46 -5234.72 -5247.42 -5264.52 -5297.81 -5329.01 -5351.04 -5361.89 -5358.94 -5361.42 -5360.99 -5347.04 -5328.90 -5313.74 -5302.92 -5302.23 -5311.99 -5316.20 -5323.23 -5339.06 -5346.40 -5351.99 -5357.41 -5375.53 -5391.41 -5418.93 -5460.71 -5472.80 -5472.48 -5466.54 -5465.44 -5470.87 -5471.94 -5470.56 -5483.80 -5492.84 -5494.89 -5506.35 -5510.10 -5529.13 -5537.28 -5535.26 -5531.35 -5538.53 -5541.63 -5568.17 -5549.71 -5536.40 -5529.03 -5526.40 -5524.56 -5522.68 -5518.54 -5519.03 -5518.61 -5513.22 -5506.52 -5495.80 -5494.47 -5492.81 -5473.17 -5471.28 -5392.08 -5008.07 -4584.38 -4093.92 -3896.29 -3709.76 -3278.41 -2792.18 -2425.98 -2111.88 -2112.10 -2580.50 -5026.79 -6488.63 -6733.39 -4823.70 -1445.24 -1135.63 -1302.37 -1888.38 -2654.53 -3238.40 -3084.47 -2594.06 -2572.86 -2458.28 -2407.10 -2076.25 -1915.53 -1404.59 -1438.47 -1639.54 -1999.53 -2549.14 -2986.01 -4084.45 -6344.82 -7392.13 -8346.02 -8767.68 -8772.26 -8778.66 -8777.01 -8762.22 -8485.09 -7551.91 -4268.49 -2821.83 -2298.81 -2290.92 -2309.50 -2342.79 -2406.51 -2435.57 -2444.15 -2459.23 -2466.20 -2476.69 -2491.01 -2507.69 -2554.62 -2581.57 -2695.18 -2814.37 -2996.82 -3252.99 -3508.09 -3642.82 -3642.99
-5112.51 -5112.43 -5129.41 -5141.35 -5162.87 -5160.73 -5163.52 -5157.93 -5168.47 -5212.31 -5226.77 -5241.03 -5255.78 -5269.30 -5324.73 -5349.26 -5375.59 -5384.52 -5394.97 -5395.88 -5383.14 -5359.29 -5343.77 -5328.13 -5319.34 -5315.93 -5316.78 -5318.77 -5316.61 -5310.24 -5305.28 -5306.78 -5330.65 -5335.55 -5365.01 -5426.49 -5475.41 -5497.07 -5490.33 -5478.74 -5481.03 -5484.08 -5488.73 -5487.33 -5492.84 -5498.79 -5508.78 -5515.73 -5525.00 -5538.87 -5537.97 -5543.71 -5554.20 -5566.28 -5558.35 -5566.59 -5555.55 -5537.90 -5530.42 -5524.60 -5526.29 -5521.82 -5516.81 -5517.31 -5517.42 -5513.28 -5505.03 -5497.21 -5496.22 -5487.85 -5441.03 -5386.94 -5261.04 -4907.14 -4438.06 -3881.24 -3704.29 -3582.89 -3254.57 -2845.24 -2418.00 -2191.21 -2203.87 -2622.75 -4837.21 -6666.37 -6457.46 -4170.51 -1400.02 -1058.63 -1304.92 -1781.77 -2326.87 -2237.28 -2435.10 -2327.71 -2316.79 -2111.49 -2057.87 -2104.73 -1883.01 -1373.01 -1372.93 -1864.36 -2173.12 -2800.98 -3381.62 -4917.52 -6446.80 -7627.70 -8662.63 -8779.08 -8790.08 -8792.66 -8798.59 -8781.50 -8557.81 -7216.02 -5512.78 -2871.45 -2367.33 -2289.22 -2296.51 -2334.87 -2409.50 -2447.85 -2470.71 -2475.06 -2484.41 -2492.89 -2513.04 -2527.53 -2549.78 -2595.00 -2687.03 -2793.83 -3072.56 -3258.57 -3451.74 -3499.83 -3499.96
-5105.89 -5107.98 -5120.11 -5138.30 -5155.88 -5161.92 -5161.30 -5157.04 -5155.26 -5183.73 -5209.29 -5222.52 -5238.24 -5281.61 -5330.50 -5380.16 -5401.16 -5414.23 -5411.39 -5415.02 -5407.89 -5396.00 -5362.79 -5340.07 -5334.51 -5333.39 -5326.52 -5322.08 -5313.08 -5300.43 -5294.71 -5293.64 -5295.91 -5310.49 -5351.31 -5430.80 -5495.18 -5502.29 -5500.59 -5489.35 -5488.56 -5493.38 -5493.18 -5500.11 -5501.47 -5508.37 -5515.45 -5519.79 -5526.36 -5539.80 -5545.92 -5549.93 -5563.28 -5572.55 -5566.82 -5562.57 -5555.07 -5541.66 -5532.39 -5526.33 -5525.50 -5522.81 -5514.55 -5512.06 -5514.15 -5504.83 -5500.87 -5497.19 -5497.21 -5483.08 -5452.75 -5352.98 -5137.84 -4789.27 -4165.08 -3881.84 -3560.63 -3474.09 -3045.56 -2831.77 -2423.01 -2219.97 -2186.08 -2673.26 -4694.53 -6480.56 -6043.43 -3492.99 -1530.15 -891.55 -1000.32 -1389.30 -1578.49 -1953.86 -1856.79 -1980.24 -2097.67 -1981.92 -1876.02 -1879.70 -1838.45 -1347.58 -1515.92 -1870.99 -2277.80 -2738.99 -3661.39 -4800.31 -6228.21 -7593.22 -8609.29 -8788.92 -8794.83 -8798.49 -8798.20 -8792.37 -8745.19 -8185.61 -5400.35 -3141.25 -2414.17 -2273.15 -2283.92 -2358.38 -2407.91 -2475.79 -2488.13 -2499.71 -2503.65 -2515.81 -2527.31 -2547.66 -2562.88 -2616.33 -2684.71 -2744.38 -2960.21 -3152.44 -3352.27 -3395.01 -3395.15
-5107.05 -5106.99 -5121.38 -5137.59 -5154.79 -5163.27 -5161.55 -5144.94 -5126.51 -5140.69 -5159.57 -5179.76 -5206.25 -5263.69 -5328.10 -5380.51 -5412.65 -5418.30 -5428.52 -5425.18 -5417.62 -5404.14 -5362.41 -5354.82 -5349.82 -5340.27 -5330.95 -5325.91 -5309.14 -5299.26 -5280.96 -5275.70 -5281.79 -5300.29 -5349.30 -5419.28 -5490.36 -5509.99 -5508.94 -5503.98 -5500.27 -5503.38 -5507.23 -5506.72 -5509.85 -5514.48 -5516.25 -5527.29 -5533.66 -5545.55 -5551.58 -5559.30 -5572.40 -5576.33 -5567.56 -5561.74 -5551.43 -5541.42 -5534.90 -5526.94 -5524.30 -5520.59 -5514.87 -5509.59 -5508.40 -5503.71 -5498.02 -5495.37 -5490.08 -5445.29 -5361.05 -5166.35 -5021.73 -4836.34 -4425.55 -3700.23 -3643.50 -3300.66 -3001.52 -2687.59 -2549.81 -2445.79 -2279.07 -2552.30 -4868.82 -6336.23 -5516.65 -2327.35 -832.82 -601.56 -748.64 -1113.31 -1147.21 -1261.77 -1559.70 -1809.76 -1818.86 -1742.86 -1823.70 -1838.63 -1566.42 -1376.64 -1589.88 -1870.68 -2298.22 -2701.36 -3578.71 -4691.73 -5797.02 -7764.64 -8680.95 -8790.61 -8796.75 -8806.26 -8816.98 -8820.78 -8785.58 -8096.20 -5227.06 -3242.15 -2598.90 -2256.47 -2265.97 -2369.35 -2443.71 -2489.56 -2505.46 -2514.24 -2523.07 -2529.58 -2541.03 -2552.57 -2576.58 -2626.16 -2671.13 -2756.36 -2887.16 -3102.09 -3227.80 -3309.71 -3309.78
-5109.68 -5109.61 -5124.86 -5141.29 -5154.90 -5161.20 -5163.85 -5141.14 -5115.62 -5113.29 -5116.74 -5129.00 -5148.23 -5254.50 -5298.38 -5370.50 -5420.47 -5435.95 -5437.41 -5431.02 -5419.29 -5405.84 -5392.26 -5365.85 -5354.79 -5346.04 -5338.06 -5325.28 -5313.64 -5295.61 -5278.23 -5274.35 -5281.14 -5293.23 -5351.04 -5432.63 -5482.68 -5502.48 -5516.13 -5514.50 -5519.27 -5510.31 -5513.98 -5516.23 -5520.90 -5523.82 -5527.35 -5534.64 -5541.72 -5550.85 -5557.00 -5566.76 -5574.69 -5573.99 -5570.70 -5562.33 -5552.95 -5546.79 -5533.47 -5528.91 -5525.41 -5520.79 -5514.70 -5508.62 -5504.28 -5499.29 -5494.40 -5494.23 -5485.47 -5420.55 -5313.98 -5159.22 -4869.29 -4732.99 -4295.26 -3848.10 -3462.72 -3056.37 -2831.30 -2705.84 -2558.25 -2397.01 -2400.80 -2702.16 -4340.81 -5239.73 -4393.13 -1451.97 -599.07 -371.77 -523.80 -708.92 -890.02 -1072.02 -1355.14 -1564.58 -1685.18 -1716.64 -1761.99 -1733.51 -1423.30 -1254.69 -1551.55 -1846.01 -2583.06 -3982.63 -4482.75 -6106.96 -7126.80 -8400.92 -8706.70 -8797.33 -8806.59 -8820.69 -8826.35 -8831.42 -8792.19 -8172.41 -6266.78 -3823.11 -2653.43 -2273.35 -2261.15 -2337.49 -2415.57 -2488.42 -2518.94 -2520.43 -2533.59 -2538.63 -2545.78 -2565.48 -2586.14 -2612.96 -2681.92 -2729.59 -2899.33 -3107.53 -3216.31 -3304.06 -3304.17
-5107.48 -5107.40 -5120.41 -5133.40 -5146.86 -5157.72 -5160.58 -5145.99 -5121.61 -5110.30 -5108.89 -5111.73 -5135.09 -5185.33 -5282.21 -5345.93 -5411.23 -5432.04 -5432.72 -5435.23 -5425.69 -5406.62 -5385.68 -5356.49 -5349.82 -5344.31 -5339.32 -5332.07 -5318.79 -5300.24 -5288.39 -5283.86 -5285.19 -5298.38 -5357.02 -5429.85 -5489.45 -5511.37 -5517.59 -5522.07 -5526.50 -5519.25 -5516.35 -5519.77 -5528.03 -5532.79 -5537.18 -5543.70 -5548.32 -5554.40 -5562.83 -5569.33 -5577.24 -5574.71 -5572.59 -5562.98 -5552.60 -5544.74 -5535.97 -5531.47 -5524.72 -5519.70 -5512.50 -5507.68 -5500.04 -5494.55 -5491.63 -5490.55 -5480.97 -5400.38 -5272.57 -4981.48 -4617.38 -4344.53 -4161.11 -3781.47 -3357.60 -2993.61 -2783.43 -2625.07 -2539.53 -2419.12 -2316.86 -2517.04 -3022.98 -3926.05 -2229.37 -730.94 -205.51 -178.71 -268.87 -558.69 -849.73 -1110.32 -1404.69 -1604.88 -1621.98 -1649.49 -1694.36 -1536.87 -1303.12 -1169.57 -1418.50 -1994.09 -2871.59 -5565.95 -5403.03 -6883.83 -7927.53 -8392.97 -8793.17 -8803.92 -8810.05 -8830.07 -8836.16 -8841.25 -8819.81 -8660.33 -7604.12 -4347.39 -2709.50 -2305.16 -2239.63 -2320.92 -2375.86 -2503.99 -2517.08 -2531.71 -2534.22 -2542.71 -2554.96 -2574.99 -2602.05 -2632.69 -2684.90 -2731.13 -2873.76 -3074.53 -3181.96 -3228.34 -3228.47
-5092.69 -5093.70 -5108.06 -5122.06 -5136.58 -5151.37 -5153.49 -5144.29 -5126.42 -5119.55 -5127.62 -5131.31 -5150.63 -5170.29 -5247.73 -5293.63 -5337.25 -5411.26 -5422.30 -5427.35 -5424.46 -5395.63 -5374.40 -5355.62 -5344.05 -5342.22 -5339.33 -5334.75 -5320.46 -5311.71 -5303.01 -5291.63 -5300.27 -5322.03 -5350.80 -5415.08 -5446.17 -5501.13 -5507.11 -5525.76 -5531.28 -5517.89 -5517.59 -5533.23 -5542.67 -5543.22 -5544.76 -5547.62 -5555.14 -5560.77 -5568.27 -5572.64 -5578.80 -5575.78 -5569.68 -5562.35 -5552.65 -5545.94 -5534.44 -5529.83 -5523.43 -5519.03 -5504.96 -5501.95 -5491.17 -5487.86 -5487.22 -5488.07 -5469.98 -5402.22 -5253.30 -4858.88 -4572.09 -4246.64 -3871.52 -3557.65 -3340.54 -2999.21 -2743.40 -2559.87 -2452.88 -2397.85 -2219.22 -2251.46 -2672.17 -2803.93 -1371.84 -348.68 -10.60 2.73 -82.43 -515.36 -930.25 -1285.86 -1471.31 -1558.50 -1584.19 -1614.03 -1647.59 -1562.13 -1148.98 -1124.09 -1551.83 -2274.21 -3034.38 -4364.45 -5566.11 -6727.93 -7513.39 -8166.80 -8521.74 -8799.20 -8809.38 -8834.38 -8838.78 -8841.51 -8822.91 -8445.37 -7305.54 -4951.53 -2937.65 -2281.48 -2228.78 -2290.18 -2375.71 -2461.12 -2514.31 -2525.92 -2537.48 -2548.15 -2559.36 -2580.49 -2611.38 -2646.48 -2691.78 -2758.76 -2850.18 -3006.03 -3055.18 -3161.34 -3161.41
-5077.64 -5077.56 -5092.80 -5106.24 -5117.79 -5129.92 -5139.40 -5140.64 -5138.80 -5141.79 -5146.10 -5154.11 -5162.49 -5174.89 -5200.16 -5246.31 -5318.30 -5368.85 -5392.87 -5406.34 -5408.54 -5388.43 -5355.81 -5347.61 -5342.15 -5339.48 -5336.80 -5335.57 -5333.54 -5327.09 -5331.81 -5330.06 -5324.01 -5339.67 -5361.86 -5395.59 -5433.09 -5453.15 -5467.12 -5486.85 -5499.74 -5500.77 -5508.08 -5536.69 -5550.53 -5553.31 -5557.26 -5558.88 -5563.10 -5566.24 -5572.67 -5574.69 -5578.10 -5573.24 -5569.05 -5560.43 -5553.40 -5543.49 -5537.50 -5529.40 -5524.70 -5515.56 -5505.10 -5491.09 -5484.68 -5484.24 -5482.20 -5482.31 -5469.22 -5343.82 -5159.56 -4843.00 -4369.11 -4252.10 -3750.31 -3353.41 -3155.56 -2801.61 -2614.41 -2425.71 -2107.90 -2098.20 -2050.95 -1846.42 -1700.29 -1331.15 -884.60 -86.07 2.62 -6.06 -43.42 -447.66 -1123.21 -1376.97 -1429.42 -1503.29 -1543.77 -1561.21 -1580.47 -1500.03 -1254.25 -1372.73 -1673.03 -2266.28 -3408.11 -3825.71 -5057.32 -5582.50 -6082.95 -7444.16 -8504.32 -8785.51 -8799.41 -8829.35 -8832.56 -8849.11 -8821.95 -8507.94 -7615.31 -5374.38 -3112.97 -2331.47 -2206.82 -2278.95 -2391.57 -2465.10 -2505.92 -2523.91 -2532.12 -2544.86 -2562.36 -2578.14 -2615.98 -2659.52 -2704.22 -2808.03 -2867.41 -2976.84 -3077.72 -3171.53 -3177.59
-5070.61 -5073.00 -5085.54 -5096.74 -5111.41 -5125.38 -5132.91 -5142.66 -5146.93 -5151.77 -5158.58 -5166.48 -5178.91 -5184.13 -5200.48 -5211.47 -5252.34 -5300.78 -5357.36 -5390.83 -5391.25 -5382.21 -5357.40 -5348.29 -5342.04 -5341.25 -5339.85 -5341.70 -5346.13 -5346.59 -5345.03 -5344.36 -5348.78 -5356.61 -5370.91 -5390.20 -5410.26 -5425.88 -5443.58 -5452.11 -5471.09 -5500.84 -5520.13 -5544.10 -5537.02 -5550.83 -5565.36 -5566.37 -5569.26 -5572.98 -5576.10 -5580.18 -5581.43 -5574.94 -5569.76 -5560.68 -5554.31 -5544.35 -5538.20 -5530.01 -5518.55 -5511.07 -5499.19 -5488.82 -5479.56 -5479.24 -5478.43 -5476.98 -5459.00 -5370.09 -5247.91 -4872.23 -4406.39 -4026.18 -3760.47 -3363.89 -3115.55 -2876.79 -2494.49 -2056.33 -1927.01 -1980.77 -1916.62 -1516.01 -1325.70 -1027.69 -410.60 -139.14 -19.06 -37.46 -146.25 -365.41 -755.25 -1310.62 -1477.57 -1488.40 -1489.13 -1513.10 -1542.67 -1356.18 -1267.63 -1468.33 -1782.76 -2250.11 -2914.03 -3703.31 -4406.76 -5031.41 -6210.00 -8199.75 -8684.89 -8778.07 -8780.09 -8796.39 -8817.90 -8828.51 -8826.27 -8669.43 -8244.00 -5302.55 -3156.21 -2317.38 -2206.70 -2286.27 -2403.23 -2463.88 -2499.71 -2523.09 -2525.99 -2532.60 -2546.76 -2577.22 -2620.56 -2660.59 -2722.38 -2823.15 -2933.91 -3048.19 -3147.40 -3227.45 -3227.52
-5078.25 -5080.84 -5090.04 -5102.90 -5114.91 -5124.34 -5137.67 -5144.19 -5153.22 -5158.84 -5170.78 -5179.72 -5185.06 -5191.32 -5199.27 -5209.83 -5229.04 -5264.23 -5317.77 -5364.12 -5385.05 -5383.79 -5363.36 -5354.94 -5349.04 -5345.47 -5344.15 -5347.35 -5355.00 -5355.99 -5355.39 -5356.63 -5359.47 -5369.18 -5376.93 -5391.07 -5409.66 -5424.31 -5437.06 -5449.71 -5461.58 -5492.80 -5508.50 -5532.67 -5541.74 -5553.63 -5572.30 -5573.67 -5578.72 -5578.52 -5581.57 -5583.13 -5583.09 -5578.69 -5575.12 -5565.04 -5560.51 -5545.22 -5540.37 -5527.24 -5519.23 -5509.75 -5497.16 -5487.00 -5481.32 -5475.97 -5472.78 -5468.26 -5450.25 -5373.31 -5271.47 -4852.41 -4515.18 -3988.54 -3624.56 -3239.57 -3052.53 -2653.27 -2310.60 -2015.10 -1677.76 -1328.95 -1439.51 -1184.25 -963.39 -753.84 -410.78 -111.24 -58.58 -47.22 -48.32 -43.78 -362.49 -917.04 -1514.39 -1478.44 -1443.15 -1494.62 -1441.25 -1329.94 -1205.80 -1264.12 -1559.02 -2187.99 -2824.76 -3754.78 -4223.84 -5725.22 -7529.21 -8394.99 -8754.92 -8763.08 -8758.41 -8768.64 -8803.65 -8813.56 -8801.95 -8764.64 -8156.40 -6465.40 -3223.13 -2325.36 -2244.84 -2290.11 -2373.46 -2436.38 -2486.39 -2514.54 -2518.68 -2522.16 -2543.63 -2584.40 -2614.07 -2667.26 -2722.78 -2787.16 -2938.77 -3069.67 -3150.05 -3219.59 -3219.66
-5092.46 -5092.41 -5100.08 -5111.69 -5127.51 -5136.07 -5146.09 -5157.44 -5165.55 -5166.32 -5183.58 -5189.56 -5193.15 -5201.58 -5206.62 -5210.08 -5216.40 -5234.32 -5273.38 -5328.99 -5382.36 -5386.02 -5378.72 -5367.09 -5367.56 -5364.55 -5364.12 -5361.26 -5363.16 -5368.24 -5365.25 -5363.16 -5366.61 -5370.96 -5385.78 -5400.29 -5425.63 -5444.20 -5472.05 -5472.09 -5474.56 -5497.51 -5509.02 -5533.40 -5547.07 -5567.58 -5571.78 -5579.02 -5583.43 -5579.21 -5583.59 -5586.81 -5585.06 -5581.51 -5575.01 -5570.30 -5562.17 -5552.10 -5545.93 -5532.75 -5519.65 -5511.83 -5498.63 -5487.00 -5478.65 -5475.00 -5469.28 -5455.49 -5437.80 -5363.11 -5228.45 -4935.51 -4547.45 -4095.54 -3607.59 -3368.60 -2788.52 -2543.11 -2067.93 -1724.09 -1476.63 -1229.10 -1114.77 -944.57 -877.89 -724.67 -423.30 -50.56 -25.26 -32.37 -17.49 -14.66 -107.11 -301.77 -709.40 -781.22 -1257.27 -1476.97 -1438.91 -996.30 -810.15 -1002.69 -1731.66 -2093.00 -2709.31 -3662.00 -4666.77 -6081.96 -7977.91 -8392.78 -8715.00 -8727.34 -8715.50 -8749.30 -8775.05 -8768.30 -8743.51 -8732.15 -8143.68 -6177.48 -3993.08 -2365.39 -2249.82 -2304.39 -2351.95 -2436.13 -2490.18 -2513.10 -2515.20 -2518.10 -2537.97 -2582.80 -2614.59 -2654.05 -2719.08 -2754.05 -2921.97 -2973.23 -3197.67 -3239.79 -3241.14
-5117.14 -5117.11 -5134.25 -5136.83 -5145.88 -5152.51 -5167.56 -5176.54 -5180.38 -5193.43 -5207.38 -5209.78 -5213.95 -5219.39 -5213.41 -5217.11 -5217.89 -5227.51 -5246.38 -5298.93 -5358.74 -5383.08 -5401.38 -5406.43 -5411.26 -5412.07 -5414.00 -5408.61 -5391.67 -5374.87 -5369.79 -5368.13 -5371.64 -5380.27 -5395.34 -5424.76 -5444.64 -5488.91 -5494.10 -5510.14 -5516.63 -5523.20 -5531.08 -5544.08 -5555.07 -5567.23 -5579.63 -5584.30 -5588.22 -5585.99 -5590.24 -5589.00 -5589.69 -5577.44 -5580.46 -5570.74 -5567.18 -5556.65 -5546.58 -5533.90 -5520.47 -5511.73 -5502.40 -5490.33 -5479.16 -5473.27 -5463.29 -5451.17 -5422.72 -5366.71 -5255.19 -4952.53 -4646.87 -4141.99 -3819.44 -3591.21 -3095.84 -2795.56 -2107.43 -1691.53 -1295.34 -1026.36 -941.01 -778.96 -762.01 -449.60 -220.45 -24.33 9.59 2.30 1.49 0.81 -10.95 -83.90 -136.13 -549.75 -800.63 -1280.90 -1344.14 -994.02 -855.16 -1139.48 -1535.69 -2452.15 -2991.10 -3396.81 -4836.62 -6231.23 -7571.61 -8349.43 -8674.83 -8693.38 -8703.96 -8669.65 -8698.59 -8670.14 -8633.02 -8635.69 -8235.69 -6446.61 -3498.11 -2307.02 -2175.22 -2255.18 -2331.36 -2442.56 -2489.84 -2507.16 -2509.83 -2512.73 -2524.45 -2568.68 -2614.08 -2654.22 -2710.70 -2753.68 -2870.15 -3013.61 -3165.75 -3306.26 -3306.34
-5155.73 -5163.06 -5167.69 -5171.13 -5177.65 -5191.99 -5207.33 -5218.08 -5223.35 -5238.80 -5239.25 -5244.64 -5259.48 -5258.03 -5247.48 -5228.36 -5220.31 -5223.85 -5234.09 -5268.82 -5328.62 -5403.04 -5440.09 -5446.81 -5466.84 -5461.95 -5465.20 -5454.06 -5421.96 -5383.02 -5367.51 -5362.29 -5365.72 -5377.28 -5407.99 -5449.34 -5488.43 -5515.31 -5537.07 -5556.75 -5577.64 -5565.73 -5572.95 -5566.06 -5570.26 -5576.93 -5589.58 -5598.50 -5603.10 -5597.42 -5592.32 -5585.32 -5583.26 -5583.82 -5577.31 -5573.41 -5568.32 -5562.18 -5550.65 -5540.16 -5520.63 -5515.79 -5503.91 -5491.21 -5476.43 -5466.13 -5459.26 -5450.45 -5408.53 -5354.64 -5212.86 -5068.67 -4647.77 -4235.15 -3815.90 -3537.55 -3097.77 -2627.46 -2275.09 -1715.87 -1201.87 -972.77 -729.19 -309.13 -202.75 -214.60 -33.41 9.26 20.78 18.51 24.97 27.29 -6.89 -11.96 -28.42 -83.63 -312.35 -497.44 -864.72 -768.45 -914.91 -1257.11 -1736.06 -2331.72 -2920.26 -3752.24 -4854.08 -6210.06 -7568.90 -8436.64 -8647.69 -8665.16 -8632.65 -8599.69 -8590.49 -8550.96 -8481.38 -8420.20 -8249.98 -6566.05 -3701.25 -2192.07 -2073.06 -2166.29 -2330.94 -2421.07 -2459.90 -2490.54 -2500.79 -2509.56 -2518.92 -2541.47 -2575.12 -2586.84 -2658.71 -2732.79 -2895.10 -3002.62 -3178.88 -3272.58 -3290.71
-5194.13 -5193.39 -5196.74 -5204.92 -5222.75 -5227.95 -5236.91 -5245.43 -5261.44 -5271.05 -5279.76 -5281.66 -5284.91 -5267.43 -5259.95 -5231.62 -5223.02 -5222.83 -5228.76 -5251.31 -5296.42 -5396.15 -5474.05 -5516.27 -5521.45 -5526.51 -5503.85 -5493.23 -5410.93 -5390.32 -5367.44 -5355.06 -5359.19 -5373.97 -5400.85 -5490.46 -5533.90 -5584.25 -5597.57 -5600.20 -5621.86 -5612.27 -5607.95 -5595.97 -5582.80 -5588.62 -5596.35 -5604.68 -5605.98 -5601.93 -5588.96 -5587.98 -5590.88 -5591.69 -5584.35 -5576.76 -5572.88 -5562.70 -5551.36 -5525.93 -5513.37 -5502.97 -5494.60 -5484.70 -5474.55 -5464.69 -5461.20 -5445.73 -5421.47 -5393.88 -5228.53 -5078.26 -4859.66 -4452.99 -4144.42 -3532.47 -2945.54 -2543.79 -2127.62 -1627.01 -1215.79 -958.19 -341.17 -112.47 -30.87 -7.99 6.75 21.63 46.75 46.93 50.27 57.70 27.96 0.34 -22.86 -58.78 -69.83 -88.97 -477.92 -543.06 -752.07 -1404.32 -1744.64 -2440.36 -3226.09 -3912.48 -4608.14 -6489.66 -7651.58 -8358.20 -8575.88 -8578.90 -8558.10 -8448.12 -8464.68 -8455.72 -8366.22 -8225.73 -8108.25 -4694.48 -3382.68 -2071.27 -2014.37 -2152.37 -2335.36 -2423.37 -2465.74 -2477.14 -2494.61 -2493.92 -2505.84 -2517.78 -2545.85 -2581.67 -2630.80 -2778.67 -2887.93 -3042.72 -3187.60 -3233.25 -3233.43
-5220.22 -5224.18 -5231.70 -5238.44 -5245.51 -5254.12 -5256.56 -5275.88 -5287.04 -5295.14 -5300.16 -5305.75 -5310.92 -5292.98 -5267.58 -5241.65 -5225.59 -5222.63 -5228.89 -5247.22 -5278.84 -5379.82 -5462.86 -5533.85 -5573.00 -5567.30 -5556.49 -5523.68 -5464.70 -5394.70 -5368.04 -5354.52 -5360.23 -5378.92 -5404.98 -5508.75 -5556.01 -5609.60 -5622.72 -5640.28 -5652.57 -5657.45 -5628.92 -5609.92 -5598.17 -5602.85 -5612.00 -5610.52 -5602.84 -5588.36 -5578.18 -5573.84 -5570.30 -5577.39 -5587.48 -5581.19 -5581.18 -5576.22 -5568.98 -5542.41 -5527.38 -5507.72 -5489.62 -5485.47 -5464.75 -5447.36 -5437.94 -5437.71 -5417.86 -5394.10 -5241.32 -5063.56 -4778.85 -4397.99 -3750.97 -3097.19 -2705.61 -2172.58 -1822.75 -1369.27 -895.64 -405.73 -145.84 -44.67 6.05 4.11 32.47 57.50 75.67 80.32 90.82 82.65 62.20 57.72 26.27 -15.80 -18.85 -31.89 -59.93 -124.55 -617.27 -1466.33 -1954.19 -2401.90 -3033.59 -3855.12 -4763.72 -6227.78 -7820.24 -8353.30 -8390.19 -8128.03 -8210.64 -8333.22 -8341.08 -8264.60 -8121.43 -8097.95 -7782.61 -5398.27 -3000.23 -2009.58 -1965.25 -2128.99 -2266.24 -2414.74 -2445.80 -2463.09 -2480.87 -2486.72 -2487.31 -2500.96 -2528.92 -2578.96 -2617.12 -2692.44 -2848.58 -2929.96 -3060.13 -3113.63 -3113.73
-5240.86 -5240.81 -5242.45 -5250.01 -5255.47 -5266.77 -5276.73 -5285.38 -5295.61 -5301.86 -5309.01 -5314.87 -5317.62 -5309.55 -5277.16 -5249.47 -5228.22 -5223.63 -5231.25 -5248.25 -5282.31 -5361.77 -5427.29 -5537.29 -5580.20 -5590.86 -5578.59 -5552.83 -5478.12 -5427.82 -5375.95 -5360.78 -5364.92 -5391.04 -5440.10 -5482.24 -5517.77 -5605.05 -5618.95 -5640.91 -5653.53 -5669.91 -5647.92 -5618.09 -5619.82 -5618.45 -5626.77 -5625.08 -5627.87 -5584.51 -5573.33 -5560.33 -5554.28 -5568.25 -5585.68 -5586.33 -5585.41 -5580.40 -5574.46 -5565.45 -5538.72 -5518.45 -5495.82 -5492.80 -5472.64 -5447.02 -5435.21 -5431.68 -5415.33 -5402.85 -5210.32 -4922.87 -4447.31 -4239.02 -3518.52 -2807.57 -2454.62 -2030.71 -1607.39 -1304.65 -425.19 -135.95 -45.83 8.81 38.20 47.47 55.22 66.98 96.78 103.09 97.94 92.53 90.08 75.61 43.13 31.34 39.92 20.66 -14.07 -78.42 -262.79 -924.23 -2009.66 -2294.73 -2525.35 -3604.79 -4108.53 -5564.23 -5942.25 -6550.18 -7342.73 -7199.00 -7711.29 -8052.89 -8107.43 -8027.83 -7920.29 -7897.75 -7416.49 -5074.04 -2855.05 -2018.53 -1904.13 -2073.61 -2214.18 -2389.31 -2441.93 -2460.37 -2472.79 -2473.41 -2474.65 -2485.01 -2529.27 -2544.37 -2565.06 -2657.43 -2745.27 -2862.48 -2971.77 -3075.32 -3075.40
-5251.76 -5251.70 -5255.20 -5263.33 -5267.86 -5272.42 -5279.44 -5287.88 -5297.55 -5307.11 -5311.40 -5316.37 -5319.93 -5303.90 -5284.78 -5247.12 -5224.02 -5223.64 -5231.82 -5248.04 -5281.13 -5343.82 -5440.69 -5479.08 -5573.23 -5592.26 -5583.31 -5555.36 -5504.56 -5437.73 -5384.44 -5370.21 -5367.23 -5378.70 -5393.12 -5441.68 -5454.69 -5455.64 -5515.51 -5548.77 -5627.98 -5648.02 -5638.43 -5630.46 -5628.11 -5641.66 -5659.39 -5651.63 -5642.87 -5616.88 -5600.02 -5561.90 -5572.11 -5572.00 -5591.69 -5592.99 -5592.31 -5581.78 -5577.15 -5566.31 -5557.43 -5533.52 -5508.36 -5485.52 -5483.76 -5446.23 -5433.88 -5426.25 -5407.44 -5347.21 -5123.00 -4641.08 -4282.08 -3779.01 -3500.63 -2580.22 -2159.00 -1868.50 -1618.87 -1032.68 -186.34 3.95 22.10 40.26 50.32 69.78 95.16 110.13 134.78 129.28 128.57 125.54 113.22 110.37 91.51 53.58 47.05 39.17 19.39 -76.50 -134.30 -358.23 -883.50 -1706.60 -2080.55 -1921.24 -2271.45 -3471.84 -3469.91 -5085.59 -6243.68 -6727.96 -7289.93 -7674.61 -7799.57 -7606.12 -7586.64 -7527.42 -6924.41 -4811.81 -2859.70 -1857.34 -1844.24 -2045.65 -2195.09 -2304.47 -2419.57 -2459.60 -2462.57 -2462.19 -2457.73 -2451.81 -2471.90 -2493.93 -2561.32 -2645.39 -2722.68 -2906.81 -3019.88 -3055.00 -3059.84
-5259.12 -5259.06 -5263.57 -5266.60 -5269.82 -5274.06 -5279.45 -5284.00 -5293.82 -5302.28 -5306.39 -5311.63 -5312.62 -5299.92 -5281.03 -5252.97 -5229.32 -5229.50 -5236.05 -5250.35 -5271.10 -5332.84 -5380.19 -5465.03 -5536.43 -5562.70 -5560.44 -5551.05 -5502.44 -5430.92 -5386.01 -5372.78 -5332.36 -5311.42 -5272.39 -5088.61 -4791.24 -5024.92 -5144.21 -5169.61 -5419.02 -5499.97 -5533.14 -5579.08 -5623.58 -5639.02 -5673.06 -5677.89 -5662.69 -5656.99 -5639.71 -5625.03 -5597.49 -5604.95 -5606.41 -5605.62 -5596.33 -5587.11 -5586.17 -5581.96 -5566.99 -5551.57 -5538.94 -5518.69 -5497.72 -5458.59 -5438.42 -5424.07 -5396.88 -5324.19 -5078.12 -4646.32 -4284.22 -3693.41 -3314.93 -2655.87 -2156.61 -1984.86 -1414.47 -565.74 -77.67 20.19 51.82 73.53 81.02 93.67 118.98 134.90 155.60 159.10 169.07 180.45 198.31 131.14 108.15 110.63 70.37 38.60 13.61 -63.31 -232.64 -410.26 -535.42 -351.47 -295.89 -632.95 -1092.41 -1243.72 -1769.15 -3795.57 -5222.80 -6469.57 -6772.74 -7177.98 -7358.03 -7378.50 -7066.29 -7123.96 -6462.05 -4808.01 -2273.90 -1786.68 -1832.54 -2003.71 -2174.25 -2317.63 -2406.41 -2450.41 -2460.73 -2459.73 -2448.16 -2442.95 -2449.82 -2472.92 -2554.68 -2633.18 -2740.37 -2861.96 -2957.46 -3046.36 -3046.44
-5267.15 -5267.99 -5267.31 -5269.03 -5270.88 -5275.88 -5276.81 -5279.56 -5285.46 -5287.68 -5286.02 -5291.00 -5292.61 -5280.21 -5277.68 -5245.94 -5236.76 -5239.32 -5242.61 -5258.44 -5281.49 -5318.12 -5325.62 -5302.43 -5362.41 -5425.02 -5493.02 -5491.56 -5454.59 -5428.00 -5381.90 -5319.06 -5067.23 -4843.94 -4624.76 -4291.68 -3711.97 -3597.69 -3971.56 -4211.61 -4511.55 -4493.17 -5010.25 -5425.61 -5386.99 -5640.88 -5676.94 -5679.05 -5674.55 -5666.68 -5652.64 -5644.55 -5621.35 -5630.25 -5618.38 -5607.31 -5602.05 -5597.94 -5595.03 -5590.15 -5578.48 -5561.12 -5549.67 -5531.37 -5499.84 -5459.51 -5433.54 -5419.44 -5394.47 -5334.81 -5183.73 -4844.31 -4372.42 -3626.11 -3393.32 -2619.94 -2220.28 -2033.30 -1102.16 -376.72 7.91 46.75 79.44 98.23 129.97 133.35 179.24 307.70 373.72 416.52 424.12 270.60 282.26 357.59 371.14 322.68 66.62 42.34 19.19 -52.71 -194.64 -1461.95 -2103.18 -671.63 -837.54 -642.54 -452.09 -469.31 -563.71 -1184.41 -2714.33 -5498.95 -6408.98 -6711.85 -6967.04 -6967.73 -6690.32 -6574.65 -6075.23 -3853.98 -2614.27 -1635.63 -1750.02 -1980.25 -2127.67 -2325.18 -2395.51 -2455.48 -2465.22 -2453.34 -2440.65 -2434.78 -2437.97 -2456.33 -2524.40 -2618.15 -2762.13 -2911.51 -2991.02 -3072.10 -3072.09
-5291.48 -5291.45 -5300.41 -5285.07 -5289.61 -5293.08 -5285.16 -5280.59 -5275.59 -5275.51 -5277.15 -5278.13 -5280.08 -5278.60 -5269.53 -5249.50 -5247.72 -5257.20 -5260.72 -5274.26 -5282.42 -5286.71 -5275.70 -5031.70 -4719.51 -4627.36 -5024.30 -5206.31 -5171.71 -5340.83 -5204.53 -4826.11 -4550.49 -4131.63 -3587.72 -3111.57 -2806.10 -2814.43 -3034.66 -3016.75 -3346.92 -3811.38 -3746.71 -4396.39 -4739.91 -5121.77 -5650.42 -5646.22 -5666.64 -5665.72 -5659.07 -5656.78 -5647.98 -5639.36 -5633.53 -5627.52 -5614.76 -5605.75 -5607.29 -5602.30 -5588.66 -5574.38 -5564.20 -5537.54 -5520.46 -5471.21 -5452.37 -5418.77 -5371.23 -5212.11 -4967.22 -4480.34 -4127.71 -3698.79 -2952.32 -2313.31 -1873.71 -1171.72 -551.23 -140.55 29.79 65.89 90.21 128.18 153.09 224.74 420.17 571.89 661.38 830.03 758.90 627.13 624.05 713.63 672.55 518.63 201.22 54.86 14.10 -49.37 -480.61 -1486.21 -4070.88 -2487.44 -2079.45 -1680.83 -1836.93 -728.13 -656.26 -586.42 -2148.53 -4332.10 -6317.34 -6219.96 -6433.84 -6056.40 -6059.54 -5996.10 -5498.91 -4536.62 -2169.88 -1647.66 -1679.62 -1883.04 -2027.46 -2224.35 -2391.52 -2462.38 -2465.72 -2447.62 -2429.80 -2421.85 -2414.76 -2453.76 -2504.64 -2552.54 -2726.76 -2896.24 -3003.95 -3121.89 -3121.96
-5352.47 -5359.49 -5364.16 -5358.43 -5345.32 -5324.83 -5321.31 -5296.23 -5304.34 -5308.68 -5288.08 -5295.52 -5300.06 -5291.33 -5282.47 -5277.31 -5291.03 -5297.54 -5301.60 -5302.14 -5297.44 -5236.91 -4897.61 -4343.39 -3628.00 -3760.70 -3771.69 -4476.76 -4562.77 -4861.87 -4627.62 -3905.82 -3293.70 -2983.78 -2669.13 -2374.36 -2240.26 -2244.24 -2369.59 -2424.42 -2605.05 -2619.41 -2866.33 -3208.83 -3985.46 -4447.98 -5077.97 -5459.98 -5531.80 -5442.23 -5506.67 -5589.58 -5648.55 -5613.52 -5637.41 -5635.22 -5623.79 -5622.42 -5620.26 -5618.48 -5609.95 -5593.93 -5577.77 -5558.46 -5530.19 -5509.06 -5501.79 -5480.69 -5341.14 -5107.78 -4704.27 -4303.02 -4000.35 -3676.67 -2948.55 -1660.40 -623.98 -233.80 -109.75 14.02 55.04 80.15 104.06 147.80 190.64 287.60 467.54 753.31 1044.89 1222.37 1133.49 1081.30 1230.07 1129.86 1255.55 822.78 236.35 63.82 -5.78 -46.70 -333.09 -2163.86 -5884.54 -4742.60 -3770.14 -3316.23 -2553.26 -1862.44 -1049.24 -1169.19 -2514.67 -5228.04 -5993.06 -5637.60 -5633.08 -5585.24 -5606.37 -5888.48 -5642.06 -4537.92 -2180.90 -1615.99 -1654.48 -1944.36 -2107.36 -2224.70 -2381.23 -2449.10 -2453.60 -2441.27 -2424.39 -2407.20 -2402.84 -2420.40 -2457.04 -2568.45 -2689.34 -2890.97 -3042.68 -3107.91 -3105.47
-5463.46 -5452.86 -5440.32 -5434.70 -5414.18 -5404.44 -5390.06 -5373.95 -5336.03 -5348.54 -5339.61 -5335.19 -5341.37 -5357.34 -5382.27 -5349.86 -5369.41 -5354.14 -5351.54 -5342.07 -5329.01 -5190.99 -4510.61 -3488.17 -2784.21 -2670.75 -3104.97 -3431.47 -3368.17 -3802.57 -3986.41 -3325.85 -2472.19 -2210.58 -2131.80 -1994.49 -1788.84 -1914.29 -1860.48 -2177.79 -1979.63 -2345.86 -2480.57 -2693.62 -3057.16 -3419.33 -4418.25 -4892.00 -4933.02 -5002.72 -5156.00 -5398.06 -5373.26 -5521.23 -5605.28 -5632.92 -5627.76 -5638.32 -5637.71 -5630.54 -5623.58 -5616.21 -5600.87 -5587.01 -5559.51 -5538.35 -5427.93 -5448.93 -5321.78 -4912.28 -4573.48 -4099.21 -3691.20 -3357.20 -2443.17 -386.82 -110.14 -12.81 20.99 59.04 77.58 100.53 136.24 177.55 203.90 253.52 309.24 666.25 1005.60 1063.48 1344.31 1462.86 1511.52 1406.19 1330.29 609.42 396.59 168.62 35.42 -24.74 -428.80 -1879.52 -5938.36 -5354.66 -4823.95 -4435.76 -3745.77 -3088.48 -2429.69 -1953.21 -2386.76 -3000.15 -2700.26 -2425.56 -2675.34 -2300.54 -3819.83 -4332.35 -4482.98 -4842.52 -2200.92 -1830.63 -1738.01 -1898.26 -2202.00 -2337.90 -2389.84 -2430.67 -2436.37 -2421.19 -2405.37 -2395.63 -2395.48 -2412.45 -2462.56 -2564.56 -2680.71 -2865.98 -2967.30 -3090.72 -3090.77
-5550.45 -5550.32 -5520.54 -5511.01 -5503.59 -5508.52 -5505.87 -5475.35 -5462.43 -5435.19 -5420.11 -5404.09 -5442.23 -5445.54 -5447.80 -5438.47 -5421.86 -5457.20 -5456.92 -5445.53 -5386.39 -5171.81 -4336.32 -3512.01 -2372.40 -2261.58 -2261.97 -2441.39 -2605.16 -2919.25 -2938.31 -2632.21 -2232.91 -1922.20 -1585.17 -991.08 -1053.16 -990.58 -1211.09 -1418.96 -1441.22 -2183.71 -2346.18 -2378.80 -2439.22 -2617.95 -3224.19 -3695.63 -4119.66 -3835.86 -3936.64 -4273.61 -4616.78 -4896.80 -5308.98 -5429.82 -5630.34 -5606.87 -5543.75 -5602.29 -5610.34 -5623.58 -5570.90 -5536.72 -5461.60 -5219.28 -5214.44 -4600.95 -4263.57 -3906.74 -3343.05 -3456.01 -3501.68 -2990.40 -1957.02 -288.27 25.01 48.38 51.44 69.05 96.09 118.99 161.77 187.67 233.08 253.27 303.62 450.75 526.79 714.98 875.01 1101.97 1231.40 1439.81 1453.29 886.11 740.79 185.52 73.17 -13.31 -55.03 -850.82 -4392.15 -5997.47 -5460.59 -4912.51 -4771.52 -4578.07 -4063.83 -3009.79 -2442.86 -1519.64 -1095.77 -1118.62 -1210.24 -1424.31 -1836.39 -2261.38 -2939.69 -4087.03 -2974.31 -2124.19 -1736.05 -1917.16 -2129.03 -2290.85 -2392.58 -2413.43 -2412.85 -2404.61 -2383.42 -2383.13 -2393.10 -2392.37 -2435.79 -2570.05 -2667.33 -2897.29 -3055.93 -3077.37 -3075.12
-5598.19 -5598.10 -5599.54 -5577.29 -5562.64 -5557.33 -5548.24 -5531.72 -5539.94 -5529.72 -5521.13 -5504.01 -5507.44 -5525.49 -5527.98 -5576.39 -5574.09 -5623.09 -5562.96 -5558.08 -5509.92 -5159.40 -4143.98 -3208.06 -2387.72 -2287.80 -2296.14 -2308.37 -2249.23 -2335.26 -2414.59 -2349.68 -1971.79 -1426.53 -866.40 -540.35 -249.79 -207.29 -411.97 -381.95 -432.96 -1278.37 -2325.41 -2372.03 -2027.81 -2418.49 -2601.63 -2679.39 -2844.87 -2830.45 -3042.79 -3183.57 -3601.73 -3936.64 -4491.60 -5083.33 -5251.50 -5389.77 -5401.46 -5462.46 -5420.85 -5152.76 -5323.62 -5278.97 -4979.79 -4632.82 -4550.20 -3726.47 -3572.34 -2794.62 -2782.69 -2553.39 -2167.42 -1635.78 -587.31 -55.08 48.07 67.17 80.29 88.99 106.93 131.32 173.45 209.65 238.27 275.39 318.01 342.58 413.76 498.98 569.32 665.77 887.72 1180.59 1356.76 1259.98 981.89 640.46 256.09 2.90 -69.36 -418.59 -3943.51 -6180.86 -5691.57 -5215.94 -4956.80 -4972.77 -4872.71 -4321.37 -3448.76 -2677.52 -1541.24 -1097.00 -932.74 -879.31 -1252.81 -1312.19 -1894.33 -2944.97 -2564.80 -2040.38 -1788.57 -1913.57 -2049.16 -2218.53 -2336.46 -2376.58 -2390.77 -2381.67 -2373.58 -2364.74 -2371.75 -2385.65 -2426.38 -2499.37 -2620.12 -2820.07 -2955.35 -3062.58 -3062.64
-5603.27 -5603.22 -5602.32 -5600.94 -5598.03 -5597.07 -5594.02 -5593.51 -5605.61 -5603.69 -5591.73 -5604.78 -5595.23 -5623.63 -5641.64 -5651.47 -5650.96 -5679.63 -5678.35 -5680.41 -5587.04 -5313.37 -4227.75 -3486.44 -2632.29 -2629.12 -2730.51 -2687.53 -2366.53 -2252.10 -2234.08 -2117.77 -1961.69 -828.70 -375.04 -75.02 -76.37 -76.79 -71.89 -98.72 -164.91 -464.38 -1221.12 -850.47 -1128.51 -1993.94 -2185.52 -2388.10 -2386.89 -2455.62 -2528.85 -2478.54 -2467.99 -3372.28 -3380.84 -3821.68 -4230.53 -4540.18 -4546.53 -4662.05 -4392.23 -4619.87 -4387.11 -4477.97 -3986.29 -3408.31 -2897.62 -2762.90 -2509.81 -2499.43 -2135.63 -1795.39 -1616.88 -1121.29 23.74 41.70 59.14 83.06 100.39 114.74 133.37 153.44 177.76 209.65 243.60 276.91 332.19 351.17 380.61 443.33 475.23 509.55 653.24 915.96 1019.69 1248.33 1131.05 724.20 217.50 60.90 -11.92 -68.64 -396.02 -1274.07 -4571.40 -5016.21 -5212.92 -5066.41 -5153.15 -5179.43 -4498.68 -3590.12 -2826.86 -1794.88 -1194.01 -961.18 -909.04 -978.43 -1235.98 -1708.91 -2181.45 -2042.27 -1789.05 -1943.80 -2115.78 -2246.05 -2330.60 -2345.95 -2369.60 -2372.33 -2361.27 -2356.07 -2362.25 -2390.03 -2418.08 -2510.75 -2621.96 -2868.66 -3037.28 -3196.23 -3196.46
-5595.57 -5596.63 -5598.56 -5599.15 -5599.37 -5599.53 -5601.53 -5620.20 -5627.03 -5637.56 -5639.68 -5645.33 -5656.31 -5668.90 -5694.18 -5740.25 -5759.85 -5770.02 -5776.15 -5757.12 -5662.33 -5510.81 -4803.61 -3893.66 -3833.14 -3462.35 -3707.39 -3746.38 -2973.71 -2644.36 -2342.71 -2100.92 -1620.99 -581.52 -196.58 -57.49 -33.42 -31.81 -26.17 -39.59 -54.13 -159.06 -290.72 -336.42 -395.62 -1253.86 -1530.29 -1741.78 -1955.97 -2209.89 -2192.42 -2238.27 -2341.50 -2307.72 -2577.45 -2930.85 -3097.07 -3170.51 -3234.49 -3129.22 -3150.83 -3359.38 -3081.35 -3275.18 -2991.84 -2657.14 -2650.09 -2498.80 -2496.56 -2524.10 -1528.04 -355.09 -157.82 28.03 42.54 67.59 95.69 104.06 109.96 130.62 155.61 174.06 203.89 232.70 246.16 303.00 328.72 347.44 383.27 442.65 460.20 477.15 489.68 560.09 678.18 1045.78 1165.38 803.66 390.96 123.99 69.97 -2.38 -95.02 -202.67 -2268.42 -4353.41 -5553.64 -5266.33 -5191.34 -5288.39 -5224.94 -5055.88 -3815.19 -3363.54 -2434.46 -1372.45 -1126.97 -940.04 -953.55 -1073.69 -1421.96 -1745.40 -1726.48 -1860.20 -2084.80 -2166.20 -2285.47 -2330.74 -2343.26 -2348.32 -2351.86 -2345.50 -2358.18 -2384.88 -2440.83 -2580.66 -2684.47 -2872.13 -3067.56 -3262.55 -3262.60
-5600.92 -5600.12 -5602.13 -5605.17 -5603.24 -5607.93 -5615.73 -5628.59 -5648.77 -5651.56 -5664.50 -5673.35 -5675.61 -5695.63 -5732.42 -5759.25 -5787.98 -5794.94 -5805.68 -5804.27 -5768.29 -5656.59 -5294.56 -4982.45 -4877.40 -5105.41 -5003.31 -4526.61 -3525.51 -2852.02 -2518.64 -2370.18 -1944.98 -929.23 -94.16 -66.58 -33.33 3.42 7.81 -9.23 -34.04 -59.64 -77.13 -108.87 -121.86 -177.82 -271.80 -437.02 -672.34 -1055.61 -1472.35 -1708.84 -2203.23 -2274.75 -2299.00 -2324.13 -2463.59 -2574.53 -2463.59 -2528.08 -2497.54 -2448.93 -2523.70 -2566.51 -2594.69 -2445.87 -2424.54 -2478.27 -2261.94 -1254.92 -507.71 20.61 34.29 48.87 63.60 92.69 111.14 135.45 138.92 150.97 154.42 194.89 211.25 240.11 245.90 290.11 329.67 338.28 367.24 428.97 446.13 451.50 484.13 500.97 569.48 745.11 1024.49 989.57 712.82 374.97 87.33 43.34 12.99 -2.20 -991.80 -4015.45 -5606.61 -5474.23 -5207.22 -5165.45 -5234.30 -5320.54 -5167.45 -4692.63 -3643.50 -2953.29 -2445.52 -1413.90 -1231.15 -1118.82 -1095.45 -1221.79 -1506.48 -1742.28 -1875.41 -2064.95 -2145.03 -2269.77 -2323.21 -2333.17 -2319.81 -2326.29 -2345.75 -2386.23 -2447.17 -2558.42 -2729.15 -2855.92 -3062.95 -3218.68 -3251.50
-5616.07 -5614.60 -5616.01 -5616.31 -5620.04 -5621.38 -5626.68 -5638.71 -5671.41 -5680.77 -5688.95 -5692.57 -5702.74 -5716.71 -5744.29 -5788.19 -5803.16 -5812.90 -5815.76 -5819.16 -5805.73 -5780.39 -5716.94 -5617.36 -5619.23 -5639.24 -5478.05 -5279.46 -4638.31 -3861.88 -3055.88 -2599.04 -1625.17 -479.66 -91.99 -74.00 -32.02 -2.89 18.19 15.36 9.26 -1.43 -2.75 -27.02 -50.13 -81.54 -102.95 -92.50 -253.54 -401.02 -333.97 -390.09 -1225.72 -1936.30 -1918.56 -1916.77 -2081.49 -2161.25 -2172.39 -2181.90 -2140.14 -2203.79 -2274.49 -2264.01 -2390.44 -2416.61 -2528.86 -2405.44 -1595.37 -407.39 -7.85 36.48 47.81 61.45 78.58 106.25 148.05 174.66 172.47 174.12 184.24 207.99 217.61 237.82 254.47 280.73 322.33 342.89 371.15 398.04 414.29 421.46 441.77 478.87 517.40 667.15 877.66 1111.96 948.21 733.56 112.69 102.04 99.91 31.12 -5.50 -1746.14 -4957.51 -5536.13 -5588.25 -5111.25 -5115.34 -5195.03 -5324.29 -5234.25 -4900.93 -4297.66 -3789.82 -3082.75 -2135.35 -1305.14 -1068.26 -933.51 -1220.31 -1495.95 -1731.90 -1868.36 -2103.97 -2202.51 -2290.93 -2296.76 -2301.16 -2314.13 -2336.50 -2363.18 -2436.75 -2534.87 -2647.75 -2779.79 -3045.72 -3199.54 -3235.59
-5635.26 -5635.18 -5641.20 -5639.11 -5633.39 -5642.31 -5647.42 -5658.24 -5686.29 -5701.57 -5698.63 -5709.94 -5714.13 -5725.50 -5766.05 -5802.27 -5812.13 -5819.73 -5821.94 -5824.50 -5817.77 -5800.13 -5769.36 -5764.17 -5750.52 -5738.59 -5726.74 -5593.99 -5397.59 -5055.26 -3837.56 -2823.94 -1603.65 -541.26 -94.62 -75.15 -20.05 1.54 17.17 26.63 27.06 27.00 23.88 19.56 2.27 -32.01 -58.55 -56.31 -65.00 -73.17 -87.98 -142.33 -377.00 -751.83 -1353.63 -1547.68 -1668.63 -1714.84 -1776.73 -1914.38 -1870.17 -1827.93 -1905.81 -2033.84 -2121.18 -2298.83 -2548.77 -1947.98 -413.32 20.31 32.19 45.87 72.79 84.50 104.05 135.42 194.82 194.30 198.28 207.79 207.20 213.63 222.15 242.88 252.67 270.72 302.33 323.81 343.92 392.00 411.89 420.45 428.09 460.15 474.80 493.50 718.02 988.64 971.72 532.67 213.67 192.96 150.84 72.96 55.68 -28.01 -1360.84 -4673.18 -5813.56 -5574.30 -5305.46 -5228.16 -5323.82 -5418.43 -5397.47 -5253.68 -5127.19 -4646.12 -3490.55 -2149.60 -1348.79 -888.78 -1011.80 -1303.18 -1436.30 -1744.42 -1822.23 -2042.43 -2126.37 -2237.36 -2264.22 -2281.69 -2310.40 -2358.69 -2431.97 -2561.50 -2702.39 -2808.17 -3007.27 -3213.84 -3213.88
-5663.18 -5660.34 -5661.39 -5664.47 -5673.93 -5661.18 -5678.21 -5686.23 -5704.12 -5718.49 -5731.15 -5736.40 -5744.89 -5753.36 -5776.06 -5806.51 -5824.69 -5826.50 -5829.85 -5830.57 -5821.33 -5811.11 -5795.66 -5786.94 -5782.53 -5775.60 -5755.58 -5739.09 -5708.08 -5459.43 -3725.71 -2120.88 -1295.53 -107.15 -87.19 -70.76 -15.96 4.77 19.91 47.54 39.09 37.22 34.91 35.98 26.23 17.70 -0.79 -7.72 -13.94 -47.64 -76.34 -93.39 -123.08 -253.09 -512.65 -885.19 -834.39 -1179.56 -1170.42 -1360.47 -1525.26 -1437.55 -1400.45 -1621.80 -1366.77 -1765.02 -1411.44 -724.65 -196.84 31.17 45.39 62.91 75.05 97.27 118.08 143.63 200.51 212.09 220.13 228.09 240.41 228.41 242.52 249.27 259.03 272.60 286.34 312.28 333.03 377.51 402.16 405.07 415.37 440.35 445.25 446.05 525.02 638.23 849.32 800.55 954.06 594.32 262.50 115.20 85.67 -30.29 -87.47 -128.36 -1516.78 -5618.61 -5312.39 -5106.90 -5221.17 -5375.59 -5436.22 -5446.49 -5382.54 -5127.55 -4385.72 -3173.33 -1458.52 -811.34 -778.11 -959.59 -1072.27 -1276.40 -1549.01 -1888.73 -2022.39 -2077.93 -2233.60 -2255.50 -2297.24 -2332.50 -2411.90 -2546.00 -2662.01 -2907.26 -2996.26 -3155.55 -3189.08
-5699.46 -5699.37 -5704.82 -5698.86 -5694.86 -5699.34 -5700.66 -5720.08 -5742.36 -5763.62 -5758.47 -5763.90 -5773.10 -5783.07 -5795.90 -5823.86 -5832.22 -5837.61 -5836.38 -5835.39 -5825.36 -5814.33 -5798.28 -5788.54 -5782.79 -5781.32 -5779.11 -5776.84 -5713.79 -5486.91 -3654.04 -2036.77 -804.37 -105.25 -85.25 -49.00 -9.13 6.39 30.07 55.62 55.00 58.98 59.98 48.88 50.26 44.40 22.90 12.51 11.05 -4.30 -55.13 -98.36 -115.89 -134.89 -158.72 -309.30 -393.39 -315.63 -585.13 -1034.55 -888.00 -802.71 -932.20 -870.08 -464.46 -475.65 -556.78 15.55 26.59 40.61 50.15 73.98 98.35 104.51 142.87 184.72 228.64 237.18 250.83 256.65 251.21 244.24 254.70 257.70 271.04 280.54 284.99 299.92 331.71 358.09 359.97 373.12 386.45 429.01 435.83 434.83 479.78 558.47 713.70 999.49 1095.15 693.03 300.75 168.17 78.21 37.30 7.39 -127.17 -1785.26 -5006.37 -5086.11 -4941.18 -5153.74 -5312.03 -5435.50 -5466.65 -5465.19 -5310.16 -4786.36 -2944.17 -1582.37 -702.40 -644.47 -696.26 -910.90 -1061.08 -1302.75 -1664.40 -1814.59 -2041.11 -2171.38 -2254.74 -2286.12 -2349.60 -2492.40 -2636.55 -2784.37 -2863.94 -3024.80 -3168.68 -3168.74
-5729.46 -5729.37 -5732.02 -5733.38 -5737.53 -5737.77 -5747.44 -5761.14 -5786.43 -5787.12 -5797.34 -5801.23 -5803.74 -5811.12 -5819.32 -5829.53 -5838.45 -5840.42 -5840.23 -5839.78 -5831.55 -5813.43 -5796.23 -5784.10 -5778.80 -5775.62 -5777.58 -5784.79 -5785.89 -5535.30 -4236.49 -1683.79 -125.81 -104.49 -62.06 -41.67 0.34 12.64 23.27 54.20 68.09 71.39 81.28 76.18 77.29 73.87 51.84 40.99 18.64 15.59 -31.71 -75.39 -105.71 -124.01 -153.71 -171.78 -184.97 -205.95 -242.14 -344.43 -351.93 -400.96 -300.88 -159.54 -125.75 -12.40 9.50 20.25 30.52 40.90 54.65 70.42 104.89 119.00 161.28 182.97 246.29 244.79 258.25 263.42 263.50 259.24 261.36 267.04 276.88 283.48 295.87 311.85 324.45 343.01 344.60 341.47 353.66 427.39 430.27 431.97 465.99 498.20 582.11 835.76 1125.51 1018.11 684.48 288.84 99.67 80.86 54.14 -449.00 -2675.45 -4766.60 -5128.10 -4917.31 -5047.18 -5156.87 -5386.63 -5450.74 -5465.15 -5404.18 -4882.25 -3267.58 -1703.96 -508.61 -470.34 -498.68 -716.22 -936.45 -1231.36 -1441.90 -1595.80 -1876.56 -2115.32 -2177.26 -2242.66 -2354.99 -2495.63 -2651.62 -2744.30 -2891.93 -3034.34 -3145.63 -3145.68
-5747.08 -5747.00 -5751.88 -5752.95 -5751.60 -5752.36 -5763.16 -5772.34 -5798.26 -5810.36 -5816.53 -5818.18 -5824.37 -5830.41 -5836.47 -5845.02 -5850.44 -5856.52 -5851.44 -5847.29 -5840.07 -5820.00 -5805.16 -5793.05 -5783.37 -5781.96 -5783.89 -5730.80 -5685.43 -4456.20 -2797.34 -606.00 -130.98 -77.22 -27.32 -3.96 2.11 13.87 32.62 52.33 78.74 87.89 95.07 98.62 120.71 72.80 68.09 54.82 21.60 16.04 8.17 -17.45 -93.70 -119.34 -140.90 -162.17 -184.23 -196.40 -205.33 -201.47 -228.03 -184.40 -166.16 -135.46 -59.15 -19.96 10.78 22.73 36.99 46.06 50.60 72.18 91.52 123.75 159.58 175.78 205.89 226.17 251.80 263.00 265.28 261.91 267.81 275.56 281.55 289.08 298.98 308.77 324.22 332.46 338.88 341.43 363.96 407.22 416.02 430.30 442.28 482.98 570.24 822.20 1116.67 1064.22 856.88 443.04 143.03 85.29 65.30 13.27 -2552.40 -5260.52 -5194.23 -4970.86 -4964.74 -5134.53 -5251.59 -5432.14 -5450.15 -5388.14 -4887.78 -3779.65 -2124.96 -573.17 -373.54 -403.08 -565.00 -675.56 -945.09 -1219.44 -1489.67 -1776.25 -2000.58 -2116.47 -2197.28 -2289.40 -2394.32 -2575.18 -2754.78 -3014.64 -3223.09 -3259.58 -3259.75
-5757.44 -5757.16 -5760.77 -5763.73 -5766.34 -5767.91 -5774.83 -5791.73 -5808.92 -5819.67 -5828.37 -5833.97 -5836.95 -5838.77 -5848.20 -5855.18 -5857.47 -5862.13 -5862.88 -5862.57 -5854.13 -5836.59 -5824.65 -5801.23 -5795.42 -5784.89 -5719.27 -4996.48 -4224.86 -3378.93 -1057.92 -393.49 -145.26 -106.88 -18.90 -1.46 6.88 20.33 31.92 48.04 82.16 109.28 100.61 139.02 150.24 117.42 76.83 70.31 36.77 22.89 14.08 -9.20 -66.52 -112.20 -128.87 -155.79 -173.33 -188.81 -188.33 -190.66 -195.04 -150.27 -131.25 -95.42 -12.85 7.03 12.17 26.98 44.17 49.61 56.45 72.29 88.77 121.46 140.87 183.71 213.13 229.11 248.12 259.17 261.39 259.36 267.62 275.36 282.36 290.32 299.58 304.53 314.11 326.31 336.51 338.88 345.30 358.24 363.99 407.21 441.16 456.28 477.98 579.75 1004.23 1102.78 936.23 461.40 264.06 168.90 105.28 -8.75 -967.24 -4757.56 -5308.55 -4956.11 -4968.70 -5084.90 -5224.05 -5428.28 -5442.08 -5400.61 -5178.37 -3936.87 -1868.63 -538.86 -349.73 -314.89 -339.92 -566.30 -685.22 -1019.95 -1287.67 -1579.99 -1753.28 -1946.67 -2097.88 -2173.18 -2267.50 -2473.36 -2715.07 -2981.30 -3243.13 -3349.35 -3364.54
-5768.39 -5768.32 -5775.61 -5775.96 -5780.26 -5783.65 -5798.84 -5803.26 -5819.38 -5832.72 -5838.44 -5842.61 -5847.45 -5851.39 -5861.81 -5866.42 -5871.35 -5872.23 -5874.60 -5873.03 -5869.74 -5853.72 -5828.92 -5798.61 -5723.09 -5692.05 -5495.61 -4285.36 -3650.63 -2095.49 -609.28 -174.01 -131.06 -93.27 -42.42 -5.32 6.23 22.82 39.82 63.51 98.76 105.13 130.15 167.64 174.43 137.66 101.51 67.56 42.43 32.85 8.72 2.67 -33.84 -79.72 -110.51 -144.96 -166.05 -181.74 -179.25 -162.34 -147.48 -123.78 -90.87 -50.08 -20.90 4.83 18.58 41.65 48.46 54.58 62.57 78.02 93.90 120.28 149.04 171.77 202.60 227.45 237.73 247.19 246.74 252.32 262.17 274.01 283.77 290.24 296.70 300.48 313.59 323.79 332.97 340.05 348.94 358.37 362.11 388.96 419.47 445.48 470.27 517.71 896.57 1164.39 1219.75 765.12 418.24 199.70 145.66 69.70 -1289.76 -5122.14 -5541.05 -5021.72 -4926.68 -5022.96 -5129.23 -5336.45 -5432.41 -5391.82 -5063.53 -4614.86 -1843.14 -662.40 -256.40 -238.78 -250.78 -501.01 -677.56 -1014.22 -1320.28 -1361.96 -1639.00 -1817.22 -1976.91 -2117.68 -2234.56 -2471.31 -2678.52 -3050.11 -3284.26 -3376.98 -3377.04
-5792.21 -5792.12 -5804.56 -5800.92 -5807.14 -5807.81 -5819.93 -5817.60 -5819.98 -5827.18 -5830.41 -5839.37 -5843.80 -5848.29 -5854.44 -5862.08 -5869.29 -5871.78 -5873.31 -5872.28 -5867.82 -5845.79 -5772.80 -5740.95 -5487.17 -4755.59 -4151.94 -3426.66 -2702.74 -940.30 -207.61 -162.33 -122.61 -72.08 -20.68 -0.46 11.06 18.88 35.10 81.15 105.42 130.45 162.43 174.63 196.20 166.91 108.77 80.25 48.33 29.78 12.41 4.37 -5.30 -51.30 -96.12 -126.58 -153.01 -169.72 -155.81 -148.86 -132.13 -110.19 -64.50 -24.56 -4.19 12.55 26.18 40.26 49.18 58.73 67.18 87.96 95.19 122.58 139.73 161.04 188.24 214.01 228.79 232.49 242.45 250.48 261.06 267.37 283.31 292.11 295.73 299.60 308.82 316.95 324.73 334.81 342.84 356.33 361.77 373.12 399.45 434.99 471.93 491.89 744.39 1145.79 1267.24 741.12 394.12 281.24 136.62 76.23 -584.20 -3955.58 -5398.26 -5034.01 -4886.36 -4946.82 -5144.92 -5294.70 -5397.59 -5361.00 -5199.84 -3712.91 -2048.83 -689.76 -293.22 -202.45 -256.29 -372.84 -698.79 -857.27 -1006.42 -1312.46 -1624.56 -1756.29 -1928.72 -2046.80 -2231.13 -2334.34 -2704.03 -2993.88 -3150.20 -3235.46 -3235.41
-5829.78 -5829.68 -5834.80 -5838.20 -5845.66 -5847.88 -5842.53 -5838.52 -5824.60 -5817.12 -5818.02 -5828.14 -5828.19 -5836.95 -5844.29 -5850.62 -5850.58 -5849.18 -5853.56 -5831.68 -5814.60 -5767.48 -5690.49 -5401.92 -4711.33 -4280.16 -3010.97 -2440.77 -1279.19 -207.53 -182.05 -150.54 -122.88 -51.72 -12.78 5.99 23.58 28.97 37.62 83.31 109.26 135.64 169.37 200.96 217.54 171.57 128.19 93.32 53.87 28.28 12.69 3.18 -24.62 -55.87 -99.05 -110.33 -129.98 -137.12 -143.10 -139.19 -119.07 -91.98 -66.21 -15.24 8.66 16.87 30.42 40.87 47.47 54.55 72.14 83.41 96.26 109.76 134.15 164.12 189.86 198.40 210.13 217.97 224.96 234.42 254.36 268.43 282.68 288.80 296.69 298.30 303.80 310.31 314.39 322.62 337.13 352.17 360.89 370.37 387.04 419.25 446.68 473.57 612.41 1005.56 1168.22 870.41 432.19 233.74 89.12 60.03 5.55 -2902.68 -4376.01 -5031.10 -4909.38 -4974.07 -5217.11 -5329.31 -5363.92 -5302.80 -5083.90 -3734.43 -2120.88 -557.08 -239.59 -177.92 -215.56 -371.24 -558.22 -738.60 -897.39 -1173.75 -1556.19 -1675.80 -1831.46 -2051.91 -2205.23 -2326.06 -2453.27 -2796.81 -2966.06 -3180.78 -3180.84
-5857.01 -5855.84 -5859.95 -5865.28 -5870.08 -5873.65 -5876.03 -5845.21 -5827.06 -5805.75 -5803.44 -5811.54 -5817.69 -5823.10 -5830.72 -5832.96 -5835.39 -5835.66 -5834.95 -5743.85 -5647.90 -5414.49 -4942.70 -4423.98 -3933.52 -3232.19 -2813.31 -1752.89 -924.80 -200.55 -165.37 -139.39 -108.76 -41.70 -17.52 11.57 24.88 44.87 56.59 79.08 111.46 138.39 190.89 217.40 217.93 182.79 133.99 99.68 59.70 38.98 12.68 3.56 -21.07 -50.32 -87.80 -101.04 -118.16 -127.62 -129.02 -125.65 -113.05 -87.25 -40.63 -5.71 13.13 20.19 30.67 41.56 48.47 52.68 63.83 74.84 87.48 108.74 121.29 151.75 167.10 178.11 195.93 206.36 221.12 225.14 239.42 266.21 275.61 281.14 293.60 298.21 302.81 307.77 311.17 314.09 324.59 335.31 353.93 367.28 379.35 402.56 429.95 460.81 515.96 1000.16 1164.50 868.60 514.28 181.88 69.01 21.57 -33.68 -543.32 -3657.28 -4899.80 -4872.53 -4950.79 -5105.65 -5327.03 -5323.15 -5298.17 -5014.11 -3723.91 -1973.12 -481.97 -213.80 -166.20 -197.21 -292.41 -368.04 -576.97 -982.10 -1156.07 -1322.15 -1578.40 -1802.70 -1943.15 -2109.14 -2267.38 -2466.51 -2702.86 -2848.22 -2967.97 -2967.88
-5866.28 -5866.20 -5873.24 -5880.70 -5885.67 -5890.58 -5888.43 -5863.57 -5828.28 -5808.62 -5805.30 -5811.10 -5818.48 -5824.92 -5829.31 -5818.17 -5814.13 -5795.06 -5612.30 -5542.71 -5150.08 -4713.51 -4208.60 -3360.44 -2950.11 -2672.55 -2621.30 -1767.82 -504.99 -171.38 -144.85 -117.98 -97.68 -50.93 -6.17 11.02 23.28 44.37 61.91 77.65 97.99 124.69 165.71 198.25 188.80 189.34 136.35 109.12 56.67 41.13 18.40 6.40 -21.06 -46.13 -79.03 -96.79 -111.20 -116.19 -116.66 -106.81 -76.99 -70.31 -45.05 -13.81 13.28 24.92 29.89 42.71 47.54 53.17 63.59 79.37 84.02 98.65 120.94 134.63 158.69 167.35 184.29 206.36 210.99 223.81 247.25 257.90 268.35 277.24 290.38 301.22 305.29 308.48 312.74 316.89 322.42 332.22 348.04 369.89 373.42 391.02 411.95 457.02 500.25 764.00 999.09 765.18 415.89 154.67 90.02 59.87 -5.35 -1552.10 -4181.30 -4924.63 -4819.76 -4878.36 -5095.74 -5249.39 -5281.20 -5216.40 -4879.65 -3771.21 -1435.71 -679.41 -221.54 -146.78 -147.38 -289.27 -449.39 -522.69 -772.19 -993.16 -1245.27 -1486.62 -1775.09 -1913.46 -2095.27 -2256.75 -2471.45 -2637.70 -2796.18 -2909.29 -2909.36
-5868.97 -5868.90 -5876.29 -5883.20 -5890.38 -5896.40 -5895.68 -5861.97 -5833.70 -5812.51 -5811.64 -5817.52 -5825.52 -5825.19 -5809.72 -5780.60 -5649.30 -5505.48 -5140.18 -4579.14 -4076.61 -3840.83 -3056.92 -2600.52 -2556.35 -2433.47 -1657.59 -690.11 -188.60 -162.91 -125.37 -101.43 -63.54 -25.77 0.53 13.13 27.93 49.38 78.51 94.57 129.96 144.81 171.68 171.62 132.55 150.23 132.27 99.77 57.62 34.72 19.06 10.57 -22.60 -46.44 -80.12 -94.09 -109.69 -110.49 -104.23 -95.54 -76.82 -70.02 -43.55 -14.66 4.82 24.07 33.22 46.04 49.38 54.67 59.08 72.21 80.49 91.74 119.22 130.63 149.12 156.20 175.81 187.73 201.41 212.72 233.68 253.69 262.85 278.66 289.29 307.82 311.49 316.43 315.32 318.05 322.26 338.01 353.12 366.69 374.08 377.24 383.20 435.12 459.81 638.20 904.91 780.85 393.74 172.46 113.22 77.52 -3.69 -3614.58 -5065.16 -4873.45 -4813.51 -4957.99 -5157.70 -5251.55 -5269.10 -5177.64 -4707.63 -3730.04 -1297.22 -469.83 -161.80 -133.70 -140.96 -223.23 -347.96 -411.27 -661.62 -1033.04 -1298.49 -1360.82 -1721.66 -1996.77 -2134.71 -2287.89 -2406.58 -2612.11 -2688.97 -2778.16 -2778.14
-5870.89 -5871.62 -5877.31 -5886.00 -5894.56 -5900.25 -5896.12 -5871.10 -5835.30 -5821.29 -5819.73 -5818.51 -5807.85 -5780.12 -5740.57 -5488.97 -5179.41 -4499.88 -3988.80 -3668.69 -3559.41 -2662.64 -2562.16 -2350.70 -2325.39 -1753.28 -887.18 -239.27 -194.32 -154.05 -122.35 -83.97 -42.23 -2.79 6.29 18.87 42.24 64.77 88.23 102.43 148.72 174.05 181.75 168.92 132.55 111.55 93.47 76.79 49.07 34.23 16.21 11.86 -5.75 -37.17 -74.54 -91.54 -100.64 -101.67 -98.98 -91.76 -81.86 -71.88 -21.44 -3.27 10.47 21.47 33.78 44.56 49.11 53.13 59.50 77.38 82.41 96.58 108.65 120.86 133.34 152.68 169.29 177.61 195.70 212.46 224.43 244.05 263.36 277.44 291.88 321.36 323.39 322.29 319.80 319.77 322.00 330.74 337.93 354.60 366.55 372.86 378.62 400.27 449.25 444.30 591.09 715.83 434.40 178.57 124.13 75.70 15.12 -2520.60 -4933.65 -4925.10 -4875.73 -4979.96 -5142.46 -5210.58 -5229.23 -5150.32 -4728.18 -3095.32 -1254.97 -371.04 -172.55 -130.84 -138.83 -174.23 -245.93 -399.00 -621.06 -959.69 -1096.70 -1313.60 -1717.41 -1985.07 -2167.44 -2259.38 -2392.91 -2495.19 -2631.69 -2754.91 -2754.99
-5870.40 -5870.32 -5878.40 -5887.72 -5893.20 -5901.56 -5899.94 -5883.70 -5856.71 -5831.87 -5820.52 -5786.33 -5739.20 -5535.60 -5119.24 -4660.06 -3982.57 -3597.00 -3074.94 -2703.99 -2381.04 -2221.97 -2220.06 -2170.55 -1950.58 -1309.73 -511.98 -219.26 -192.72 -152.55 -105.72 -59.07 -29.84 0.57 12.20 21.24 49.96 72.90 95.53 114.21 141.55 178.25 179.49 159.78 122.07 101.74 77.56 52.35 37.51 30.33 16.49 10.94 -4.98 -26.89 -78.73 -86.86 -93.09 -95.55 -94.63 -86.98 -77.92 -66.77 -36.35 -4.78 12.59 18.12 32.68 39.48 45.69 52.33 59.02 72.20 78.71 91.44 108.02 116.00 128.62 145.46 164.52 168.38 199.41 207.24 220.89 244.01 258.87 274.97 293.95 315.95 327.91 328.92 327.35 325.27 326.03 328.04 331.97 344.90 354.04 363.96 376.94 377.25 373.40 361.41 394.19 393.32 322.86 173.80 118.69 79.16 49.26 -2667.70 -4705.71 -4866.14 -4763.92 -4855.49 -5072.41 -5129.27 -5143.59 -4983.70 -4666.19 -2697.70 -1563.63 -294.73 -145.60 -125.57 -131.95 -141.36 -193.67 -378.89 -548.33 -807.53 -1054.56 -1224.70 -1745.88 -1984.28 -2156.16 -2304.99 -2401.30 -2541.94 -2640.66 -2753.27 -2762.91
-5870.48 -5870.40 -5880.22 -5887.87 -5894.01 -5903.20 -5905.39 -5889.37 -5862.72 -5838.28 -5799.47 -5664.74 -5301.48 -5138.35 -4611.74 -3914.31 -3413.26 -2824.55 -2501.55 -2373.20 -2179.49 -2098.70 -2113.94 -2132.04 -1890.26 -888.67 -399.80 -213.90 -169.67 -141.34 -95.88 -53.98 -16.01 2.15 19.79 26.99 48.47 78.15 91.84 122.25 161.79 185.38 147.63 129.22 106.56 83.65 58.56 43.99 31.99 22.12 13.43 4.80 -6.79 -36.00 -77.78 -80.78 -85.66 -86.25 -85.05 -78.23 -67.93 -62.83 -34.20 -7.08 4.95 18.02 30.15 36.12 44.00 51.61 58.87 71.68 81.10 91.81 103.48 113.66 126.68 141.80 159.02 171.57 191.36 203.68 222.36 242.53 256.54 275.12 284.84 310.36 327.71 332.30 332.83 331.57 330.50 330.21 333.60 334.92 343.15 351.95 363.08 367.70 357.58 344.95 318.82 282.25 239.80 158.32 131.81 78.97 53.99 -2518.77 -4751.34 -5026.26 -4746.62 -4856.52 -5002.39 -5072.52 -5109.10 -4801.00 -4147.83 -2424.37 -672.72 -249.91 -141.72 -130.41 -131.20 -146.72 -190.90 -342.01 -545.73 -684.48 -879.92 -1207.79 -1557.44 -1952.35 -2154.29 -2316.52 -2500.08 -2571.80 -2717.89 -2786.26 -2786.35
-5885.39 -5885.30 -5892.67 -5900.00 -5914.94 -5923.65 -5922.46 -5915.61 -5885.26 -5862.62 -5768.29 -5493.05 -4834.72 -4100.83 -3295.32 -3107.83 -2797.42 -2631.88 -2435.35 -2297.92 -2150.92 -2065.96 -2094.31 -2124.19 -1572.32 -817.16 -427.38 -215.60 -169.83 -143.22 -88.52 -47.31 -28.95 1.11 24.40 34.54 53.44 69.91 87.71 125.48 168.31 180.56 138.90 124.87 83.86 73.26 54.35 35.88 26.19 14.32 4.94 -5.58 -17.11 -43.57 -72.94 -77.10 -77.95 -76.01 -73.90 -68.82 -62.53 -58.64 -37.60 -9.10 8.58 18.20 28.03 35.66 43.20 48.48 59.63 64.29 71.96 87.48 98.02 110.33 117.16 133.56 149.57 165.19 189.25 203.47 227.33 236.40 266.10 278.38 292.43 314.31 326.20 332.76 333.34 333.52 334.16 335.07 337.29 344.89 349.11 354.54 355.83 360.44 351.42 336.71 324.36 246.02 188.69 169.23 123.25 79.12 43.03 -1576.40 -3778.37 -4960.88 -4857.41 -4809.11 -4958.57 -5031.49 -5030.46 -4584.00 -3474.06 -1865.72 -547.76 -164.54 -125.29 -142.51 -149.98 -174.53 -235.61 -327.29 -465.42 -646.50 -822.26 -1030.78 -1531.83 -1866.32 -2154.79 -2442.44 -2662.45 -2741.22 -2867.56 -2917.04 -2917.22
-5923.73 -5923.54 -5930.77 -5934.83 -5946.46 -5951.61 -5959.74 -5946.92 -5884.34 -5838.36 -5608.84 -5205.25 -4078.97 -3414.67 -2855.91 -2555.21 -2538.04 -2552.38 -2465.86 -2290.89 -2176.09 -2113.20 -2112.55 -2151.48 -1289.95 -496.06 -272.98 -199.74 -162.66 -135.54 -86.17 -48.84 -8.46 13.45 26.53 35.71 63.27 83.34 111.31 142.37 169.89 163.14 135.76 106.47 58.47 41.83 39.31 35.40 23.54 6.57 -0.75 -8.04 -27.16 -53.88 -62.60 -60.60 -57.87 -58.66 -56.02 -56.56 -52.46 -48.16 -34.24 -17.05 8.35 19.98 28.93 35.87 39.86 47.18 57.37 64.70 69.95 81.90 91.23 99.87 109.39 128.74 144.76 159.80 180.40 202.38 229.20 242.27 258.61 275.25 289.04 312.12 318.96 329.43 332.16 335.10 337.90 342.92 349.49 351.82 356.50 355.97 354.14 353.96 345.00 299.87 281.14 220.40 176.58 146.26 108.84 77.89 31.58 -845.04 -3112.00 -4745.56 -4558.31 -4667.03 -4870.63 -4932.62 -4790.45 -4173.23 -2244.20 -830.79 -282.28 -150.95 -119.95 -146.00 -158.88 -191.87 -247.46 -339.50 -485.01 -583.61 -902.49 -1168.05 -1581.19 -1915.08 -2184.25 -2426.97 -2672.46 -2859.76 -3023.78 -3059.86 -3060.04
-5988.96 -5988.83 -5989.07 -5969.77 -5960.50 -5951.07 -5880.66 -5829.16 -5754.34 -5296.95 -4780.67 -4255.71 -3512.54 -2582.71 -2329.90 -2183.73 -2282.67 -2380.53 -2386.91 -2186.97 -2127.59 -2120.17 -2136.21 -2075.22 -1182.28 -380.67 -282.71 -223.63 -162.26 -135.74 -88.36 -57.20 -18.66 7.32 19.92 42.38 84.71 116.11 145.32 154.64 144.45 111.73 84.82 84.45 44.46 32.82 30.17 23.40 15.90 9.97 -0.33 -24.61 -38.21 -60.07 -64.93 -60.32 -49.02 -45.74 -42.13 -35.29 -32.14 -32.82 -21.23 -0.26 8.72 19.86 25.49 34.62 40.62 43.98 48.47 57.90 69.11 76.55 84.97 96.29 110.15 125.32 138.69 159.03 173.95 194.76 222.90 239.36 251.74 277.63 288.79 308.74 316.19 323.93 329.41 336.79 342.59 358.35 362.43 362.93 363.66 360.33 354.31 328.33 319.53 269.32 230.31 181.47 137.66 125.27 93.93 31.30 -153.17 -1115.77 -3085.32 -4523.83 -4363.65 -4577.15 -4774.52 -4774.52 -4383.67 -3716.91 -1594.73 -432.09 -213.26 -119.66 -142.51 -159.59 -159.10 -178.36 -196.62 -271.79 -383.03 -629.92 -1075.89 -1384.33 -1762.78 -2063.44 -2282.75 -2389.82 -2680.43 -2767.71 -3105.38 -3170.88 -3171.05
-6014.85 -6012.74 -5915.83 -5713.28 -5674.14 -5664.82 -5472.53 -5040.70 -4800.09 -4327.50 -3615.87 -2853.14 -2728.29 -2384.10 -2196.36 -2133.46 -2151.60 -2161.78 -2077.98 -1823.03 -1898.44 -1833.46 -1873.51 -1759.12 -1209.21 -458.16 -268.50 -221.36 -170.20 -144.50 -87.68 -60.08 -25.95 6.54 26.84 50.46 84.78 115.03 137.37 134.90 121.67 90.08 44.07 38.77 34.01 27.26 18.02 13.17 12.09 -9.42 -16.14 -33.22 -52.18 -72.65 -70.10 -66.85 -49.04 -35.09 -12.93 -3.88 -11.24 -24.00 -13.30 4.27 9.51 18.11 24.48 32.85 35.96 38.22 42.28 51.07 63.15 70.48 78.82 90.44 103.87 114.89 137.33 157.15 174.62 191.45 210.41 232.00 248.83 272.74 283.88 294.17 313.33 321.08 329.96 340.30 350.12 368.76 374.45 372.26 367.54 360.73 343.10 314.67 302.94 248.76 207.81 152.39 119.67 87.43 47.44 3.18 -209.13 -1215.31 -2840.58 -4131.44 -4309.00 -4513.73 -4774.22 -4801.65 -3705.93 -2646.94 -848.67 -391.77 -148.19 -129.76 -153.69 -167.56 -174.94 -183.57 -207.33 -286.61 -412.13 -704.79 -1185.80 -1684.71 -1982.88 -2112.68 -2339.68 -2485.57 -2641.53 -2773.12 -3093.56 -3395.45 -3395.75
-5486.17 -5486.71 -5078.72 -5003.84 -4859.99 -4459.56 -4231.12 -3742.40 -3275.31 -2906.05 -2839.05 -2552.01 -2382.18 -2310.29 -2274.84 -2239.64 -2175.69 -2038.49 -1855.73 -1599.80 -1319.35 -1171.73 -1405.45 -1492.84 -906.87 -309.37 -261.00 -225.99 -177.54 -152.47 -95.96 -45.63 -18.68 2.32 16.37 72.95 106.35 118.83 105.15 88.07 87.11 71.35 37.08 30.17 23.11 13.14 13.23 5.34 -8.57 -28.12 -33.39 -42.19 -60.97 -73.84 -76.42 -68.90 -57.17 -38.03 -4.97 9.07 8.33 -5.42 -8.27 1.50 10.62 16.91 27.53 29.34 31.95 34.44 39.91 51.57 57.39 67.56 78.40 91.32 105.14 115.75 131.26 147.48 174.77 191.83 211.72 225.08 251.48 268.41 281.20 290.83 310.07 319.54 327.01 342.49 355.42 369.91 375.55 374.63 366.37 353.70 324.31 282.18 247.83 204.43 168.38 131.10 98.69 70.19 26.08 -173.94 -576.83 -1579.72 -2919.46 -3591.66 -4378.68 -4663.78 -4838.53 -4801.75 -3576.09 -1850.21 -582.98 -272.28 -118.80 -135.35 -172.17 -185.57 -186.81 -190.07 -213.95 -304.25 -521.83 -971.20 -1158.50 -1560.97 -1931.80 -2239.52 -2414.17 -2511.87 -2762.25 -2925.44 -3211.72 -3424.14 -3424.24
-3919.85 -3922.01 -3883.97 -3556.88 -3618.64 -3004.43 -2946.46 -2697.88 -2647.28 -2482.53 -2400.24 -2372.28 -2383.57 -2370.26 -2346.50 -2344.48 -2264.58 -2098.07 -1763.83 -1498.84 -1006.45 -924.84 -932.88 -958.99 -484.92 -310.48 -269.69 -226.89 -184.61 -154.94 -124.48 -58.44 -37.87 -1.68 22.00 60.42 88.30 77.16 63.88 48.17 44.97 47.12 27.80 17.50 11.37 9.66 4.06 -9.15 -19.83 -45.60 -47.90 -67.45 -68.36 -81.02 -83.09 -77.58 -74.23 -53.49 -25.97 7.41 20.98 2.43 -1.54 5.28 11.31 17.08 26.66 28.53 29.82 32.42 35.73 44.79 53.24 60.81 76.46 85.62 97.31 114.17 126.39 147.25 169.22 194.81 218.14 230.97 248.81 265.39 277.66 289.66 299.07 313.78 322.51 336.59 354.29 364.22 368.52 366.23 356.97 331.15 298.19 283.34 232.65 199.19 168.23 114.00 84.32 43.61 -0.81 -444.47 -876.49 -2263.58 -3133.85 -3638.63 -4741.97 -5043.96 -5053.55 -4424.86 -3204.00 -1547.19 -515.99 -152.93 -122.82 -130.83 -179.89 -203.68 -198.49 -196.58 -246.38 -365.77 -576.01 -1010.06 -1321.22 -1457.93 -1950.56 -2260.56 -2431.14 -2599.15 -2844.58 -3157.38 -3250.21 -3440.27 -3440.38
-2664.03 -2666.22 -2712.68 -2824.05 -2664.51 -2593.60 -2499.76 -2432.66 -2413.90 -2407.70 -2403.69 -2414.21 -2418.03 -2426.09 -2418.14 -2407.99 -2369.49 -2233.10 -2028.52 -1593.27 -1063.32 -751.72 -603.35 -541.61 -346.11 -318.12 -279.56 -246.07 -203.62 -162.37 -154.95 -104.31 -47.20 -20.74 14.31 40.49 34.65 48.37 38.10 29.52 23.62 27.66 15.58 4.15 3.47 0.80 -10.45 -22.27 -42.16 -67.02 -64.90 -81.28 -85.60 -83.78 -87.50 -87.40 -83.02 -69.64 -23.62 -0.28 13.24 9.82 3.01 6.62 7.45 16.09 22.45 26.03 27.98 30.44 33.65 39.40 50.28 60.32 69.91 84.06 93.31 106.10 119.99 148.72 170.34 191.54 207.93 223.72 252.08 259.24 272.68 284.74 298.03 304.30 319.11 326.89 344.26 355.44 357.88 357.46 336.75 326.30 287.93 255.53 230.84 196.45 154.85 119.85 76.21 38.83 -175.75 -662.63 -1026.47 -1989.06 -2617.81 -4161.69 -5346.24 -5290.29 -5078.00 -4549.83 -2748.14 -945.79 -249.71 -147.43 -123.52 -154.39 -184.79 -217.75 -209.98 -214.64 -276.65 -415.70 -621.98 -851.21 -1194.70 -1708.45 -2131.29 -2350.96 -2457.86 -2612.17 -2939.08 -3148.41 -3348.89 -3458.53 -3458.65
-2392.78 -2393.32 -2431.40 -2437.20 -2418.46 -2406.40 -2412.37 -2421.32 -2427.99 -2434.65 -2442.83 -2450.17 -2460.90 -2460.08 -2454.92 -2439.69 -2392.40 -2297.86 -2131.33 -1544.17 -1389.36 -913.70 -588.47 -421.93 -348.73 -327.23 -288.96 -244.30 -199.85 -173.54 -158.63 -131.90 -79.25 -51.69 -1.26 18.25 13.79 13.86 11.13 14.46 6.15 -12.55 -4.20 -10.37 -27.36 -33.20 -36.79 -49.59 -66.47 -71.68 -76.08 -89.05 -91.93 -91.26 -96.55 -89.09 -82.46 -71.89 -35.80 0.06 15.32 15.17 6.49 8.32 12.16 16.07 20.69 23.94 25.43 27.68 31.41 35.27 45.46 52.41 62.74 85.72 96.72 111.84 126.10 150.74 171.03 180.49 207.94 223.67 238.20 254.64 269.28 281.32 289.52 302.01 305.17 333.41 340.21 346.35 345.92 331.69 324.00 305.82 260.93 238.30 210.33 174.45 137.01 110.18 78.58 31.05 -132.90 -660.15 -1540.64 -1806.80 -3162.54 -4333.72 -5245.87 -5459.83 -5216.41 -4084.36 -1767.66 -694.55 -208.85 -116.17 -130.47 -158.25 -190.94 -230.58 -230.93 -238.78 -325.08 -422.11 -739.77 -1000.06 -1565.52 -1944.17 -2110.33 -2332.68 -2481.59 -2550.43 -2893.35 -3149.98 -3275.94 -3361.50 -3361.31
-2423.96 -2423.66 -2432.61 -2433.22 -2439.09 -2444.91 -2444.98 -2446.87 -2460.92 -2469.27 -2468.71 -2469.83 -2476.93 -2474.97 -2467.63 -2453.60 -2409.63 -2347.32 -2095.39 -1711.10 -1213.04 -891.63 -603.35 -377.46 -350.31 -331.91 -294.43 -267.14 -214.08 -197.90 -172.03 -139.05 -111.46 -70.76 -58.32 -29.06 -6.47 -0.47 -0.75 2.19 -21.30 -39.62 -26.70 -39.65 -52.83 -73.81 -73.32 -83.27 -87.08 -88.28 -91.06 -98.37 -101.21 -101.71 -104.43 -97.46 -92.95 -82.43 -70.58 -33.81 -7.83 9.05 14.70 10.36 12.88 16.74 19.04 22.67 23.10 23.96 27.70 33.83 43.87 48.80 59.68 84.73 93.02 110.61 126.14 143.79 158.93 179.31 203.28 223.61 240.73 259.53 266.19 273.95 285.78 295.13 299.74 326.66 337.03 338.87 337.74 321.47 306.11 278.45 251.75 216.84 174.18 150.86 115.28 92.87 63.68 31.08 -473.38 -1224.93 -1478.56 -1915.38 -3303.03 -4192.07 -5476.61 -5528.95 -5016.62 -3748.88 -1997.18 -576.47 -217.44 -106.09 -130.20 -161.02 -201.19 -235.12 -261.36 -270.94 -374.29 -455.01 -675.89 -1208.32 -1611.58 -1947.59 -2196.35 -2316.81 -2460.19 -2583.53 -2760.31 -3016.95 -3189.71 -3373.33 -3373.51
-2462.68 -2462.47 -2462.18 -2468.10 -2465.28 -2465.46 -2467.96 -2486.66 -2483.93 -2490.11 -2493.72 -2488.97 -2489.83 -2487.67 -2474.57 -2459.72 -2423.55 -2257.86 -2037.45 -1702.83 -1279.49 -938.86 -681.13 -414.55 -370.28 -329.68 -315.21 -279.76 -231.82 -211.99 -181.54 -164.82 -149.67 -113.20 -91.69 -57.88 -51.71 -29.03 -25.10 -32.52 -37.52 -66.01 -66.14 -69.87 -80.03 -89.09 -86.05 -96.98 -99.58 -100.81 -104.50 -105.32 -107.98 -108.53 -112.19 -104.87 -97.18 -82.62 -73.68 -47.32 -11.48 6.27 23.77 14.61 15.03 16.10 17.45 18.64 20.93 22.03 25.02 32.46 36.63 47.39 54.62 73.22 86.70 99.77 123.62 139.51 163.52 183.43 205.00 216.31 244.51 253.30 261.03 271.76 281.60 287.53 293.20 317.10 332.47 329.23 318.08 305.23 275.12 252.77 225.97 183.87 151.42 129.95 102.32 71.20 40.02 -195.34 -1296.02 -1558.71 -1719.14 -2016.34 -3238.75 -4751.22 -5307.80 -5481.19 -4954.10 -3332.09 -1673.50 -348.39 -140.10 -100.84 -131.53 -170.12 -217.47 -251.66 -284.31 -308.20 -365.87 -557.52 -822.65 -1146.98 -1459.51 -1833.04 -2054.17 -2182.01 -2394.32 -2564.21 -2722.98 -2971.09 -3136.67 -3370.18 -3370.00
-2492.99 -2493.27 -2494.49 -2493.33 -2498.73 -2492.50 -2491.51 -2497.78 -2495.96 -2499.96 -2510.76 -2511.36 -2506.10 -2499.61 -2481.62 -2447.02 -2370.84 -2206.55 -1972.71 -1605.49 -1034.61 -835.10 -638.16 -559.95 -460.74 -349.54 -318.21 -287.39 -266.55 -236.82 -203.02 -188.94 -172.51 -147.46 -107.34 -91.54 -100.40 -85.88 -88.64 -86.95 -85.10 -108.97 -108.27 -98.77 -102.48 -100.07 -104.73 -109.32 -111.91 -114.35 -116.59 -115.31 -112.77 -113.93 -117.97 -114.06 -100.60 -88.32 -65.73 -48.43 -1.66 18.49 30.16 24.80 15.15 13.74 14.91 16.26 18.17 19.94 23.42 26.04 32.74 46.30 53.95 68.35 81.78 92.66 113.78 131.30 161.37 179.51 194.74 212.88 228.13 248.58 257.09 260.79 272.65 284.76 291.97 306.93 316.64 315.29 304.63 279.83 257.30 231.46 195.44 166.74 142.44 103.28 92.80 64.45 33.21 -513.97 -1242.39 -1650.42 -1653.44 -2132.93 -3270.78 -4860.14 -5387.48 -5409.59 -5195.66 -4127.27 -1097.52 -624.32 -170.39 -122.51 -141.89 -186.93 -239.52 -270.61 -301.49 -355.16 -466.13 -715.21 -1011.32 -1219.25 -1356.71 -1651.63 -1918.17 -2223.41 -2339.43 -2499.19 -2698.18 -2929.23 -3128.98 -3386.93 -3386.92
-2516.68 -2516.63 -2516.39 -2517.30 -2518.96 -2521.65 -2524.67 -2528.49 -2537.12 -2534.94 -2525.24 -2521.14 -2513.73 -2510.63 -2489.69 -2423.88 -2336.38 -2141.59 -1727.39 -1295.21 -965.95 -753.98 -710.46 -662.98 -554.99 -367.40 -334.14 -313.74 -298.26 -273.38 -249.86 -220.67 -201.58 -190.24 -151.54 -128.59 -120.60 -118.40 -120.46 -120.18 -115.00 -115.97 -122.74 -127.01 -111.37 -113.69 -120.55 -118.70 -125.05 -128.26 -127.99 -130.21 -131.98 -126.04 -125.11 -118.25 -104.83 -88.77 -71.88 -56.41 -22.84 -5.37 7.38 13.91 10.50 10.67 12.22 12.36 14.83 15.74 20.70 22.58 33.61 37.36 46.95 59.94 77.94 90.78 104.03 134.05 147.70 173.81 192.06 209.77 222.88 238.28 249.83 259.48 263.11 279.28 289.14 296.89 305.15 303.65 289.68 258.98 232.20 211.23 181.39 158.96 115.04 96.11 67.97 51.97 -295.20 -1038.72 -1370.59 -1530.16 -1567.73 -2287.50 -3158.99 -5204.19 -5355.17 -5516.46 -5345.67 -4163.56 -2286.72 -1147.33 -411.33 -194.90 -179.29 -190.58 -253.18 -285.28 -311.84 -379.41 -562.43 -794.03 -1086.77 -1199.87 -1444.47 -1619.02 -1896.31 -2187.90 -2329.80 -2454.33 -2644.82 -2968.67 -3180.21 -3408.47 -3408.37
-2533.94 -2533.87 -2534.07 -2538.57 -2536.86 -2538.37 -2536.11 -2543.70 -2549.96 -2549.31 -2548.56 -2541.95 -2536.90 -2522.85 -2490.05 -2422.21 -2314.45 -2076.82 -1541.77 -1248.64 -962.80 -757.15 -693.79 -703.79 -605.90 -421.57 -355.78 -336.70 -310.81 -283.99 -265.60 -241.05 -226.02 -213.11 -175.38 -149.61 -161.39 -155.18 -151.13 -154.56 -146.31 -142.91 -138.79 -147.55 -143.48 -138.03 -142.02 -137.85 -143.62 -144.70 -142.83 -138.71 -137.73 -136.26 -130.19 -122.47 -110.40 -97.61 -79.81 -64.99 -47.98 -27.78 -10.88 -5.62 -3.58 3.38 3.26 5.15 7.36 10.27 14.69 21.24 28.40 34.06 44.18 57.97 72.24 88.91 98.54 115.40 144.87 158.32 187.55 194.13 220.48 227.90 237.91 253.74 260.40 269.47 283.64 291.76 292.82 287.05 273.87 252.93 222.82 187.17 169.29 138.71 106.21 75.81 46.09 -40.93 -519.18 -1361.94 -1463.81 -1468.64 -1626.24 -2538.16 -3715.91 -5070.88 -5479.56 -5522.87 -5423.14 -4704.17 -3418.97 -1868.11 -1350.41 -223.83 -222.87 -196.76 -232.71 -290.51 -316.39 -409.66 -671.69 -950.23 -1135.13 -1303.27 -1544.57 -1768.26 -1899.85 -2121.05 -2305.03 -2537.57 -2845.91 -3178.27 -3371.60 -3481.97 -3481.72
-2547.64 -2547.57 -2551.20 -2558.48 -2557.55 -2546.96 -2535.29 -2508.48 -2531.90 -2510.83 -2528.03 -2535.40 -2541.15 -2526.00 -2510.28 -2430.12 -2292.01 -2127.37 -1641.45 -1304.03 -1022.91 -808.48 -725.77 -708.41 -650.07 -511.90 -480.74 -336.65 -327.08 -309.20 -290.66 -267.95 -243.18 -238.88 -226.22 -203.80 -192.13 -183.48 -174.07 -172.55 -182.00 -183.94 -187.43 -176.03 -171.46 -163.80 -160.69 -164.63 -160.96 -162.40 -154.54 -155.59 -151.18 -142.77 -134.88 -126.02 -112.47 -102.41 -93.87 -75.42 -64.56 -53.96 -43.46 -24.84 -21.70 -15.85 1.63 2.57 1.27 5.48 10.51 16.23 22.46 30.62 42.99 54.43 64.08 80.01 94.35 122.68 140.58 161.10 180.86 189.05 208.08 223.49 229.80 241.82 254.39 266.20 276.78 283.31 277.61 267.21 251.34 235.99 207.95 160.25 138.85 113.58 95.83 57.95 37.51 -154.27 -758.70 -1400.77 -1438.14 -1443.05 -1595.91 -2762.85 -4071.29 -4904.53 -5495.04 -5542.87 -5550.31 -5345.94 -4731.10 -2858.85 -1825.97 -863.43 -260.05 -218.28 -258.50 -319.10 -369.37 -514.47 -816.06 -1046.29 -1201.40 -1407.88 -1656.44 -1802.05 -2005.41 -2198.15 -2362.94 -2637.05 -2924.27 -3221.15 -3515.20 -3657.37 -3657.45
-2561.54 -2561.47 -2569.17 -2569.61 -2530.38 -2540.36 -2549.62 -2535.35 -2545.07 -2544.27 -2547.46 -2493.49 -2451.33 -2515.92 -2504.54 -2450.36 -2355.46 -2240.86 -1918.19 -1645.03 -1190.98 -964.49 -821.84 -739.67 -715.99 -652.22 -518.81 -450.28 -369.60 -320.89 -310.01 -277.19 -261.00 -253.06 -236.60 -241.60 -219.32 -215.06 -199.15 -206.29 -213.92 -200.63 -195.90 -204.02 -190.48 -184.30 -182.16 -184.24 -181.31 -180.05 -170.41 -164.77 -155.88 -147.28 -139.89 -132.13 -118.53 -111.86 -98.28 -87.68 -75.83 -63.11 -55.49 -37.94 -33.83 -25.32 -6.01 -2.03 -3.01 1.10 9.33 13.60 19.45 31.47 35.32 50.60 62.04 75.27 86.62 115.73 141.18 149.84 163.82 179.99 197.59 216.86 227.62 243.64 255.06 262.53 268.04 268.34 266.07 243.68 224.23 182.02 169.10 140.28 119.61 101.25 77.19 34.95 -111.27 -448.35 -1303.42 -1479.86 -1435.18 -1469.13 -1592.99 -2694.21 -4030.09 -5230.54 -5480.66 -5550.35 -5571.82 -5533.26 -5341.59 -4625.20 -2868.04 -1734.81 -475.84 -295.39 -298.45 -321.34 -465.00 -737.50 -803.85 -1153.10 -1238.87 -1429.07 -1679.93 -1914.21 -2117.83 -2232.19 -2385.85 -2621.99 -2926.64 -3204.33 -3521.78 -3653.52 -3653.79
-2578.83 -2580.13 -2587.45 -2539.58 -2515.13 -2567.69 -2573.23 -2583.71 -2607.38 -2590.29 -2580.32 -2557.02 -2534.91 -2553.99 -2502.39 -2472.05 -2386.15 -2267.83 -2049.44 -1829.80 -1586.75 -1233.00 -997.73 -798.01 -729.30 -713.92 -614.04 -573.56 -518.03 -427.68 -315.43 -305.06 -283.81 -276.03 -273.88 -273.35 -249.80 -249.68 -251.60 -235.27 -236.08 -231.73 -226.49 -230.95 -227.29 -218.63 -193.78 -203.35 -201.03 -191.60 -188.42 -169.79 -165.13 -151.82 -145.58 -132.79 -121.84 -113.36 -103.87 -92.39 -85.02 -76.28 -65.43 -54.38 -44.96 -37.18 -22.41 -16.55 -3.97 -1.59 3.24 9.43 16.30 23.74 34.27 47.39 61.75 73.11 91.19 106.36 128.49 142.91 158.99 179.39 189.91 199.42 234.61 254.29 257.89 261.67 256.58 248.73 243.82 225.59 186.07 159.97 142.29 113.66 88.82 64.15 50.00 34.35 -38.63 -641.15 -1283.92 -1455.92 -1439.47 -1513.70 -1767.45 -2811.51 -4364.44 -5155.88 -5489.48 -5546.48 -5588.04 -5608.63 -5431.60 -5082.84 -3560.91 -1798.76 -606.55 -325.92 -325.24 -352.03 -417.94 -660.17 -840.87 -1162.90 -1437.38 -1640.55 -1771.68 -1916.83 -2095.70 -2216.59 -2355.28 -2593.32 -2900.55 -3097.74 -3395.23 -3502.79 -3502.86
-2604.83 -2604.77 -2571.34 -2597.91 -2587.20 -2593.34 -2626.58 -2620.24 -2623.02 -2639.43 -2644.43 -2625.12 -2587.61 -2567.15 -2525.48 -2503.25 -2453.38 -2405.72 -2267.66 -2165.99 -1841.68 -1445.80 -1184.28 -940.63 -795.71 -741.70 -728.57 -713.67 -626.01 -522.98 -397.13 -343.22 -340.95 -295.94 -287.13 -283.99 -276.94 -269.76 -269.12 -268.53 -265.97 -259.20 -259.48 -259.38 -252.82 -241.76 -221.25 -222.96 -221.98 -210.49 -197.91 -185.07 -180.69 -157.97 -146.82 -137.97 -124.17 -110.44 -107.53 -97.60 -91.37 -84.35 -76.87 -63.62 -60.02 -52.77 -38.54 -26.45 -16.13 -10.17 -1.48 6.36 12.19 15.84 31.30 44.10 55.62 71.37 85.79 102.22 122.70 135.28 148.09 175.09 187.60 199.92 232.15 255.08 264.32 262.63 253.74 233.76 210.13 180.20 166.37 131.94 119.74 94.67 64.23 40.60 27.88 -121.72 -528.37 -1079.04 -1365.67 -1414.65 -1439.12 -1583.17 -2214.17 -3144.99 -4676.54 -5267.29 -5497.54 -5550.46 -5584.98 -5626.81 -5549.16 -5264.20 -3646.66 -2323.09 -693.73 -383.45 -336.98 -374.29 -443.55 -680.56 -1056.01 -1285.10 -1574.93 -1739.57 -1856.61 -1962.31 -2171.52 -2256.91 -2384.69 -2600.12 -2876.11 -3128.86 -3295.43 -3511.81 -3511.88
-2634.54 -2636.06 -2619.19 -2596.68 -2621.45 -2643.76 -2656.08 -2646.27 -2661.04 -2661.53 -2670.85 -2660.99 -2637.16 -2624.31 -2568.98 -2478.07 -2478.37 -2456.23 -2395.41 -2212.34 -2111.87 -1765.38 -1220.91 -1040.66 -841.31 -784.84 -775.23 -769.33 -759.23 -638.90 -503.16 -495.06 -381.56 -340.09 -323.82 -309.42 -295.69 -293.52 -299.71 -300.96 -305.99 -301.52 -288.24 -278.96 -268.05 -253.68 -245.51 -241.80 -232.19 -215.44 -206.29 -190.03 -181.04 -164.58 -147.30 -136.97 -121.62 -111.61 -108.97 -106.63 -98.93 -93.11 -88.00 -73.51 -63.48 -52.68 -45.07 -40.18 -23.92 -16.39 -5.00 -1.26 8.45 11.56 23.90 38.56 48.94 63.44 76.08 95.54 103.23 120.18 127.35 157.97 175.52 197.09 223.63 249.89 261.99 262.19 222.86 194.93 169.48 154.09 127.88 104.27 72.70 59.31 43.72 33.29 -81.58 -426.81 -920.24 -1271.23 -1326.00 -1410.17 -1511.54 -1644.53 -2061.34 -3433.48 -5028.35 -5347.63 -5508.76 -5543.71 -5583.20 -5630.64 -5552.98 -5343.69 -3781.06 -2262.94 -835.70 -394.08 -354.74 -399.92 -548.85 -744.67 -922.59 -1282.04 -1579.44 -1791.24 -1944.66 -2061.25 -2179.55 -2335.41 -2499.61 -2684.64 -2803.38 -3228.54 -3394.18 -3547.54 -3547.46
-2654.13 -2654.06 -2642.57 -2628.63 -2672.32 -2677.22 -2680.88 -2686.06 -2682.95 -2685.94 -2689.03 -2676.10 -2666.50 -2636.97 -2600.31 -2480.15 -2488.87 -2504.65 -2465.34 -2367.79 -2248.68 -1871.16 -1477.69 -1174.30 -908.56 -816.83 -800.72 -793.85 -775.58 -739.08 -708.60 -683.52 -594.50 -522.22 -414.09 -435.32 -430.37 -391.96 -379.01 -381.33 -437.33 -379.93 -326.24 -307.20 -304.44 -289.50 -271.69 -251.81 -241.48 -224.86 -215.79 -195.11 -176.75 -162.89 -138.87 -127.28 -115.82 -115.71 -115.39 -113.70 -109.70 -102.71 -96.61 -79.07 -66.21 -59.91 -55.36 -39.91 -32.25 -23.30 -10.96 1.47 6.20 15.15 24.16 35.87 44.33 56.51 60.19 81.09 94.42 106.99 119.59 141.23 166.77 190.53 209.34 232.84 259.39 258.01 225.25 209.76 144.20 110.83 103.24 94.68 58.79 40.10 32.76 -174.54 -626.15 -840.97 -1183.70 -1353.07 -1391.62 -1419.62 -1511.37 -1574.47 -2608.08 -3736.73 -4932.33 -5497.90 -5516.10 -5543.20 -5584.17 -5620.45 -5553.27 -5192.11 -3360.40 -1960.24 -640.58 -380.41 -358.11 -470.57 -574.26 -823.20 -1251.92 -1385.29 -1716.71 -1921.51 -2024.17 -2148.06 -2255.02 -2369.13 -2466.76 -2666.77 -2984.08 -3327.82 -3520.14 -3744.20 -3744.29
-2658.93 -2658.81 -2651.34 -2667.77 -2676.63 -2674.71 -2675.73 -2688.68 -2692.39 -2698.01 -2695.39 -2689.80 -2683.26 -2666.89 -2613.24 -2517.91 -2489.20 -2509.81 -2466.81 -2428.77 -2209.06 -1938.12 -1515.59 -1172.49 -901.24 -855.41 -819.88 -838.52 -825.78 -795.42 -796.67 -770.00 -787.82 -730.47 -607.36 -600.34 -637.98 -635.01 -594.19 -594.61 -587.14 -565.05 -427.10 -336.55 -324.54 -312.05 -294.92 -267.34 -249.19 -232.30 -218.23 -192.95 -175.85 -159.79 -140.19 -123.54 -115.91 -119.79 -122.53 -119.71 -117.97 -114.33 -104.93 -90.10 -71.20 -68.20 -63.78 -54.94 -40.64 -34.36 -17.36 -5.86 5.60 11.88 21.37 25.96 36.21 48.54 50.39 63.87 79.26 92.87 110.22 129.02 158.21 178.64 200.26 229.48 242.77 214.05 198.22 178.88 130.35 83.58 69.55 50.85 37.43 29.50 -76.58 -664.62 -1430.03 -1337.46 -1287.99 -1310.21 -1403.89 -1437.64 -1498.18 -1820.19 -2824.18 -3887.88 -4927.57 -5438.28 -5519.80 -5536.19 -5580.62 -5588.94 -5381.51 -4936.07 -2943.59 -1814.82 -453.58 -365.69 -392.27 -620.51 -843.60 -1017.76 -1424.88 -1759.74 -1881.20 -2045.40 -2109.45 -2264.46 -2366.04 -2382.17 -2512.65 -2762.57 -3055.92 -3337.23 -3626.41 -3732.62 -3741.44
-2602.80 -2602.73 -2626.28 -2661.49 -2694.39 -2690.06 -2686.65 -2687.20 -2694.08 -2702.77 -2704.54 -2710.13 -2707.42 -2686.49 -2623.85 -2571.46 -2522.01 -2518.26 -2483.59 -2411.67 -2149.19 -1970.75 -1527.77 -1178.06 -992.17 -1008.16 -1105.95 -1024.50 -978.54 -981.03 -922.70 -905.46 -968.58 -853.54 -858.01 -727.56 -694.79 -708.51 -688.08 -658.65 -609.32 -571.59 -517.29 -384.17 -354.24 -353.96 -314.23 -280.86 -258.26 -235.85 -218.06 -190.77 -168.34 -152.98 -128.32 -112.79 -120.88 -126.00 -128.42 -130.40 -128.33 -125.34 -109.01 -106.42 -93.83 -86.47 -80.96 -77.61 -60.69 -50.58 -29.66 -17.61 -0.22 6.15 16.11 23.01 29.15 35.29 42.37 55.93 66.37 79.83 89.95 98.70 129.39 145.58 173.64 210.00 219.22 211.68 200.72 132.41 94.13 52.92 37.48 32.11 20.38 -30.71 -354.55 -1184.22 -1382.42 -1347.07 -1303.99 -1337.57 -1386.34 -1462.36 -1549.86 -2005.32 -3053.57 -4362.46 -5007.32 -5456.34 -5513.17 -5536.66 -5567.98 -5586.95 -5463.34 -4551.38 -2776.10 -1314.16 -482.88 -342.78 -530.05 -724.26 -1186.37 -1527.90 -1761.42 -1964.87 -2042.50 -2173.79 -2216.64 -2299.46 -2390.15 -2440.90 -2497.16 -2616.14 -2902.91 -3346.73 -3692.12 -3813.24 -3813.31
-2615.21 -2621.54 -2654.64 -2667.56 -2689.70 -2702.51 -2689.41 -2690.24 -2699.43 -2714.30 -2714.47 -2715.42 -2715.04 -2689.03 -2638.56 -2581.72 -2557.24 -2548.57 -2495.62 -2391.69 -2189.87 -1880.31 -1564.69 -1346.16 -1297.26 -1294.01 -1289.22 -1344.71 -1408.96 -1311.55 -1325.49 -1333.43 -1312.21 -1226.80 -1040.93 -825.10 -741.85 -706.95 -693.71 -676.91 -632.92 -611.36 -577.66 -544.01 -403.39 -356.29 -316.39 -297.25 -256.78 -246.43 -210.44 -190.85 -165.64 -139.89 -116.58 -112.28 -122.60 -135.76 -135.38 -138.49 -132.82 -134.12 -130.38 -117.70 -104.68 -95.09 -92.83 -85.02 -65.48 -55.28 -43.47 -25.24 -9.63 3.80 10.15 13.20 19.96 24.83 30.56 37.71 51.78 67.24 77.30 90.51 109.54 117.36 162.82 185.85 200.78 194.82 201.20 159.17 75.02 31.69 30.58 6.21 -32.28 -236.08 -1008.06 -1441.13 -1402.53 -1339.91 -1368.87 -1345.11 -1413.56 -1495.43 -1578.95 -2261.24 -3118.46 -4744.78 -5356.72 -5474.37 -5511.78 -5534.53 -5581.36 -5572.86 -5234.28 -4865.57 -2189.43 -664.35 -396.33 -381.93 -470.73 -739.68 -1267.80 -1793.91 -1989.19 -2162.05 -2169.45 -2227.62 -2292.93 -2329.13 -2365.22 -2436.95 -2567.86 -2708.84 -3015.34 -3331.06 -3670.83 -3818.71 -3818.79
-2599.69 -2599.58 -2618.65 -2639.17 -2661.89 -2663.40 -2673.75 -2678.13 -2698.86 -2723.28 -2737.06 -2721.27 -2719.77 -2702.25 -2646.97 -2567.16 -2551.35 -2557.46 -2542.81 -2443.94 -2301.90 -1981.36 -1764.63 -1641.77 -1593.09 -1657.06 -1708.07 -1767.42 -1752.26 -1853.92 -1806.73 -1684.54 -1754.56 -1440.55 -1110.49 -952.01 -851.53 -753.49 -731.03 -732.48 -758.09 -729.34 -696.41 -635.65 -478.96 -357.31 -325.53 -299.70 -266.31 -243.05 -205.91 -182.68 -150.11 -120.97 -111.44 -130.90 -140.44 -146.89 -151.30 -152.14 -148.70 -143.02 -139.12 -130.87 -114.27 -101.76 -94.08 -85.16 -73.76 -64.65 -47.88 -33.04 -24.42 -3.57 4.91 6.01 11.30 16.08 21.06 30.26 43.19 48.86 61.61 72.56 80.31 97.76 135.80 150.46 176.72 182.89 159.07 103.91 73.77 20.24 12.77 -9.68 -70.16 -460.84 -1440.42 -1502.02 -1418.56 -1379.18 -1425.76 -1425.50 -1507.55 -1627.96 -2017.89 -2839.37 -3943.77 -5030.39 -5414.84 -5456.29 -5506.83 -5539.03 -5580.98 -5503.01 -5207.70 -3986.16 -1732.87 -692.64 -403.80 -404.64 -623.94 -801.04 -1208.42 -1710.00 -1850.75 -2105.83 -2232.22 -2286.60 -2315.08 -2331.91 -2428.90 -2508.67 -2719.76 -2840.62 -3173.67 -3407.78 -3643.26 -3813.80 -3813.86
-2554.98 -2554.94 -2586.92 -2606.02 -2630.28 -2641.87 -2643.96 -2662.94 -2699.46 -2730.03 -2749.84 -2725.55 -2721.06 -2699.59 -2640.10 -2605.74 -2598.42 -2606.26 -2582.92 -2491.57 -2390.30 -2247.80 -2134.84 -2086.22 -2053.00 -2251.26 -2284.75 -2273.61 -2314.92 -2259.13 -2268.76 -2262.31 -2175.97 -1628.45 -1274.01 -1133.09 -968.26 -869.75 -893.30 -911.12 -869.90 -811.25 -746.79 -677.66 -571.41 -379.76 -334.18 -307.27 -271.14 -254.36 -214.59 -167.97 -136.48 -125.57 -140.96 -157.41 -161.07 -164.16 -167.63 -165.44 -160.42 -156.97 -148.49 -134.12 -120.46 -102.15 -96.79 -92.67 -79.34 -75.74 -65.24 -53.98 -30.17 -12.83 -11.87 -3.75 5.33 9.72 17.81 27.22 34.76 39.75 51.74 55.72 65.93 76.22 107.85 125.12 140.05 133.28 108.22 86.91 35.43 4.74 -329.25 -154.30 -265.10 -922.99 -1514.51 -1479.17 -1448.16 -1464.92 -1530.69 -1580.35 -1679.99 -2116.13 -2396.99 -3588.28 -4719.00 -5276.55 -5396.00 -5449.70 -5498.39 -5535.01 -5578.91 -5492.90 -5104.01 -3358.47 -1627.01 -676.71 -381.12 -383.92 -655.09 -1075.85 -1308.01 -1627.68 -1920.89 -2106.45 -2254.05 -2319.85 -2343.04 -2366.72 -2437.10 -2530.50 -2715.96 -2972.00 -3161.10 -3409.04 -3603.13 -3819.97 -3820.04
-2593.95 -2593.88 -2562.57 -2552.28 -2598.50 -2619.85 -2636.18 -2673.14 -2704.31 -2738.94 -2745.81 -2741.28 -2733.40 -2718.26 -2682.10 -2652.94 -2640.31 -2632.01 -2610.08 -2591.70 -2551.21 -2462.85 -2427.41 -2397.37 -2432.65 -2467.72 -2512.71 -2497.78 -2569.76 -2548.56 -2565.92 -2521.55 -2420.50 -2275.62 -1857.39 -1403.49 -1100.39 -969.26 -1012.37 -1018.97 -1004.85 -903.65 -775.74 -745.34 -533.01 -375.09 -340.67 -312.90 -282.03 -261.98 -208.81 -168.02 -146.62 -163.87 -167.26 -173.17 -180.44 -187.29 -181.48 -182.15 -173.47 -164.63 -159.11 -151.10 -128.04 -120.40 -107.17 -103.46 -91.30 -85.10 -75.91 -68.24 -48.23 -46.25 -34.28 -12.20 -4.76 4.24 10.93 18.86 23.12 25.51 32.53 33.90 42.57 49.76 70.87 90.85 92.54 86.35 73.57 36.54 16.77 -67.28 -632.85 -976.37 -1082.25 -1423.25 -1522.23 -1468.48 -1539.14 -1761.74 -1782.74 -2249.51 -2490.42 -2740.13 -4058.93 -4527.93 -5090.65 -5347.51 -5439.96 -5466.17 -5505.89 -5540.20 -5574.17 -5466.21 -4536.24 -3711.58 -1783.89 -666.92 -395.12 -566.21 -766.67 -1181.44 -1397.82 -1710.00 -1950.21 -2142.84 -2275.99 -2333.01 -2344.71 -2376.41 -2433.73 -2510.77 -2692.51 -2908.16 -3159.64 -3430.79 -3608.44 -3825.22 -3825.29
-2590.99 -2590.93 -2578.18 -2539.68 -2548.74 -2607.14 -2642.30 -2679.85 -2706.31 -2742.97 -2753.93 -2725.42 -2716.65 -2704.63 -2711.16 -2694.42 -2668.42 -2661.61 -2657.37 -2632.80 -2651.08 -2664.20 -2630.42 -2634.61 -2644.29 -2662.90 -2660.67 -2684.34 -2667.53 -2657.31 -2653.28 -2630.23 -2599.47 -2422.78 -1978.78 -1655.82 -1288.80 -1151.56 -1043.43 -1020.42 -1018.23 -907.81 -813.23 -775.79 -493.22 -394.12 -359.05 -324.69 -298.05 -272.39 -233.60 -193.58 -175.13 -193.80 -189.34 -197.20 -205.96 -203.32 -198.93 -197.08 -185.43 -181.32 -169.65 -163.70 -143.29 -130.10 -117.04 -110.03 -102.35 -95.57 -84.29 -83.11 -71.46 -66.69 -64.04 -48.16 -33.44 -19.61 -0.76 7.51 14.15 19.89 22.60 26.72 27.53 28.58 46.15 61.42 63.63 50.64 39.74 20.33 13.28 -179.14 -763.60 -1269.10 -1635.59 -1561.41 -1482.67 -1567.14 -1935.57 -2153.01 -2317.10 -2852.06 -3534.55 -4187.91 -4746.29 -5260.88 -5470.11 -5551.43 -5532.65 -5534.04 -5544.49 -5556.25 -5567.33 -5518.61 -4864.28 -2674.92 -1534.36 -496.92 -491.31 -659.65 -880.04 -1429.49 -1653.17 -1874.76 -2157.13 -2241.32 -2286.65 -2314.28 -2336.15 -2369.49 -2439.99 -2542.73 -2666.01 -2870.88 -3153.99 -3522.40 -3751.25 -3893.17 -3893.05
-2604.57 -2604.51 -2610.18 -2590.70 -2576.72 -2592.94 -2626.25 -2670.75 -2713.64 -2732.10 -2743.57 -2698.56 -2711.21 -2693.46 -2730.18 -2710.89 -2694.85 -2681.84 -2675.18 -2682.06 -2679.02 -2695.02 -2703.51 -2730.20 -2722.16 -2744.19 -2748.20 -2742.10 -2722.68 -2708.27 -2702.44 -2694.33 -2645.39 -2525.90 -2159.33 -1903.65 -1547.42 -1237.64 -1070.10 -1031.07 -853.95 -796.73 -803.97 -769.12 -576.90 -399.74 -367.92 -334.08 -315.71 -291.80 -247.60 -222.29 -205.16 -208.31 -231.87 -234.43 -222.61 -225.80 -222.89 -214.69 -204.44 -195.57 -180.09 -170.43 -155.86 -139.64 -133.20 -117.66 -111.87 -104.31 -99.58 -94.74 -96.46 -87.53 -78.89 -90.09 -62.80 -36.99 -20.48 -20.41 -2.87 10.09 13.89 14.55 17.51 20.79 22.00 36.76 31.70 22.94 12.97 -23.47 -107.27 -468.63 -1146.35 -1360.74 -1546.84 -1598.24 -1794.04 -2195.78 -3312.98 -3179.48 -3645.23 -4286.24 -4847.55 -5242.01 -5395.31 -5702.41 -5623.03 -5745.05 -5776.03 -5710.48 -5574.32 -5505.78 -5435.04 -5239.38 -4188.58 -2522.31 -931.39 -525.12 -541.21 -716.32 -994.45 -1426.00 -1774.33 -1977.27 -2204.11 -2256.28 -2287.73 -2307.55 -2334.61 -2375.47 -2426.21 -2536.05 -2676.60 -3014.52 -3289.15 -3701.92 -3920.62 -4126.54 -4126.60
-2625.59 -2625.55 -2632.36 -2637.26 -2644.42 -2604.57 -2629.29 -2686.70 -2696.46 -2704.23 -2752.09 -2739.50 -2746.68 -2768.58 -2751.03 -2725.03 -2709.36 -2701.18 -2700.42 -2697.13 -2709.41 -2732.23 -2761.73 -2775.66 -2766.80 -2775.50 -2775.32 -2760.95 -2747.91 -2727.34 -2722.21 -2719.53 -2682.23 -2625.06 -2408.18 -2134.47 -1597.71 -1355.05 -1100.97 -984.58 -873.42 -798.53 -819.46 -780.64 -587.36 -470.02 -393.93 -350.86 -328.64 -302.17 -269.00 -252.68 -261.93 -236.09 -251.26 -268.97 -254.09 -250.55 -237.20 -233.86 -224.60 -215.87 -196.57 -179.87 -166.08 -155.03 -147.70 -134.79 -119.62 -118.31 -115.47 -114.58 -110.29 -106.09 -113.22 -102.95 -81.70 -62.64 -67.72 -57.02 -31.94 -17.12 -18.70 7.57 1.08 2.48 13.74 -13.76 -18.60 -42.40 -75.61 -164.44 -576.52 -1107.47 -1595.53 -1554.86 -1651.88 -2026.38 -2485.72 -3198.65 -4177.20 -4827.12 -4998.02 -5205.83 -5385.33 -5618.27 -5808.06 -5992.53 -5291.09 -4963.17 -5486.68 -5178.91 -5244.01 -4930.74 -4754.78 -4089.78 -3725.21 -1889.57 -689.16 -548.69 -623.89 -897.16 -1198.67 -1428.61 -1729.01 -2054.80 -2232.19 -2268.07 -2296.53 -2310.79 -2343.05 -2380.72 -2429.79 -2518.95 -2783.74 -3124.53 -3673.82 -3939.34 -4043.96 -4155.25 -4155.25
-2671.48 -2671.45 -2670.14 -2687.10 -2695.80 -2702.62 -2712.75 -2724.22 -2717.93 -2727.77 -2777.93 -2779.43 -2779.19 -2771.03 -2753.51 -2732.38 -2711.46 -2709.89 -2707.82 -2709.70 -2714.56 -2745.35 -2782.55 -2797.06 -2793.80 -2799.70 -2793.20 -2785.01 -2775.47 -2765.76 -2764.21 -2765.88 -2747.46 -2692.85 -2524.75 -2242.42 -1854.44 -1361.85 -1141.03 -921.18 -825.19 -803.85 -813.00 -781.55 -668.79 -489.28 -391.95 -379.61 -352.88 -332.32 -317.01 -315.71 -315.65 -301.16 -312.25 -301.41 -288.45 -270.00 -258.86 -252.98 -240.99 -230.15 -221.89 -201.13 -188.27 -162.66 -154.79 -149.96 -141.46 -142.29 -139.44 -133.07 -119.49 -123.23 -123.28 -119.99 -116.35 -95.86 -86.39 -65.75 -58.83 -52.50 -40.08 -36.36 -26.58 -13.10 -59.96 -117.18 -132.97 -150.40 -179.55 -209.31 -621.17 -1091.09 -1691.89 -1715.33 -2192.51 -3145.75 -3830.45 -5010.55 -5223.65 -5386.59 -5569.13 -5656.05 -5836.57 -6058.92 -6189.53 -4855.33 -4328.43 -3053.59 -1929.08 -1302.05 -3040.30 -2365.16 -2102.92 -2188.88 -1479.78 -857.07 -564.26 -512.25 -677.21 -997.03 -1218.04 -1537.37 -1825.71 -2131.37 -2217.41 -2255.17 -2294.21 -2317.41 -2351.56 -2387.17 -2504.67 -2563.60 -2765.21 -3330.24 -3633.48 -4044.42 -4187.91 -4253.25 -4253.29
-2728.25 -2732.24 -2733.94 -2730.92 -2732.15 -2743.03 -2748.17 -2751.55 -2764.30 -2774.73 -2776.82 -2777.80 -2778.50 -2774.38 -2748.58 -2726.82 -2712.00 -2712.13 -2712.92 -2714.27 -2725.82 -2761.17 -2794.87 -2810.69 -2815.73 -2809.69 -2810.36 -2801.25 -2799.16 -2798.88 -2791.25 -2794.38 -2786.91 -2758.60 -2649.11 -2352.10 -1917.62 -1536.88 -1155.69 -949.63 -833.28 -812.08 -807.19 -802.62 -690.83 -508.10 -444.29 -402.35 -370.19 -357.28 -343.15 -355.85 -345.91 -340.55 -331.20 -325.31 -314.40 -289.03 -277.31 -258.06 -254.45 -243.12 -230.26 -214.50 -198.28 -179.62 -167.94 -164.41 -153.98 -151.75 -157.42 -152.56 -148.79 -149.74 -136.54 -126.91 -124.81 -115.28 -104.73 -102.61 -109.05 -90.38 -71.67 -74.70 -78.99 -78.28 -126.36 -133.08 -168.48 -188.36 -219.63 -240.92 -799.75 -1420.68 -2025.60 -2335.68 -3382.70 -4084.36 -5079.80 -5238.54 -5821.35 -5800.33 -5902.74 -6044.01 -5484.49 -5086.01 -3426.31 -1331.36 -908.96 -269.98 -137.65 -158.41 28.20 23.45 -137.97 -865.89 -608.36 -498.15 -418.17 -515.15 -666.88 -1057.19 -1332.83 -1622.96 -1850.93 -2082.00 -2190.86 -2256.52 -2308.15 -2323.81 -2351.97 -2399.90 -2548.70 -2637.17 -2905.08 -3175.93 -3740.59 -3992.62 -4203.80 -4285.33 -4293.85
-2764.18 -2764.12 -2760.40 -2769.42 -2779.41 -2776.37 -2785.02 -2784.28 -2779.69 -2779.08 -2785.09 -2785.98 -2787.36 -2784.17 -2762.60 -2731.57 -2720.01 -2721.03 -2722.96 -2727.65 -2742.27 -2763.54 -2820.38 -2836.00 -2837.24 -2829.74 -2830.25 -2828.36 -2815.24 -2821.59 -2821.69 -2824.30 -2828.46 -2797.32 -2674.97 -2388.90 -2115.84 -1613.13 -1188.46 -949.57 -863.35 -826.79 -820.62 -807.87 -755.84 -665.38 -525.96 -436.17 -397.22 -389.31 -381.17 -372.84 -372.08 -404.64 -443.97 -410.46 -377.57 -317.57 -311.93 -296.64 -283.61 -271.43 -251.85 -220.56 -210.93 -203.90 -187.51 -176.22 -175.07 -176.58 -172.97 -168.81 -165.91 -166.14 -157.53 -150.01 -146.83 -143.93 -129.08 -128.16 -117.03 -108.79 -101.88 -106.41 -106.08 -116.73 -133.05 -159.10 -189.19 -218.62 -252.05 -263.16 -1396.12 -1917.05 -2720.84 -3283.67 -4704.98 -5213.22 -5640.76 -5434.95 -5766.43 -5979.65 -6241.91 -5361.91 -3504.30 -1773.24 -1585.97 -878.58 -6.17 19.11 36.64 39.59 32.19 29.15 21.66 -28.03 -192.48 -367.59 -446.36 -533.45 -828.45 -1078.16 -1520.58 -1835.42 -1976.35 -2157.37 -2217.32 -2262.27 -2305.27 -2334.71 -2366.33 -2426.23 -2610.17 -2674.19 -2946.28 -3313.61 -3761.20 -4033.09 -4242.51 -4292.20 -4292.28
-2781.85 -2781.80 -2785.01 -2790.26 -2801.41 -2800.23 -2802.31 -2800.35 -2795.98 -2797.59 -2795.19 -2798.71 -2800.54 -2792.83 -2777.60 -2751.10 -2741.33 -2737.88 -2741.64 -2754.22 -2760.15 -2805.71 -2840.83 -2859.89 -2863.34 -2853.62 -2846.86 -2847.98 -2848.83 -2841.93 -2841.63 -2837.52 -2838.84 -2826.20 -2742.21 -2486.41 -2162.35 -1843.88 -1298.20 -1089.30 -902.72 -837.64 -832.52 -816.00 -776.66 -729.03 -629.18 -472.50 -440.69 -424.92 -487.88 -558.70 -517.05 -480.40 -538.24 -500.41 -429.11 -440.04 -348.38 -321.80 -308.65 -286.49 -283.19 -263.45 -229.56 -225.01 -202.52 -197.73 -200.91 -192.62 -196.56 -194.84 -195.50 -186.19 -181.53 -179.18 -171.08 -157.55 -158.80 -153.63 -145.03 -130.25 -124.42 -131.09 -135.77 -136.09 -139.82 -171.53 -201.55 -262.19 -315.57 -934.05 -1758.90 -2258.75 -2697.01 -4210.09 -5207.59 -5225.48 -4762.06 -4156.95 -4503.64 -3966.33 -2955.69 -1732.87 -924.30 -170.14 11.30 15.52 24.64 36.11 43.68 43.08 36.50 29.59 23.16 12.91 -6.19 -394.16 -600.23 -768.72 -952.48 -1294.11 -1575.01 -1899.22 -2093.91 -2215.14 -2277.35 -2309.89 -2332.51 -2367.60 -2450.25 -2544.28 -2737.50 -2921.18 -3208.78 -3519.09 -3828.06 -4144.34 -4217.94 -4275.61 -4275.67
