-5256.96 -5256.88 -5272.11 -5286.95 -5301.33 -5309.65 -5290.36 -5240.22 -4975.02 -4710.06 -4483.59 -4375.13 -4230.76 -4003.78 -3777.22 -3710.10 -3686.24 -3674.23 -3669.61 -3660.61 -3647.23 -3629.80 -3577.88 -3567.04 -3557.47 -3540.19 -3526.10 -3518.16 -3494.76 -3481.87 -3457.85 -3449.21 -3451.48 -3466.21 -3509.70 -3570.23 -3654.56 -3696.08 -3701.79 -3696.14 -3682.10 -3679.85 -3680.78 -3673.36 -3661.21 -3664.59 -3670.35 -3669.10 -3667.74 -3663.39 -3661.23 -3664.57 -3660.94 -3660.09 -3663.99 -3667.61 -3672.97 -3686.39 -3692.85 -3696.04 -3696.88 -3697.91 -3710.12 -3663.66 -3622.26 -3624.16 -3638.15 -3634.73 -3637.13 -3637.89 -3638.54 -3610.76 -3575.07 -3480.21 -3164.99 -2452.89 -2350.11 -2018.14 -1671.08 -1276.97 -1139.35 -1008.83 -753.42 -545.29 -234.22 -107.24 -12.12 60.38 97.95 137.33 158.50 189.68 211.28 228.08 243.93 272.08 561.28 1194.99 2433.20 3676.45 5323.82 5911.74 3507.60 2451.40 1488.07 1099.94 462.04 299.32 255.99 220.37 170.10 54.30 -47.95 -464.62 -650.94 -954.09 -1287.91 -1415.92 -1626.93 -1772.74 -1837.52 -1887.36 -1889.98 -1891.26 -1894.42 -1899.72 -1908.28 -1915.18 -1929.82 -1941.16 -1955.98 -1976.55 -2019.54 -2128.40 -2228.92 -2430.27 -2698.00 -3086.40 -3295.48 -3395.03 -3395.11
-5249.20 -5249.13 -5264.10 -5280.13 -5292.69 -5299.42 -5296.84 -5250.96 -5141.29 -4996.82 -4972.34 -4905.16 -4748.79 -4207.30 -4093.59 -3810.09 -3712.23 -3713.03 -3678.73 -3662.68 -3643.93 -3626.52 -3607.58 -3575.70 -3560.67 -3543.88 -3532.18 -3513.90 -3497.78 -3474.58 -3451.35 -3443.90 -3443.75 -3453.88 -3506.68 -3578.95 -3634.63 -3694.28 -3703.20 -3694.36 -3677.35 -3679.61 -3677.96 -3667.83 -3660.72 -3661.05 -3663.68 -3665.90 -3664.82 -3660.76 -3659.37 -3658.98 -3656.91 -3655.53 -3653.77 -3660.77 -3668.71 -3673.35 -3683.36 -3691.51 -3697.21 -3702.65 -3701.06 -3658.91 -3618.77 -3612.86 -3616.00 -3623.93 -3636.50 -3635.09 -3634.77 -3609.75 -3516.28 -3442.53 -3074.81 -2635.88 -2240.35 -1797.70 -1488.48 -1323.92 -1128.52 -955.33 -792.60 -621.72 -289.70 -123.78 -50.03 59.55 111.31 136.78 170.61 187.94 204.25 226.60 241.88 265.78 833.01 1545.36 2781.14 4304.06 6403.04 6435.19 4147.93 3920.57 2087.05 1392.11 342.63 292.87 236.17 201.51 135.39 34.97 -64.30 -459.34 -731.82 -933.51 -1258.53 -1382.58 -1535.46 -1718.00 -1816.42 -1870.81 -1885.60 -1887.08 -1890.89 -1897.25 -1909.09 -1914.12 -1929.85 -1943.90 -1955.99 -1985.31 -2033.56 -2095.17 -2251.32 -2354.24 -2704.81 -3072.31 -3246.36 -3359.91 -3360.04
-5236.26 -5236.17 -5249.63 -5260.10 -5276.61 -5285.41 -5286.53 -5269.60 -5235.27 -5183.16 -5166.64 -5173.75 -5048.26 -4823.79 -4372.25 -4132.80 -3854.39 -3748.36 -3692.56 -3665.33 -3645.95 -3621.46 -3597.44 -3560.98 -3551.61 -3539.53 -3530.72 -3517.29 -3499.39 -3474.50 -3458.89 -3449.55 -3445.24 -3455.22 -3505.91 -3571.14 -3621.20 -3657.71 -3681.96 -3676.01 -3682.10 -3682.00 -3686.02 -3670.12 -3664.08 -3663.35 -3661.22 -3657.96 -3659.20 -3658.81 -3657.78 -3656.13 -3654.78 -3653.12 -3651.68 -3656.97 -3662.95 -3670.56 -3681.74 -3680.20 -3689.37 -3707.21 -3685.26 -3663.82 -3614.43 -3610.25 -3614.66 -3623.75 -3631.88 -3631.93 -3628.03 -3545.94 -3364.25 -3128.47 -2962.50 -2592.78 -2198.69 -1791.32 -1474.94 -1244.42 -1131.32 -962.30 -701.64 -512.52 -378.55 -192.55 -48.39 69.68 129.66 153.42 168.79 188.68 198.57 222.49 238.50 308.81 1238.04 1703.29 2899.93 4445.05 6430.61 6615.99 5324.73 3248.61 2178.55 727.30 421.63 276.75 233.92 193.07 99.67 -44.82 -128.35 -419.37 -665.38 -983.43 -1263.94 -1482.89 -1492.92 -1655.32 -1770.45 -1842.68 -1876.39 -1884.36 -1886.38 -1899.27 -1904.38 -1913.82 -1918.21 -1940.12 -1963.92 -2003.91 -2068.00 -2144.40 -2270.26 -2371.99 -2658.16 -3008.27 -3181.80 -3255.44 -3255.60
-5210.76 -5210.69 -5223.82 -5238.86 -5253.28 -5269.99 -5272.33 -5261.06 -5241.69 -5230.93 -5232.43 -5218.42 -5185.39 -5128.56 -4768.93 -4509.01 -4210.39 -3827.59 -3718.96 -3659.46 -3640.83 -3604.29 -3580.02 -3557.62 -3540.82 -3535.44 -3527.11 -3517.70 -3497.69 -3485.56 -3471.24 -3452.92 -3455.41 -3471.56 -3494.76 -3553.59 -3578.73 -3623.79 -3639.89 -3659.75 -3684.07 -3681.29 -3682.74 -3675.32 -3663.81 -3659.89 -3658.72 -3656.49 -3657.05 -3657.07 -3657.58 -3657.11 -3653.65 -3652.24 -3652.06 -3653.64 -3651.37 -3659.23 -3679.98 -3682.03 -3680.77 -3681.87 -3664.30 -3646.54 -3614.42 -3609.47 -3614.31 -3617.70 -3619.94 -3627.39 -3621.85 -3517.10 -3396.27 -3148.19 -2808.87 -2447.82 -2225.53 -1843.68 -1466.94 -1215.09 -1100.80 -949.49 -624.99 -494.53 -395.44 -275.92 -66.15 66.65 124.95 162.75 175.14 189.53 200.22 226.71 256.77 561.11 1553.69 1902.72 2791.83 4622.44 6642.13 6497.25 3911.91 1939.99 2191.63 699.74 318.04 264.71 232.12 193.86 124.26 -47.87 -170.00 -391.75 -653.39 -871.06 -1115.56 -1372.90 -1510.01 -1615.45 -1741.18 -1832.81 -1857.77 -1875.77 -1884.74 -1892.89 -1902.16 -1908.09 -1923.24 -1951.01 -1975.59 -2025.62 -2098.04 -2188.60 -2290.93 -2431.57 -2605.50 -2905.34 -2986.09 -3148.72 -3148.78
-5185.19 -5185.11 -5200.88 -5212.38 -5220.38 -5233.39 -5243.97 -5245.27 -5245.04 -5245.71 -5250.66 -5256.83 -5248.65 -5219.38 -5133.57 -4868.14 -4359.90 -3992.37 -3785.08 -3682.59 -3624.45 -3595.26 -3553.80 -3542.15 -3533.15 -3527.42 -3520.75 -3514.43 -3507.04 -3494.24 -3493.76 -3486.13 -3475.15 -3483.79 -3500.37 -3530.42 -3559.30 -3575.21 -3582.79 -3599.08 -3601.06 -3626.28 -3658.95 -3657.12 -3660.44 -3652.68 -3653.35 -3657.38 -3655.49 -3656.25 -3654.26 -3654.60 -3652.62 -3650.50 -3648.84 -3647.94 -3645.08 -3654.87 -3665.10 -3645.11 -3644.90 -3650.75 -3634.41 -3617.98 -3607.09 -3608.27 -3613.73 -3617.32 -3616.87 -3614.81 -3603.11 -3527.77 -3307.89 -3221.99 -2787.96 -2333.19 -2090.86 -1752.69 -1573.11 -1269.78 -967.82 -799.89 -595.49 -464.06 -417.23 -300.08 -128.55 23.68 92.53 176.63 179.20 197.14 212.74 226.10 256.10 437.72 1373.69 2056.37 3455.72 5207.30 6122.64 4565.20 2405.04 1627.59 1322.39 475.97 274.60 252.87 234.94 199.96 96.06 -1.11 -126.68 -398.08 -683.05 -931.46 -1038.21 -1340.32 -1477.49 -1568.58 -1691.94 -1791.16 -1842.27 -1867.61 -1884.62 -1889.78 -1895.91 -1904.54 -1916.95 -1948.50 -1989.13 -2033.62 -2136.13 -2227.23 -2319.36 -2498.21 -2590.12 -2781.17 -2953.29 -3125.38 -3148.32
-5168.08 -5169.37 -5180.51 -5190.45 -5203.99 -5216.99 -5225.06 -5233.73 -5237.77 -5244.43 -5251.89 -5260.16 -5264.00 -5255.87 -5189.87 -5155.50 -4877.60 -4474.04 -4010.52 -3701.61 -3619.42 -3590.37 -3547.07 -3536.52 -3527.44 -3522.75 -3515.88 -3514.97 -3513.93 -3508.87 -3504.08 -3495.41 -3493.63 -3494.05 -3503.27 -3517.50 -3533.71 -3542.41 -3555.04 -3560.07 -3572.79 -3602.08 -3609.10 -3633.59 -3645.98 -3646.73 -3647.23 -3657.35 -3655.14 -3654.78 -3653.74 -3653.47 -3650.93 -3647.32 -3645.18 -3643.11 -3634.53 -3637.23 -3633.06 -3621.99 -3617.04 -3617.70 -3619.40 -3611.93 -3599.23 -3612.46 -3618.99 -3615.87 -3611.30 -3609.38 -3601.46 -3549.14 -3324.61 -3064.56 -2892.56 -2426.94 -2109.26 -1907.14 -1614.26 -1141.19 -964.97 -698.76 -551.19 -375.42 -340.83 -282.42 -140.73 -26.84 166.42 207.74 184.66 203.91 221.99 237.21 247.17 659.85 1766.17 2138.02 2769.44 5055.63 5721.87 4655.46 3132.57 2582.43 1160.22 342.32 274.00 246.46 220.39 172.07 126.20 21.53 -110.35 -266.92 -534.42 -753.03 -932.98 -1199.76 -1380.83 -1577.56 -1677.09 -1786.19 -1852.65 -1873.17 -1884.04 -1887.03 -1891.12 -1904.41 -1911.08 -1927.17 -1962.00 -2026.44 -2128.07 -2197.92 -2331.08 -2516.74 -2696.30 -2878.50 -3038.69 -3150.14 -3150.20
-5166.31 -5167.76 -5175.34 -5186.72 -5197.16 -5208.25 -5223.94 -5228.67 -5233.29 -5240.90 -5251.57 -5256.68 -5260.42 -5262.71 -5253.84 -5210.15 -5088.89 -4811.24 -4360.93 -3932.19 -3682.74 -3606.09 -3552.34 -3532.86 -3524.38 -3520.21 -3515.50 -3515.13 -3515.50 -3513.15 -3508.08 -3501.04 -3498.02 -3499.23 -3504.27 -3512.36 -3525.17 -3535.28 -3544.16 -3551.52 -3559.59 -3581.47 -3593.71 -3612.92 -3636.74 -3647.06 -3643.39 -3652.08 -3655.67 -3654.57 -3650.91 -3653.55 -3651.25 -3646.85 -3643.81 -3638.27 -3634.27 -3631.69 -3629.34 -3620.28 -3617.85 -3615.48 -3614.41 -3610.74 -3608.89 -3611.98 -3611.59 -3610.83 -3611.39 -3606.61 -3600.12 -3548.13 -3444.73 -3182.18 -2850.86 -2471.27 -2216.13 -1942.14 -1700.82 -1386.27 -1115.11 -657.98 -468.50 -288.24 -205.22 -158.31 -103.14 4.13 163.42 182.02 174.00 203.08 228.68 242.90 352.23 975.08 2620.31 2620.37 4393.03 5765.15 5289.43 3526.89 2419.99 2321.30 1019.30 447.65 304.69 230.04 191.12 159.32 87.41 44.71 -77.78 -228.61 -452.06 -669.92 -907.61 -1051.70 -1330.21 -1540.56 -1670.11 -1773.60 -1866.26 -1878.55 -1882.11 -1884.97 -1889.74 -1898.77 -1907.77 -1925.47 -1964.74 -2038.99 -2091.08 -2192.64 -2320.17 -2460.19 -2739.13 -2957.83 -3076.94 -3158.37 -3158.41
-5171.94 -5171.89 -5178.23 -5187.88 -5200.21 -5208.37 -5219.50 -5228.47 -5235.29 -5238.96 -5253.22 -5256.93 -5258.70 -5263.27 -5261.26 -5246.61 -5200.57 -5055.33 -4742.76 -4251.76 -3774.60 -3618.93 -3583.04 -3540.12 -3533.18 -3529.30 -3525.70 -3520.22 -3517.49 -3516.76 -3508.27 -3502.33 -3498.78 -3498.46 -3505.67 -3515.37 -3532.68 -3548.39 -3568.04 -3566.52 -3567.92 -3582.09 -3591.23 -3607.84 -3616.02 -3629.97 -3643.66 -3654.39 -3656.47 -3653.47 -3648.80 -3647.27 -3646.18 -3644.93 -3638.48 -3636.69 -3635.79 -3635.73 -3634.41 -3626.48 -3623.44 -3619.69 -3613.96 -3614.02 -3610.09 -3605.51 -3608.53 -3612.89 -3611.53 -3604.60 -3600.72 -3574.21 -3516.02 -3326.80 -2968.20 -2736.51 -2181.61 -1966.99 -1534.19 -1222.47 -987.16 -704.01 -432.58 -189.57 -131.05 -93.75 -38.52 40.40 100.60 128.73 167.60 189.55 220.24 244.89 387.75 1100.75 1991.45 3187.29 4472.73 7326.61 6815.68 4723.61 2643.92 2485.56 553.76 346.31 296.15 226.93 186.63 162.08 103.31 18.75 -72.82 -288.92 -501.27 -641.82 -813.04 -987.55 -1242.66 -1448.79 -1635.66 -1809.11 -1853.45 -1876.05 -1879.00 -1884.01 -1888.39 -1895.48 -1908.14 -1924.33 -1973.28 -2050.23 -2101.25 -2180.68 -2323.45 -2419.86 -2771.83 -2822.77 -3165.25 -3220.82 -3220.70
-5188.95 -5188.90 -5202.32 -5203.44 -5211.97 -5218.32 -5232.92 -5239.88 -5243.45 -5253.59 -5265.71 -5265.69 -5267.75 -5271.49 -5261.68 -5257.66 -5219.69 -5136.94 -5004.71 -4553.67 -4065.36 -3778.37 -3615.81 -3580.06 -3570.03 -3565.58 -3566.44 -3557.96 -3535.33 -3516.19 -3508.68 -3500.36 -3497.16 -3500.12 -3510.60 -3532.68 -3547.68 -3584.25 -3586.06 -3596.24 -3598.00 -3598.69 -3601.67 -3609.16 -3615.43 -3622.90 -3633.55 -3651.36 -3662.84 -3657.84 -3655.59 -3650.07 -3643.41 -3641.73 -3638.33 -3634.56 -3634.65 -3632.12 -3631.21 -3625.15 -3621.29 -3615.44 -3615.36 -3614.50 -3611.78 -3615.56 -3614.62 -3613.14 -3609.66 -3606.19 -3601.88 -3591.87 -3546.72 -3362.41 -3172.69 -2966.04 -2479.44 -2199.18 -1559.63 -1156.13 -787.35 -479.85 -282.85 -146.05 -84.08 -19.55 -1.57 60.52 105.75 123.33 161.31 185.49 218.55 244.53 319.09 1284.87 1633.18 3444.86 5021.67 7391.58 7273.05 4953.18 3617.52 2612.70 601.68 361.36 281.39 226.24 206.79 162.93 93.20 0.60 -106.40 -186.33 -374.95 -525.41 -755.82 -961.95 -1210.77 -1458.09 -1642.02 -1776.11 -1823.09 -1861.66 -1876.19 -1884.72 -1888.11 -1893.42 -1903.69 -1925.29 -1963.96 -2048.08 -2126.06 -2198.77 -2316.34 -2424.08 -2616.08 -2849.07 -3130.64 -3319.44 -3319.53
-5220.78 -5226.71 -5229.09 -5230.61 -5236.13 -5248.20 -5262.63 -5272.04 -5276.79 -5289.47 -5288.97 -5291.15 -5301.62 -5295.44 -5282.64 -5262.69 -5243.69 -5214.91 -5146.21 -4881.62 -4434.26 -3900.56 -3752.96 -3659.61 -3618.72 -3605.53 -3605.65 -3593.57 -3557.75 -3517.56 -3494.62 -3484.92 -3484.78 -3491.83 -3513.94 -3551.05 -3584.59 -3605.82 -3621.55 -3634.74 -3647.50 -3631.93 -3634.52 -3621.26 -3619.29 -3622.47 -3629.40 -3639.94 -3653.58 -3658.94 -3662.76 -3658.43 -3645.75 -3638.08 -3633.88 -3629.52 -3631.69 -3630.28 -3629.95 -3627.97 -3621.74 -3616.98 -3618.24 -3617.04 -3620.50 -3620.32 -3618.51 -3615.78 -3610.94 -3606.34 -3597.51 -3589.16 -3535.50 -3413.22 -3162.99 -2917.27 -2484.85 -2051.54 -1708.27 -1138.75 -625.30 -380.07 -221.45 -116.21 -48.04 -4.43 39.01 75.54 115.87 129.55 160.36 184.61 216.50 237.22 290.82 670.98 1395.37 2348.36 4415.88 7052.02 6691.11 4512.27 2628.06 1707.38 728.00 362.01 279.78 232.68 212.99 164.78 122.95 37.89 -63.30 -107.57 -264.95 -475.73 -634.23 -980.69 -1244.82 -1378.35 -1496.98 -1695.58 -1771.44 -1842.20 -1875.26 -1883.67 -1885.88 -1891.50 -1902.49 -1933.07 -1965.10 -2014.08 -2085.90 -2120.38 -2244.31 -2356.28 -2611.26 -2828.72 -3142.38 -3249.31 -3272.28
-5253.25 -5252.26 -5253.92 -5259.38 -5273.51 -5277.60 -5284.71 -5293.03 -5307.35 -5315.43 -5321.74 -5322.06 -5320.87 -5298.05 -5287.61 -5252.86 -5241.99 -5220.64 -5187.27 -5076.56 -4810.38 -4226.83 -3923.03 -3774.30 -3675.34 -3661.89 -3635.08 -3622.72 -3537.74 -3513.05 -3487.81 -3471.55 -3468.47 -3478.78 -3503.57 -3583.44 -3622.28 -3665.66 -3673.60 -3670.18 -3685.06 -3670.28 -3657.95 -3641.87 -3622.18 -3624.44 -3628.43 -3634.31 -3633.14 -3632.38 -3615.69 -3635.08 -3642.34 -3630.66 -3632.43 -3626.60 -3629.84 -3629.55 -3628.75 -3627.11 -3624.74 -3621.96 -3621.36 -3620.67 -3619.85 -3619.52 -3619.48 -3616.78 -3608.17 -3604.35 -3595.02 -3584.05 -3560.88 -3477.86 -3353.79 -2925.53 -2342.73 -1953.80 -1531.49 -1025.49 -581.37 -313.08 -157.42 -75.78 -17.14 24.60 59.24 78.30 109.33 140.61 158.14 184.86 204.10 232.09 457.97 983.51 1649.95 2749.20 4902.80 6617.36 6506.30 3915.58 3577.78 3141.80 655.73 360.58 280.12 241.42 225.49 195.97 138.63 90.15 28.41 -80.87 -253.11 -444.96 -680.66 -907.53 -1146.56 -1391.87 -1468.83 -1666.81 -1766.40 -1840.96 -1875.20 -1883.87 -1886.88 -1890.02 -1902.45 -1917.90 -1959.92 -1994.32 -2059.15 -2119.48 -2199.51 -2419.50 -2614.67 -2899.02 -3114.09 -3153.14 -3153.33
-5273.98 -5276.85 -5281.68 -5285.73 -5290.90 -5297.70 -5299.81 -5316.84 -5326.56 -5333.15 -5336.07 -5337.98 -5337.62 -5316.44 -5288.21 -5256.32 -5234.71 -5218.08 -5209.80 -5154.94 -5043.14 -4580.29 -4200.37 -3840.66 -3723.84 -3691.72 -3675.71 -3639.48 -3577.10 -3507.93 -3479.48 -3463.03 -3460.42 -3475.01 -3498.99 -3595.68 -3638.45 -3685.53 -3692.35 -3701.45 -3707.00 -3699.21 -3667.39 -3641.73 -3625.11 -3624.76 -3630.44 -3631.66 -3622.54 -3611.00 -3603.06 -3602.85 -3601.80 -3613.38 -3627.80 -3625.85 -3628.10 -3628.58 -3627.80 -3626.32 -3624.64 -3622.72 -3621.52 -3621.27 -3620.18 -3619.39 -3618.83 -3615.18 -3603.40 -3602.07 -3599.94 -3585.00 -3533.56 -3424.48 -2931.97 -2382.80 -2042.13 -1526.25 -1199.54 -739.28 -447.78 -235.97 -141.63 -78.64 -18.36 36.54 62.43 95.74 116.80 141.37 176.35 184.88 206.71 240.64 310.11 817.26 1417.67 3987.27 4491.27 6903.74 7225.96 5779.20 3467.25 2692.96 504.49 348.62 262.62 248.10 235.16 213.57 172.76 148.05 33.73 -156.11 -318.81 -456.87 -627.29 -860.13 -1112.48 -1299.09 -1505.61 -1634.06 -1749.25 -1836.02 -1865.02 -1883.29 -1885.78 -1889.14 -1896.00 -1919.65 -1938.84 -1989.26 -2042.16 -2127.48 -2193.59 -2312.49 -2557.96 -2694.89 -2896.98 -2981.02 -2981.20
-5289.56 -5289.50 -5289.19 -5293.31 -5297.07 -5304.07 -5311.95 -5319.26 -5329.04 -5333.10 -5337.26 -5339.50 -5338.45 -5326.68 -5287.17 -5253.68 -5229.56 -5215.28 -5212.68 -5203.35 -5144.32 -4918.70 -4641.97 -4019.79 -3807.76 -3724.34 -3687.39 -3659.97 -3580.54 -3531.26 -3479.22 -3458.78 -3456.14 -3480.22 -3526.76 -3569.15 -3605.37 -3679.70 -3687.00 -3698.36 -3705.32 -3708.57 -3677.28 -3640.80 -3634.35 -3630.73 -3636.28 -3635.31 -3636.34 -3601.63 -3592.10 -3583.12 -3581.24 -3600.45 -3620.43 -3623.88 -3627.23 -3625.39 -3624.14 -3625.89 -3625.05 -3624.39 -3622.82 -3621.80 -3620.70 -3619.79 -3619.25 -3611.53 -3603.24 -3606.17 -3605.47 -3575.90 -3432.66 -3338.70 -2857.84 -2345.47 -1885.07 -1356.83 -949.78 -688.75 -435.14 -301.59 -134.80 -91.78 -6.67 35.64 74.86 108.89 138.92 156.41 174.29 199.55 215.91 245.48 309.60 976.31 1129.73 2760.61 3324.66 5639.08 6596.62 5009.68 2899.73 1985.84 1299.84 427.70 312.67 247.49 238.21 217.14 189.51 144.87 53.40 -106.86 -286.21 -444.74 -624.46 -870.47 -1093.81 -1330.93 -1439.36 -1553.76 -1717.38 -1808.02 -1852.15 -1876.77 -1885.51 -1891.88 -1898.10 -1907.91 -1938.49 -1971.94 -2057.23 -2095.65 -2136.30 -2289.10 -2422.26 -2597.70 -2749.82 -2877.60 -2877.67
-5295.40 -5295.34 -5295.82 -5298.28 -5300.99 -5303.70 -5309.92 -5316.16 -5324.17 -5329.82 -5333.54 -5332.78 -5332.45 -5310.96 -5286.44 -5241.12 -5214.74 -5208.97 -5208.47 -5213.11 -5194.97 -5112.74 -4719.61 -4513.74 -3930.61 -3747.57 -3688.69 -3648.37 -3598.31 -3531.06 -3475.04 -3457.83 -3453.59 -3464.73 -3486.71 -3540.34 -3562.13 -3570.14 -3611.15 -3632.34 -3681.82 -3689.13 -3668.85 -3646.11 -3638.45 -3642.72 -3655.56 -3651.13 -3644.10 -3622.35 -3609.57 -3582.92 -3590.64 -3598.01 -3621.52 -3626.33 -3626.01 -3620.98 -3622.15 -3623.31 -3623.30 -3624.09 -3623.03 -3621.75 -3621.01 -3619.64 -3619.42 -3616.38 -3611.79 -3609.49 -3592.11 -3510.10 -3367.09 -3083.96 -2919.94 -2239.23 -1759.39 -1258.65 -886.16 -666.49 -404.18 -243.63 -175.95 -85.57 -33.48 35.35 82.35 124.45 154.11 169.76 181.50 205.83 224.33 243.69 303.45 367.16 2609.69 2937.08 3084.23 7066.03 6449.42 4703.47 2557.56 2080.31 2052.41 549.24 328.77 296.27 245.26 219.19 193.67 131.28 31.58 -113.43 -268.31 -450.25 -642.64 -848.99 -1059.60 -1215.48 -1357.65 -1554.71 -1634.09 -1768.07 -1831.01 -1872.16 -1889.62 -1894.27 -1895.57 -1905.69 -1923.03 -1934.17 -1996.23 -2032.40 -2167.31 -2293.58 -2407.36 -2670.07 -2815.92 -2869.19 -2875.78
-5297.39 -5297.33 -5296.37 -5296.45 -5297.55 -5299.80 -5303.20 -5304.61 -5310.13 -5320.41 -5318.43 -5319.50 -5315.72 -5299.20 -5274.22 -5239.85 -5211.66 -5201.42 -5205.60 -5209.63 -5215.04 -5193.22 -5007.93 -4443.35 -3920.27 -3727.93 -3675.18 -3639.05 -3587.78 -3514.40 -3472.13 -3458.44 -3428.15 -3415.03 -3394.55 -3283.49 -3084.14 -3261.41 -3346.49 -3361.86 -3528.76 -3581.16 -3590.88 -3607.89 -3633.21 -3641.24 -3664.77 -3664.49 -3654.63 -3650.51 -3639.32 -3628.69 -3609.18 -3621.75 -3629.36 -3630.49 -3625.57 -3620.63 -3620.46 -3619.77 -3620.87 -3620.70 -3621.98 -3620.93 -3620.18 -3619.43 -3618.99 -3618.47 -3616.69 -3611.82 -3588.17 -3508.74 -3369.36 -3081.74 -2840.07 -2340.21 -1725.08 -1398.62 -919.06 -702.02 -408.35 -241.87 -176.92 -89.77 -13.12 28.56 81.96 130.61 161.73 185.54 201.20 221.70 239.02 253.62 296.60 448.44 2220.02 2613.67 4256.43 6778.59 7174.94 5914.80 3038.58 2282.03 1728.99 1025.56 334.96 331.06 303.06 235.32 203.87 157.27 84.67 -69.89 -235.54 -428.21 -581.74 -742.44 -990.44 -1173.15 -1399.75 -1515.64 -1645.93 -1785.91 -1850.32 -1878.22 -1891.92 -1896.22 -1898.76 -1904.14 -1915.86 -1930.43 -1978.68 -2033.17 -2175.23 -2298.00 -2455.06 -2621.96 -2745.56 -2876.49 -2876.55
-5299.48 -5299.02 -5295.48 -5293.64 -5294.32 -5295.20 -5292.76 -5293.43 -5296.57 -5294.69 -5287.46 -5289.05 -5285.80 -5264.91 -5264.00 -5218.48 -5206.99 -5197.15 -5199.19 -5207.79 -5215.16 -5194.44 -4990.97 -4643.76 -3939.92 -3623.73 -3616.14 -3590.69 -3540.83 -3509.73 -3469.89 -3419.38 -3240.52 -3087.03 -2942.97 -2716.18 -2317.96 -2243.46 -2510.06 -2673.87 -2877.64 -2864.12 -3218.71 -3502.29 -3470.74 -3645.09 -3664.95 -3661.11 -3656.57 -3652.56 -3643.63 -3640.45 -3628.10 -3638.89 -3630.24 -3623.09 -3621.66 -3620.31 -3619.58 -3620.68 -3620.68 -3618.45 -3620.90 -3622.48 -3620.54 -3617.56 -3618.42 -3617.54 -3617.29 -3612.95 -3586.42 -3555.92 -3401.25 -3062.33 -2884.48 -2391.18 -1932.56 -1500.69 -1038.40 -717.99 -420.60 -277.22 -154.56 -79.94 -21.98 32.65 90.02 120.53 165.07 195.67 225.19 233.89 244.27 251.76 273.66 412.30 1106.83 2039.73 2797.92 5489.12 7580.26 7097.32 4628.31 2674.09 2384.89 1486.20 408.27 361.14 300.17 249.58 239.15 194.67 147.18 31.31 -130.08 -314.97 -491.27 -701.15 -857.65 -1164.32 -1279.34 -1521.45 -1653.77 -1783.59 -1839.48 -1880.42 -1891.16 -1897.16 -1900.55 -1909.27 -1922.63 -1936.93 -1979.44 -2028.99 -2148.16 -2290.73 -2499.33 -2702.76 -2804.54 -2919.83 -2919.80
-5317.04 -5317.01 -5320.68 -5304.22 -5303.88 -5301.34 -5292.53 -5284.37 -5277.23 -5269.72 -5271.03 -5267.30 -5263.05 -5259.01 -5239.51 -5212.02 -5202.38 -5204.08 -5201.85 -5206.73 -5201.43 -5154.19 -4995.12 -4267.94 -3595.55 -3129.77 -3299.79 -3391.50 -3355.06 -3450.50 -3347.10 -3073.52 -2877.20 -2584.69 -2205.80 -1878.29 -1672.28 -1679.49 -1837.70 -1818.34 -2041.43 -2375.23 -2326.63 -2778.00 -3015.56 -3281.28 -3646.13 -3638.37 -3650.23 -3651.71 -3647.28 -3647.26 -3640.11 -3634.30 -3633.02 -3626.42 -3619.80 -3618.82 -3624.32 -3628.35 -3625.25 -3616.43 -3618.45 -3621.93 -3618.73 -3616.42 -3613.23 -3617.93 -3614.77 -3606.25 -3568.76 -3427.25 -3295.66 -3105.45 -2600.69 -2299.75 -1948.93 -1432.18 -1069.90 -754.59 -417.03 -312.97 -164.42 -66.40 -41.79 58.30 137.15 138.03 166.72 226.66 236.96 248.48 252.93 255.82 281.57 423.50 2137.13 3539.08 3604.23 6586.95 8260.61 8588.36 5419.92 3016.04 1446.59 1962.56 1574.63 408.98 326.20 254.35 242.74 216.36 158.01 66.50 -91.51 -191.83 -428.30 -591.97 -918.53 -1051.30 -1358.50 -1473.91 -1634.87 -1763.96 -1819.37 -1863.00 -1891.39 -1898.34 -1901.06 -1908.97 -1925.09 -1937.85 -1969.25 -2036.81 -2137.30 -2218.57 -2466.06 -2693.27 -2839.36 -2988.68 -2988.75
-5370.25 -5375.83 -5376.74 -5366.67 -5350.17 -5327.54 -5319.75 -5292.79 -5293.90 -5289.85 -5268.84 -5270.35 -5268.18 -5257.07 -5239.94 -5227.83 -5230.91 -5231.39 -5227.70 -5222.05 -5201.71 -5049.44 -4418.76 -3608.94 -2628.33 -2543.73 -2493.94 -2919.17 -2964.30 -3133.54 -2962.40 -2434.86 -1996.89 -1771.53 -1544.50 -1336.56 -1248.79 -1255.62 -1335.24 -1362.00 -1486.65 -1512.04 -1696.18 -1930.96 -2475.81 -2805.56 -3245.08 -3507.36 -3555.88 -3494.18 -3536.96 -3596.64 -3639.50 -3610.19 -3627.90 -3626.13 -3617.99 -3618.93 -3623.81 -3625.17 -3626.76 -3616.90 -3614.41 -3617.44 -3614.57 -3610.14 -3597.28 -3598.26 -3613.31 -3585.79 -3380.74 -3285.89 -3198.04 -3087.98 -2613.29 -2164.50 -1606.29 -1199.49 -938.30 -757.69 -495.50 -359.73 -204.65 16.33 80.46 138.70 184.20 205.79 212.99 238.79 251.29 255.78 256.81 258.20 288.22 408.35 1103.56 2850.42 3484.58 5441.40 6816.81 7923.04 6791.95 4234.53 2113.14 2423.96 1541.31 671.73 328.64 269.50 245.49 213.51 182.31 104.86 -30.03 -198.19 -256.45 -641.11 -1004.43 -1164.12 -1352.87 -1500.14 -1602.73 -1780.69 -1836.30 -1866.74 -1890.98 -1897.77 -1900.92 -1907.03 -1920.33 -1951.67 -1968.45 -2008.06 -2083.95 -2252.32 -2429.62 -2702.68 -2905.22 -2987.02 -2986.65
-5470.53 -5460.09 -5445.18 -5435.03 -5411.09 -5396.24 -5378.81 -5357.69 -5320.37 -5321.60 -5308.21 -5298.80 -5298.85 -5304.78 -5316.24 -5281.91 -5291.81 -5273.86 -5264.88 -5249.24 -5218.04 -4992.31 -4056.27 -2768.53 -1975.16 -1815.06 -2061.91 -2255.69 -2207.24 -2458.61 -2536.68 -2040.12 -1425.65 -1225.03 -1155.82 -1056.18 -915.53 -1001.97 -981.82 -1155.37 -1107.68 -1280.30 -1392.37 -1538.75 -1792.98 -2060.94 -2762.34 -3096.84 -3131.80 -3180.27 -3284.97 -3456.09 -3436.50 -3537.79 -3599.25 -3618.55 -3612.26 -3624.69 -3627.78 -3622.49 -3624.38 -3619.26 -3611.25 -3608.53 -3612.53 -3616.77 -3534.43 -3534.15 -3492.41 -3196.91 -3079.90 -2636.63 -2489.48 -2148.04 -1972.41 -1523.01 -1077.38 -1003.72 -890.29 -589.91 -249.81 -38.89 49.32 211.38 255.79 219.45 254.97 213.87 220.30 240.49 256.84 266.42 259.33 257.43 284.36 423.14 625.41 1554.25 1860.88 2846.18 3894.68 6358.61 7068.67 5099.82 4219.85 2857.83 1537.19 535.29 426.48 327.28 247.32 235.56 218.54 180.14 66.78 -60.54 -252.63 -455.40 -846.19 -984.71 -1310.74 -1477.07 -1661.30 -1739.00 -1848.56 -1883.36 -1892.83 -1896.89 -1900.30 -1907.13 -1925.78 -1952.75 -1964.41 -2018.44 -2106.73 -2266.19 -2429.80 -2685.73 -2820.33 -2985.17 -2985.24
-5546.87 -5546.76 -5515.69 -5502.51 -5490.24 -5487.52 -5479.49 -5445.67 -5426.38 -5395.17 -5376.85 -5354.42 -5379.98 -5377.47 -5371.78 -5357.45 -5335.65 -5358.72 -5351.08 -5330.26 -5250.68 -4978.29 -3957.47 -2977.13 -1688.47 -1552.42 -1529.26 -1642.29 -1731.46 -1915.04 -1889.92 -1606.36 -1288.03 -1030.33 -828.37 -513.77 -570.37 -498.60 -623.21 -770.42 -847.01 -1150.21 -1222.67 -1218.35 -1276.68 -1424.27 -1890.21 -2246.19 -2557.93 -2344.74 -2413.68 -2655.65 -2891.67 -3077.56 -3372.63 -3461.70 -3614.26 -3596.09 -3552.44 -3596.17 -3607.43 -3622.59 -3583.60 -3573.46 -3532.76 -3377.20 -3376.84 -2952.74 -2709.01 -2430.70 -2018.30 -2020.20 -2042.81 -1522.58 -1211.25 -979.78 -537.04 -299.51 -160.71 37.02 138.04 156.96 229.52 271.13 274.46 275.81 240.14 222.28 217.54 235.29 251.09 264.99 259.21 256.10 255.35 297.17 390.28 1194.28 1277.48 2067.21 3446.79 6032.37 7355.52 6844.64 4931.66 2686.67 1538.00 2120.31 1580.30 470.00 272.38 245.62 225.32 199.56 122.13 13.69 -156.80 -363.48 -709.91 -987.46 -1204.30 -1374.64 -1599.49 -1723.31 -1829.24 -1875.93 -1894.59 -1896.45 -1899.13 -1903.74 -1922.32 -1938.07 -1998.86 -2014.32 -2088.10 -2295.50 -2433.68 -2742.33 -2953.28 -2985.90 -2986.36
-5582.34 -5582.26 -5575.38 -5556.87 -5540.55 -5525.69 -5514.74 -5491.02 -5491.85 -5473.58 -5460.17 -5437.29 -5433.87 -5445.34 -5439.23 -5473.04 -5465.08 -5500.57 -5442.06 -5427.11 -5367.18 -4960.46 -3770.45 -2687.19 -1739.41 -1627.53 -1619.16 -1634.73 -1545.72 -1568.51 -1586.99 -1508.52 -1169.03 -770.22 -417.20 -211.44 -13.77 36.76 -102.78 -239.91 -183.20 -725.18 -1127.75 -1152.83 -1095.36 -1219.69 -1390.77 -1486.57 -1618.94 -1605.79 -1763.19 -1870.79 -2158.18 -2388.83 -2772.61 -3200.45 -3328.74 -3434.38 -3442.75 -3487.83 -3465.55 -3276.39 -3408.47 -3386.50 -3189.77 -2953.72 -2912.34 -2345.50 -2232.65 -1677.77 -1605.81 -1395.91 -1117.50 -948.66 -721.22 -331.96 23.40 101.53 143.50 197.62 208.61 205.48 213.09 219.75 209.80 217.60 187.03 196.10 211.78 234.17 249.09 257.33 257.79 256.45 258.57 278.42 296.56 494.27 1881.68 2854.11 4165.04 5061.96 7287.25 7015.44 5023.26 2818.36 2797.50 2381.05 1919.44 864.98 287.00 255.67 239.65 219.01 176.39 139.76 -56.73 -255.73 -673.67 -1008.34 -1202.82 -1392.20 -1519.82 -1694.69 -1778.34 -1860.99 -1889.82 -1894.91 -1899.17 -1906.01 -1919.63 -1942.23 -1985.77 -2023.23 -2095.67 -2209.01 -2380.00 -2653.06 -2846.11 -2988.09 -2988.16
-5573.79 -5573.75 -5565.42 -5567.22 -5557.48 -5549.58 -5541.56 -5537.44 -5541.25 -5533.07 -5517.90 -5519.05 -5504.81 -5521.70 -5530.67 -5535.41 -5531.11 -5547.33 -5542.07 -5533.92 -5431.71 -5113.35 -3852.69 -2995.04 -2015.96 -2021.11 -2141.43 -2096.05 -1722.98 -1578.05 -1501.36 -1391.87 -1237.24 -458.45 -76.11 234.55 262.86 286.88 228.01 113.11 -15.61 -354.78 -775.23 -831.61 -873.03 -956.96 -1077.97 -1203.39 -1228.84 -1298.07 -1368.38 -1326.74 -1322.99 -1987.95 -1993.21 -2306.76 -2592.37 -2813.75 -2816.81 -2903.46 -2713.49 -2891.13 -2733.32 -2816.14 -2489.86 -2093.82 -1748.33 -1658.78 -1449.51 -1390.65 -1253.12 -1143.41 -936.52 -687.73 -225.67 138.13 221.42 263.44 250.72 211.46 175.86 152.32 185.01 174.02 154.68 155.57 163.44 184.54 200.94 220.05 239.48 250.94 257.19 255.12 254.54 260.12 281.78 411.29 1796.80 2276.42 2645.86 3678.69 6300.74 7156.42 5949.76 4573.31 3972.38 2326.40 2017.58 1527.04 328.11 258.85 248.38 224.21 197.54 153.53 39.90 -97.98 -422.29 -705.95 -895.30 -1282.22 -1493.60 -1697.54 -1805.00 -1852.07 -1885.07 -1893.02 -1899.03 -1911.28 -1936.44 -1949.39 -1984.65 -2048.08 -2106.84 -2249.83 -2390.88 -2748.22 -2992.03 -3173.60 -3173.89
-5551.03 -5552.85 -5550.26 -5546.46 -5543.37 -5541.20 -5535.58 -5543.85 -5550.32 -5552.27 -5547.36 -5545.76 -5547.33 -5553.20 -5568.62 -5603.55 -5616.33 -5621.40 -5619.65 -5597.46 -5496.47 -5324.09 -4501.65 -3451.61 -3381.34 -2970.13 -3264.04 -3311.26 -2418.31 -2037.88 -1677.86 -1374.53 -1063.67 -414.03 32.69 248.78 324.12 363.09 364.35 309.84 279.17 71.86 -115.64 -153.31 -252.89 -557.63 -745.05 -878.79 -984.43 -1056.29 -1042.36 -1095.83 -1212.71 -1164.42 -1407.17 -1654.93 -1786.99 -1840.09 -1883.34 -1795.58 -1827.30 -1983.40 -1809.50 -1971.78 -1786.64 -1563.64 -1558.76 -1411.21 -1374.72 -1311.16 -1085.96 -714.19 -591.58 -169.91 141.50 282.17 285.29 266.94 240.40 187.82 165.42 169.46 158.94 172.57 173.42 149.44 157.33 174.74 191.84 211.85 227.73 244.99 252.65 254.84 254.24 254.19 257.64 371.65 783.56 1482.66 1255.56 2624.26 4861.32 6062.97 6914.29 7159.35 5713.14 3357.21 3173.08 2981.42 971.22 328.33 249.22 219.80 200.85 189.78 133.37 -54.91 -191.26 -478.90 -794.42 -1127.64 -1340.01 -1689.61 -1774.87 -1815.89 -1874.24 -1893.64 -1896.94 -1908.73 -1932.57 -1961.89 -2018.67 -2080.56 -2211.98 -2463.00 -2556.32 -2832.92 -3138.65 -3308.88 -3308.99
-5538.35 -5538.47 -5536.44 -5532.59 -5532.74 -5529.36 -5529.43 -5538.61 -5553.07 -5557.33 -5558.05 -5557.72 -5554.46 -5563.45 -5590.26 -5612.72 -5630.39 -5633.32 -5632.92 -5631.53 -5589.55 -5461.78 -5049.70 -4691.32 -4575.57 -4844.70 -4743.45 -4201.89 -3047.71 -2265.34 -1848.27 -1593.82 -1264.33 -733.30 -65.27 171.70 293.46 404.87 408.43 373.87 318.20 288.10 230.17 186.08 179.05 93.08 -126.58 -89.00 -285.20 -504.69 -646.04 -714.91 -1049.92 -1127.75 -1167.55 -1199.86 -1309.96 -1404.40 -1322.24 -1367.14 -1357.90 -1329.65 -1414.12 -1465.57 -1501.53 -1396.21 -1356.93 -1357.99 -1251.73 -1037.09 -767.52 -243.12 -8.28 203.96 288.96 333.04 304.62 252.67 193.33 169.82 163.54 161.73 152.49 167.28 170.82 155.52 156.01 168.82 185.66 205.74 223.30 237.13 250.05 253.36 253.22 253.06 256.06 291.11 419.53 821.92 2326.56 3488.65 3347.97 4098.74 5823.66 7522.66 5910.78 5042.07 3408.60 2806.76 1600.51 367.33 298.66 243.18 234.29 217.92 152.49 46.45 -101.96 -338.43 -608.09 -816.82 -1167.44 -1559.63 -1678.06 -1801.43 -1865.73 -1894.82 -1899.05 -1904.61 -1929.76 -1987.01 -2073.83 -2192.95 -2310.35 -2533.93 -2856.45 -3008.21 -3339.33 -3478.93 -3527.63
-5533.48 -5533.23 -5530.88 -5528.84 -5525.40 -5523.66 -5526.36 -5539.37 -5557.21 -5561.13 -5561.38 -5558.96 -5556.67 -5565.67 -5587.43 -5621.27 -5631.40 -5629.01 -5631.38 -5628.68 -5615.04 -5587.46 -5517.09 -5407.97 -5416.39 -5446.93 -5275.82 -5055.85 -4322.22 -3394.54 -2403.31 -1786.10 -1190.50 -587.93 20.51 142.97 293.48 324.08 394.30 408.05 443.27 374.64 330.06 319.38 307.00 280.32 249.64 249.76 104.50 -95.39 -106.04 -197.68 -522.84 -794.01 -787.82 -819.85 -994.11 -1066.72 -1091.41 -1100.86 -1067.17 -1130.79 -1208.00 -1215.74 -1318.65 -1334.54 -1350.47 -1302.25 -1067.12 -803.67 -419.32 71.14 196.57 255.56 290.64 338.58 287.20 193.88 152.79 137.89 141.62 154.03 159.32 165.20 162.31 154.62 156.26 169.99 184.54 196.31 215.01 232.01 245.19 250.06 251.41 252.18 251.99 261.71 291.96 349.94 2346.31 2865.66 2174.77 2978.15 4045.68 6245.79 6259.89 4843.39 3010.80 1956.20 1422.31 337.04 319.62 269.92 246.19 223.42 192.17 136.62 -2.97 -217.65 -362.06 -574.78 -984.97 -1296.73 -1589.67 -1729.23 -1864.18 -1892.20 -1901.41 -1909.35 -1939.84 -2013.60 -2127.96 -2226.51 -2398.07 -2638.11 -2902.62 -3096.64 -3389.77 -3600.92 -3664.81
-5531.47 -5531.41 -5529.90 -5527.20 -5523.60 -5522.14 -5524.93 -5534.81 -5556.05 -5563.26 -5561.63 -5558.70 -5556.39 -5562.88 -5589.33 -5615.01 -5624.31 -5621.99 -5623.91 -5622.48 -5615.28 -5599.02 -5568.70 -5566.41 -5558.31 -5553.54 -5548.70 -5405.23 -5178.78 -4744.23 -3246.04 -2139.33 -1398.69 -710.40 -124.77 191.70 290.20 300.69 352.98 420.40 440.51 424.38 390.78 350.66 343.00 336.62 367.83 338.95 297.17 273.86 245.65 139.23 -222.46 -332.00 -462.08 -571.47 -637.70 -684.56 -748.59 -882.65 -853.80 -839.53 -920.36 -1029.47 -1113.77 -1207.77 -1328.78 -1190.18 -607.03 -316.96 59.01 215.21 294.26 293.44 282.88 269.25 252.24 184.92 149.83 155.13 139.49 142.06 153.46 161.51 151.86 150.35 153.06 164.75 179.62 194.66 210.57 228.77 240.72 247.05 248.59 249.69 250.54 253.42 259.19 353.89 871.91 1222.38 1392.60 1934.27 3789.72 5842.58 6923.50 3644.82 2592.62 2205.48 2760.08 1417.39 407.31 280.08 241.28 226.46 194.79 138.08 46.16 -114.50 -245.74 -508.52 -763.18 -1185.40 -1397.74 -1673.28 -1800.56 -1876.68 -1894.22 -1905.69 -1947.97 -2016.56 -2140.17 -2309.73 -2464.27 -2765.59 -3092.99 -3270.98 -3470.50 -3682.72 -3682.79
-5537.52 -5536.12 -5534.19 -5533.00 -5533.93 -5526.74 -5532.75 -5542.55 -5558.01 -5566.44 -5569.54 -5566.36 -5564.89 -5569.13 -5585.26 -5610.42 -5617.06 -5617.47 -5617.34 -5615.01 -5603.46 -5597.90 -5586.41 -5579.94 -5580.55 -5583.61 -5575.84 -5563.33 -5515.41 -5162.71 -3250.21 -1782.60 -1197.69 -415.34 -55.40 165.48 273.48 311.94 334.92 373.76 415.02 440.03 427.98 422.37 491.77 511.89 565.02 464.70 394.50 307.76 270.29 241.21 70.24 -23.68 -94.35 -272.16 -215.98 -337.75 -374.16 -476.64 -615.22 -576.45 -574.64 -749.72 -646.56 -932.52 -875.93 -643.83 -335.45 -21.67 229.79 292.62 298.74 297.79 270.47 245.51 215.87 181.54 159.02 153.31 142.02 144.89 143.72 148.18 146.22 148.34 152.39 161.74 181.42 200.71 214.50 228.58 239.48 245.38 245.40 246.45 247.76 249.92 253.40 274.15 271.97 529.44 1663.76 2513.55 2916.23 6218.03 6707.45 6664.10 5638.16 2828.30 3056.33 1398.52 590.86 281.50 248.00 241.33 208.64 157.00 86.80 13.73 -178.63 -442.39 -702.15 -1053.03 -1344.35 -1667.32 -1840.54 -1886.98 -1889.20 -1905.39 -1957.00 -2042.30 -2237.29 -2378.57 -2586.23 -2931.07 -3150.26 -3529.50 -3530.77 -3650.22 -3684.79
-5552.56 -5552.48 -5551.18 -5545.77 -5542.06 -5541.81 -5542.14 -5556.57 -5571.94 -5584.56 -5580.00 -5577.97 -5578.77 -5581.20 -5590.21 -5609.75 -5616.20 -5614.66 -5612.15 -5607.37 -5597.90 -5586.17 -5572.48 -5565.18 -5571.09 -5579.49 -5592.52 -5591.39 -5487.74 -5167.40 -3125.02 -1711.13 -886.18 -266.60 28.04 256.91 287.73 311.59 341.27 366.56 403.11 429.94 446.25 475.71 527.86 577.33 633.24 514.53 414.25 338.24 297.66 237.47 169.51 117.68 67.03 -43.12 -76.48 -66.93 -150.37 -248.65 -250.73 -215.94 -305.07 -341.25 -230.23 -280.30 -327.17 -101.82 157.32 232.63 268.08 292.17 295.45 291.97 249.85 233.97 220.14 174.81 160.82 151.62 144.33 144.71 143.19 142.06 144.40 146.24 150.23 158.85 181.07 201.54 216.33 228.46 231.60 238.94 243.87 243.45 245.22 247.60 251.37 257.75 262.29 487.52 1691.70 2223.85 2534.37 4493.76 6030.85 7153.17 6304.78 4623.99 1986.60 1208.35 558.77 299.84 249.14 241.16 220.01 176.90 135.54 18.01 -126.69 -406.61 -626.49 -1013.02 -1524.20 -1761.35 -1837.18 -1881.92 -1887.00 -1932.34 -2046.80 -2186.09 -2383.06 -2639.78 -3020.99 -3191.51 -3538.32 -3602.20 -3751.45 -3774.11 -3774.26
-5561.70 -5561.63 -5559.00 -5557.09 -5557.22 -5556.28 -5560.13 -5572.35 -5591.30 -5594.06 -5595.32 -5592.54 -5592.30 -5591.80 -5595.59 -5601.69 -5606.49 -5604.58 -5598.20 -5596.86 -5587.96 -5572.45 -5555.46 -5551.20 -5551.30 -5558.62 -5569.78 -5579.66 -5542.63 -5162.34 -3559.42 -1432.06 -375.90 -170.14 133.80 253.93 294.26 329.36 347.85 379.49 407.59 425.24 460.85 493.65 529.81 578.15 659.59 560.63 402.41 348.14 320.84 269.19 230.52 205.06 165.87 68.14 21.42 27.41 -8.43 -16.48 -30.40 -47.16 1.26 4.75 23.67 228.68 228.35 202.21 305.31 330.98 298.61 302.98 272.46 246.95 239.37 250.46 229.30 197.28 166.50 153.53 146.60 144.55 142.97 142.19 143.32 144.91 150.59 162.55 180.50 201.27 215.51 219.66 223.02 237.09 237.67 238.89 243.14 245.87 248.85 250.95 262.31 324.50 803.83 1497.01 2549.11 3271.31 4614.51 6278.18 6276.99 5027.15 2319.66 1268.26 677.79 292.06 251.58 242.03 221.66 199.74 136.74 24.13 -124.11 -436.82 -580.89 -1126.89 -1488.49 -1721.32 -1836.01 -1864.10 -1880.84 -1944.73 -2075.03 -2238.23 -2471.08 -2796.36 -3148.57 -3303.23 -3516.25 -3741.02 -3827.12 -3835.31 -3835.40
-5558.49 -5558.43 -5555.86 -5556.09 -5556.98 -5557.17 -5561.02 -5571.69 -5591.28 -5596.92 -5598.57 -5597.07 -5594.79 -5594.69 -5596.13 -5599.64 -5600.19 -5598.05 -5595.01 -5589.62 -5584.45 -5567.90 -5555.05 -5546.09 -5546.63 -5551.85 -5556.47 -5471.45 -5387.29 -3869.48 -2404.76 -858.11 -312.31 15.13 233.14 289.50 303.83 334.79 367.86 385.70 413.33 441.01 469.12 498.77 528.45 624.07 656.97 583.62 444.52 434.86 341.92 311.47 263.25 253.15 230.70 168.06 83.61 70.48 51.16 44.31 42.55 49.59 110.77 167.78 232.65 290.80 311.46 340.81 344.54 296.97 266.77 195.69 183.88 184.72 229.19 244.14 262.38 248.35 178.87 148.55 144.55 143.13 142.20 142.15 142.90 145.25 152.82 166.38 184.11 195.59 209.72 218.07 223.81 232.44 233.50 236.16 238.86 243.74 246.82 250.23 254.94 329.90 588.64 1165.52 1485.68 1902.75 3340.54 4971.14 5587.17 3506.43 2221.08 1686.84 1446.06 300.54 275.19 242.59 230.59 190.36 102.09 -2.34 -167.72 -442.38 -891.64 -1236.89 -1457.40 -1606.47 -1768.85 -1850.66 -1874.90 -1927.43 -2052.22 -2240.45 -2407.67 -2685.32 -2970.02 -3366.43 -3618.54 -3819.83 -3854.65 -3857.95 -3858.03
-5549.88 -5550.48 -5550.32 -5549.97 -5549.79 -5550.79 -5557.47 -5566.55 -5582.05 -5593.05 -5596.08 -5594.74 -5592.82 -5592.96 -5595.74 -5598.24 -5599.20 -5597.68 -5594.97 -5591.91 -5585.04 -5569.85 -5557.28 -5539.03 -5543.23 -5528.67 -5442.97 -4569.92 -3686.95 -2742.09 -1071.39 -869.11 -190.94 45.08 261.57 294.22 313.37 350.49 375.38 399.46 420.30 459.63 473.85 515.67 551.28 614.30 670.05 683.15 585.48 430.71 351.53 311.87 284.88 259.60 253.28 218.50 167.67 103.13 106.56 84.39 114.92 166.49 232.65 281.61 308.43 332.76 317.49 314.89 279.34 241.10 171.33 133.63 144.36 120.84 146.97 200.07 221.63 199.54 156.60 142.52 142.28 141.97 142.22 139.04 140.62 144.67 153.46 166.06 178.16 191.67 204.48 211.42 218.36 225.73 227.79 234.81 237.52 239.07 243.48 248.56 254.36 270.44 342.39 696.74 943.21 2287.09 3410.49 6822.93 6994.18 4343.74 3189.19 2938.24 1895.05 331.96 279.89 244.99 238.33 215.97 142.64 39.78 -202.97 -725.28 -773.36 -1240.11 -1340.37 -1610.75 -1753.41 -1855.48 -1882.29 -1921.67 -1991.68 -2111.74 -2282.83 -2571.89 -2863.90 -3356.22 -3674.87 -3812.03 -3847.56 -3860.61 -3862.08
-5543.93 -5543.87 -5545.08 -5547.43 -5547.12 -5548.49 -5555.00 -5561.62 -5574.26 -5585.37 -5586.21 -5588.71 -5585.09 -5583.46 -5591.43 -5593.80 -5593.37 -5594.62 -5594.18 -5593.49 -5589.21 -5574.69 -5549.52 -5529.16 -5440.22 -5404.49 -5159.69 -3755.61 -2935.38 -1380.65 -735.49 -235.83 143.74 241.55 258.68 281.41 312.38 379.44 397.33 411.22 450.99 474.10 501.61 523.56 556.22 627.44 683.32 692.64 618.38 512.11 409.76 345.29 306.34 283.68 266.39 243.31 229.75 196.33 177.03 200.16 254.42 301.55 339.49 339.56 341.84 303.21 274.83 201.65 177.27 136.29 108.28 106.95 125.17 117.93 124.76 135.88 162.79 135.68 137.82 139.41 139.42 138.54 136.14 136.31 139.17 141.68 147.41 158.08 179.73 192.70 201.22 207.70 215.61 222.80 226.35 231.03 234.91 237.72 242.98 247.13 253.18 257.79 270.85 748.20 1772.06 2426.96 4361.03 6361.63 6730.77 4326.35 3338.66 3225.76 1897.74 490.57 299.13 261.71 243.66 228.08 142.74 88.80 -132.97 -440.73 -874.94 -1141.87 -1250.38 -1683.72 -1784.46 -1876.08 -1887.48 -1914.15 -1990.25 -2067.05 -2199.53 -2485.21 -2920.77 -3515.55 -3713.49 -3819.67 -3846.71 -3862.67 -3862.74
-5552.69 -5552.62 -5557.24 -5553.44 -5555.50 -5555.27 -5561.07 -5562.53 -5562.28 -5558.67 -5560.11 -5568.09 -5569.45 -5570.46 -5571.02 -5575.76 -5583.23 -5580.78 -5580.21 -5579.48 -5573.63 -5550.75 -5472.81 -5442.00 -5153.17 -4325.70 -3619.41 -2727.32 -2033.56 -728.21 -327.28 35.97 192.27 257.37 285.01 287.86 336.97 375.37 417.14 448.59 458.34 480.95 533.94 537.95 579.39 606.90 676.12 721.40 647.78 585.54 484.66 343.05 323.61 298.95 273.55 261.64 245.96 241.73 265.80 278.45 311.75 350.69 374.10 348.89 296.38 261.78 225.62 127.87 110.30 108.46 112.70 120.05 121.57 116.58 127.86 129.25 134.13 132.90 135.90 135.97 137.46 136.07 133.73 135.48 137.97 147.89 151.89 156.26 172.83 189.92 198.80 205.81 211.29 220.13 224.11 226.29 231.22 237.71 242.71 244.06 249.02 253.42 266.24 822.12 1824.25 1712.36 3999.74 6124.18 6631.19 5404.84 2827.94 1912.24 1198.06 946.58 298.83 269.72 243.75 229.28 207.02 124.54 -0.04 -263.12 -538.09 -915.36 -1342.24 -1622.23 -1850.87 -1872.96 -1881.90 -1916.70 -1972.02 -2042.72 -2242.82 -2477.49 -2944.60 -3265.80 -3759.35 -3835.88 -3837.93 -3863.39 -3863.46
-5577.17 -5577.08 -5575.74 -5576.47 -5578.53 -5579.75 -5573.36 -5564.95 -5547.61 -5538.30 -5536.87 -5544.85 -5539.52 -5548.36 -5550.65 -5555.09 -5550.15 -5543.35 -5550.75 -5522.70 -5503.69 -5452.96 -5370.30 -5039.33 -4221.83 -3746.28 -2244.38 -1678.80 -886.09 -327.89 -11.61 136.65 226.35 276.14 289.39 293.47 343.17 387.80 408.71 481.13 536.36 505.00 536.37 582.99 606.26 649.28 705.06 729.07 703.99 580.46 484.12 375.38 338.97 319.00 290.23 277.23 265.56 268.29 276.81 333.33 364.38 376.86 345.07 297.55 266.64 222.81 157.84 97.82 96.66 106.99 116.30 119.16 121.62 119.60 124.49 124.56 124.29 128.03 126.25 131.24 134.05 132.46 132.64 134.10 137.76 146.29 156.18 157.39 175.96 190.62 194.13 202.98 210.94 217.00 222.30 224.84 230.38 237.52 240.32 242.44 247.74 251.54 257.82 432.20 1236.80 1472.23 2793.45 3424.23 5915.70 6300.05 4718.09 2556.23 1824.24 1101.99 283.92 259.39 244.61 218.39 198.14 135.85 53.99 -223.92 -485.24 -825.68 -1181.46 -1613.36 -1810.90 -1851.52 -1878.29 -1900.45 -1958.38 -2013.89 -2149.08 -2501.48 -2902.54 -3280.99 -3573.34 -3826.09 -3864.32 -3866.54 -3866.62
-5593.03 -5591.96 -5591.37 -5590.75 -5592.79 -5593.62 -5590.46 -5560.81 -5540.38 -5514.02 -5505.64 -5511.46 -5517.63 -5520.28 -5524.39 -5524.68 -5525.00 -5523.47 -5522.99 -5415.37 -5306.14 -5037.91 -4504.29 -3903.81 -3316.42 -2457.25 -1899.97 -1122.78 -737.80 -336.23 -55.19 146.48 258.84 283.74 291.11 315.44 355.34 386.87 464.72 484.67 589.18 641.79 607.10 615.58 649.58 689.82 713.54 702.11 672.69 565.70 452.57 389.83 346.74 334.68 304.52 294.62 279.99 289.74 322.49 389.05 380.53 349.09 289.19 278.11 164.96 134.83 125.10 115.40 105.27 114.25 119.30 118.81 121.73 117.57 121.04 124.94 126.21 124.41 126.41 130.22 133.25 132.12 132.03 131.29 132.84 137.15 149.06 155.88 173.93 184.86 193.64 198.84 206.77 212.68 220.80 226.64 230.70 236.68 239.06 242.15 246.25 255.37 263.71 424.34 890.46 1375.34 2949.89 4819.31 6749.42 6296.75 4097.41 2650.50 1542.59 891.85 411.05 251.55 243.89 214.32 195.50 137.63 36.54 -179.77 -561.21 -643.44 -1102.36 -1496.57 -1671.11 -1810.66 -1884.22 -1898.24 -1912.16 -1992.16 -2141.05 -2316.93 -2608.80 -3046.86 -3550.28 -3804.08 -3864.92 -3867.15 -3867.22
-5592.12 -5592.05 -5592.69 -5594.90 -5594.90 -5597.01 -5593.54 -5564.45 -5524.60 -5501.41 -5498.54 -5503.24 -5507.94 -5513.63 -5512.64 -5494.65 -5491.83 -5467.42 -5252.45 -5176.63 -4729.23 -4228.24 -3649.82 -2666.16 -2146.83 -1746.63 -1550.89 -1125.39 -522.40 -65.04 93.83 253.73 274.61 290.22 299.78 310.62 374.35 392.17 427.60 501.83 606.32 661.61 685.35 673.14 676.79 689.27 645.52 622.59 546.86 538.70 459.91 409.36 358.88 340.93 322.57 314.00 302.35 316.64 358.10 362.89 308.79 291.77 277.84 254.98 127.96 124.98 121.03 115.88 108.84 113.10 119.87 122.29 124.04 119.56 121.50 124.81 127.52 126.14 125.42 131.49 134.25 131.21 131.22 129.63 131.41 132.86 140.52 155.86 169.58 181.53 189.94 195.80 206.49 212.80 217.49 227.53 231.56 235.64 239.72 242.89 246.88 251.31 266.78 437.72 1170.86 1518.55 2697.29 5318.68 6414.35 6020.55 4145.31 1614.62 1266.76 680.87 371.74 268.69 242.40 216.80 184.21 89.90 -94.98 -134.19 -337.86 -651.37 -882.43 -1495.74 -1715.01 -1775.18 -1847.88 -1875.11 -1905.50 -1964.25 -2122.91 -2266.15 -2586.04 -2997.82 -3529.92 -3769.22 -3860.95 -3865.28 -3865.35
-5585.56 -5585.49 -5585.78 -5589.05 -5591.23 -5590.74 -5586.04 -5552.38 -5521.16 -5498.00 -5495.94 -5498.60 -5505.96 -5501.67 -5479.98 -5445.00 -5289.46 -5121.67 -4705.04 -4059.98 -3493.66 -3221.59 -2308.31 -1769.60 -1691.60 -1390.61 -1089.04 -710.20 -82.27 115.04 263.35 290.91 297.90 295.97 309.74 342.22 384.91 454.18 463.43 467.20 589.32 633.17 701.92 695.81 655.38 637.07 606.64 557.20 523.35 502.10 471.33 430.95 359.20 343.22 332.59 328.62 314.56 324.88 352.55 342.63 305.43 291.88 277.68 191.76 140.91 117.10 108.79 104.10 109.69 114.69 115.47 117.69 124.40 125.01 125.29 123.82 123.71 121.60 120.00 121.28 124.71 125.25 128.24 130.35 131.22 132.99 140.03 156.53 171.45 180.92 186.73 191.40 201.97 210.29 216.70 225.49 233.94 237.14 239.46 241.52 243.87 248.51 266.71 419.05 1355.72 1106.58 1778.81 3168.77 5643.07 6854.47 3677.21 1777.60 1691.88 1166.75 309.57 262.54 245.79 224.73 152.20 67.21 -178.75 -314.53 -470.19 -738.66 -982.31 -1360.88 -1626.92 -1719.78 -1814.99 -1878.15 -1914.79 -1933.57 -2102.12 -2390.78 -2647.32 -3045.76 -3375.21 -3750.20 -3803.90 -3835.48 -3835.53
-5578.91 -5579.39 -5579.79 -5581.13 -5584.25 -5584.23 -5578.47 -5549.64 -5514.84 -5497.35 -5494.35 -5490.86 -5474.76 -5439.68 -5392.77 -5097.50 -4733.83 -3945.02 -3358.12 -3009.19 -2887.12 -1862.59 -1718.36 -1453.53 -1312.58 -1078.26 -775.47 -313.11 101.33 262.61 278.83 303.06 318.14 318.52 341.15 387.51 389.21 458.74 495.87 508.83 546.57 631.69 672.51 651.49 631.86 579.10 554.98 533.94 496.88 470.25 446.78 419.05 373.37 354.43 338.64 332.87 325.06 332.09 331.10 321.84 302.42 290.85 271.86 194.94 150.71 129.60 113.74 102.20 109.48 112.11 110.62 114.36 119.78 122.21 124.38 125.43 124.55 121.39 120.98 121.98 122.15 123.68 125.23 129.03 131.96 137.92 143.52 157.54 164.94 178.19 184.54 187.33 196.90 208.25 211.67 223.54 231.39 237.12 240.77 242.46 245.00 248.25 270.28 365.97 858.72 1712.37 2923.47 4504.23 5878.95 6611.77 4832.29 3240.60 2095.18 1397.27 323.48 263.91 247.88 230.93 130.34 -59.83 -227.50 -425.92 -527.28 -787.21 -1068.73 -1324.48 -1518.10 -1738.71 -1807.22 -1872.16 -1896.91 -1967.69 -2158.66 -2447.03 -2729.98 -2954.15 -3353.89 -3604.14 -3741.77 -3828.64 -3828.71
-5570.22 -5570.15 -5570.60 -5574.89 -5576.95 -5578.07 -5572.27 -5554.18 -5522.64 -5496.36 -5481.94 -5442.87 -5386.71 -5146.76 -4659.06 -4123.01 -3333.99 -2889.91 -2292.81 -1883.00 -1530.95 -1352.86 -1319.80 -1222.42 -1105.63 -928.49 -337.44 79.77 220.96 281.25 297.20 317.22 325.86 351.68 389.57 442.87 478.27 503.61 557.28 583.82 632.73 661.12 650.07 621.80 580.44 548.17 534.40 498.83 452.88 444.06 424.24 395.87 374.99 364.19 342.48 338.32 336.26 334.55 329.70 324.70 312.32 299.92 277.24 238.02 183.29 148.11 110.93 105.90 107.37 116.65 118.02 118.52 114.91 120.88 124.99 126.44 127.13 124.16 121.04 121.42 122.65 124.00 125.68 128.13 131.04 138.01 146.60 152.67 161.19 171.70 178.24 187.41 194.57 203.70 209.97 222.32 232.30 236.98 242.94 244.24 245.83 248.94 259.91 341.59 683.47 1433.79 2966.52 5048.22 6611.96 5738.41 3775.57 3046.60 2023.07 1359.57 334.08 263.31 241.48 180.18 75.28 -112.80 -203.67 -443.73 -638.31 -818.80 -1158.93 -1360.77 -1565.91 -1715.61 -1792.38 -1854.90 -1912.03 -1971.62 -2201.51 -2484.90 -2746.90 -3045.20 -3312.37 -3647.78 -3730.83 -3811.94 -3820.20
-5562.48 -5562.41 -5565.38 -5566.69 -5568.87 -5572.55 -5570.39 -5551.50 -5523.01 -5496.11 -5450.27 -5289.94 -4870.02 -4678.31 -4068.81 -3257.44 -2670.02 -1991.02 -1632.17 -1498.30 -1298.34 -1210.36 -1186.19 -1153.81 -1042.18 -539.76 -81.62 198.00 271.27 289.88 308.23 326.77 341.80 352.82 404.83 427.54 474.82 548.43 576.98 639.50 679.54 679.08 630.51 591.05 548.95 518.45 486.36 469.85 440.01 435.06 409.87 381.61 377.47 363.94 349.87 350.76 347.40 347.39 342.69 334.82 337.87 315.70 286.24 273.04 264.63 176.39 128.56 115.65 126.43 134.10 136.60 121.77 110.98 120.92 122.67 124.72 127.32 121.65 121.01 121.65 122.40 123.07 125.05 127.49 131.06 135.67 142.30 149.76 159.03 166.58 172.82 184.42 192.10 200.19 212.26 220.03 229.89 236.49 243.71 245.12 246.79 249.63 261.05 462.35 1577.07 2602.18 2757.50 4864.72 6418.73 5897.12 4051.08 3126.23 1435.15 685.37 368.64 255.97 240.53 203.22 110.93 -56.59 -160.58 -406.96 -495.86 -796.83 -1069.04 -1372.73 -1617.27 -1755.52 -1791.47 -1847.87 -1917.98 -2015.93 -2149.83 -2429.28 -2727.54 -3026.31 -3383.79 -3543.47 -3727.48 -3818.69 -3818.77
-5570.06 -5569.97 -5569.84 -5572.84 -5579.32 -5583.12 -5579.98 -5571.33 -5540.02 -5512.30 -5407.11 -5085.09 -4346.13 -3505.59 -2588.68 -2363.46 -1987.37 -1783.87 -1558.15 -1414.05 -1262.98 -1171.20 -1156.36 -1110.51 -901.80 -433.76 -45.53 246.72 296.07 305.72 325.78 342.94 352.00 380.90 425.81 457.37 514.68 531.04 562.97 637.43 668.94 640.35 619.88 580.98 532.83 517.35 463.40 433.41 420.78 408.78 385.05 377.46 370.75 361.17 356.89 363.40 363.40 363.22 367.38 370.68 376.74 333.08 311.96 283.32 274.63 245.96 196.43 148.05 133.51 123.93 129.08 114.18 121.54 122.31 123.74 124.08 125.25 122.41 120.62 120.84 121.59 122.17 124.96 127.33 134.82 137.84 142.93 149.74 156.69 162.90 170.62 177.13 187.57 197.88 209.46 220.11 230.48 240.69 244.87 247.95 248.66 254.14 283.21 745.77 1935.51 2582.85 4242.14 5333.08 5864.12 4741.48 3782.57 2583.70 1728.27 685.98 326.05 259.59 249.33 208.60 168.05 71.56 -69.55 -327.85 -459.92 -790.59 -1020.20 -1311.53 -1527.18 -1680.41 -1773.70 -1856.67 -1939.16 -2022.87 -2262.40 -2496.99 -2810.31 -3138.71 -3420.81 -3561.78 -3732.43 -3818.13 -3818.21
-5601.72 -5600.93 -5601.56 -5598.75 -5604.44 -5606.30 -5608.97 -5595.51 -5532.17 -5483.14 -5234.00 -4797.43 -3586.90 -2831.51 -2214.13 -1889.02 -1809.44 -1748.85 -1612.91 -1415.74 -1295.48 -1211.02 -1181.85 -1103.17 -787.55 -297.74 77.63 291.54 307.39 321.26 339.40 348.36 370.19 392.19 430.88 455.03 548.37 586.11 593.28 630.81 664.38 631.07 596.40 548.25 528.79 481.63 441.28 429.66 410.61 384.58 376.66 365.50 355.73 362.97 373.59 394.62 406.58 407.82 418.20 407.22 411.38 450.01 340.25 314.37 291.95 276.22 179.82 126.96 165.80 124.73 128.81 119.94 123.84 124.32 124.26 123.04 119.98 120.41 120.63 120.65 120.53 121.41 124.56 130.49 135.48 140.54 143.47 149.21 154.39 161.28 168.59 180.38 191.21 200.89 209.99 217.18 228.24 243.92 248.03 250.01 250.35 256.14 299.51 846.51 1336.71 2391.02 4680.33 6248.71 5953.94 4001.73 1874.74 1273.73 981.85 435.01 334.51 282.36 238.16 219.30 158.45 121.18 -2.61 -111.21 -350.65 -711.66 -1010.38 -1370.76 -1639.81 -1745.88 -1789.08 -1848.04 -1968.46 -2076.36 -2281.78 -2547.86 -2827.63 -3047.66 -3388.69 -3611.67 -3757.46 -3818.86 -3818.94
-5661.05 -5660.92 -5654.28 -5629.53 -5614.52 -5599.98 -5525.97 -5473.19 -5398.14 -4938.36 -4419.83 -3866.69 -3101.85 -2131.80 -1844.59 -1673.69 -1707.68 -1718.02 -1596.06 -1368.92 -1289.07 -1231.56 -1191.44 -1097.38 -836.00 -420.41 -23.15 253.04 310.05 333.06 353.84 368.85 386.39 412.83 449.74 485.84 544.14 608.16 651.27 660.81 660.98 611.81 565.02 529.92 520.71 450.41 426.00 403.06 387.54 377.14 356.39 341.26 350.56 362.60 401.81 409.35 437.53 448.43 447.00 453.98 457.39 486.29 436.17 381.98 320.93 281.45 247.59 228.16 167.32 138.08 133.84 109.45 123.22 122.02 122.95 122.85 119.58 120.88 120.64 120.47 120.35 120.90 122.80 128.20 133.02 139.53 143.68 147.74 152.55 160.09 171.42 183.67 194.99 206.26 213.55 222.39 232.60 239.58 246.03 252.84 254.72 284.25 514.79 882.87 1506.83 2051.19 3044.06 5066.54 5711.07 5185.97 3786.98 2339.20 1123.85 345.14 300.27 271.87 235.62 219.22 178.72 125.09 55.45 -73.73 -444.96 -755.37 -941.94 -1384.52 -1547.03 -1740.28 -1807.88 -1871.88 -2001.12 -2139.91 -2346.61 -2614.36 -2835.47 -2927.60 -3372.24 -3466.77 -3765.18 -3819.10 -3819.19
-5681.85 -5679.30 -5575.37 -5366.72 -5321.47 -5308.35 -5112.67 -4679.02 -4438.33 -3966.06 -3252.67 -2482.64 -2356.44 -1989.60 -1815.85 -1707.41 -1699.96 -1657.88 -1482.62 -1188.09 -1126.42 -1024.15 -994.35 -957.59 -832.55 -364.48 101.96 260.33 320.12 351.19 367.26 383.37 403.44 432.08 474.89 509.57 563.72 616.13 627.20 628.39 635.93 628.91 562.82 512.88 475.83 427.84 391.17 378.76 374.11 337.82 331.95 324.40 337.20 362.11 400.18 400.88 454.47 490.22 493.84 493.82 493.23 518.82 521.62 422.39 401.26 321.43 282.30 255.53 209.50 160.27 149.40 125.74 119.32 117.70 116.91 115.28 119.27 120.65 120.45 120.08 119.92 119.92 120.39 123.89 129.71 133.70 140.60 147.43 156.03 163.73 174.29 186.54 195.74 211.35 219.28 224.41 234.64 240.78 247.76 254.56 258.18 427.62 750.44 1901.09 2333.62 3409.60 4458.36 5383.55 6083.88 4835.78 3563.09 1846.93 895.11 312.60 281.78 248.20 239.11 220.45 190.72 157.98 71.23 -125.47 -334.75 -607.10 -1010.99 -1425.40 -1653.88 -1772.57 -1826.84 -1895.59 -2026.58 -2137.94 -2284.50 -2501.40 -2733.89 -2996.11 -3246.51 -3433.12 -3709.44 -3859.93 -3860.06
-5148.96 -5149.51 -4734.83 -4653.30 -4503.51 -4098.92 -3867.00 -3376.31 -2908.01 -2538.98 -2474.17 -2187.83 -2017.26 -1947.52 -1914.51 -1875.24 -1797.48 -1621.44 -1383.17 -1104.30 -753.59 -592.83 -681.12 -724.33 -568.96 -95.06 173.53 257.51 321.83 358.38 372.10 402.60 432.25 459.88 482.02 536.19 568.88 591.54 585.52 589.35 590.98 598.98 569.16 504.73 456.18 396.66 385.42 356.57 336.68 319.54 316.22 311.30 316.92 330.12 348.46 382.29 434.50 484.58 510.47 518.95 523.94 548.53 551.09 484.15 388.32 324.94 289.00 292.88 256.78 198.92 152.73 112.88 117.99 111.14 114.39 117.32 120.60 120.40 120.03 119.54 119.19 118.97 118.84 120.40 125.41 127.64 136.55 149.27 163.21 164.83 177.21 190.51 200.18 215.19 223.39 227.30 236.89 242.53 249.84 261.30 322.75 611.95 1516.09 2292.29 2578.68 4420.00 5448.31 6315.38 5699.21 4237.40 2352.35 1574.79 611.24 283.65 253.96 247.13 243.36 236.15 219.91 172.41 62.51 -106.67 -376.45 -734.50 -1034.47 -1341.21 -1625.67 -1746.98 -1848.52 -1916.82 -1961.28 -2072.37 -2234.45 -2461.67 -2786.89 -2979.85 -3417.61 -3572.79 -3778.97 -3849.99 -3850.06
-3579.21 -3581.37 -3537.09 -3202.25 -3259.94 -2638.58 -2577.64 -2326.88 -2276.55 -2111.88 -2030.33 -2005.66 -2017.89 -2008.46 -1987.39 -1985.04 -1903.57 -1732.07 -1377.16 -1107.94 -598.03 -437.01 -376.78 -452.27 -324.10 11.59 201.27 284.37 302.12 333.42 361.97 423.34 466.90 481.98 517.27 564.38 585.75 570.26 553.24 553.40 563.76 557.42 530.90 480.97 417.59 378.56 361.81 340.11 324.59 305.51 306.40 294.99 297.87 319.80 327.47 376.25 400.46 449.88 480.41 518.27 525.27 539.35 534.67 462.95 394.65 366.55 316.26 302.64 262.61 249.44 190.18 119.17 119.77 105.93 115.85 118.44 120.01 120.84 119.50 118.97 118.55 118.24 118.45 119.51 120.22 124.55 132.67 148.73 158.47 177.40 187.17 197.78 214.19 223.05 231.82 237.19 240.97 247.57 254.24 258.50 501.78 1247.35 2053.24 2195.58 3276.73 5100.49 5719.81 4699.17 4669.78 2920.40 2161.89 1224.08 504.61 300.04 254.92 248.47 244.57 236.72 222.44 154.55 66.80 -98.05 -392.55 -726.70 -886.94 -1248.00 -1549.78 -1752.03 -1852.19 -1910.93 -1955.19 -1997.07 -2122.07 -2293.37 -2669.40 -3076.91 -3514.62 -3775.32 -3799.12 -3847.52 -3847.60
-2320.58 -2322.78 -2361.82 -2465.92 -2301.64 -2224.50 -2127.91 -2058.14 -2038.16 -2031.56 -2030.10 -2041.48 -2049.39 -2059.05 -2054.33 -2045.26 -2008.45 -1872.47 -1668.51 -1229.14 -684.27 -354.85 -172.21 -195.70 -126.12 82.14 224.04 284.58 287.76 329.94 369.60 424.17 491.53 535.31 574.48 572.23 554.54 549.99 534.78 531.80 536.99 529.18 481.53 459.55 415.52 364.85 340.94 325.35 308.40 285.75 291.40 281.02 271.46 287.32 315.63 337.90 385.39 410.61 457.39 478.24 509.63 518.15 510.26 459.23 431.72 380.66 340.02 322.84 275.08 255.55 218.11 129.59 119.95 103.13 117.13 118.17 119.99 120.19 120.17 118.65 117.87 117.64 117.28 117.96 120.44 124.59 135.74 150.77 166.40 176.96 189.24 198.58 217.77 232.17 239.17 240.71 245.00 246.46 269.95 419.89 718.74 1409.24 2496.32 2741.86 4675.08 5565.00 4715.68 3111.86 3525.51 1908.31 1506.50 696.03 330.61 295.99 253.21 250.93 245.24 232.72 209.59 168.71 92.16 -68.13 -240.82 -621.41 -802.00 -1249.44 -1499.90 -1761.46 -1857.11 -1890.59 -1921.17 -1982.37 -2132.81 -2269.71 -2629.15 -3048.02 -3610.82 -3787.70 -3840.84 -3847.35 -3847.45
-2046.92 -2047.47 -2078.23 -2078.90 -2052.21 -2034.03 -2036.40 -2042.30 -2047.44 -2053.95 -2062.44 -2070.13 -2081.83 -2083.37 -2080.93 -2066.35 -2023.90 -1930.88 -1765.45 -1176.03 -1019.74 -525.05 -183.58 -130.45 -9.99 102.66 216.32 279.29 294.69 316.56 365.24 399.02 444.59 468.65 563.19 553.15 536.90 549.57 517.03 506.67 513.14 488.95 484.05 457.97 395.03 336.23 324.19 307.41 288.82 279.62 271.06 258.82 260.94 268.99 273.93 302.60 329.78 379.11 422.34 458.00 505.41 512.47 462.28 442.18 411.72 395.04 345.42 331.56 296.31 268.02 228.90 158.41 130.58 115.99 113.41 119.05 117.39 119.48 122.24 119.05 117.10 116.96 116.78 116.57 117.86 121.81 134.15 150.52 164.06 183.50 185.90 206.74 216.51 229.20 236.88 243.44 244.24 263.14 302.37 495.18 1405.24 1682.55 2169.82 3490.53 6234.98 5919.08 4390.76 2755.84 1724.97 1575.03 1147.89 423.39 325.66 283.80 253.80 250.63 243.88 226.88 194.04 137.70 67.48 -85.70 -315.98 -563.58 -868.12 -1206.89 -1552.44 -1746.15 -1872.90 -1898.70 -1938.87 -1987.33 -2047.92 -2208.67 -2592.36 -2825.24 -3546.96 -3794.33 -3826.76 -3847.31 -3847.41
-2075.81 -2075.53 -2077.75 -2070.79 -2070.88 -2068.49 -2064.94 -2063.54 -2074.60 -2080.98 -2081.60 -2083.54 -2090.47 -2091.61 -2086.94 -2072.17 -2033.49 -1968.35 -1716.68 -1334.22 -830.98 -495.08 -179.09 -78.02 6.98 94.81 185.18 225.50 281.07 297.99 327.84 373.63 384.66 448.34 514.07 508.67 515.04 541.19 522.80 478.34 461.12 453.15 442.27 415.26 359.50 307.98 290.92 286.26 276.15 259.79 257.19 252.57 254.45 264.53 272.88 281.23 313.84 390.72 436.74 471.03 493.83 501.56 453.74 440.63 431.53 426.36 383.17 354.49 337.41 303.37 286.06 209.16 131.50 117.04 112.93 117.63 116.24 121.32 122.86 120.87 118.04 116.62 116.20 116.11 117.85 122.72 134.29 147.45 166.18 184.38 195.40 208.18 217.93 228.75 237.11 242.91 246.52 279.86 349.61 1076.25 2440.92 2838.14 3878.15 4731.85 7381.79 6335.61 4474.64 2506.26 2145.93 952.23 558.92 418.61 301.44 294.17 260.83 251.75 247.45 224.43 197.17 121.08 -13.59 -81.24 -343.51 -593.62 -870.22 -1166.46 -1584.19 -1724.29 -1835.61 -1910.20 -1936.21 -1972.60 -2055.56 -2196.73 -2503.32 -2862.69 -3313.41 -3667.52 -3799.63 -3847.14 -3847.23
-2112.19 -2111.97 -2105.28 -2102.79 -2094.39 -2086.55 -2083.76 -2095.59 -2091.80 -2095.70 -2097.30 -2094.90 -2096.45 -2095.78 -2083.19 -2066.33 -2031.67 -1868.58 -1647.99 -1310.63 -884.75 -529.42 -266.80 -116.14 -89.22 85.48 115.82 145.23 236.31 289.20 312.74 321.04 350.84 440.20 516.24 494.35 455.25 485.18 511.73 445.82 415.35 418.54 383.36 355.64 318.52 297.72 288.73 268.97 250.89 247.93 247.29 244.96 244.74 259.77 265.16 278.59 304.94 377.24 388.43 469.00 499.19 501.04 488.76 473.53 468.10 437.23 436.55 414.95 371.65 369.81 327.90 262.55 195.92 125.62 113.25 108.80 120.07 122.74 122.52 120.65 117.76 116.13 115.86 115.95 119.37 124.21 135.98 154.67 175.86 187.98 199.30 212.78 222.02 228.14 237.59 245.37 255.91 297.66 464.31 1556.65 2580.05 2982.18 5639.15 6664.36 6348.01 4650.50 2527.99 2586.35 1918.33 636.14 373.84 303.98 298.10 275.05 251.80 248.28 243.83 212.66 174.81 110.60 -29.58 -166.94 -401.73 -569.60 -932.51 -1204.16 -1447.74 -1703.16 -1842.28 -1893.95 -1928.07 -1967.91 -2042.02 -2132.20 -2454.17 -2814.98 -3218.78 -3642.96 -3772.76 -3846.31 -3846.38
-2139.76 -2139.86 -2134.74 -2125.39 -2122.00 -2111.40 -2102.35 -2103.37 -2100.53 -2101.48 -2104.40 -2102.96 -2099.18 -2093.91 -2079.60 -2044.89 -1969.54 -1803.88 -1568.68 -1201.07 -624.50 -413.42 -238.74 -189.78 -131.39 5.68 26.85 97.19 186.49 261.38 308.98 309.07 334.43 389.17 478.22 443.72 418.38 439.38 458.80 460.84 393.07 373.71 347.10 310.46 286.55 285.39 262.82 229.06 210.25 214.85 215.79 224.95 244.50 259.46 263.53 278.36 308.56 343.08 396.71 424.00 498.71 516.85 535.47 512.30 521.82 530.19 510.89 478.79 434.44 445.91 344.76 281.18 227.06 141.78 112.22 114.44 122.44 124.23 123.65 119.04 115.96 115.66 115.47 115.46 116.78 129.62 144.05 163.64 183.03 196.65 208.28 216.85 222.64 230.55 237.18 251.08 274.87 591.28 1138.78 1236.34 1697.10 4357.71 5381.78 6677.98 5420.72 3178.15 2225.76 2095.80 905.83 368.57 305.31 300.00 294.78 272.11 251.36 247.49 231.17 214.92 164.26 76.76 -30.41 -176.80 -381.16 -569.09 -869.83 -1223.39 -1391.84 -1691.83 -1840.25 -1872.56 -1900.64 -1949.23 -2012.74 -2198.48 -2340.40 -2633.03 -3168.98 -3563.25 -3763.39 -3848.11 -3848.21
-2160.01 -2159.95 -2154.20 -2143.87 -2138.24 -2130.58 -2123.27 -2120.56 -2121.65 -2116.85 -2109.24 -2103.38 -2097.89 -2090.28 -2069.52 -2003.39 -1917.53 -1726.05 -1306.03 -870.21 -539.11 -319.94 -255.50 -220.59 -170.60 -68.46 -42.76 35.51 155.42 254.18 288.58 290.73 300.15 326.01 366.45 360.84 380.71 383.18 418.11 410.28 380.53 337.48 307.63 283.50 280.52 275.44 235.80 187.73 164.45 181.44 194.63 207.21 236.65 255.75 263.10 278.38 295.62 336.51 386.41 415.79 471.06 495.48 488.46 498.56 517.59 513.26 511.48 466.39 432.29 376.84 311.26 263.50 199.55 140.56 96.71 106.27 117.50 122.82 127.23 126.44 125.35 115.22 115.11 115.19 120.34 132.87 150.34 166.11 184.33 203.71 209.40 216.21 223.66 231.54 243.57 265.31 433.32 676.47 1894.02 2001.61 2567.66 3862.54 5937.88 5660.35 3598.42 3500.57 2347.33 1936.68 700.52 347.13 302.54 295.30 293.85 276.63 249.86 241.93 226.14 211.96 140.49 27.56 -82.28 -187.54 -414.40 -628.27 -915.54 -1149.55 -1473.54 -1692.27 -1826.59 -1862.05 -1915.26 -1943.45 -2003.93 -2151.68 -2287.99 -2522.80 -3011.58 -3582.28 -3783.12 -3848.04 -3848.13
-2172.41 -2172.33 -2165.09 -2158.79 -2148.71 -2141.67 -2128.99 -2125.70 -2125.00 -2121.12 -2113.91 -2104.22 -2097.88 -2085.82 -2056.64 -1988.66 -1876.55 -1642.45 -1102.59 -808.19 -524.32 -309.55 -224.34 -227.26 -191.56 -110.46 -55.94 -2.34 121.13 222.24 244.69 267.94 288.19 306.52 326.64 332.20 336.01 324.79 361.14 353.09 318.23 298.89 294.27 275.60 271.81 248.93 201.31 161.53 149.10 158.42 177.90 203.40 232.93 254.23 264.17 274.99 298.23 326.58 384.63 419.81 451.30 458.62 430.51 432.81 464.42 450.81 444.17 420.27 386.34 314.70 285.10 262.50 197.12 155.63 111.49 120.20 127.57 126.82 129.93 128.64 124.59 117.27 114.57 114.47 122.63 132.93 151.79 169.49 191.20 203.54 213.76 222.31 228.15 232.53 244.13 277.15 515.31 1295.79 2078.34 3510.15 4833.84 5525.76 6249.00 4692.69 2533.86 1858.36 1777.78 1185.77 518.89 357.29 314.32 296.00 290.05 276.90 249.18 237.24 222.78 167.79 106.68 -20.76 -134.73 -264.08 -461.57 -710.64 -908.46 -1260.03 -1563.78 -1762.83 -1827.42 -1879.72 -1928.15 -1968.68 -2006.26 -2102.43 -2289.02 -2688.87 -3400.09 -3783.22 -3825.35 -3847.88 -3847.97
-2179.05 -2178.97 -2171.11 -2164.33 -2157.24 -2146.74 -2137.12 -2132.55 -2129.91 -2123.43 -2112.42 -2104.14 -2094.35 -2072.67 -2054.54 -1972.67 -1840.48 -1670.75 -1183.44 -851.09 -560.18 -342.86 -242.68 -211.85 -197.36 -120.86 -79.63 -31.97 -18.92 28.33 103.80 186.44 279.08 286.00 304.92 309.53 310.61 307.79 316.22 312.77 271.76 260.38 268.43 272.46 248.94 212.01 161.25 148.55 149.15 151.87 164.71 211.45 234.27 253.73 269.70 285.75 323.59 346.98 384.31 413.79 413.37 396.80 390.50 395.99 425.64 403.55 411.02 358.88 339.94 291.69 281.60 264.13 218.41 180.98 126.55 111.12 136.88 126.54 123.53 124.67 113.93 114.24 114.15 114.33 119.64 140.14 156.59 168.86 189.50 207.57 217.58 230.03 235.67 241.69 257.46 300.51 849.07 1747.92 2319.26 4028.95 6080.13 6548.58 5997.49 4790.86 3038.07 1737.04 1430.89 490.44 395.71 340.88 315.87 300.92 282.98 267.81 252.16 244.12 216.75 140.14 56.83 -50.26 -181.23 -379.70 -554.80 -859.57 -1126.63 -1414.68 -1676.77 -1807.66 -1843.02 -1893.30 -1940.62 -1972.10 -2029.89 -2135.70 -2328.29 -3044.82 -3506.89 -3792.41 -3849.65 -3851.31 -3851.40
-2183.00 -2182.92 -2176.14 -2170.18 -2163.06 -2150.84 -2142.73 -2135.82 -2132.07 -2124.82 -2113.92 -2101.37 -2089.54 -2074.66 -2037.56 -1979.46 -1882.68 -1763.89 -1440.76 -1169.36 -713.51 -480.62 -330.08 -236.60 -218.09 -107.48 -56.26 -37.83 -33.58 -23.99 19.72 149.68 256.30 265.70 275.42 261.35 280.48 269.72 269.82 204.53 201.36 250.96 259.96 232.28 232.14 172.43 149.13 147.47 148.72 157.49 175.85 228.26 255.96 270.87 285.37 305.47 333.16 384.65 418.26 401.32 377.54 375.25 363.56 365.58 348.40 343.85 333.71 334.29 304.23 283.04 267.96 239.63 202.05 153.85 133.45 108.54 124.68 124.10 121.00 126.25 113.38 113.11 113.42 113.69 121.17 141.39 157.41 171.04 191.33 214.43 222.62 240.30 245.42 264.62 287.86 1159.14 1902.87 2001.07 3164.40 5302.35 5622.39 5851.26 4951.56 2948.37 2015.47 1796.02 898.53 390.16 383.69 328.71 310.80 291.91 275.85 251.94 251.71 240.11 217.28 179.53 108.00 17.56 -149.51 -405.16 -649.11 -850.03 -1268.61 -1617.87 -1668.99 -1848.81 -1866.35 -1894.36 -1934.07 -1987.88 -2075.16 -2154.11 -2375.62 -3062.50 -3693.92 -3821.17 -3851.68 -3853.14 -3853.23
-2187.87 -2187.75 -2184.09 -2176.22 -2165.67 -2160.50 -2148.81 -2142.76 -2140.64 -2125.78 -2114.61 -2103.99 -2090.24 -2070.60 -2025.66 -1981.33 -1899.49 -1776.62 -1557.92 -1335.98 -1086.22 -728.21 -490.15 -285.97 -217.21 -175.27 -66.53 -63.52 -72.82 -36.12 18.63 56.81 203.49 231.19 229.12 203.93 235.85 220.47 171.88 136.65 141.88 169.48 189.78 164.05 169.85 145.76 145.11 144.47 155.91 168.90 213.88 250.01 264.95 278.89 290.27 324.01 355.96 402.10 435.04 380.54 352.36 356.85 337.12 330.38 318.20 298.25 296.38 289.59 289.42 278.26 260.29 228.48 174.57 145.45 122.50 114.73 115.41 109.68 108.22 110.13 111.73 112.27 112.43 112.57 115.61 128.66 160.80 172.71 188.31 216.49 230.53 264.79 281.53 313.13 642.03 1936.46 2402.30 2372.73 3066.32 6149.94 5933.87 4053.37 2405.44 1661.80 1228.15 1252.35 725.87 379.56 361.49 329.60 301.89 290.81 269.94 251.39 248.33 235.31 200.21 166.83 95.92 -38.47 -185.49 -492.32 -780.93 -1007.98 -1277.96 -1546.02 -1689.65 -1834.27 -1881.65 -1913.26 -1942.21 -1982.95 -2087.73 -2171.14 -2414.35 -3248.63 -3755.25 -3841.67 -3848.77 -3846.67 -3846.76
-2200.05 -2199.98 -2196.47 -2187.99 -2181.97 -2170.85 -2164.19 -2154.06 -2153.30 -2151.32 -2138.24 -2122.36 -2094.98 -2078.81 -2035.68 -2000.75 -1940.87 -1893.29 -1754.20 -1652.09 -1325.46 -932.48 -660.79 -414.69 -264.61 -198.53 -169.58 -169.47 -111.80 -59.66 -23.24 14.33 75.84 154.13 158.92 126.72 135.09 94.86 102.69 105.54 123.47 130.51 130.08 123.35 127.95 127.90 138.31 145.80 163.85 203.42 241.02 272.20 280.72 311.02 308.43 361.62 382.04 426.63 417.28 361.17 333.64 323.08 316.25 300.95 296.20 291.86 283.62 268.16 262.24 258.20 240.59 194.56 162.70 137.64 120.14 115.07 109.39 103.97 106.68 109.17 110.40 110.38 110.13 109.68 114.04 128.87 162.86 175.94 189.24 219.04 234.44 261.54 321.91 682.19 915.70 1705.56 2456.27 3063.84 4426.10 5930.70 5992.68 3698.31 2846.12 2013.86 1325.25 813.16 376.58 371.67 348.37 333.85 303.11 282.44 252.51 250.27 245.91 232.93 206.14 169.34 77.98 7.21 -212.31 -501.45 -794.67 -1109.65 -1301.41 -1592.18 -1797.23 -1857.32 -1887.64 -1906.06 -1934.10 -1981.94 -2229.77 -2411.46 -2828.13 -3478.89 -3753.05 -3841.49 -3844.92 -3845.97 -3846.05
-2215.80 -2215.63 -2210.33 -2200.10 -2192.58 -2182.91 -2176.54 -2175.50 -2175.37 -2168.24 -2151.12 -2140.43 -2121.98 -2100.67 -2061.93 -2003.02 -1956.17 -1928.76 -1866.71 -1684.73 -1577.67 -1230.81 -686.48 -503.13 -296.68 -234.87 -223.33 -214.05 -200.41 -119.50 -36.17 -9.47 63.46 99.10 102.28 87.55 58.56 24.14 10.82 73.71 90.36 101.96 116.58 116.42 120.54 127.87 133.36 156.18 199.10 232.81 257.67 283.19 305.71 327.88 359.88 418.86 447.67 433.17 399.40 363.09 318.64 309.12 300.53 291.24 287.96 282.72 268.48 261.45 249.99 214.93 195.61 178.13 151.37 130.68 122.41 108.27 106.45 103.87 105.12 107.76 107.90 108.37 108.71 109.39 119.51 140.38 171.09 195.55 204.72 223.74 245.29 276.19 399.04 792.03 1662.03 2551.14 4072.36 5024.57 5772.28 5767.65 5295.15 3338.55 3031.89 2123.97 1175.57 653.54 355.20 354.97 346.78 321.70 294.05 286.94 271.12 248.67 243.77 228.96 203.29 174.64 98.29 15.70 -166.70 -580.27 -840.26 -1092.05 -1326.58 -1614.34 -1717.57 -1815.71 -1867.79 -1892.08 -1955.62 -2050.73 -2226.25 -2666.13 -3292.42 -3628.70 -3739.26 -3841.17 -3843.98 -3846.04 -3846.12
-2221.08 -2221.00 -2215.33 -2209.08 -2201.53 -2194.76 -2186.62 -2184.09 -2186.57 -2180.51 -2166.45 -2147.79 -2136.85 -2101.03 -2062.93 -2003.73 -1964.12 -1951.07 -1914.33 -1817.22 -1696.60 -1320.47 -922.37 -618.34 -351.05 -261.26 -236.87 -224.97 -202.39 -161.97 -116.70 -73.70 -32.34 -6.82 40.34 49.00 2.33 -18.92 -10.32 34.10 45.70 74.32 96.01 108.08 116.20 126.93 149.18 183.28 217.22 255.77 284.81 305.17 336.55 369.30 410.05 443.55 441.57 403.51 377.97 350.19 311.69 298.88 286.41 269.88 267.71 254.42 244.26 250.90 199.68 178.34 169.42 154.52 137.73 113.59 117.76 113.00 108.77 102.71 102.55 105.09 106.16 105.91 107.89 114.71 127.86 158.58 186.90 194.51 213.63 225.59 250.58 288.43 561.58 1552.27 1641.69 2469.13 3797.17 6059.75 6246.41 5122.06 3124.67 2408.77 2898.24 1197.56 473.82 349.14 348.66 349.29 331.05 310.40 295.92 279.70 266.18 246.14 242.46 229.38 208.83 172.79 106.49 31.27 -192.70 -425.67 -837.29 -1089.19 -1180.14 -1479.43 -1768.50 -1825.50 -1870.58 -1913.86 -2001.69 -2144.14 -2368.39 -2696.82 -3103.92 -3579.02 -3814.33 -3841.43 -3844.32 -3845.64 -3845.72
-2215.78 -2215.70 -2211.36 -2204.92 -2200.16 -2191.17 -2185.40 -2184.56 -2186.09 -2179.30 -2168.45 -2149.70 -2135.18 -2106.85 -2064.01 -2007.14 -1963.90 -1947.49 -1900.21 -1866.10 -1644.87 -1367.78 -946.86 -600.10 -330.24 -285.99 -250.69 -268.84 -250.74 -215.86 -212.77 -175.60 -188.07 -136.35 -44.52 -4.45 -51.26 -73.80 -64.76 -47.88 -1.74 35.85 69.81 92.36 104.22 129.97 146.12 181.98 246.50 265.51 296.28 318.07 336.95 399.80 441.50 432.33 419.93 402.39 349.32 332.61 304.79 294.57 271.12 264.03 250.71 229.03 214.31 178.74 151.80 153.61 157.73 144.28 124.09 111.71 110.32 118.54 109.68 102.15 101.52 102.79 104.20 105.41 110.14 122.77 147.04 161.96 180.65 206.80 221.26 248.34 265.47 543.23 1425.36 2710.03 2514.84 4197.81 5184.08 6004.79 6439.93 5351.06 3213.40 1837.01 1699.12 653.47 338.35 338.46 338.75 328.69 318.65 307.54 292.75 274.44 253.93 247.26 242.62 229.48 200.75 171.36 110.79 65.29 -74.39 -276.13 -638.99 -1067.31 -1292.71 -1487.90 -1708.51 -1819.41 -1851.66 -1905.87 -1978.78 -2275.02 -2615.23 -2690.78 -3135.43 -3623.88 -3801.13 -3830.66 -3842.03 -3841.31 -3841.07
-2205.35 -2205.26 -2202.52 -2194.03 -2188.69 -2179.31 -2177.28 -2179.11 -2182.52 -2179.07 -2164.77 -2150.20 -2135.15 -2106.13 -2049.60 -2000.25 -1958.24 -1939.34 -1900.09 -1828.47 -1563.83 -1383.01 -943.16 -594.13 -410.87 -425.61 -518.48 -441.93 -404.72 -399.57 -340.92 -319.27 -377.96 -258.58 -266.02 -130.75 -99.70 -111.01 -100.99 -79.01 -34.14 1.13 38.28 67.39 77.58 90.93 151.55 208.86 261.51 267.09 307.27 343.44 375.98 413.17 464.73 435.59 401.04 392.24 355.71 318.42 294.98 284.51 266.96 242.34 205.82 182.20 169.97 158.00 139.80 130.04 133.01 111.47 98.58 96.09 102.70 109.44 103.35 101.03 101.11 101.76 103.17 104.49 107.96 112.51 143.94 173.56 190.99 210.57 234.74 247.17 292.01 625.73 953.58 1867.99 3090.34 4474.78 7160.66 6732.39 5768.92 4933.18 3054.78 2544.10 2055.35 423.63 329.26 323.01 328.16 316.40 295.86 279.32 265.69 256.01 248.61 247.41 244.14 232.26 215.24 168.26 113.01 41.35 -77.06 -260.57 -707.59 -995.78 -1519.59 -1744.00 -1817.98 -1829.65 -1831.10 -1886.51 -1967.72 -2196.07 -2648.26 -2879.28 -3140.15 -3363.62 -3680.93 -3827.33 -3840.34 -3846.20 -3846.28
-2184.85 -2182.03 -2176.14 -2177.55 -2170.53 -2168.12 -2159.13 -2168.69 -2172.97 -2170.51 -2162.15 -2148.09 -2130.81 -2102.09 -2051.96 -1996.02 -1969.59 -1949.77 -1896.45 -1797.90 -1592.72 -1284.20 -967.71 -749.42 -701.39 -699.02 -696.72 -752.55 -816.58 -721.73 -736.61 -744.89 -723.57 -636.69 -449.83 -233.46 -154.07 -122.38 -118.56 -106.03 -69.60 -50.92 -3.98 15.69 63.06 90.71 161.41 221.64 266.88 292.75 341.17 362.19 397.17 427.63 468.67 436.43 401.42 360.46 342.65 311.57 292.11 276.93 268.41 220.07 188.08 165.17 158.15 148.66 134.33 120.96 118.33 108.13 103.05 98.86 99.69 99.61 99.78 100.00 100.28 100.46 101.40 102.93 104.53 110.28 138.38 178.31 207.10 220.67 241.00 257.29 348.81 457.95 1252.81 2310.16 3195.18 5253.07 6625.92 6131.02 4277.77 3820.78 2253.27 1913.30 638.03 336.74 321.00 315.86 316.34 310.14 301.02 279.12 264.30 247.18 244.39 243.90 238.02 223.70 202.02 183.97 54.42 -43.78 -158.28 -452.10 -643.20 -1029.94 -1581.98 -1809.84 -1823.88 -1823.87 -1827.62 -1871.06 -1976.63 -2065.47 -2311.95 -2745.61 -3070.19 -3396.30 -3699.40 -3820.37 -3833.18 -3846.56 -3846.63
-2141.91 -2141.80 -2146.02 -2147.08 -2136.00 -2110.08 -2125.51 -2141.61 -2153.68 -2157.09 -2151.92 -2137.68 -2123.67 -2102.66 -2064.05 -2005.13 -1979.50 -1952.42 -1930.92 -1834.33 -1687.37 -1373.95 -1157.45 -1035.32 -988.80 -1054.39 -1105.96 -1167.08 -1153.52 -1254.42 -1208.89 -1089.57 -1157.05 -844.60 -515.60 -359.50 -262.91 -169.10 -155.02 -160.90 -190.09 -167.50 -124.47 -48.16 12.17 87.01 176.43 236.78 268.18 327.75 349.12 367.71 426.66 483.12 493.66 442.88 376.20 346.89 317.90 296.70 286.20 273.70 255.36 201.36 175.28 160.99 153.87 149.51 126.61 111.34 112.75 107.91 102.19 100.99 101.14 100.34 100.04 99.82 99.74 99.94 99.95 100.35 102.47 106.05 124.03 184.18 215.74 232.16 246.40 264.96 436.48 1479.67 1317.04 3227.91 4524.23 6556.14 6217.53 4875.76 2532.12 2690.73 2587.90 1174.13 574.24 347.11 312.23 304.35 296.92 288.21 282.64 278.03 260.59 246.69 242.39 237.74 229.31 207.33 182.47 145.63 -5.00 -149.01 -248.47 -581.72 -918.51 -1120.10 -1535.45 -1796.75 -1812.09 -1820.98 -1823.70 -1850.69 -1920.19 -2046.10 -2331.18 -2579.96 -3077.63 -3316.18 -3706.85 -3796.60 -3826.96 -3846.97 -3847.04
-2088.11 -2088.01 -2094.13 -2085.09 -2078.98 -2080.53 -2075.83 -2102.43 -2133.27 -2141.30 -2141.36 -2128.91 -2117.65 -2091.57 -2053.02 -2021.36 -1998.74 -1977.75 -1957.54 -1867.83 -1768.06 -1627.44 -1516.38 -1468.87 -1438.56 -1637.21 -1672.56 -1664.06 -1706.28 -1651.85 -1662.36 -1656.21 -1570.16 -1028.15 -674.00 -533.94 -372.06 -273.17 -309.08 -333.72 -294.86 -240.85 -172.04 -77.27 -28.42 54.74 179.26 242.23 315.81 379.17 407.93 444.57 480.57 512.60 482.76 405.62 347.83 319.38 306.75 290.06 279.54 256.30 229.76 186.07 173.54 159.79 149.08 127.48 118.77 109.16 107.25 103.13 98.49 102.61 101.27 100.64 100.19 99.81 99.65 99.66 99.56 99.71 102.26 105.29 138.91 163.78 221.92 237.11 252.14 266.79 674.23 1693.27 2195.59 3039.08 4877.01 7593.42 7080.87 3901.11 2477.34 1415.69 1824.27 813.96 390.97 311.55 309.06 299.55 288.78 278.48 270.43 272.44 252.16 246.97 240.67 234.12 219.41 201.01 171.22 58.83 -93.34 -254.38 -480.46 -696.83 -1019.56 -1403.86 -1576.49 -1760.14 -1815.24 -1816.07 -1827.32 -1844.74 -1891.18 -1955.20 -2259.21 -2534.88 -2924.22 -3294.98 -3640.54 -3780.64 -3822.00 -3849.75 -3849.81
-2056.62 -2056.54 -2060.71 -2054.59 -2055.47 -2047.34 -2052.66 -2094.74 -2113.70 -2137.11 -2136.83 -2128.17 -2115.26 -2100.20 -2068.29 -2036.06 -2008.25 -1996.09 -1974.91 -1955.67 -1916.83 -1831.63 -1798.50 -1771.97 -1810.23 -1847.90 -1895.02 -1883.39 -1954.16 -1934.27 -1952.04 -1907.72 -1808.54 -1663.13 -1244.60 -794.22 -493.61 -365.46 -412.90 -429.28 -416.00 -319.56 -186.99 -143.34 -32.17 52.67 149.59 244.26 302.68 321.53 429.73 482.73 482.45 450.32 408.41 335.87 323.64 287.22 291.95 274.97 268.06 246.42 207.17 187.66 174.00 155.65 144.19 127.00 118.22 108.36 109.63 108.42 99.23 102.67 102.31 100.08 99.90 99.80 99.65 99.66 99.64 101.70 114.14 139.38 172.16 196.95 213.42 242.52 266.72 360.42 762.46 1844.49 2489.89 4114.80 6287.87 7512.98 5969.29 4404.61 3229.62 1957.12 1790.25 424.27 314.45 302.56 292.97 296.62 283.57 273.10 260.51 254.79 245.49 246.12 238.97 232.01 219.54 181.65 76.88 -38.72 -206.32 -378.47 -676.78 -939.24 -1152.32 -1504.77 -1632.46 -1773.11 -1817.89 -1827.45 -1831.14 -1843.38 -1869.82 -1959.82 -2141.58 -2319.97 -2702.55 -3173.49 -3577.57 -3752.59 -3826.33 -3858.67 -3858.74
-2046.85 -2046.78 -2045.94 -2043.80 -2041.97 -2038.37 -2042.07 -2087.55 -2110.54 -2137.16 -2139.68 -2132.38 -2118.37 -2104.62 -2073.59 -2051.16 -2024.28 -2015.70 -2010.10 -1988.16 -2004.10 -2018.29 -1992.21 -2000.15 -2013.91 -2037.25 -2038.38 -2063.59 -2048.29 -2038.36 -2034.43 -2011.74 -1979.84 -1803.50 -1361.68 -1038.13 -672.91 -537.18 -433.06 -411.01 -420.59 -311.42 -210.55 -163.43 -49.91 40.47 160.77 252.75 285.47 291.77 386.47 456.64 439.73 351.44 342.79 290.69 274.35 274.28 267.04 240.98 248.91 236.06 200.08 185.59 173.33 155.07 140.63 130.36 119.59 117.52 114.44 118.81 106.25 102.77 101.85 99.37 99.44 99.37 99.38 99.44 99.56 103.51 121.94 154.99 179.40 203.77 231.12 239.31 286.08 752.24 1372.51 1285.59 2669.32 4515.30 7056.12 7458.18 5465.21 2988.10 2788.27 2648.36 984.63 434.05 288.52 299.86 268.15 261.16 266.68 268.26 245.13 245.71 247.58 243.31 234.36 224.12 194.54 173.77 88.98 -235.05 -400.36 -540.56 -887.98 -1051.80 -1253.25 -1645.35 -1755.41 -1800.10 -1821.21 -1828.37 -1833.13 -1846.68 -1880.40 -1936.50 -2065.62 -2281.91 -2608.39 -3067.19 -3497.17 -3755.17 -3846.55 -3858.74 -3858.81
-2045.52 -2045.46 -2043.11 -2041.90 -2039.06 -2037.94 -2046.15 -2075.92 -2123.45 -2143.67 -2143.39 -2136.99 -2132.57 -2115.57 -2095.24 -2061.75 -2044.50 -2029.61 -2021.86 -2025.59 -2026.61 -2045.31 -2058.86 -2089.99 -2086.16 -2112.59 -2120.13 -2117.09 -2099.10 -2084.73 -2078.24 -2070.12 -2021.49 -1900.68 -1534.88 -1279.32 -923.37 -614.30 -450.37 -414.17 -244.72 -187.21 -186.51 -165.51 -80.59 60.28 180.87 250.50 272.10 289.43 400.24 399.19 348.74 300.72 275.66 267.24 268.12 258.61 236.77 187.45 201.49 216.92 214.88 197.83 200.34 170.81 178.22 148.24 134.20 129.91 116.81 108.58 105.60 101.20 99.50 98.72 99.11 99.17 98.93 98.83 103.44 118.29 131.56 172.96 191.76 217.87 234.78 251.59 372.34 1010.69 1906.63 2361.36 2596.21 4230.82 7269.60 6136.13 4981.10 2396.94 1613.97 1847.25 323.74 295.70 269.84 278.72 246.65 246.07 245.76 245.86 245.32 243.74 241.21 234.20 227.81 206.39 169.44 123.88 30.78 -99.36 -482.79 -656.09 -1050.10 -1245.93 -1467.63 -1662.13 -1780.37 -1808.66 -1822.93 -1826.73 -1836.00 -1845.16 -1907.52 -1966.90 -2041.04 -2257.67 -2523.05 -3120.98 -3546.47 -3784.71 -3846.34 -3858.08 -3858.15
-2056.65 -2056.60 -2055.27 -2053.77 -2056.64 -2055.73 -2059.39 -2088.69 -2119.95 -2143.67 -2145.59 -2139.56 -2134.78 -2123.57 -2102.11 -2071.74 -2052.34 -2041.65 -2037.82 -2036.18 -2047.68 -2075.22 -2111.34 -2129.63 -2127.37 -2141.30 -2143.61 -2133.43 -2121.21 -2101.40 -2095.44 -2091.64 -2052.65 -1994.29 -1775.79 -1499.98 -964.11 -722.81 -472.06 -360.70 -249.15 -182.70 -193.54 -143.21 -45.98 5.85 132.59 221.45 259.84 305.72 390.56 378.24 286.24 275.26 267.67 232.34 230.33 209.81 191.03 138.92 162.67 196.03 233.91 233.75 248.66 233.61 242.59 207.01 167.58 143.65 125.82 111.65 107.23 102.96 99.02 98.71 98.89 98.63 98.05 99.49 101.31 115.12 132.27 178.81 205.57 212.74 244.59 282.53 683.18 923.75 1655.64 2741.48 5039.53 5936.86 6985.06 5302.28 4320.31 2931.53 1926.91 988.72 311.74 261.90 259.22 268.34 253.12 245.44 245.06 242.10 240.68 236.85 232.54 223.62 210.70 184.37 155.88 62.16 -0.58 -161.71 -418.45 -924.30 -1217.67 -1496.54 -1676.90 -1746.92 -1792.70 -1807.47 -1812.03 -1821.17 -1850.95 -1879.37 -1987.39 -2083.16 -2140.49 -2301.00 -2750.47 -3305.44 -3755.67 -3829.72 -3841.99 -3854.79 -3854.86
-2092.09 -2092.05 -2085.60 -2093.10 -2094.86 -2097.09 -2103.45 -2113.18 -2131.63 -2141.95 -2142.97 -2139.33 -2135.49 -2125.42 -2099.83 -2075.86 -2048.78 -2043.68 -2040.00 -2041.40 -2046.97 -2083.47 -2126.36 -2145.87 -2151.13 -2161.64 -2159.00 -2154.36 -2146.02 -2136.32 -2133.99 -2133.55 -2113.48 -2056.57 -1886.48 -1602.09 -1214.81 -721.68 -501.22 -281.92 -189.60 -174.08 -179.67 -140.89 -50.95 10.63 107.99 121.60 214.92 257.25 304.14 298.47 257.35 259.04 234.10 125.20 140.63 115.33 89.29 84.79 131.57 197.66 257.17 285.22 283.91 273.45 269.22 257.20 226.97 183.17 146.79 129.34 112.80 108.71 104.01 98.64 98.36 98.17 98.02 98.62 98.25 112.82 135.93 169.83 205.65 230.92 259.15 313.13 1590.93 2195.16 2223.37 2310.49 5267.12 6440.54 5806.97 2936.83 2178.76 2301.36 2005.28 435.31 302.66 254.28 249.47 252.48 242.95 241.68 242.20 235.94 235.50 230.36 210.55 193.14 179.26 140.45 44.35 -7.23 -186.56 -339.19 -609.22 -1054.51 -1377.64 -1588.42 -1696.52 -1774.66 -1793.23 -1808.45 -1801.78 -1816.81 -1860.74 -1902.22 -2002.09 -2152.89 -2525.89 -2509.46 -2738.47 -3554.99 -3759.08 -3839.63 -3851.29 -3854.71 -3854.77
-2137.73 -2140.01 -2137.15 -2131.19 -2126.19 -2131.78 -2131.85 -2134.09 -2138.59 -2140.12 -2139.50 -2137.30 -2133.15 -2122.57 -2090.22 -2063.46 -2043.38 -2038.02 -2037.55 -2038.81 -2052.96 -2095.06 -2135.00 -2158.09 -2169.35 -2168.90 -2173.29 -2168.55 -2167.40 -2166.23 -2157.92 -2158.94 -2147.92 -2116.89 -2005.19 -1708.42 -1268.97 -886.60 -503.89 -302.98 -189.07 -173.18 -169.40 -161.13 -60.32 5.62 43.86 101.57 205.95 241.11 253.43 188.39 199.60 168.76 140.55 39.23 11.74 38.74 41.93 78.68 99.21 189.12 265.61 314.22 324.24 309.52 288.63 284.63 260.83 204.26 193.13 144.18 108.13 104.51 104.22 98.28 97.95 97.90 97.73 97.67 98.12 102.34 133.82 167.02 209.67 241.03 270.61 764.37 1841.76 2472.83 3915.91 4600.42 6748.76 6745.76 5157.48 3127.90 1773.04 1461.12 550.24 382.55 261.33 250.72 245.28 241.86 236.75 234.99 223.80 226.29 225.50 217.97 185.91 167.86 111.37 73.75 -23.66 -270.03 -368.35 -537.30 -705.47 -1146.60 -1405.58 -1643.77 -1741.46 -1774.56 -1789.21 -1797.38 -1791.25 -1797.45 -1816.10 -1888.92 -2058.10 -2334.37 -2766.83 -2933.28 -3234.38 -3476.23 -3795.80 -3837.39 -3843.27 -3854.03 -3856.36
-2161.87 -2161.81 -2156.55 -2158.91 -2163.07 -2158.34 -2160.56 -2156.01 -2147.97 -2143.47 -2143.14 -2140.40 -2136.76 -2128.40 -2098.82 -2063.04 -2048.79 -2042.74 -2043.03 -2047.65 -2064.85 -2090.05 -2154.46 -2178.99 -2186.80 -2185.69 -2190.96 -2192.02 -2181.04 -2185.97 -2184.14 -2183.96 -2183.61 -2149.19 -2025.99 -1736.26 -1460.11 -956.20 -529.98 -291.96 -208.13 -177.15 -175.14 -162.27 -97.84 -46.28 13.20 72.49 130.70 152.92 162.84 128.43 97.61 60.32 19.28 -60.50 -53.72 0.17 6.22 5.96 44.46 140.37 218.04 306.88 330.76 348.50 353.10 298.64 297.39 270.70 231.22 190.59 112.01 108.40 102.80 97.60 97.34 97.19 97.20 97.20 98.24 100.72 132.29 164.71 217.28 240.36 278.61 1044.16 1834.75 2536.48 4588.58 5589.80 6341.37 6324.48 4590.15 3103.17 1992.26 1334.81 422.18 276.78 249.61 241.29 238.57 237.20 232.86 224.91 211.37 207.84 203.45 189.48 155.47 110.18 76.55 -24.71 -212.07 -474.90 -719.04 -933.04 -1063.28 -1237.62 -1596.48 -1677.37 -1764.70 -1770.66 -1763.96 -1764.19 -1772.27 -1778.47 -1783.68 -1835.99 -1969.90 -2423.21 -2921.38 -3043.54 -3510.25 -3708.14 -3799.77 -3839.86 -3849.97 -3860.94 -3861.00
-2166.86 -2166.79 -2166.98 -2168.02 -2171.11 -2170.77 -2169.43 -2163.33 -2155.50 -2151.08 -2148.52 -2148.07 -2145.65 -2130.79 -2109.77 -2076.74 -2063.32 -2054.18 -2056.27 -2067.99 -2077.32 -2127.77 -2171.36 -2197.54 -2208.54 -2205.84 -2205.64 -2208.50 -2209.19 -2202.06 -2199.14 -2194.04 -2190.33 -2172.83 -2084.24 -1824.99 -1499.37 -1179.60 -634.22 -424.05 -240.94 -182.44 -180.77 -167.77 -125.39 -68.09 -4.85 58.19 74.37 72.96 47.71 -2.31 -13.38 -12.06 -51.05 -106.31 -85.48 -65.99 -14.62 -2.33 19.08 132.44 210.11 260.00 314.09 334.43 382.19 367.44 333.98 289.04 250.51 204.99 120.06 118.55 104.03 96.83 96.73 96.69 96.19 95.73 95.32 98.14 115.79 149.98 209.37 250.12 275.06 615.55 2470.66 3104.66 4366.90 4895.82 4936.28 4122.63 3583.46 2041.50 1635.95 815.11 282.75 251.50 245.49 234.34 230.47 222.14 216.35 210.19 201.25 195.78 187.94 160.95 113.62 66.86 -8.97 -72.41 -351.49 -633.08 -834.64 -1078.44 -1190.69 -1456.48 -1643.39 -1756.25 -1762.84 -1764.57 -1762.12 -1770.84 -1776.69 -1783.61 -1784.79 -1808.80 -1916.14 -2559.02 -3179.76 -3483.06 -3705.53 -3753.15 -3809.16 -3847.35 -3852.92 -3860.95 -3861.02
-2165.18 -2165.11 -2167.44 -2168.67 -2171.15 -2171.95 -2172.81 -2169.01 -2160.74 -2157.35 -2156.99 -2157.85 -2158.55 -2146.31 -2125.55 -2089.83 -2079.20 -2077.18 -2076.08 -2085.38 -2100.83 -2134.26 -2183.24 -2212.82 -2224.55 -2216.76 -2219.84 -2220.89 -2220.78 -2216.75 -2210.20 -2204.86 -2199.02 -2191.38 -2077.43 -1993.59 -1602.84 -1275.06 -794.79 -478.08 -348.45 -243.04 -214.83 -184.31 -151.79 -97.78 -27.47 -19.72 -27.77 -33.43 -33.79 -92.92 -122.95 -106.32 -132.16 -131.18 -138.00 -116.25 -56.48 -62.30 3.63 85.03 137.75 211.25 283.30 308.55 347.79 363.41 349.52 324.76 286.46 226.12 139.03 102.02 96.15 95.71 95.75 95.46 94.73 94.37 94.22 96.44 111.19 136.29 177.63 252.73 313.18 357.46 2834.64 3666.05 3347.08 2881.29 1992.03 2146.97 2392.97 1918.61 534.57 316.13 269.91 247.03 242.69 226.88 216.20 203.66 190.33 182.05 175.15 176.26 142.02 110.46 65.02 -23.61 -80.18 -203.43 -421.12 -672.13 -1001.05 -1206.74 -1359.71 -1514.19 -1679.58 -1738.53 -1764.76 -1762.64 -1765.25 -1779.30 -1787.20 -1789.90 -1793.89 -1801.13 -1974.69 -2602.61 -3215.04 -3575.03 -3785.80 -3825.48 -3833.63 -3847.56 -3847.45 -3861.16 -3861.22
-2150.10 -2147.58 -2149.68 -2154.19 -2156.21 -2161.16 -2164.16 -2163.58 -2160.99 -2161.52 -2162.85 -2164.30 -2163.31 -2155.99 -2132.49 -2119.88 -2099.06 -2092.52 -2103.18 -2105.71 -2125.72 -2170.82 -2209.11 -2220.51 -2232.70 -2220.48 -2220.10 -2227.58 -2225.00 -2215.97 -2215.36 -2209.04 -2203.18 -2191.94 -2152.99 -2029.28 -1844.18 -1264.88 -1092.29 -773.68 -467.92 -333.71 -241.42 -183.18 -163.29 -148.44 -107.24 -79.65 -92.62 -110.18 -158.51 -196.14 -246.23 -201.14 -164.72 -150.09 -162.33 -148.76 -127.75 -96.16 -55.09 15.54 80.80 148.78 237.42 261.11 280.48 313.92 337.85 337.25 272.94 224.00 126.74 95.06 94.96 94.80 94.74 94.95 94.27 93.50 93.92 94.30 132.73 146.82 194.83 239.10 297.17 353.57 1583.88 2288.72 2556.52 2619.74 1444.95 1110.55 1562.34 744.84 382.16 272.53 255.02 237.20 221.85 208.33 203.98 193.60 153.15 121.98 82.76 68.29 72.44 77.38 -20.82 -97.26 -187.02 -363.04 -554.70 -758.42 -1151.59 -1404.27 -1633.05 -1706.80 -1760.11 -1765.58 -1767.71 -1767.72 -1776.85 -1790.84 -1811.65 -1822.05 -1814.22 -1830.19 -1967.95 -2339.62 -3108.61 -3715.33 -3822.25 -3838.02 -3847.21 -3852.48 -3854.71 -3864.10 -3864.16
-2109.12 -2109.01 -2098.16 -2116.98 -2107.89 -2120.27 -2121.80 -2140.85 -2149.19 -2158.69 -2163.06 -2165.22 -2165.70 -2165.33 -2154.28 -2138.22 -2141.16 -2137.59 -2137.36 -2137.62 -2158.15 -2197.34 -2222.54 -2220.81 -2227.60 -2222.55 -2222.29 -2221.05 -2219.05 -2212.26 -2213.07 -2203.56 -2194.77 -2185.33 -2153.52 -2037.68 -1935.60 -1667.92 -1188.60 -948.45 -700.64 -516.45 -417.32 -231.63 -244.21 -165.33 -178.35 -182.47 -171.70 -207.30 -222.26 -244.76 -252.55 -229.67 -201.59 -191.04 -175.48 -154.10 -139.89 -107.57 -89.35 -33.80 4.61 47.29 119.82 183.61 254.11 269.57 286.65 279.92 250.63 162.19 122.82 94.08 93.80 93.71 93.65 93.24 92.92 92.34 91.98 93.05 106.20 112.52 171.12 235.28 269.61 291.46 772.96 1128.10 1411.35 1069.94 1012.46 710.38 681.44 271.91 262.06 242.97 217.33 200.24 189.24 175.42 155.66 146.72 105.48 71.54 36.90 24.11 0.08 -71.05 -173.74 -200.52 -293.63 -572.02 -681.34 -1024.69 -1400.10 -1627.45 -1733.51 -1778.79 -1796.08 -1781.42 -1773.40 -1778.27 -1791.35 -1833.44 -1839.56 -1852.46 -1843.17 -1858.82 -2050.24 -2438.14 -3143.45 -3650.43 -3825.70 -3836.61 -3851.45 -3854.86 -3859.71 -3870.26 -3870.33
-2061.28 -2059.13 -2060.52 -2066.77 -2069.92 -2075.56 -2093.36 -2110.88 -2132.24 -2155.35 -2163.92 -2166.03 -2169.04 -2170.16 -2173.94 -2172.79 -2169.64 -2169.95 -2183.23 -2194.95 -2197.38 -2221.74 -2230.65 -2232.62 -2226.51 -2225.11 -2223.91 -2222.86 -2222.21 -2210.66 -2206.83 -2198.34 -2187.14 -2182.16 -2164.48 -2143.94 -2031.84 -1810.09 -1680.79 -1280.50 -913.61 -751.27 -640.55 -482.73 -308.35 -297.06 -249.83 -205.61 -211.54 -223.20 -295.53 -315.50 -267.60 -253.14 -247.48 -212.92 -198.47 -174.62 -146.20 -115.38 -90.86 -59.45 -48.96 2.80 43.08 101.72 165.11 194.36 184.83 202.09 166.44 132.88 92.83 92.32 92.69 91.84 90.78 91.84 91.12 91.53 90.86 90.02 90.46 107.19 177.07 234.97 250.56 269.47 283.85 441.43 445.04 616.11 493.40 442.33 269.34 255.01 249.35 228.53 190.74 159.67 129.12 106.08 41.14 5.41 50.48 -4.18 -65.03 -102.15 -181.93 -251.97 -411.81 -485.88 -678.38 -895.83 -1196.04 -1338.95 -1554.81 -1726.34 -1784.44 -1802.87 -1798.45 -1786.91 -1786.40 -1793.89 -1814.37 -1847.56 -1870.28 -1878.44 -1887.69 -1914.00 -2028.35 -2406.43 -3140.69 -3530.50 -3835.37 -3851.15 -3856.05 -3857.20 -3860.86 -3872.46 -3872.52
-2039.62 -2039.87 -2044.06 -2047.85 -2051.58 -2058.53 -2071.64 -2106.32 -2131.65 -2161.10 -2167.53 -2171.80 -2172.84 -2177.03 -2180.67 -2191.12 -2196.79 -2201.22 -2203.03 -2205.31 -2216.74 -2231.29 -2235.96 -2231.48 -2227.17 -2226.10 -2224.90 -2223.33 -2223.70 -2213.65 -2207.78 -2199.79 -2192.66 -2182.79 -2178.13 -2151.32 -2115.92 -1949.73 -1817.80 -1660.11 -1350.73 -1296.06 -1027.89 -844.68 -745.45 -449.49 -436.47 -350.12 -343.91 -343.86 -401.87 -380.59 -293.21 -294.50 -265.75 -222.72 -211.21 -181.11 -135.72 -109.03 -86.44 -58.70 -34.70 -9.43 14.30 36.91 63.79 87.58 85.04 106.61 94.01 90.16 85.31 86.04 89.83 90.10 89.10 89.70 89.97 89.98 88.60 87.89 88.85 119.64 170.78 225.31 240.98 245.74 269.05 293.19 328.11 327.49 315.75 259.12 257.09 249.52 236.33 204.65 180.71 128.44 74.17 20.31 -80.33 -191.77 -208.82 -93.18 -181.75 -199.26 -350.53 -426.93 -678.31 -914.84 -1097.22 -1295.69 -1399.44 -1575.87 -1718.13 -1793.70 -1814.79 -1814.48 -1808.20 -1800.86 -1795.84 -1808.66 -1823.77 -1865.95 -1892.86 -1904.53 -1909.43 -1931.22 -2013.96 -2421.46 -3229.22 -3636.10 -3841.28 -3856.00 -3859.75 -3862.59 -3867.69 -3876.10 -3876.16
-2038.95 -2038.89 -2044.78 -2046.39 -2051.12 -2056.34 -2075.81 -2105.58 -2137.71 -2167.90 -2174.14 -2179.65 -2184.64 -2186.75 -2195.75 -2204.90 -2208.65 -2209.92 -2214.31 -2219.38 -2228.68 -2234.88 -2234.28 -2233.80 -2230.46 -2225.63 -2225.29 -2221.58 -2221.45 -2216.21 -2210.42 -2204.83 -2192.09 -2184.66 -2177.00 -2168.51 -2150.45 -2114.87 -2031.92 -1938.78 -1900.74 -1585.86 -1490.31 -1375.35 -1044.53 -815.84 -616.65 -503.42 -411.71 -421.02 -440.15 -473.43 -409.53 -311.02 -280.18 -236.46 -223.87 -185.50 -127.19 -102.57 -77.14 -56.60 -24.91 -6.25 11.74 26.27 40.29 45.50 61.02 77.03 76.91 81.43 82.72 83.71 87.62 88.51 88.02 88.07 88.10 88.22 87.93 87.16 87.87 113.54 152.29 180.28 214.79 225.16 226.79 220.14 263.81 265.56 246.93 246.57 247.98 240.73 230.45 190.28 149.84 75.89 18.52 -83.54 -194.65 -274.18 -345.60 -266.60 -276.00 -447.68 -581.74 -739.36 -917.47 -1232.12 -1325.36 -1359.83 -1557.52 -1753.07 -1769.22 -1798.02 -1816.49 -1816.40 -1817.61 -1815.89 -1817.75 -1818.62 -1836.76 -1880.50 -1901.13 -1913.18 -1914.59 -1929.72 -2107.58 -2557.43 -3098.71 -3670.08 -3840.91 -3855.33 -3866.57 -3869.59 -3873.28 -3877.34 -3877.40
-2044.44 -2044.39 -2047.39 -2051.26 -2058.15 -2068.33 -2086.31 -2115.24 -2144.49 -2169.79 -2180.72 -2187.31 -2187.83 -2192.40 -2198.12 -2210.24 -2214.79 -2216.91 -2218.38 -2222.90 -2223.93 -2215.36 -2227.37 -2235.65 -2229.38 -2225.95 -2226.00 -2223.22 -2220.79 -2219.64 -2214.95 -2207.63 -2194.96 -2186.08 -2179.20 -2161.03 -2151.26 -2136.35 -2103.09 -2072.06 -1984.92 -1924.51 -1860.47 -1698.59 -1481.61 -1152.73 -848.27 -772.63 -668.90 -618.19 -578.45 -545.26 -459.54 -375.47 -341.05 -292.39 -242.78 -207.71 -131.73 -83.71 -60.24 -45.64 -16.06 -3.25 15.04 28.05 40.92 50.94 59.33 68.02 72.90 78.71 81.41 83.57 85.55 85.54 87.01 86.97 86.51 86.85 86.51 86.37 87.92 88.43 117.54 129.50 177.68 189.67 197.08 205.12 217.58 224.31 237.80 231.13 227.70 216.42 210.70 142.03 137.23 56.21 26.20 -115.98 -216.34 -316.37 -373.13 -339.93 -418.48 -515.99 -716.53 -914.03 -1046.54 -1222.36 -1384.87 -1505.47 -1631.15 -1758.52 -1789.44 -1804.75 -1817.97 -1822.36 -1827.28 -1832.10 -1832.83 -1836.16 -1859.47 -1891.22 -1913.37 -1922.51 -1924.18 -1944.61 -2079.89 -2718.96 -3224.88 -3678.56 -3808.04 -3837.05 -3860.11 -3863.50 -3875.59 -3878.07 -3878.49
-2060.18 -2060.14 -2073.70 -2083.35 -2081.45 -2083.22 -2106.79 -2122.35 -2144.44 -2171.06 -2183.20 -2186.37 -2190.04 -2192.60 -2197.25 -2205.43 -2205.21 -2209.98 -2208.99 -2215.69 -2219.92 -2212.70 -2228.95 -2234.60 -2227.93 -2225.85 -2225.58 -2221.62 -2217.71 -2216.84 -2211.42 -2208.28 -2200.06 -2191.82 -2181.75 -2164.21 -2154.02 -2132.78 -2127.79 -2106.29 -2074.66 -2053.24 -2025.63 -1958.47 -1905.55 -1594.88 -1411.56 -1123.88 -928.84 -847.36 -702.56 -592.03 -554.19 -407.84 -375.18 -314.32 -249.72 -194.21 -129.87 -69.53 -49.40 -29.24 -14.63 6.20 20.50 34.68 41.73 52.68 62.62 67.09 71.66 75.28 78.52 80.86 82.93 84.57 85.56 85.55 85.37 85.57 85.30 84.79 83.82 83.85 83.39 94.84 131.24 148.09 133.48 132.00 133.58 142.77 189.36 204.19 199.90 183.50 169.04 101.49 59.52 24.76 -15.86 -99.12 -217.94 -311.59 -398.09 -442.43 -519.66 -687.17 -828.91 -1025.32 -1219.36 -1315.30 -1517.11 -1630.05 -1713.38 -1773.73 -1802.99 -1818.17 -1823.40 -1829.45 -1836.07 -1846.55 -1854.51 -1866.70 -1878.34 -1905.69 -1935.52 -1937.72 -1946.50 -1956.26 -2167.91 -2603.39 -3315.92 -3591.70 -3776.27 -3841.72 -3854.13 -3860.79 -3864.61 -3879.10 -3879.16
-2094.81 -2099.68 -2101.87 -2108.73 -2113.61 -2122.39 -2133.91 -2140.02 -2159.14 -2167.98 -2173.98 -2179.28 -2181.77 -2185.88 -2188.03 -2191.57 -2190.35 -2192.91 -2194.19 -2195.32 -2203.32 -2227.65 -2233.57 -2234.49 -2226.89 -2225.23 -2224.87 -2220.16 -2218.37 -2214.79 -2212.48 -2210.37 -2201.67 -2194.17 -2185.63 -2165.47 -2145.84 -2134.60 -2118.04 -2102.05 -2076.53 -2049.21 -2007.63 -1965.86 -1875.61 -1801.31 -1609.36 -1459.25 -1294.07 -1130.90 -860.02 -780.72 -650.72 -493.07 -439.15 -360.38 -266.98 -223.47 -135.20 -84.63 -32.24 -15.10 -3.26 14.46 24.71 32.71 41.88 53.33 59.30 68.11 69.89 72.90 75.90 78.87 80.55 82.29 83.74 83.38 82.87 83.22 83.16 82.84 80.98 80.26 78.98 80.49 92.19 96.25 103.30 95.72 75.64 88.11 113.42 146.61 143.71 119.35 115.13 67.49 49.55 -9.99 -121.70 -164.47 -267.07 -435.05 -491.15 -553.83 -700.79 -832.66 -1066.34 -1137.21 -1342.73 -1482.37 -1599.11 -1678.51 -1734.99 -1792.56 -1818.02 -1825.11 -1826.18 -1833.71 -1846.32 -1851.83 -1865.97 -1879.57 -1891.30 -1932.30 -1942.47 -1953.90 -1975.07 -2013.95 -2191.11 -2369.20 -2839.24 -3453.77 -3733.81 -3825.82 -3831.36 -3847.41 -3865.11 -3879.77 -3879.83
-2133.28 -2138.33 -2135.66 -2138.21 -2150.59 -2158.23 -2165.07 -2164.71 -2162.10 -2161.71 -2166.48 -2171.59 -2173.82 -2175.61 -2175.48 -2169.47 -2166.58 -2166.64 -2165.55 -2163.80 -2188.61 -2217.22 -2229.56 -2235.05 -2225.33 -2224.42 -2224.78 -2223.66 -2221.36 -2217.80 -2218.24 -2210.99 -2203.00 -2193.23 -2180.20 -2158.74 -2138.39 -2126.27 -2120.64 -2107.62 -2078.52 -2059.71 -2022.46 -1942.08 -1878.33 -1773.37 -1660.05 -1543.89 -1360.67 -1199.28 -1034.30 -924.24 -672.31 -581.32 -456.83 -375.90 -287.02 -257.28 -161.31 -94.70 -46.09 -19.29 -1.88 11.85 24.86 29.58 43.39 49.55 57.91 64.08 68.75 69.27 73.67 77.08 78.34 80.76 81.13 80.48 79.06 80.72 81.11 80.66 80.06 78.31 77.95 77.35 80.09 77.20 77.33 72.71 68.37 74.33 82.22 72.81 91.73 87.56 66.45 22.12 -3.46 -113.49 -168.67 -205.90 -311.11 -446.29 -639.20 -654.96 -815.14 -1027.44 -1115.91 -1251.31 -1361.46 -1574.28 -1647.02 -1713.59 -1762.68 -1806.45 -1825.72 -1830.48 -1833.58 -1840.76 -1850.73 -1859.64 -1882.48 -1891.50 -1903.97 -1931.19 -1959.75 -1970.10 -1992.72 -2020.29 -2141.16 -2299.79 -2781.14 -3296.00 -3580.91 -3692.90 -3823.63 -3847.61 -3858.61 -3878.90 -3879.07
