-4744.46 -4744.37 -4757.00 -4765.30 -4769.60 -4775.17 -4799.14 -4898.94 -4964.51 -4993.09 -5003.09 -5003.22 -5004.21 -5010.61 -5009.81 -5009.05 -5006.94 -5008.88 -5012.84 -5013.16 -5012.83 -5011.17 -5006.75 -5007.30 -5009.16 -5004.57 -5008.79 -5012.59 -5027.95 -5033.14 -5042.28 -5041.18 -5043.36 -5044.56 -5042.93 -5034.10 -5032.50 -5026.57 -5029.77 -5034.77 -5044.03 -5059.76 -5074.05 -5082.30 -5095.44 -5105.76 -5114.13 -5117.17 -5127.85 -5130.71 -5139.37 -5140.72 -5144.51 -5143.30 -5143.27 -5141.36 -5140.96 -5140.20 -5128.69 -5121.24 -5110.59 -5106.78 -5099.36 -5093.90 -5083.43 -5078.18 -5074.15 -5046.59 -5030.94 -5023.63 -4954.21 -4716.23 -4462.01 -4039.46 -3767.89 -3548.99 -3317.24 -3305.45 -3036.25 -2484.84 -2288.44 -1936.94 -1924.75 -2565.09 -4039.08 -6843.19 -6845.18 -4554.36 -1511.93 -1018.64 -1172.86 -1756.26 -2602.86 -3193.23 -2963.40 -2444.59 -2336.15 -2352.50 -2185.22 -1972.80 -1756.57 -1450.38 -1251.90 -1464.34 -1813.42 -2313.12 -3108.77 -3557.78 -6799.32 -8249.12 -8196.99 -8404.53 -8828.92 -8921.24 -8932.62 -8917.35 -8835.65 -7762.49 -6296.46 -4530.10 -4253.74 -4167.82 -4184.60 -4226.86 -4251.78 -4270.04 -4278.67 -4279.74 -4276.11 -4265.57 -4249.16 -4232.96 -4200.27 -4174.64 -4147.28 -4118.90 -4089.90 -4061.26 -4038.80 -4024.15 -4021.90
-4727.45 -4727.37 -4740.33 -4747.51 -4752.89 -4757.26 -4768.51 -4799.58 -4889.58 -4958.75 -4983.52 -4991.05 -4995.38 -4999.97 -5002.24 -5002.39 -5005.33 -5007.50 -5011.46 -5012.81 -5013.74 -5014.12 -5016.54 -5018.40 -5016.85 -5013.37 -5014.66 -5015.76 -5019.10 -5020.52 -5020.76 -5020.58 -5021.58 -5027.57 -5024.48 -5024.86 -5018.21 -5018.76 -5022.09 -5031.19 -5039.12 -5050.13 -5060.22 -5067.35 -5083.05 -5087.13 -5099.18 -5105.78 -5115.43 -5120.02 -5125.93 -5130.28 -5137.12 -5135.93 -5137.34 -5134.51 -5134.47 -5134.71 -5128.15 -5115.34 -5101.41 -5102.70 -5090.88 -5086.23 -5078.36 -5071.29 -5066.74 -5040.22 -5041.51 -5014.80 -4946.34 -4664.59 -4283.61 -3798.07 -3518.15 -3153.47 -3063.86 -3022.52 -2731.06 -2358.98 -2087.48 -1851.26 -1871.88 -2386.20 -4860.45 -6304.95 -6568.69 -4680.80 -1323.52 -1028.64 -1205.54 -1734.55 -2492.15 -2968.94 -2743.60 -2216.69 -2197.14 -2080.58 -1985.88 -1832.85 -1790.87 -1388.74 -1362.50 -1510.46 -1796.75 -2275.19 -2671.92 -3634.16 -5816.80 -7475.37 -8048.68 -8490.11 -8723.82 -8908.64 -8915.21 -8886.80 -8689.32 -8168.54 -6012.27 -4796.64 -4259.60 -4194.31 -4191.93 -4223.70 -4261.31 -4276.68 -4284.90 -4288.53 -4286.03 -4273.79 -4258.89 -4235.74 -4206.91 -4189.16 -4151.95 -4120.07 -4095.23 -4065.03 -4042.18 -4024.10 -4024.17
-4708.59 -4708.51 -4721.19 -4731.52 -4740.85 -4746.68 -4755.41 -4790.49 -4843.78 -4938.31 -4954.75 -4969.00 -4983.77 -4988.28 -4990.61 -4995.31 -5000.93 -5006.38 -5008.34 -5011.45 -5014.00 -5015.48 -5019.73 -5021.67 -5020.88 -5018.98 -5016.23 -5014.26 -5009.82 -5003.56 -4997.91 -4998.78 -5004.69 -4997.67 -5007.68 -5004.03 -5007.92 -5012.29 -5017.89 -5027.46 -5034.70 -5039.94 -5046.33 -5055.62 -5066.13 -5070.63 -5083.19 -5089.30 -5099.10 -5103.50 -5117.04 -5114.61 -5124.89 -5126.68 -5129.84 -5126.98 -5121.63 -5115.62 -5109.87 -5109.67 -5098.38 -5096.03 -5087.11 -5079.28 -5077.39 -5065.14 -5060.04 -5046.64 -5037.42 -4986.26 -4822.90 -4364.83 -4018.88 -3590.88 -3283.27 -2980.18 -2862.22 -2842.93 -2660.28 -2377.91 -2062.79 -1897.71 -1961.25 -2417.98 -4663.73 -6481.78 -6295.69 -4027.70 -1274.54 -961.44 -1184.81 -1595.55 -2141.97 -2016.04 -2203.39 -2031.43 -2018.10 -1868.37 -1793.35 -1804.38 -1737.73 -1363.30 -1273.46 -1667.49 -1958.09 -2571.19 -3197.55 -5111.55 -6472.64 -7931.33 -8196.29 -8408.01 -8752.36 -8867.20 -8869.46 -8843.52 -8704.44 -7927.10 -6898.16 -4849.08 -4368.58 -4243.38 -4204.30 -4222.81 -4259.22 -4278.72 -4291.37 -4292.97 -4287.48 -4278.69 -4259.69 -4238.42 -4217.75 -4184.26 -4148.65 -4121.19 -4090.61 -4070.03 -4044.31 -4023.97 -4024.04
-4689.41 -4689.50 -4698.04 -4709.86 -4721.98 -4725.08 -4745.48 -4767.89 -4828.30 -4885.00 -4919.98 -4933.96 -4948.85 -4981.25 -4985.90 -4988.82 -4996.13 -5001.83 -5004.41 -5009.18 -5013.46 -5016.10 -5019.16 -5021.05 -5020.80 -5019.41 -5015.49 -5011.61 -5002.48 -4992.72 -4986.94 -4984.62 -4976.53 -4977.30 -4981.67 -4992.09 -4999.23 -5005.95 -5013.20 -5022.12 -5028.32 -5034.45 -5038.31 -5037.35 -5046.82 -5046.75 -5065.71 -5076.00 -5078.97 -5089.73 -5095.63 -5106.02 -5109.78 -5114.60 -5115.46 -5111.49 -5106.40 -5105.01 -5097.72 -5098.12 -5093.28 -5094.06 -5080.51 -5068.98 -5069.03 -5047.66 -5040.62 -5030.66 -5026.66 -4955.86 -4847.51 -4434.14 -3827.51 -3450.18 -3051.69 -2935.10 -2776.09 -2740.49 -2483.33 -2342.94 -2057.93 -1914.60 -1904.92 -2456.65 -4500.59 -6284.47 -5890.64 -3348.81 -1393.50 -779.84 -863.17 -1198.56 -1373.66 -1738.25 -1641.58 -1755.72 -1860.31 -1772.41 -1693.99 -1724.19 -1724.26 -1260.09 -1350.22 -1677.82 -2107.22 -2548.38 -3657.56 -5483.01 -7387.23 -7931.23 -8175.53 -8369.69 -8750.23 -8781.17 -8793.76 -8791.96 -8724.52 -8449.90 -6768.29 -5066.94 -4433.47 -4253.73 -4210.50 -4230.71 -4250.35 -4277.52 -4288.22 -4294.83 -4289.69 -4276.31 -4258.86 -4235.88 -4218.39 -4181.90 -4154.46 -4123.76 -4089.25 -4069.56 -4045.28 -4023.30 -4023.37
-4673.27 -4673.19 -4685.42 -4694.60 -4704.36 -4715.49 -4730.66 -4733.60 -4764.41 -4801.09 -4843.45 -4859.98 -4879.79 -4935.15 -4974.89 -4980.30 -4991.67 -4998.02 -4999.55 -5003.69 -5007.77 -5012.55 -5016.53 -5017.57 -5016.53 -5013.43 -5010.21 -5007.24 -4990.79 -4985.18 -4973.22 -4967.32 -4964.26 -4965.77 -4969.31 -4973.83 -4988.83 -4995.79 -5007.58 -5013.36 -5019.19 -5025.85 -5027.83 -5032.20 -5033.81 -5039.37 -5048.95 -5058.83 -5067.87 -5083.47 -5090.94 -5098.68 -5102.88 -5106.09 -5107.54 -5106.52 -5099.27 -5095.70 -5093.45 -5092.46 -5094.05 -5083.76 -5072.28 -5059.65 -5046.73 -5041.47 -5031.61 -5022.53 -4988.36 -4809.75 -4547.23 -4092.62 -3798.09 -3517.91 -3188.53 -2712.77 -2661.35 -2467.24 -2352.03 -2226.46 -2139.33 -2071.15 -1980.98 -2302.03 -4653.18 -6157.44 -5390.37 -2175.27 -693.30 -486.43 -629.34 -921.73 -939.41 -1054.88 -1365.21 -1601.40 -1633.96 -1567.37 -1653.85 -1668.38 -1651.78 -1448.53 -1482.64 -1742.82 -2159.54 -2514.46 -3524.38 -5173.06 -6940.08 -7883.94 -8187.41 -8465.04 -8638.81 -8745.33 -8733.74 -8756.99 -8712.62 -8327.66 -6575.01 -5129.97 -4599.13 -4276.15 -4237.45 -4239.41 -4252.45 -4275.74 -4287.00 -4288.37 -4280.98 -4272.87 -4255.14 -4235.98 -4206.33 -4173.18 -4147.99 -4112.94 -4086.98 -4061.35 -4044.59 -4021.86 -4021.93
-4657.28 -4657.20 -4668.98 -4680.47 -4690.44 -4701.44 -4710.02 -4716.73 -4730.95 -4760.40 -4773.80 -4788.86 -4799.37 -4903.56 -4923.79 -4965.08 -5024.52 -5005.90 -4994.66 -4996.80 -5004.09 -5006.76 -5009.23 -5012.09 -5011.93 -5007.33 -5005.38 -4998.58 -4987.64 -4978.76 -4967.98 -4959.94 -4954.04 -4956.31 -4963.47 -4972.18 -4981.45 -4993.43 -5001.20 -5010.05 -5016.61 -5021.34 -5024.68 -5023.91 -5024.68 -5032.96 -5040.88 -5054.24 -5063.66 -5077.26 -5090.00 -5098.07 -5101.13 -5104.02 -5104.69 -5103.23 -5098.89 -5095.65 -5089.79 -5089.51 -5088.65 -5080.11 -5066.32 -5054.10 -5036.41 -5025.80 -5003.34 -5003.78 -4944.74 -4672.29 -4371.64 -4102.62 -3666.85 -3506.65 -3102.36 -2774.05 -2551.58 -2337.58 -2221.82 -2174.76 -2123.29 -2024.50 -2064.13 -2420.67 -4140.73 -5095.94 -4252.47 -1300.52 -459.73 -245.17 -431.94 -601.29 -721.67 -863.96 -1154.69 -1350.76 -1484.59 -1529.69 -1580.41 -1585.07 -1510.84 -1319.28 -1453.14 -1722.57 -2440.19 -3616.86 -4857.30 -7279.01 -7914.16 -8082.87 -8253.15 -8481.59 -8627.16 -8716.56 -8728.31 -8740.36 -8691.76 -8339.95 -7218.71 -5528.68 -4626.27 -4297.61 -4245.87 -4238.97 -4250.94 -4269.88 -4278.88 -4283.62 -4268.54 -4264.43 -4250.34 -4222.09 -4197.21 -4174.87 -4127.28 -4113.75 -4080.60 -4054.91 -4040.52 -4019.58 -4019.65
-4641.50 -4641.42 -4653.72 -4662.32 -4675.83 -4686.11 -4699.96 -4712.32 -4724.70 -4736.26 -4746.22 -4741.95 -4754.26 -4799.27 -4880.78 -4944.02 -4996.12 -4982.78 -4979.46 -4985.92 -4993.34 -4998.12 -5004.41 -5003.52 -5004.21 -5000.92 -4999.51 -4990.60 -4980.66 -4967.40 -4962.56 -4955.02 -4950.08 -4954.05 -4961.47 -4971.41 -4981.06 -4990.75 -5001.37 -5011.24 -5015.80 -5019.36 -5024.20 -5021.18 -5022.26 -5029.98 -5037.76 -5050.13 -5062.66 -5076.61 -5086.74 -5094.94 -5101.00 -5103.33 -5104.24 -5102.07 -5097.28 -5093.19 -5089.67 -5084.63 -5077.47 -5073.33 -5053.96 -5040.87 -5027.81 -5013.24 -4984.12 -4940.44 -4818.58 -4495.70 -4195.82 -3814.09 -3429.27 -3147.83 -2979.11 -2717.51 -2473.74 -2277.73 -2152.93 -2089.17 -2009.21 -1984.31 -2003.97 -2238.77 -2800.24 -3779.28 -2029.33 -553.70 -65.14 -52.87 -154.60 -465.98 -686.79 -885.03 -1160.40 -1351.27 -1364.34 -1444.05 -1510.48 -1487.80 -1394.49 -1155.58 -1380.11 -1886.38 -2718.02 -4709.85 -5222.39 -7761.08 -8302.95 -8211.97 -8430.09 -8609.07 -8666.37 -8715.25 -8721.40 -8721.93 -8706.69 -8580.43 -7976.37 -5801.18 -4585.85 -4301.11 -4247.07 -4242.91 -4250.28 -4270.22 -4273.66 -4269.53 -4262.98 -4253.61 -4238.23 -4213.69 -4183.11 -4163.87 -4128.17 -4104.42 -4075.29 -4051.02 -4036.91 -4016.86 -4016.93
-4624.48 -4624.65 -4634.78 -4646.23 -4658.04 -4674.94 -4686.35 -4704.92 -4720.65 -4732.73 -4748.58 -4746.37 -4752.69 -4769.18 -4831.82 -4877.34 -4916.27 -4962.84 -4973.60 -4977.55 -4984.59 -4986.79 -4990.92 -4994.36 -4994.77 -4993.73 -4989.07 -4985.22 -4973.24 -4965.01 -4957.86 -4949.90 -4946.05 -4953.65 -4960.87 -4973.02 -4980.97 -4992.62 -5002.18 -5012.09 -5018.12 -5022.07 -5023.17 -5023.48 -5025.66 -5029.80 -5039.49 -5048.85 -5062.17 -5074.71 -5087.05 -5092.32 -5100.62 -5103.09 -5103.72 -5100.76 -5096.45 -5092.23 -5085.43 -5081.31 -5071.00 -5056.87 -5040.12 -5031.13 -5017.82 -5000.66 -4985.02 -4896.91 -4683.35 -4410.21 -4130.84 -3662.32 -3373.55 -3044.68 -2763.10 -2547.14 -2405.92 -2208.83 -2037.98 -1912.56 -1870.18 -1895.27 -1865.65 -1979.64 -2464.30 -2651.49 -1115.12 -152.09 127.36 137.86 62.95 -324.23 -720.37 -1040.70 -1177.38 -1278.05 -1311.54 -1387.47 -1481.79 -1480.90 -1233.34 -1156.98 -1518.62 -2138.87 -2826.49 -4357.64 -5794.40 -7327.73 -7913.69 -8071.96 -8270.90 -8622.53 -8669.80 -8706.53 -8694.83 -8692.60 -8674.19 -8422.16 -7717.24 -6097.57 -4656.47 -4230.57 -4208.95 -4228.03 -4247.78 -4261.30 -4264.54 -4263.10 -4250.11 -4239.88 -4227.04 -4200.61 -4175.61 -4149.72 -4126.80 -4097.33 -4070.44 -4044.93 -4032.46 -4015.09 -4015.16
-4608.94 -4608.87 -4620.35 -4629.86 -4637.23 -4652.09 -4667.44 -4687.15 -4712.62 -4732.79 -4747.69 -4759.99 -4764.07 -4775.28 -4764.20 -4790.17 -4880.47 -4932.74 -4961.10 -4969.59 -4973.13 -4975.26 -4978.11 -4977.38 -4981.92 -4984.34 -4980.52 -4976.90 -4967.92 -4958.28 -4953.50 -4948.50 -4947.39 -4952.27 -4962.71 -4974.07 -4990.33 -4997.79 -5006.14 -5014.37 -5021.70 -5024.81 -5024.06 -5023.74 -5024.90 -5027.43 -5038.08 -5046.77 -5060.91 -5072.73 -5084.37 -5090.97 -5098.68 -5102.75 -5102.23 -5098.56 -5095.80 -5087.87 -5082.40 -5070.35 -5065.33 -5054.74 -5042.64 -5028.67 -5012.03 -4995.46 -4969.58 -4860.97 -4663.72 -4316.92 -4035.87 -3691.35 -3222.84 -3087.22 -2665.18 -2355.19 -2240.36 -2022.87 -1881.97 -1752.77 -1538.64 -1579.38 -1609.71 -1531.79 -1498.39 -1106.45 -558.80 156.42 159.78 157.80 146.78 -227.20 -814.21 -1052.97 -1153.26 -1196.68 -1247.74 -1339.35 -1404.52 -1401.36 -1287.06 -1391.80 -1624.56 -2139.29 -3301.59 -3906.93 -5042.61 -5770.19 -6165.85 -6949.06 -8235.13 -8484.75 -8633.86 -8678.29 -8669.70 -8695.25 -8652.78 -8438.10 -7882.46 -6399.01 -4721.08 -4160.53 -4133.81 -4170.34 -4242.06 -4251.35 -4254.01 -4253.14 -4239.84 -4228.55 -4209.59 -4192.60 -4164.70 -4138.15 -4115.24 -4085.06 -4063.48 -4044.41 -4030.08 -4016.51 -4014.58
-4595.30 -4595.70 -4604.07 -4612.36 -4623.62 -4640.09 -4655.24 -4679.15 -4696.37 -4726.09 -4739.28 -4753.61 -4759.09 -4767.40 -4758.76 -4758.99 -4789.27 -4847.86 -4921.64 -4957.77 -4961.55 -4961.89 -4964.14 -4968.19 -4972.74 -4974.27 -4970.19 -4967.60 -4962.21 -4956.85 -4953.32 -4948.16 -4947.97 -4953.97 -4964.75 -4976.33 -4989.16 -5002.06 -5010.64 -5016.07 -5023.73 -5026.17 -5025.24 -5022.81 -5021.53 -5026.27 -5035.20 -5048.87 -5058.29 -5068.76 -5083.10 -5089.37 -5096.46 -5100.03 -5100.20 -5097.13 -5089.55 -5080.47 -5074.19 -5066.26 -5056.51 -5049.92 -5034.29 -5020.92 -4997.74 -4964.51 -4933.52 -4831.14 -4589.86 -4320.60 -4027.49 -3620.07 -3250.75 -2898.26 -2646.20 -2289.24 -2129.53 -2003.52 -1781.60 -1460.08 -1380.48 -1497.76 -1471.47 -1196.41 -1091.77 -747.37 -82.95 159.59 192.87 186.66 70.91 -262.07 -666.23 -952.94 -1014.03 -1090.17 -1173.41 -1261.46 -1343.43 -1355.95 -1354.61 -1500.15 -1736.02 -2138.92 -2752.50 -3548.42 -4326.52 -4840.89 -5539.17 -6758.13 -7752.45 -8376.26 -8586.49 -8618.77 -8635.61 -8647.31 -8644.19 -8510.73 -8221.72 -6250.40 -4609.51 -4019.13 -4008.66 -4144.06 -4214.52 -4228.09 -4248.33 -4242.25 -4232.08 -4213.69 -4198.67 -4177.01 -4152.65 -4133.74 -4107.13 -4081.38 -4062.67 -4042.24 -4026.55 -4014.24 -4014.31
-4585.55 -4585.95 -4592.70 -4602.71 -4612.18 -4626.10 -4654.70 -4667.80 -4692.11 -4714.65 -4730.19 -4739.42 -4748.13 -4757.69 -4757.90 -4759.20 -4755.83 -4803.59 -4868.09 -4923.85 -4955.62 -4956.62 -4957.85 -4959.07 -4963.86 -4967.68 -4966.99 -4964.11 -4959.39 -4956.79 -4954.34 -4952.76 -4952.03 -4960.25 -4968.47 -4984.79 -4997.59 -5004.35 -5011.94 -5018.62 -5024.22 -5029.81 -5029.25 -5023.43 -5021.27 -5026.10 -5033.78 -5041.60 -5056.38 -5067.96 -5079.53 -5090.28 -5094.08 -5098.18 -5098.49 -5094.43 -5088.11 -5076.09 -5070.76 -5060.08 -5050.86 -5041.42 -5026.44 -5006.95 -4986.74 -4956.45 -4924.83 -4735.70 -4544.89 -4200.02 -3950.02 -3434.52 -3149.29 -2778.98 -2505.98 -2159.35 -1998.76 -1758.03 -1593.40 -1413.11 -1169.76 -926.53 -1033.28 -839.69 -637.45 -387.13 3.73 169.35 190.91 181.74 157.23 -294.83 -591.60 -760.81 -897.66 -927.72 -1016.74 -1175.78 -1271.63 -1354.13 -1270.93 -1293.08 -1494.35 -2052.31 -2659.65 -3605.49 -4130.13 -4966.44 -6088.26 -7098.83 -8180.99 -8346.46 -8490.91 -8576.18 -8622.74 -8630.53 -8614.99 -8561.44 -8154.99 -7030.35 -4594.52 -3941.26 -4020.40 -4080.06 -4156.75 -4203.43 -4233.71 -4232.96 -4217.27 -4200.38 -4184.50 -4159.56 -4142.29 -4123.02 -4099.86 -4080.90 -4057.75 -4039.32 -4027.90 -4015.47 -4015.53
-4578.13 -4578.06 -4584.97 -4593.53 -4603.27 -4615.48 -4639.19 -4651.67 -4682.83 -4699.03 -4717.48 -4729.78 -4736.84 -4747.63 -4747.20 -4745.96 -4739.68 -4765.55 -4795.13 -4873.38 -4942.98 -4956.11 -4956.25 -4954.08 -4957.40 -4961.80 -4963.40 -4962.58 -4961.70 -4962.93 -4963.40 -4959.06 -4958.22 -4963.42 -4979.25 -4989.39 -5004.20 -5007.71 -5017.29 -5020.90 -5025.87 -5034.03 -5033.40 -5026.81 -5023.24 -5026.48 -5032.37 -5045.25 -5058.71 -5069.95 -5078.07 -5091.75 -5092.02 -5093.49 -5094.63 -5091.06 -5084.23 -5072.64 -5066.29 -5055.88 -5043.48 -5034.47 -5015.35 -4993.02 -4972.93 -4961.40 -4892.17 -4657.30 -4519.59 -4151.85 -3811.19 -3537.24 -3038.23 -2694.00 -2368.26 -2171.84 -1815.34 -1681.82 -1408.30 -1179.78 -1006.39 -822.16 -727.34 -582.29 -523.13 -352.57 -46.35 136.67 165.18 169.02 -7.69 -394.24 -540.35 -609.16 -717.49 -698.29 -887.17 -1108.38 -1185.06 -1082.74 -912.34 -1041.93 -1639.86 -1953.24 -2548.17 -3497.70 -4218.11 -5217.01 -6880.12 -7654.36 -8266.26 -8439.40 -8512.06 -8565.45 -8602.06 -8592.07 -8563.52 -8539.94 -8110.26 -6759.41 -5114.46 -3936.41 -3942.49 -4058.17 -4090.37 -4146.13 -4221.08 -4220.43 -4207.39 -4196.34 -4172.49 -4155.65 -4140.69 -4121.52 -4091.40 -4078.66 -4055.40 -4047.30 -4027.53 -4020.41 -4018.37
-4574.75 -4574.69 -4584.20 -4588.02 -4598.32 -4608.47 -4631.70 -4647.79 -4674.46 -4686.03 -4705.60 -4711.08 -4721.89 -4727.87 -4735.38 -4729.06 -4731.54 -4740.60 -4753.45 -4825.17 -4902.91 -4947.44 -4952.68 -4950.64 -4952.39 -4955.10 -4958.60 -4961.15 -4967.11 -4969.70 -4969.68 -4969.04 -4971.36 -4978.31 -4986.27 -5001.52 -5007.83 -5015.87 -5020.03 -5026.24 -5029.76 -5035.09 -5034.08 -5031.09 -5028.29 -5028.31 -5036.44 -5048.98 -5059.67 -5070.62 -5083.37 -5090.58 -5094.36 -5094.13 -5091.67 -5087.59 -5081.14 -5070.10 -5061.11 -5048.26 -5036.11 -5025.18 -5000.09 -4983.44 -4966.05 -4950.62 -4885.47 -4732.81 -4472.41 -4120.34 -3725.48 -3465.09 -3078.64 -2661.29 -2439.63 -2255.08 -1979.93 -1815.04 -1407.84 -1130.70 -842.65 -608.87 -514.02 -494.25 -489.03 -319.46 -121.57 51.26 15.00 29.40 -126.89 -412.45 -456.65 -455.52 -488.16 -626.30 -704.51 -963.32 -1000.42 -938.95 -891.55 -1141.24 -1550.57 -2380.95 -2884.79 -3229.56 -4519.48 -5773.37 -7165.40 -8172.15 -8412.70 -8481.95 -8516.52 -8492.08 -8535.82 -8508.61 -8482.24 -8466.22 -8149.99 -6916.72 -4632.52 -3819.85 -3760.45 -3812.81 -3955.74 -4150.61 -4211.75 -4213.54 -4201.94 -4190.47 -4170.25 -4149.99 -4130.17 -4114.85 -4090.81 -4079.46 -4057.63 -4042.51 -4033.63 -4022.04 -4022.11
-4575.55 -4576.56 -4581.97 -4585.25 -4594.60 -4601.18 -4624.61 -4639.30 -4656.46 -4675.10 -4689.54 -4697.02 -4703.34 -4708.99 -4714.99 -4717.72 -4720.97 -4726.96 -4728.07 -4764.16 -4843.74 -4920.13 -4941.45 -4948.57 -4944.95 -4950.98 -4954.62 -4963.02 -4972.95 -4976.72 -4986.79 -4986.89 -4989.89 -4992.25 -5002.52 -5008.79 -5014.82 -5020.61 -5025.68 -5031.90 -5038.19 -5040.70 -5042.02 -5039.09 -5035.65 -5034.82 -5042.76 -5053.90 -5065.82 -5077.46 -5086.12 -5091.93 -5094.68 -5092.60 -5089.92 -5086.32 -5076.81 -5068.47 -5059.31 -5049.78 -5027.68 -5013.52 -4992.09 -4974.00 -4952.53 -4930.52 -4904.68 -4785.96 -4355.18 -4100.77 -3642.69 -3393.90 -2993.95 -2711.28 -2459.54 -2220.93 -1981.87 -1722.92 -1502.63 -1114.82 -709.73 -543.65 -487.36 -493.26 -467.53 -259.39 -34.88 39.20 -52.69 -201.85 -256.71 -240.53 -150.38 -133.56 -258.66 -417.90 -445.83 -504.49 -702.22 -639.98 -837.15 -1141.66 -1685.09 -2192.77 -2752.50 -3637.08 -4640.20 -6169.02 -7631.41 -8132.41 -8273.57 -8359.44 -8449.81 -8413.44 -8408.25 -8386.01 -8364.73 -8300.79 -8131.74 -6986.59 -4692.77 -3550.42 -3466.82 -3613.64 -3934.81 -4125.30 -4183.87 -4196.79 -4196.32 -4185.47 -4170.15 -4154.79 -4125.67 -4111.41 -4093.24 -4082.30 -4058.27 -4047.27 -4037.46 -4029.27 -4027.09
-4574.31 -4575.06 -4580.82 -4586.01 -4594.18 -4602.00 -4614.89 -4628.00 -4652.63 -4661.60 -4673.63 -4685.72 -4694.04 -4701.62 -4702.35 -4701.80 -4710.78 -4727.66 -4728.66 -4726.61 -4777.98 -4871.99 -4922.97 -4934.13 -4935.86 -4940.75 -4949.21 -4962.36 -4980.59 -4985.71 -4988.70 -4993.16 -4999.44 -5004.54 -5007.41 -5017.61 -5022.73 -5029.80 -5034.19 -5039.51 -5043.98 -5045.97 -5049.56 -5050.77 -5043.05 -5044.19 -5049.53 -5059.60 -5069.06 -5085.25 -5094.53 -5096.56 -5098.26 -5094.72 -5091.74 -5084.87 -5076.59 -5061.22 -5054.07 -5041.98 -5021.24 -4991.03 -4981.91 -4967.32 -4956.09 -4917.27 -4894.61 -4777.59 -4508.69 -4237.73 -3825.66 -3440.49 -3201.88 -2850.16 -2630.01 -2229.92 -1898.33 -1666.34 -1409.92 -1046.51 -682.85 -533.16 -497.05 -227.70 -103.16 55.25 69.65 85.31 107.42 29.56 -22.76 137.99 148.72 131.26 -11.92 -195.15 -96.84 -114.75 -391.74 -381.83 -607.36 -1188.77 -1598.94 -2254.93 -3067.13 -3809.80 -4310.09 -6220.20 -7632.37 -7928.55 -8039.88 -8171.80 -8321.64 -8268.92 -8294.32 -8298.29 -8262.10 -8158.88 -7992.71 -5486.39 -4405.39 -3357.03 -3370.47 -3605.32 -3950.26 -4126.14 -4195.43 -4197.51 -4185.44 -4167.27 -4168.55 -4154.55 -4124.28 -4110.56 -4098.45 -4079.88 -4068.52 -4053.04 -4041.36 -4033.45 -4033.50
-4567.10 -4567.21 -4572.15 -4578.01 -4586.13 -4593.89 -4608.68 -4622.92 -4635.66 -4645.50 -4655.59 -4663.62 -4675.79 -4685.09 -4691.29 -4690.82 -4694.15 -4708.53 -4723.50 -4723.41 -4736.60 -4815.68 -4880.96 -4929.12 -4938.35 -4938.37 -4946.66 -4959.12 -4975.79 -4985.89 -4989.21 -4994.29 -5002.10 -5007.93 -5012.66 -5021.04 -5027.25 -5034.96 -5040.86 -5046.40 -5050.36 -5060.02 -5060.60 -5063.52 -5056.68 -5059.86 -5067.91 -5066.95 -5088.54 -5097.97 -5101.47 -5103.21 -5103.62 -5100.04 -5093.51 -5082.98 -5076.40 -5064.01 -5055.68 -5040.97 -5019.33 -4996.37 -4975.96 -4970.00 -4954.48 -4942.23 -4903.41 -4823.95 -4521.45 -4242.39 -3886.83 -3510.21 -3151.49 -2788.09 -2320.88 -1941.43 -1732.58 -1417.30 -1178.00 -811.88 -596.66 -511.70 -457.76 -105.61 42.62 89.50 112.68 122.46 126.34 138.31 164.09 170.36 168.90 169.34 158.44 58.16 70.12 34.73 4.86 -65.76 -371.56 -764.77 -1448.41 -2110.49 -2865.38 -3668.07 -4528.28 -6042.39 -7791.90 -8145.36 -8069.71 -7853.91 -8120.09 -8192.23 -8207.26 -8167.76 -8060.35 -8058.09 -7636.62 -5959.89 -4104.75 -3304.39 -3320.82 -3579.03 -3826.74 -4120.22 -4170.64 -4198.71 -4187.18 -4179.55 -4173.74 -4150.00 -4138.56 -4118.18 -4101.56 -4086.94 -4069.81 -4061.38 -4050.11 -4040.57 -4040.63
-4556.52 -4556.45 -4563.59 -4567.51 -4576.41 -4578.96 -4591.27 -4602.48 -4620.50 -4629.04 -4641.21 -4653.84 -4663.90 -4671.61 -4674.95 -4676.57 -4686.51 -4690.98 -4712.91 -4718.56 -4713.27 -4770.34 -4804.19 -4908.71 -4935.26 -4934.28 -4940.99 -4949.81 -4975.24 -4982.96 -4989.02 -4995.88 -5002.74 -5008.46 -5011.06 -4999.91 -4994.17 -5022.77 -5023.92 -5024.96 -5035.05 -5053.09 -5071.79 -5070.10 -5072.92 -5074.40 -5083.79 -5090.30 -5098.75 -5110.91 -5114.82 -5113.15 -5110.53 -5102.74 -5096.73 -5084.33 -5075.58 -5058.89 -5053.17 -5041.62 -5023.61 -5011.77 -4992.41 -4974.23 -4953.17 -4940.28 -4903.26 -4795.78 -4583.93 -4353.13 -3817.09 -3431.49 -2959.73 -2745.99 -2261.62 -1929.27 -1646.11 -1296.29 -980.49 -708.66 -559.81 -343.14 -64.62 65.12 102.53 119.00 125.39 129.94 154.18 182.98 205.76 199.98 195.22 192.11 177.92 145.40 136.90 123.45 114.58 -3.57 -13.27 -256.03 -1307.48 -1784.65 -2279.35 -3351.23 -3862.20 -5649.09 -5904.88 -6656.78 -7415.94 -7524.20 -7887.95 -8084.28 -8040.88 -7970.64 -7875.27 -7827.08 -7286.35 -5749.51 -3973.62 -3295.28 -3247.51 -3501.14 -3729.06 -4065.18 -4177.15 -4212.68 -4201.09 -4194.04 -4169.42 -4156.58 -4137.74 -4126.10 -4108.61 -4090.31 -4079.78 -4071.68 -4062.33 -4049.84 -4049.90
-4540.81 -4540.73 -4545.98 -4541.81 -4551.27 -4558.54 -4574.59 -4585.02 -4598.24 -4611.59 -4625.50 -4634.41 -4645.35 -4656.57 -4657.59 -4661.80 -4670.70 -4681.46 -4691.44 -4716.72 -4711.12 -4711.37 -4787.89 -4820.71 -4910.13 -4929.82 -4932.51 -4948.26 -4963.70 -4978.87 -4987.71 -4990.49 -4993.71 -4994.35 -4957.17 -4933.90 -4887.65 -4842.37 -4895.84 -4887.96 -4924.64 -4984.77 -5045.82 -5062.30 -5075.31 -5082.38 -5101.61 -5101.66 -5112.17 -5125.83 -5127.81 -5117.67 -5121.44 -5109.65 -5098.37 -5088.05 -5077.78 -5059.10 -5051.70 -5037.80 -5024.14 -5004.86 -4996.11 -4980.28 -4958.44 -4935.87 -4916.14 -4780.64 -4574.84 -4156.15 -3748.18 -3125.61 -2822.26 -2487.99 -2318.52 -1859.00 -1556.25 -1226.98 -924.43 -766.39 -465.23 68.77 98.17 108.78 116.77 125.27 146.91 177.30 198.54 209.62 225.81 238.37 239.36 235.24 218.91 190.94 174.69 135.75 115.20 -116.56 -50.05 5.35 -347.43 -1306.95 -1806.10 -1638.19 -1941.63 -3342.37 -2558.88 -4514.78 -6092.08 -7015.49 -7643.96 -7900.79 -7885.65 -7502.05 -7432.25 -7383.21 -6887.66 -5549.54 -3963.21 -3147.71 -3162.73 -3450.90 -3727.91 -3972.64 -4182.91 -4217.22 -4212.45 -4192.84 -4169.87 -4159.90 -4143.20 -4137.24 -4116.00 -4100.01 -4088.92 -4076.12 -4068.17 -4061.58 -4059.42
-4524.62 -4524.55 -4524.84 -4524.72 -4531.95 -4542.20 -4553.27 -4561.17 -4575.33 -4592.71 -4603.55 -4614.01 -4629.43 -4639.05 -4644.82 -4650.81 -4662.52 -4674.38 -4690.87 -4709.26 -4725.84 -4709.49 -4730.13 -4804.04 -4882.74 -4906.93 -4905.13 -4937.58 -4954.15 -4962.00 -4957.80 -4962.06 -4909.95 -4906.67 -4820.61 -4581.42 -4216.15 -4402.50 -4465.20 -4446.08 -4563.23 -4698.66 -4903.25 -4988.42 -5014.23 -5042.47 -5090.32 -5098.00 -5111.85 -5123.43 -5137.31 -5138.94 -5129.09 -5116.70 -5104.82 -5091.40 -5077.06 -5062.04 -5050.13 -5039.28 -5025.75 -5017.64 -5000.51 -4983.75 -4974.22 -4955.47 -4933.47 -4773.27 -4448.66 -4122.20 -3617.08 -3129.54 -2824.77 -2473.05 -2250.17 -1900.28 -1555.52 -1311.04 -953.95 -818.44 -251.13 75.94 118.75 143.35 156.10 151.25 180.68 216.94 229.92 257.04 272.89 288.93 286.73 252.63 250.88 224.12 170.69 118.66 91.41 -339.82 -695.37 -373.23 -78.25 -13.95 -105.85 -442.22 -852.16 -983.60 -1184.91 -2690.44 -4660.15 -6533.67 -7108.14 -7636.97 -7692.60 -7320.54 -6841.23 -6858.62 -6348.23 -5294.15 -3424.80 -2995.70 -3119.47 -3397.87 -3738.06 -4041.08 -4183.66 -4217.70 -4207.12 -4194.73 -4174.29 -4161.68 -4147.06 -4137.28 -4120.48 -4110.33 -4096.71 -4082.81 -4072.75 -4067.24 -4067.30
-4520.87 -4519.74 -4512.27 -4515.83 -4522.81 -4530.52 -4536.22 -4544.21 -4558.13 -4567.55 -4574.39 -4589.08 -4601.85 -4614.64 -4629.86 -4649.78 -4659.63 -4686.75 -4693.98 -4717.46 -4728.33 -4706.21 -4666.13 -4637.57 -4711.95 -4775.75 -4850.62 -4876.97 -4927.35 -4943.97 -4919.60 -4839.14 -4530.72 -4333.27 -4121.96 -3787.85 -3168.98 -3023.51 -3361.68 -3505.48 -3585.61 -3677.06 -4394.73 -4810.72 -4742.45 -5007.20 -5050.84 -5066.02 -5072.12 -5112.85 -5124.04 -5123.51 -5132.74 -5122.78 -5109.22 -5094.45 -5081.27 -5063.02 -5051.06 -5034.33 -5026.58 -5017.43 -4996.69 -4990.36 -4978.19 -4961.61 -4834.87 -4727.53 -4358.21 -4150.09 -3758.55 -3328.75 -2906.77 -2423.13 -2296.90 -1900.82 -1563.44 -1300.67 -967.91 -586.61 13.31 85.36 165.78 187.68 216.86 214.41 219.06 275.93 279.51 288.75 323.92 330.45 344.77 346.93 312.91 323.69 152.00 121.78 -268.64 -1142.91 -1809.76 -1924.01 -1509.47 -358.02 -672.66 -507.96 -287.30 -276.48 -356.27 -699.10 -1574.07 -5036.42 -6336.51 -7152.65 -7493.49 -7145.07 -6541.18 -6347.84 -5912.61 -4608.25 -3724.05 -2730.57 -2913.52 -3348.55 -3643.03 -4064.69 -4190.24 -4240.10 -4216.85 -4193.80 -4178.41 -4167.73 -4152.76 -4142.46 -4126.62 -4113.73 -4100.86 -4095.45 -4083.50 -4075.57 -4075.62
-4554.00 -4553.98 -4568.31 -4545.56 -4546.75 -4547.62 -4542.03 -4544.41 -4545.03 -4553.67 -4560.56 -4572.12 -4587.69 -4601.24 -4633.41 -4660.49 -4689.45 -4707.27 -4719.50 -4736.09 -4746.66 -4695.61 -4626.76 -4366.58 -4077.46 -4005.61 -4405.66 -4602.68 -4601.00 -4831.60 -4719.69 -4323.75 -4004.56 -3549.49 -2996.07 -2546.26 -2264.06 -2259.91 -2455.82 -2420.23 -2499.15 -3105.32 -3135.47 -3806.58 -4098.02 -4423.34 -4982.87 -4966.90 -5012.78 -5030.32 -5069.68 -5075.96 -5083.20 -5118.59 -5109.35 -5095.04 -5080.01 -5064.69 -5051.48 -5037.02 -5027.36 -5019.63 -5007.62 -4992.65 -4975.38 -4920.77 -4823.54 -4620.82 -4246.52 -3827.09 -3484.75 -3009.52 -2742.49 -2478.48 -2075.86 -1602.22 -1180.94 -898.34 -610.25 -301.76 134.61 152.90 181.57 224.25 240.07 283.77 344.95 394.14 490.60 481.15 475.45 471.43 486.09 455.90 505.69 463.87 218.56 36.99 -1072.05 -3916.06 -3458.91 -3148.60 -3015.87 -1932.82 -1979.24 -1597.34 -1739.77 -575.10 -483.98 -392.84 -1243.11 -3231.02 -6017.61 -6531.97 -6779.96 -6317.49 -6006.00 -5778.82 -5511.26 -5026.71 -3322.80 -2753.96 -2813.31 -3182.53 -3451.64 -3869.27 -4200.83 -4242.12 -4225.03 -4201.88 -4182.32 -4171.84 -4157.84 -4147.52 -4133.83 -4123.25 -4109.32 -4101.74 -4098.69 -4084.66 -4084.72
-4641.34 -4650.73 -4653.59 -4637.50 -4626.12 -4593.17 -4591.30 -4570.83 -4592.81 -4607.83 -4583.49 -4601.24 -4618.65 -4628.05 -4671.00 -4705.43 -4752.43 -4759.34 -4782.40 -4774.98 -4775.80 -4644.84 -4276.25 -3712.20 -3019.62 -3152.25 -3158.52 -3865.90 -3978.59 -4325.81 -4111.85 -3376.42 -2743.18 -2473.97 -2157.40 -1743.45 -1658.72 -1695.79 -1792.00 -1765.44 -1834.98 -1981.24 -2336.08 -2729.70 -3340.96 -3778.41 -4341.77 -4694.24 -4777.26 -4735.39 -4800.25 -4882.05 -5014.33 -5050.67 -5095.52 -5088.80 -5079.42 -5065.33 -5051.82 -5040.94 -5031.05 -5024.71 -5018.85 -4985.77 -4978.04 -4886.13 -4794.11 -4568.35 -4166.26 -3670.42 -3204.23 -2969.40 -2775.50 -2579.23 -2013.02 -961.92 -166.79 -93.45 1.09 -14.34 164.13 183.89 199.82 242.55 272.09 351.00 453.42 621.45 819.93 815.78 796.92 759.68 820.22 661.78 852.00 608.83 245.99 19.53 -291.57 -2414.83 -3613.36 -4150.94 -4053.32 -3777.81 -3536.40 -3187.97 -2445.18 -1758.86 -909.59 -844.04 -1486.73 -4343.47 -5653.67 -5939.24 -5850.97 -5721.09 -5429.05 -5522.44 -5232.29 -4679.64 -3357.45 -2756.79 -2831.18 -3353.66 -3703.05 -3922.97 -4210.18 -4247.92 -4229.30 -4207.39 -4188.90 -4173.35 -4161.44 -4152.28 -4140.23 -4126.78 -4120.16 -4108.81 -4100.46 -4092.65 -4094.20
-4805.25 -4785.15 -4753.40 -4747.60 -4714.44 -4713.35 -4698.85 -4682.60 -4636.92 -4670.80 -4664.31 -4665.69 -4686.09 -4735.70 -4824.93 -4818.72 -4874.13 -4862.99 -4859.81 -4843.46 -4811.90 -4637.55 -3910.60 -2873.27 -2181.43 -2065.18 -2489.38 -2814.71 -2776.81 -3261.98 -3465.64 -2809.22 -2010.35 -1730.43 -1591.54 -1348.09 -887.08 -1084.86 -998.07 -1513.08 -985.05 -1749.98 -2185.53 -2391.58 -2610.89 -2905.62 -3704.52 -4105.63 -4217.91 -4363.88 -4476.18 -4650.99 -4669.48 -4881.08 -5051.53 -5067.72 -5027.56 -5041.96 -5009.12 -5016.31 -5034.38 -5025.71 -5019.54 -5012.65 -4995.97 -4944.58 -4772.93 -4421.01 -3894.32 -3522.90 -3159.68 -2959.44 -2886.80 -2678.66 -1821.36 102.24 113.46 116.90 125.24 165.47 182.40 207.06 240.43 269.94 270.04 338.82 388.75 611.71 827.38 832.24 957.89 948.05 921.29 841.07 892.95 488.26 380.83 219.79 131.32 -460.89 -1976.67 -4813.92 -4771.05 -4485.64 -4388.09 -4225.63 -3564.27 -2950.33 -2339.31 -1830.85 -1701.95 -2548.32 -2420.18 -2471.69 -2711.26 -2465.99 -4376.01 -4573.34 -4285.11 -4335.85 -3325.79 -2998.97 -3028.40 -3350.30 -3952.09 -4201.44 -4249.69 -4255.91 -4232.23 -4210.81 -4191.38 -4178.58 -4171.45 -4152.83 -4144.28 -4135.24 -4128.44 -4115.25 -4111.41 -4101.67 -4101.74
-4940.23 -4940.06 -4873.58 -4858.11 -4847.45 -4868.82 -4874.05 -4831.69 -4833.40 -4806.19 -4790.84 -4778.89 -4861.83 -4887.37 -4923.46 -4930.36 -4941.13 -5018.69 -5017.19 -4992.02 -4895.21 -4610.40 -3742.85 -2911.22 -1770.19 -1669.91 -1671.08 -1839.24 -2022.72 -2433.09 -2491.93 -2196.81 -1845.06 -1109.60 -695.97 -249.75 -131.38 131.11 146.75 -117.15 -88.15 -1246.51 -1517.05 -1304.64 -1741.99 -2076.57 -2702.87 -3143.34 -3548.66 -3301.00 -3502.55 -3723.15 -3958.84 -4238.52 -4721.14 -4802.38 -4953.76 -4886.86 -4755.55 -4895.83 -4991.75 -5023.46 -4962.83 -4927.53 -4847.52 -4685.45 -4716.26 -4006.77 -3681.26 -3321.94 -2994.04 -2891.04 -2885.76 -2040.36 -1114.51 107.85 133.46 157.25 159.23 180.52 201.47 231.52 268.46 294.06 320.90 327.74 374.72 474.79 517.31 623.21 677.73 816.13 864.14 940.33 913.92 623.20 554.76 215.78 146.07 -225.81 -1456.75 -4049.15 -4933.90 -5041.73 -4818.43 -4562.34 -4476.55 -4433.42 -4004.25 -2906.80 -2195.99 -1355.11 -1039.10 -1065.36 -1167.16 -1394.94 -2196.92 -2635.48 -3160.65 -4033.40 -3690.39 -3165.24 -2971.39 -3376.21 -3833.51 -4156.63 -4267.80 -4266.65 -4240.09 -4221.21 -4193.85 -4183.64 -4167.69 -4160.49 -4151.12 -4135.92 -4131.37 -4121.54 -4116.18 -4109.95 -4109.32
-5018.53 -5018.42 -5019.07 -4978.35 -4960.38 -4958.91 -4950.85 -4940.04 -4967.74 -4969.76 -4974.36 -4961.92 -4984.45 -5028.80 -5055.77 -5140.63 -5155.24 -5233.49 -5166.06 -5130.72 -5040.78 -4651.58 -3599.30 -2641.37 -1808.29 -1717.44 -1716.23 -1736.36 -1696.07 -1955.47 -2061.72 -2080.91 -1126.92 -210.78 -90.58 44.89 175.58 191.70 162.87 152.45 166.35 157.18 -179.03 117.83 128.22 -764.24 -1643.00 -2341.87 -2267.69 -2361.92 -2878.82 -2923.26 -3145.66 -3368.62 -4019.05 -4489.59 -4553.61 -4553.78 -4525.42 -4570.50 -4663.53 -4384.10 -4662.69 -4633.38 -4374.25 -4060.79 -4050.78 -3295.52 -3281.91 -2517.04 -2588.56 -2363.04 -1257.59 -400.77 -54.56 141.12 168.02 190.87 197.22 209.00 235.99 256.80 292.48 325.17 327.87 351.09 402.31 428.16 462.04 501.59 517.98 604.85 678.54 817.68 826.32 827.43 665.51 414.47 249.94 149.53 -517.34 -1179.90 -4347.21 -5180.82 -5066.84 -4739.11 -4675.89 -4843.99 -4830.92 -4240.96 -3341.74 -2573.30 -1452.00 -1025.84 -874.11 -849.30 -1369.23 -1672.96 -2619.63 -3664.59 -3522.63 -3070.92 -2937.35 -3277.87 -3585.91 -4046.33 -4235.01 -4266.19 -4243.87 -4222.44 -4201.22 -4185.44 -4171.67 -4161.77 -4151.12 -4142.19 -4134.65 -4125.66 -4123.17 -4115.60 -4115.67
-5039.32 -5039.25 -5038.73 -5036.08 -5049.21 -5053.37 -5055.33 -5074.01 -5116.18 -5123.46 -5106.00 -5155.28 -5150.09 -5212.47 -5245.28 -5243.65 -5245.15 -5285.56 -5300.18 -5261.41 -5136.83 -4867.33 -3745.25 -2978.89 -2079.51 -2034.76 -2139.28 -2127.58 -1929.61 -1992.15 -1783.87 -1221.76 -518.29 56.65 155.43 250.93 261.80 264.75 213.43 195.53 178.57 182.19 163.18 150.87 138.33 -44.27 -871.92 -1281.49 -1020.52 -1610.92 -1972.71 -1319.18 -1308.38 -3117.80 -3283.06 -3609.70 -3753.71 -3849.69 -3697.29 -3743.24 -3393.34 -3731.31 -3529.46 -3813.35 -3450.93 -2881.37 -2399.54 -2308.25 -2068.16 -2030.54 -1648.41 -788.71 -327.32 -205.26 153.57 160.41 185.95 218.97 250.02 232.90 265.60 281.41 314.06 329.12 371.63 409.55 427.25 435.71 447.83 462.54 474.19 487.71 554.88 668.71 718.43 813.05 688.90 541.27 366.85 211.22 142.91 64.51 -2109.73 -3860.62 -5344.45 -5005.67 -4841.96 -4998.42 -5066.26 -5084.21 -4454.87 -3523.36 -2749.18 -1728.24 -1136.06 -942.55 -1054.68 -1265.60 -1725.21 -2452.13 -3202.22 -3133.87 -3022.30 -3399.61 -3690.95 -3985.80 -4216.04 -4267.04 -4243.95 -4217.01 -4204.62 -4191.80 -4176.90 -4163.41 -4153.46 -4144.53 -4138.74 -4132.84 -4128.82 -4120.98 -4121.05
-5024.13 -5027.24 -5027.10 -5036.00 -5052.61 -5072.34 -5094.84 -5136.07 -5156.12 -5190.94 -5208.84 -5243.79 -5270.86 -5295.09 -5309.57 -5336.90 -5349.81 -5365.79 -5380.39 -5335.43 -5237.95 -5092.04 -4365.67 -3427.32 -3354.52 -2907.52 -3146.26 -3315.58 -2954.67 -2303.81 -1531.87 -414.79 68.97 182.24 197.34 273.26 335.48 309.56 301.35 310.45 254.51 188.36 180.92 178.58 161.88 135.70 26.36 -346.45 -143.59 -139.46 -222.97 -441.42 -711.31 -263.41 -1445.60 -1729.92 -2261.61 -2315.44 -2425.48 -2210.38 -2178.36 -2339.34 -2229.26 -2637.14 -2521.17 -2199.03 -2194.87 -1975.92 -1996.45 -1950.38 -1036.06 6.41 100.39 164.28 218.34 246.90 241.04 245.33 258.97 277.10 298.65 327.89 339.84 368.43 397.06 423.79 428.18 431.43 437.17 452.88 460.47 463.14 470.76 490.63 549.81 644.98 616.62 451.72 360.19 219.74 207.64 136.78 -408.08 -1324.80 -3684.63 -5156.90 -4975.21 -4935.52 -5016.01 -5191.95 -5199.08 -5048.53 -3774.68 -3320.19 -2389.62 -1368.98 -1214.40 -1148.83 -1189.60 -1518.67 -2381.83 -3134.47 -3103.30 -3420.04 -3781.11 -3974.88 -4219.06 -4266.33 -4251.33 -4226.96 -4210.95 -4195.15 -4177.69 -4169.26 -4157.76 -4148.80 -4143.06 -4136.87 -4131.88 -4125.70 -4125.77
-4996.94 -5000.15 -5001.79 -5017.31 -5032.97 -5074.34 -5097.22 -5131.88 -5174.75 -5199.42 -5237.39 -5265.04 -5293.43 -5316.06 -5331.76 -5344.89 -5360.39 -5378.57 -5391.32 -5390.86 -5367.18 -5261.03 -4891.54 -4576.34 -4438.46 -4667.04 -4552.71 -4152.85 -3682.47 -1560.54 -881.81 175.96 200.83 216.94 236.07 283.74 336.95 391.45 400.91 325.65 257.11 213.52 205.91 202.40 178.22 163.31 146.18 136.12 122.94 121.65 121.53 131.95 -75.68 46.26 -51.55 -112.26 -759.62 -1324.48 -1322.86 -1786.91 -1774.21 -1690.44 -1854.41 -1961.26 -2096.39 -2052.44 -2065.02 -1930.76 -1300.35 -833.50 -246.82 135.47 170.04 199.00 286.56 360.59 338.12 292.53 297.52 315.22 309.81 355.34 362.08 392.03 406.43 424.23 428.38 428.76 429.01 440.03 442.12 442.07 469.55 470.55 496.04 516.98 512.89 640.20 503.87 331.10 204.37 174.52 114.94 39.87 -1546.02 -5330.17 -4958.20 -4765.03 -4932.94 -5121.47 -5237.80 -5321.16 -5178.68 -4688.60 -3637.63 -2964.55 -2495.22 -1520.49 -1397.36 -1421.04 -1565.94 -1989.22 -2999.42 -3670.78 -3951.93 -4170.75 -4254.17 -4262.76 -4243.66 -4232.72 -4212.91 -4196.92 -4180.37 -4168.65 -4160.71 -4151.83 -4143.65 -4137.99 -4133.99 -4130.49 -4130.15
-4971.16 -4974.01 -4978.71 -4992.21 -5013.42 -5044.92 -5079.90 -5132.85 -5176.25 -5198.07 -5233.93 -5254.46 -5286.58 -5317.44 -5333.32 -5352.43 -5358.86 -5385.98 -5392.44 -5403.81 -5407.96 -5395.84 -5343.05 -5243.55 -5239.38 -5256.32 -5100.64 -4933.80 -4409.36 -1066.25 142.19 189.52 214.88 232.42 277.15 305.08 365.56 399.13 429.82 373.95 367.26 295.41 289.51 260.54 221.52 198.59 182.34 161.58 151.74 147.17 146.25 154.71 150.55 128.99 121.52 60.63 -26.45 -270.59 -583.85 -1187.45 -1247.54 -1369.68 -1466.62 -1529.39 -1906.91 -2084.50 -1952.30 -828.15 41.45 94.63 113.28 142.86 201.93 244.36 285.88 398.54 428.04 330.78 347.97 345.37 353.17 392.30 395.98 410.28 421.10 427.10 433.89 435.40 433.30 432.83 429.81 431.95 460.40 463.51 466.42 471.18 541.43 740.26 718.24 604.05 238.00 209.50 155.41 29.75 -1418.23 -5281.38 -4912.97 -4729.90 -4767.78 -5025.46 -5052.14 -5236.03 -5354.87 -5253.72 -4931.60 -4325.88 -3843.30 -3176.21 -2269.86 -1498.24 -1296.80 -1295.93 -2233.30 -3621.35 -4300.03 -4385.98 -4277.88 -4267.75 -4238.92 -4227.41 -4209.99 -4192.91 -4179.98 -4171.14 -4160.36 -4153.42 -4147.66 -4140.74 -4135.61 -4133.86 -4133.88
-4950.46 -4950.41 -4955.31 -4972.09 -5001.27 -5031.19 -5063.57 -5111.61 -5160.47 -5193.67 -5226.53 -5263.70 -5297.55 -5315.96 -5339.71 -5353.22 -5360.90 -5380.54 -5390.40 -5408.55 -5418.26 -5414.50 -5396.55 -5391.51 -5368.07 -5354.33 -5400.98 -5868.60 -5592.86 -2124.56 137.33 190.90 208.62 249.72 284.89 308.40 367.15 400.10 435.05 437.98 420.68 319.51 357.98 278.30 265.70 240.63 225.93 212.54 189.53 200.04 200.72 184.85 172.75 163.47 145.95 139.81 138.75 135.27 131.77 -75.88 -210.57 -235.35 -586.36 -953.37 -1478.94 -1546.32 -817.60 -144.23 117.28 128.14 141.73 151.44 236.51 282.64 345.24 419.76 461.87 377.61 377.31 387.29 393.55 402.86 404.83 419.27 438.60 443.82 451.74 449.32 450.32 442.60 441.35 429.74 439.81 440.04 452.36 463.24 512.12 666.69 775.89 604.56 334.79 222.30 168.38 60.90 -13.72 -1765.19 -5133.99 -4726.05 -4762.95 -4919.29 -5039.70 -5219.18 -5351.33 -5444.87 -5429.34 -5294.03 -5181.31 -4737.16 -3608.52 -2329.07 -1570.01 -1197.67 -1933.05 -3548.22 -4442.46 -4479.63 -4368.55 -4287.45 -4241.83 -4214.35 -4204.29 -4189.65 -4177.45 -4169.60 -4161.74 -4154.15 -4148.61 -4143.84 -4138.68 -4135.95 -4136.01
-4939.20 -4940.81 -4948.34 -4962.75 -4986.34 -5020.04 -5052.40 -5106.55 -5150.65 -5191.64 -5222.64 -5258.19 -5292.28 -5311.83 -5334.65 -5351.62 -5367.36 -5381.22 -5398.52 -5409.58 -5424.68 -5426.98 -5419.84 -5399.42 -5373.28 -5403.39 -5599.28 -6171.69 -6294.52 -1777.06 119.27 168.39 213.86 271.22 284.10 302.96 344.74 404.76 448.05 487.33 430.51 409.56 389.55 347.32 426.31 384.88 339.28 270.61 234.06 226.87 232.27 229.16 218.69 198.82 181.50 169.03 172.93 157.26 155.43 149.20 136.26 134.85 127.78 -382.14 -417.14 -887.17 -181.45 108.86 128.72 143.71 164.36 227.07 266.65 321.20 391.72 437.90 458.29 404.78 392.48 404.62 423.94 420.16 440.73 442.10 451.15 460.18 463.02 461.49 464.33 454.51 456.51 445.98 435.63 430.54 435.48 460.13 480.74 523.96 618.70 732.02 648.25 383.97 198.35 128.71 77.15 -1419.27 -4004.62 -4854.68 -4816.08 -4908.80 -5045.89 -5084.68 -5241.17 -5412.27 -5495.28 -5510.94 -5446.55 -5209.02 -4494.52 -3332.75 -1723.52 -1262.57 -1745.20 -2999.67 -3953.52 -4678.39 -4449.29 -4318.40 -4249.75 -4222.18 -4199.35 -4185.70 -4175.46 -4169.31 -4163.00 -4156.66 -4150.70 -4144.95 -4140.60 -4136.87 -4136.27
-4938.44 -4938.37 -4948.69 -4968.90 -4987.85 -5032.29 -5051.00 -5105.35 -5137.56 -5189.15 -5223.90 -5259.49 -5276.68 -5313.09 -5335.87 -5356.74 -5367.90 -5385.00 -5402.01 -5414.66 -5424.46 -5425.96 -5412.89 -5396.81 -5369.13 -5395.52 -5901.35 -6480.29 -4144.41 51.97 121.10 164.55 188.55 247.48 272.66 326.77 373.96 408.53 455.56 471.35 456.48 493.97 442.63 412.01 491.20 507.11 440.89 306.52 270.70 277.76 246.51 254.90 239.75 234.21 221.01 204.43 197.75 193.85 177.14 169.45 163.53 161.34 138.27 124.25 123.85 -98.17 -11.81 129.17 162.95 173.14 179.78 227.73 295.09 337.20 402.93 429.14 422.98 417.24 410.16 423.34 433.61 440.56 457.09 462.78 474.04 479.28 484.36 484.95 485.38 475.49 469.74 455.47 443.11 431.14 441.41 453.93 462.27 514.54 536.15 644.21 566.77 450.17 208.49 142.51 119.34 -388.32 -2293.13 -4263.66 -4271.95 -4811.06 -4867.55 -4916.41 -5192.19 -5395.10 -5510.71 -5531.73 -5537.26 -5400.11 -4897.05 -3130.55 -1857.96 -1229.49 -1390.87 -1915.76 -3065.04 -4009.32 -4611.75 -4392.46 -4277.45 -4222.55 -4208.65 -4187.77 -4177.40 -4167.36 -4163.54 -4156.74 -4151.45 -4146.34 -4141.45 -4136.78 -4136.85
-4939.98 -4939.91 -4951.16 -4973.62 -4995.55 -5035.96 -5063.97 -5111.24 -5150.26 -5172.19 -5209.77 -5253.47 -5272.58 -5306.64 -5333.45 -5353.76 -5374.88 -5391.33 -5407.14 -5417.32 -5425.54 -5424.33 -5409.75 -5383.65 -5371.31 -5450.57 -6059.45 -6719.26 -4439.51 -531.89 108.32 177.15 213.38 240.68 280.61 299.95 351.79 404.91 446.51 497.98 538.88 548.47 437.04 471.40 562.96 650.22 584.34 405.77 341.44 341.83 276.52 282.85 281.67 265.99 250.60 237.97 228.46 226.97 208.19 210.87 202.38 176.54 179.88 151.43 152.67 175.18 186.30 176.87 200.72 203.79 229.84 227.23 288.60 317.78 364.63 381.53 402.55 407.57 414.71 429.44 439.35 455.13 468.24 478.84 492.10 492.49 498.96 500.02 503.10 496.44 479.04 462.50 452.87 437.67 434.39 449.51 450.61 479.73 521.81 590.21 685.50 689.76 469.33 207.06 152.10 127.20 -616.43 -2412.06 -4250.44 -4835.82 -4906.59 -4903.80 -5112.30 -5320.32 -5484.96 -5530.71 -5552.52 -5510.00 -5012.22 -3455.35 -1998.47 -986.41 -984.03 -1242.47 -2220.70 -3556.81 -4698.20 -4504.15 -4323.63 -4256.04 -4214.45 -4194.05 -4174.49 -4170.33 -4166.87 -4159.09 -4153.55 -4148.77 -4143.18 -4137.64 -4137.70
-4940.94 -4940.87 -4953.62 -4973.63 -5005.89 -5033.37 -5080.12 -5106.18 -5143.92 -5166.68 -5211.65 -5234.37 -5273.83 -5306.62 -5331.24 -5360.68 -5378.39 -5397.28 -5412.05 -5425.59 -5428.85 -5425.43 -5410.98 -5385.15 -5383.21 -5530.35 -6027.02 -5457.29 -3600.19 114.41 150.95 207.38 235.68 258.65 302.18 353.43 367.07 394.61 449.44 488.71 543.77 564.76 524.40 596.37 773.07 719.28 730.54 492.90 454.03 399.42 314.55 304.22 318.94 312.74 293.64 280.22 264.34 251.28 239.34 243.70 226.44 215.27 190.30 212.14 197.23 198.25 234.58 222.84 243.96 275.59 292.06 260.38 286.38 316.30 356.44 367.55 386.79 399.88 412.72 430.56 441.24 461.76 479.32 495.59 506.48 512.90 519.33 518.34 517.01 513.06 493.93 478.12 472.43 447.75 434.80 445.21 453.32 480.92 527.43 589.05 764.39 746.45 618.62 329.03 202.76 172.31 151.21 62.88 -2041.07 -4631.06 -5039.37 -4969.00 -5032.85 -5311.01 -5417.64 -5530.24 -5556.80 -5513.99 -5027.59 -3956.77 -2338.37 -893.99 -886.28 -1043.88 -1759.57 -2368.07 -3833.83 -4389.84 -4319.69 -4276.18 -4218.89 -4198.86 -4180.76 -4170.62 -4164.77 -4160.58 -4156.03 -4149.53 -4144.98 -4139.69 -4139.76
-4946.14 -4947.18 -4960.84 -4980.97 -5009.68 -5043.37 -5086.32 -5121.90 -5142.52 -5170.51 -5209.15 -5240.34 -5276.77 -5303.72 -5341.37 -5363.64 -5384.37 -5401.23 -5416.60 -5426.84 -5432.83 -5430.31 -5425.33 -5404.37 -5421.92 -5811.51 -5894.55 -3002.76 -494.94 132.02 186.80 205.48 245.61 259.60 319.52 358.48 394.48 433.79 452.63 493.70 530.61 604.45 636.21 674.11 803.40 934.78 828.91 722.05 503.73 395.56 355.88 354.71 347.73 326.87 318.47 304.85 297.44 282.00 271.75 259.62 261.37 234.00 234.12 252.37 251.19 274.51 295.12 243.96 288.00 308.98 296.28 285.92 288.97 316.76 336.30 369.56 383.80 396.85 414.49 437.60 446.25 466.61 481.09 498.63 513.52 523.73 532.30 535.78 533.87 525.68 510.50 505.24 489.89 445.85 442.35 458.00 462.70 464.48 509.19 539.50 736.07 811.68 724.10 401.85 276.18 219.35 182.40 -11.84 -1200.23 -5046.56 -5120.59 -4957.87 -5043.07 -5255.29 -5403.35 -5503.96 -5532.95 -5514.68 -5305.11 -4109.97 -2078.19 -829.21 -692.30 -868.87 -989.47 -1785.44 -2445.83 -3613.37 -4072.13 -4249.93 -4221.16 -4211.03 -4189.59 -4171.74 -4163.44 -4158.61 -4154.35 -4148.89 -4145.77 -4141.06 -4140.37
-4957.99 -4957.91 -4978.73 -4985.61 -5033.39 -5059.74 -5113.91 -5131.98 -5158.16 -5192.12 -5228.01 -5253.72 -5291.84 -5316.68 -5358.00 -5369.00 -5395.67 -5408.23 -5423.62 -5433.72 -5439.16 -5446.65 -5445.92 -5431.83 -5556.03 -5903.36 -5992.56 -2334.27 -124.10 161.31 197.82 237.03 279.63 289.65 317.54 372.62 405.33 456.72 499.20 530.97 577.62 603.60 636.67 698.79 770.94 948.54 917.13 698.84 548.55 481.00 417.52 385.82 366.75 361.70 347.01 325.23 316.59 305.61 295.46 295.37 311.14 308.30 291.11 328.34 336.46 335.02 322.42 302.59 315.16 305.32 293.72 293.02 303.38 322.24 352.44 367.44 382.94 401.89 411.04 435.75 448.76 470.16 487.44 503.91 520.69 536.15 545.96 551.83 554.47 542.44 530.62 515.49 499.73 494.13 466.84 461.67 462.70 465.35 509.09 537.10 675.17 818.34 888.00 584.57 330.05 222.30 183.85 128.41 -1548.33 -5128.77 -5175.40 -4960.38 -5059.47 -5226.45 -5361.81 -5465.14 -5501.09 -5470.50 -5179.85 -4747.83 -2034.72 -909.27 -611.85 -697.34 -776.95 -1603.62 -2351.29 -3351.11 -3984.61 -3997.41 -4202.19 -4200.24 -4192.34 -4176.91 -4165.24 -4155.50 -4152.67 -4150.38 -4146.27 -4140.77 -4140.84
-4974.27 -4974.19 -4995.68 -5010.58 -5042.73 -5082.57 -5114.33 -5145.16 -5167.74 -5214.26 -5235.96 -5271.10 -5295.79 -5321.78 -5358.25 -5385.58 -5396.77 -5419.44 -5431.20 -5445.62 -5457.35 -5475.38 -5372.96 -5466.18 -5492.07 -4530.94 -3168.70 -884.50 -120.41 193.49 223.28 252.71 281.89 305.25 339.73 374.83 430.77 449.72 480.48 522.61 575.52 622.24 649.22 689.30 740.86 843.54 859.51 835.24 612.67 533.58 452.23 409.83 386.33 374.85 370.18 349.79 332.62 323.76 345.25 349.67 343.46 348.82 321.63 359.10 373.63 360.43 322.62 314.26 319.06 318.84 312.74 319.26 322.64 339.27 353.86 366.48 383.40 403.32 414.41 430.59 455.66 484.18 494.01 511.49 532.98 553.17 559.96 569.37 574.92 570.67 566.12 544.09 525.04 512.74 483.50 467.85 462.94 477.97 518.51 534.59 592.31 753.20 905.84 582.93 342.47 250.97 186.79 128.85 -626.41 -4157.44 -5068.62 -4945.76 -5046.87 -5114.18 -5304.73 -5392.12 -5432.06 -5411.70 -5267.34 -3844.87 -2239.07 -919.47 -575.22 -583.79 -838.16 -1264.07 -2478.80 -2915.15 -3232.72 -3787.32 -4196.52 -4202.49 -4197.15 -4182.26 -4165.53 -4154.83 -4151.03 -4148.95 -4145.40 -4138.69 -4138.76
-4992.93 -4992.84 -5014.90 -5031.66 -5068.46 -5093.14 -5132.23 -5161.68 -5195.46 -5220.25 -5246.93 -5286.15 -5312.45 -5337.07 -5371.42 -5391.76 -5410.57 -5431.11 -5434.04 -5438.87 -5459.97 -5380.79 -5036.03 -4903.96 -4816.67 -4299.44 -718.78 -73.32 184.57 227.74 250.79 277.26 292.60 338.55 373.73 402.82 455.57 488.15 524.11 580.70 642.70 643.12 676.86 718.65 751.67 847.22 870.41 797.75 619.54 498.16 464.73 448.75 427.20 399.57 392.17 372.83 359.67 372.63 382.96 377.50 382.52 407.35 363.73 376.68 377.47 367.42 349.58 331.62 328.96 330.86 323.93 326.95 330.47 345.26 355.87 374.41 392.83 403.88 419.10 434.30 465.33 484.02 498.40 524.11 538.65 561.07 577.07 581.42 587.99 597.18 588.34 580.21 547.69 529.13 500.11 480.17 468.22 463.72 481.40 522.48 547.83 591.80 850.31 695.23 393.38 207.57 139.68 122.92 -2246.21 -4817.89 -4780.68 -4784.38 -4929.93 -5032.65 -5252.12 -5363.64 -5397.18 -5358.67 -5163.99 -3868.63 -2280.06 -764.81 -495.21 -521.99 -699.28 -1290.55 -1950.20 -2381.49 -2836.22 -3583.90 -4166.50 -4183.30 -4201.83 -4181.71 -4169.39 -4153.93 -4146.52 -4144.02 -4141.34 -4137.35 -4137.42
-5016.60 -5016.74 -5031.03 -5064.47 -5082.35 -5107.37 -5153.96 -5181.42 -5204.47 -5245.01 -5273.69 -5306.82 -5329.05 -5350.24 -5380.82 -5399.37 -5416.38 -5427.58 -5436.21 -5353.77 -5306.63 -5117.50 -3849.23 -3112.42 -3302.69 -1540.34 77.92 159.63 173.11 212.59 271.03 287.66 309.39 377.13 396.98 436.19 474.38 514.07 560.70 594.13 695.36 785.54 757.29 751.08 797.70 859.08 862.46 806.56 652.49 517.94 501.87 467.46 441.64 430.55 413.60 409.13 386.94 392.49 428.40 429.86 424.66 435.89 389.86 395.43 392.49 377.49 372.45 352.91 346.21 348.53 334.03 334.61 340.44 351.99 364.02 376.62 387.11 403.33 423.62 436.12 469.49 480.04 492.46 528.02 543.30 562.82 591.15 602.35 612.67 617.93 605.95 597.92 574.37 549.69 529.61 496.52 473.27 464.73 477.35 498.96 513.30 616.63 834.99 750.74 495.98 220.68 141.45 -420.39 -3129.59 -4512.51 -4531.09 -4576.81 -4787.08 -4980.34 -5146.26 -5351.40 -5352.42 -5342.87 -5087.93 -3835.82 -2116.50 -666.44 -473.78 -452.93 -650.69 -1019.45 -1298.01 -1923.50 -3048.77 -3522.32 -3613.53 -3964.88 -4161.65 -4194.21 -4171.79 -4159.07 -4148.36 -4141.55 -4139.44 -4134.73 -4134.80
-5045.56 -5045.47 -5066.06 -5089.50 -5110.57 -5153.59 -5167.82 -5204.07 -5234.69 -5269.57 -5289.24 -5314.55 -5338.11 -5361.95 -5388.56 -5394.18 -5405.68 -5401.11 -5208.92 -5098.91 -4704.80 -4334.08 -3316.05 -1692.46 -1315.85 -184.35 120.39 155.62 195.62 219.66 266.18 294.27 324.04 369.98 410.18 442.35 463.73 498.19 542.67 599.21 671.93 775.28 840.73 821.06 837.36 870.00 768.16 723.90 567.69 580.20 575.52 509.05 469.72 454.81 435.69 443.05 425.30 434.38 458.69 476.93 474.34 454.07 421.57 410.98 404.14 388.30 383.90 367.89 363.66 357.30 353.36 344.97 349.96 358.54 368.42 375.29 391.99 405.35 424.57 446.94 458.75 484.52 508.25 523.27 542.63 567.06 588.05 614.36 625.24 627.72 626.87 608.25 586.76 554.74 537.23 499.34 479.66 468.91 468.62 472.55 474.82 524.43 770.49 737.18 402.54 183.73 137.03 -55.34 -1346.67 -3494.89 -4346.11 -4611.11 -4718.13 -4942.94 -5153.79 -5281.88 -5308.59 -5259.06 -4937.67 -3858.91 -1580.45 -826.43 -410.34 -407.79 -448.64 -861.74 -1416.08 -1728.74 -2297.47 -2613.80 -3167.13 -3714.18 -4146.21 -4209.05 -4178.63 -4163.67 -4150.89 -4144.42 -4138.83 -4133.51 -4133.58
-5076.53 -5076.44 -5098.66 -5113.52 -5139.71 -5179.14 -5202.31 -5228.89 -5250.39 -5280.22 -5303.75 -5329.37 -5354.57 -5371.41 -5371.80 -5359.70 -5240.58 -5108.27 -4697.24 -4044.88 -3439.93 -3311.00 -2664.52 -1626.44 -1245.70 -104.03 169.87 183.21 232.16 240.30 277.52 310.88 351.65 402.75 465.69 517.50 528.89 506.68 566.75 596.19 723.62 769.89 836.97 872.22 905.07 847.62 760.73 653.45 633.98 626.79 590.81 539.34 485.69 466.73 472.69 479.31 447.13 448.28 477.23 496.23 479.72 467.11 441.83 422.08 420.02 398.94 390.57 378.05 370.50 364.82 360.43 358.57 355.11 357.30 368.62 375.72 392.84 402.65 425.40 443.66 459.46 474.86 497.40 522.19 541.88 569.02 585.92 620.63 632.72 635.86 632.90 608.18 585.89 549.01 529.64 510.07 477.19 452.74 450.22 443.38 433.53 434.77 615.57 640.32 290.70 153.79 129.02 111.38 -1187.47 -4185.64 -4471.62 -4635.38 -4821.65 -4999.99 -5185.61 -5256.81 -5282.03 -5210.83 -4755.63 -3818.72 -1456.91 -615.85 -321.92 -343.33 -417.56 -663.21 -1063.35 -1169.58 -1678.36 -2379.16 -3130.52 -3308.68 -4087.21 -4206.28 -4183.68 -4165.02 -4153.26 -4142.47 -4138.16 -4133.21 -4133.28
-5108.42 -5108.34 -5123.81 -5150.83 -5179.10 -5209.04 -5229.27 -5257.87 -5270.11 -5297.56 -5320.14 -5342.93 -5347.30 -5331.56 -5307.13 -5068.16 -4771.73 -4074.45 -3500.68 -3013.46 -2868.00 -1948.17 -1865.65 -1399.46 -337.60 172.96 188.85 207.35 236.85 277.89 315.03 341.44 355.26 413.09 459.08 532.79 587.42 600.05 582.28 624.82 693.35 717.75 814.87 893.02 925.28 813.25 744.64 685.86 675.12 631.10 578.95 547.99 513.32 490.17 489.04 489.79 473.58 478.92 492.54 509.92 494.07 480.82 458.64 434.71 428.45 418.53 406.22 384.66 377.19 375.70 367.66 364.02 362.86 366.73 369.97 380.45 387.31 403.59 426.96 440.34 463.82 483.04 494.57 520.71 544.19 575.43 597.52 632.87 640.00 640.47 633.55 619.07 583.97 547.31 527.26 509.00 483.17 442.73 428.43 414.97 390.83 360.10 431.48 416.01 263.44 154.86 123.59 -18.73 -885.93 -3613.77 -4509.69 -4667.34 -4876.10 -5021.31 -5140.21 -5210.26 -5241.55 -5176.80 -4757.70 -3191.14 -1406.86 -519.51 -320.97 -321.05 -399.41 -532.16 -716.34 -1060.47 -1405.51 -2034.52 -2467.28 -3169.06 -4009.33 -4161.99 -4184.76 -4170.79 -4152.45 -4144.63 -4138.88 -4133.91 -4133.98
-5144.60 -5144.51 -5168.09 -5184.08 -5200.10 -5235.65 -5263.52 -5285.06 -5322.49 -5341.54 -5350.26 -5330.78 -5299.08 -5123.31 -4727.69 -4274.36 -3598.61 -3175.03 -2568.55 -2024.26 -1650.07 -1539.07 -1239.16 -790.49 170.21 177.38 215.49 236.17 248.43 311.53 348.66 371.76 382.18 436.70 474.73 502.04 560.50 626.21 633.01 661.30 695.39 727.93 804.80 866.47 869.54 810.47 783.11 723.32 660.39 635.46 593.34 560.81 525.38 512.71 514.09 510.80 513.58 515.12 518.81 515.74 508.39 490.90 480.84 458.90 442.46 433.93 411.55 393.94 388.98 380.05 374.49 373.04 371.53 370.46 376.98 381.30 390.03 408.02 426.74 433.47 471.95 482.83 494.10 522.27 540.88 575.70 602.60 623.78 638.90 639.32 633.17 609.23 583.97 558.68 526.64 507.41 464.41 442.39 409.67 377.99 360.54 331.54 373.12 421.55 276.11 149.73 116.99 31.48 -121.70 -3178.93 -4892.06 -4846.90 -4892.73 -4937.95 -5055.88 -5118.65 -5143.04 -4990.15 -4698.46 -2800.23 -1692.72 -427.34 -284.14 -287.10 -373.36 -459.56 -622.78 -937.22 -1194.71 -1723.16 -2467.44 -2968.36 -3981.00 -4143.01 -4186.60 -4170.54 -4156.80 -4146.83 -4142.93 -4135.81 -4135.05
-5187.70 -5187.60 -5208.01 -5226.79 -5242.29 -5271.05 -5308.64 -5337.34 -5360.95 -5385.45 -5370.25 -5299.23 -4950.29 -4790.23 -4287.12 -3606.28 -3090.97 -2361.18 -1914.26 -1713.61 -1454.97 -1460.97 -1216.34 -707.54 157.30 189.09 223.33 240.36 277.64 321.58 374.08 410.96 425.23 438.98 513.22 539.80 574.42 670.76 695.18 703.84 724.69 775.89 860.63 850.77 814.18 769.46 716.90 692.98 650.30 623.28 598.11 558.98 546.12 537.94 538.46 543.60 549.77 556.01 550.76 537.11 532.08 508.87 486.39 469.86 458.29 440.12 431.46 409.47 400.68 388.22 380.91 377.47 378.66 378.83 381.16 383.95 394.27 408.85 425.87 438.17 458.46 476.18 493.51 522.39 539.79 574.10 591.14 616.72 636.27 634.87 628.33 605.39 584.57 569.15 516.48 499.50 463.67 444.92 419.01 382.51 331.55 293.22 285.16 279.43 254.01 153.61 123.00 95.64 -3.83 -3493.07 -5297.43 -5184.13 -4877.92 -4911.30 -4991.58 -5035.77 -5083.91 -4791.60 -4165.01 -2476.50 -712.82 -319.00 -231.51 -269.49 -329.14 -431.42 -573.18 -814.67 -1184.49 -1484.21 -2117.44 -2965.71 -3627.41 -4114.16 -4187.30 -4172.55 -4157.05 -4150.44 -4143.16 -4139.39 -4139.47
-5239.47 -5239.36 -5258.20 -5273.71 -5317.18 -5347.21 -5374.87 -5403.00 -5426.30 -5502.48 -5450.48 -5228.58 -4666.81 -3999.71 -3237.72 -3001.83 -2675.27 -2365.23 -1893.14 -1651.41 -1476.12 -1453.58 -1290.40 -492.40 148.08 181.85 202.24 247.30 304.31 340.11 392.22 430.91 461.64 507.63 510.89 558.07 618.94 693.38 748.27 754.30 762.93 841.22 881.36 815.33 768.02 750.93 700.88 662.77 644.88 614.11 600.33 580.92 563.40 554.23 554.44 565.47 571.46 592.10 569.87 553.49 546.72 518.21 495.86 475.96 463.78 442.96 434.37 415.41 403.34 395.59 383.93 384.29 380.96 380.57 382.06 386.73 394.91 406.77 420.27 434.86 459.56 474.43 498.97 513.51 553.30 572.23 589.91 611.73 627.07 629.36 619.56 603.16 582.16 565.37 529.16 504.04 474.46 451.03 430.40 381.72 354.70 316.01 309.21 274.35 213.53 171.93 122.25 101.67 -37.31 -1955.71 -4057.10 -5062.52 -4893.81 -4843.50 -4938.25 -4956.46 -4958.53 -4547.39 -3461.77 -1873.71 -563.84 -209.09 -195.14 -272.45 -344.77 -478.43 -617.91 -772.49 -1037.77 -1454.77 -2070.13 -2598.97 -3577.96 -4037.66 -4187.25 -4169.82 -4158.75 -4152.65 -4146.27 -4143.13 -4143.21
-5317.95 -5318.03 -5337.90 -5363.66 -5401.05 -5426.24 -5544.49 -5568.30 -5585.03 -5647.31 -5472.72 -5193.66 -4279.62 -3601.65 -3081.18 -2825.51 -2698.80 -2482.35 -2094.28 -1646.56 -1541.72 -1465.85 -979.78 118.25 161.49 191.81 209.90 265.98 304.59 358.59 396.62 428.01 489.13 555.69 560.71 556.79 631.04 674.76 758.50 792.26 839.86 874.40 848.26 752.74 703.79 675.78 670.01 661.28 630.91 596.43 589.31 586.20 577.94 575.33 581.20 599.75 636.47 643.16 595.63 573.74 569.19 544.86 520.01 496.20 475.53 446.70 433.72 420.53 409.67 401.18 389.46 384.91 383.23 383.47 384.92 386.93 392.69 404.38 416.32 428.89 448.89 471.40 501.68 520.63 543.10 567.16 581.15 607.33 615.26 616.58 612.76 592.94 574.22 557.80 524.87 509.95 490.57 447.93 430.52 392.50 371.97 360.43 327.70 267.35 217.66 171.59 121.51 107.00 48.18 -610.57 -2982.28 -4936.61 -4694.07 -4730.87 -4867.56 -4857.15 -4699.16 -4115.80 -2224.13 -801.49 -264.75 -165.95 -173.88 -237.91 -301.26 -455.12 -611.31 -809.52 -1076.88 -1316.62 -2301.49 -3033.35 -3775.59 -4115.80 -4187.82 -4173.56 -4162.54 -4155.66 -4153.66 -4149.97 -4150.06
-5473.02 -5472.81 -5494.84 -5505.09 -5526.85 -5567.99 -5615.87 -5627.07 -5651.94 -5419.44 -5091.14 -4664.98 -4071.08 -3316.55 -3044.70 -2852.10 -2822.59 -2675.92 -2171.86 -1639.85 -1580.18 -1636.70 -600.15 125.16 166.45 191.81 206.38 254.56 296.31 352.28 401.27 440.64 483.53 551.10 595.77 601.13 638.71 654.02 714.33 797.26 856.05 829.30 765.49 745.75 694.65 648.74 636.42 617.74 592.98 587.54 572.14 574.05 590.37 591.09 603.97 611.32 693.18 683.89 648.16 630.52 626.01 585.92 545.32 502.58 477.83 456.71 440.30 428.46 418.78 404.50 396.20 390.12 386.10 386.81 386.87 388.87 396.13 405.02 413.38 429.25 444.15 465.26 493.98 514.61 531.47 569.97 579.63 599.55 602.36 605.47 596.52 585.45 567.23 543.26 523.83 508.85 489.06 455.91 432.54 380.72 366.87 335.64 295.20 251.61 202.76 183.09 137.76 79.38 -119.70 -823.98 -2414.81 -4800.57 -4488.94 -4624.38 -4746.35 -4699.76 -4298.55 -3662.23 -1552.10 -381.18 -186.22 -132.49 -188.17 -235.28 -272.46 -401.83 -495.19 -742.88 -964.87 -1544.92 -2766.42 -3492.10 -4019.86 -4205.53 -4186.08 -4177.27 -4165.21 -4163.26 -4160.61 -4158.93 -4159.02
-5709.26 -5704.00 -5636.43 -5539.34 -5546.33 -5567.07 -5499.62 -5241.74 -5092.12 -4802.63 -4327.00 -3780.16 -3709.86 -3396.31 -3342.70 -3090.72 -3032.32 -2838.95 -2318.07 -1623.29 -1481.06 -1164.37 -345.90 155.55 179.23 207.55 225.19 278.38 318.23 362.05 441.31 469.62 498.10 540.31 588.00 627.92 703.80 745.66 739.09 806.68 845.30 831.04 720.51 674.29 657.59 633.31 597.37 583.50 581.24 558.61 555.97 554.65 570.52 577.38 601.41 619.94 685.76 691.12 708.52 691.47 671.05 615.39 565.81 509.28 489.66 466.63 458.34 438.56 423.11 408.33 400.07 393.57 389.86 389.81 389.18 391.48 395.54 402.03 415.12 434.66 447.47 459.49 479.11 505.84 523.88 555.23 565.92 574.22 587.13 584.03 576.22 569.30 557.81 537.59 521.32 507.41 478.18 448.51 420.10 380.55 363.01 313.68 279.75 235.61 196.58 174.44 -11.30 2.49 -319.89 -1309.75 -2189.36 -4265.44 -4295.98 -4481.74 -4716.92 -4684.75 -3636.54 -2592.65 -794.46 -328.62 -114.04 -141.17 -171.71 -209.88 -271.08 -391.79 -565.32 -824.53 -1083.73 -1793.01 -3049.52 -3920.72 -4187.58 -4209.18 -4191.82 -4179.47 -4172.12 -4169.99 -4168.27 -4172.69 -4172.79
-5564.74 -5564.85 -5237.45 -5162.84 -5078.21 -4816.53 -4665.28 -4353.55 -4067.00 -3871.21 -3855.04 -3665.09 -3591.16 -3620.83 -3625.14 -3538.82 -3348.00 -2913.35 -2340.97 -1689.44 -1061.14 -782.49 116.54 166.93 198.17 223.89 236.50 278.21 316.28 354.67 411.08 458.68 521.25 585.20 616.09 668.88 793.19 862.58 808.21 801.98 782.56 770.40 701.60 644.10 617.43 587.70 583.91 565.91 555.44 544.05 541.49 540.66 553.36 559.11 576.88 608.80 634.52 689.57 745.43 751.59 694.97 617.79 577.34 538.62 507.64 478.59 461.71 460.92 436.37 418.13 406.90 396.92 392.49 390.55 390.83 393.59 398.29 403.56 414.33 428.96 448.89 461.22 479.49 494.07 526.81 550.22 555.50 561.17 566.29 567.35 558.11 558.02 550.20 536.69 522.80 509.08 466.04 433.71 400.04 357.34 329.41 290.23 259.11 230.95 190.37 155.43 -209.45 -576.32 -956.75 -1728.48 -3020.30 -3594.27 -4069.30 -4469.18 -4635.76 -4629.61 -3489.44 -1777.89 -516.02 -203.13 -81.76 -129.52 -169.78 -211.55 -260.27 -346.03 -592.01 -1002.91 -1509.07 -2474.22 -2947.88 -3743.77 -4119.68 -4212.41 -4195.43 -4189.65 -4183.75 -4185.39 -4191.11 -4183.17 -4183.26
-4479.49 -4480.98 -4435.43 -4206.38 -4248.11 -3867.66 -3841.28 -3714.60 -3692.77 -3666.33 -3689.01 -3696.97 -3753.32 -3775.94 -3754.20 -3751.91 -3582.17 -3215.16 -2479.46 -1936.45 -922.79 -372.24 122.14 171.94 198.73 225.71 247.46 301.47 326.03 345.12 383.20 455.92 510.05 548.34 615.30 707.40 820.94 829.92 736.96 709.92 713.09 692.24 635.50 610.25 585.50 583.53 559.03 545.80 541.80 532.74 533.98 535.08 540.82 545.94 560.26 588.65 599.96 662.13 706.84 763.54 756.40 620.99 573.50 540.74 529.62 512.57 476.59 464.91 441.19 428.56 414.75 401.08 394.73 391.24 391.63 395.91 401.24 408.07 415.65 429.25 446.26 465.53 487.11 497.86 518.18 540.60 547.06 551.32 552.76 551.95 542.00 538.13 530.41 527.34 516.84 470.69 449.98 401.46 361.80 355.00 305.67 279.39 250.53 206.35 166.43 15.01 -320.76 -1227.88 -1609.93 -2226.55 -2997.35 -3644.17 -4467.90 -4859.29 -4860.72 -4343.69 -3180.59 -1465.22 -422.51 -79.52 -83.78 -129.39 -165.97 -208.29 -252.20 -370.68 -700.18 -1220.61 -1769.00 -2565.01 -3370.33 -3544.35 -4190.10 -4215.01 -4207.16 -4200.15 -4196.04 -4200.61 -4197.35 -4194.97 -4195.08
-3641.58 -3643.00 -3700.83 -3767.86 -3690.27 -3656.35 -3637.26 -3652.95 -3700.43 -3746.45 -3758.45 -3798.88 -3825.91 -3852.37 -3859.18 -3857.91 -3791.07 -3507.65 -3104.67 -2289.26 -1012.50 66.07 146.10 170.42 192.80 202.85 250.17 282.35 322.31 366.92 397.33 446.39 542.24 614.77 682.90 722.09 728.82 792.70 730.48 632.17 677.88 660.80 591.81 568.38 562.77 552.58 532.78 528.77 527.55 522.29 527.84 527.09 529.17 537.83 551.35 566.12 592.81 621.68 681.81 736.33 723.49 651.41 623.38 556.63 532.81 527.45 488.63 466.33 445.00 433.79 415.45 401.48 395.94 390.91 392.14 397.29 399.89 406.03 413.96 432.09 448.68 463.57 482.07 492.92 523.76 529.73 537.95 541.33 543.83 538.67 524.53 517.94 512.26 500.86 490.71 470.38 438.26 425.82 367.10 332.51 301.00 269.50 223.82 197.82 148.28 -6.39 -630.80 -1522.88 -1562.06 -1980.92 -2729.61 -4221.64 -5110.30 -5156.20 -4958.11 -4493.24 -2645.58 -822.96 -146.08 -61.82 -77.38 -134.89 -172.39 -224.89 -254.08 -418.09 -737.03 -1335.47 -2081.15 -2718.49 -3365.46 -3909.71 -4218.67 -4221.73 -4215.19 -4212.57 -4210.23 -4208.26 -4209.28 -4205.51 -4205.62
-3622.32 -3622.18 -3647.89 -3650.57 -3686.31 -3712.42 -3732.48 -3763.96 -3792.97 -3812.43 -3838.26 -3854.86 -3877.78 -3886.89 -3903.42 -3903.74 -3820.68 -3631.74 -3304.76 -2272.85 -2028.50 -307.04 130.64 160.33 194.96 198.86 241.19 291.64 329.30 342.13 388.22 407.79 496.13 561.96 682.41 653.97 625.71 656.43 647.17 615.64 636.80 615.08 581.25 544.92 524.97 521.64 521.92 514.06 507.82 512.32 518.70 518.72 522.58 534.63 543.24 558.91 574.70 603.08 634.70 718.30 719.39 668.21 629.63 622.14 579.34 536.78 494.74 468.92 452.06 438.28 418.62 403.55 395.51 391.26 392.44 397.90 402.91 410.72 418.12 436.29 451.42 457.08 484.82 494.91 513.09 524.88 531.50 533.82 529.88 517.85 514.29 508.42 506.91 488.57 460.07 438.85 431.85 402.85 353.68 310.54 284.46 257.33 208.62 181.46 146.45 -13.00 -444.06 -1255.33 -1504.36 -1634.84 -3307.87 -4451.61 -5131.96 -5274.35 -5042.58 -3920.11 -1615.28 -560.21 -88.75 -44.16 -91.81 -146.23 -173.81 -223.56 -298.05 -442.03 -951.93 -1283.29 -2437.21 -3050.71 -3760.75 -4235.44 -4229.05 -4231.25 -4223.60 -4224.19 -4218.63 -4220.83 -4218.27 -4216.80 -4216.92
-3759.59 -3758.77 -3769.57 -3773.51 -3797.38 -3823.79 -3828.54 -3834.47 -3857.00 -3869.84 -3874.93 -3880.29 -3895.38 -3907.91 -3917.02 -3920.42 -3846.17 -3720.73 -3242.75 -2575.97 -1452.50 57.51 127.65 167.67 192.23 207.52 252.85 269.18 306.19 321.19 344.78 388.21 440.85 522.85 552.53 517.36 552.35 572.58 564.85 555.17 541.32 529.23 514.78 504.22 510.79 500.59 497.24 498.33 502.85 505.34 509.47 510.60 518.76 530.95 543.63 554.76 569.80 593.62 632.55 700.11 728.39 681.27 665.32 664.00 615.66 541.40 522.34 475.57 472.51 446.37 426.13 411.26 394.63 392.09 392.17 399.03 403.09 413.85 419.97 437.02 450.45 465.97 488.35 505.56 517.34 522.76 521.60 521.80 518.80 508.67 502.78 496.24 491.38 481.81 435.19 418.42 413.44 376.45 348.23 301.65 272.87 252.48 207.95 165.45 134.89 86.41 -572.60 -1462.55 -1459.53 -1782.23 -3246.07 -4108.92 -5259.01 -5327.71 -4817.86 -3567.36 -1847.99 -444.21 -90.10 -24.40 -91.66 -127.90 -177.74 -239.09 -356.62 -514.39 -1132.93 -1461.98 -2154.24 -3170.83 -3817.89 -4222.86 -4234.95 -4234.82 -4234.93 -4233.89 -4230.05 -4232.36 -4233.33 -4231.33 -4231.51
-3831.54 -3831.08 -3832.01 -3847.84 -3849.38 -3858.92 -3867.83 -3892.63 -3887.25 -3896.08 -3903.80 -3903.39 -3910.42 -3916.69 -3929.30 -3922.91 -3870.40 -3544.26 -3130.71 -2550.10 -1797.36 -256.69 117.37 164.80 176.83 211.43 234.33 255.46 290.02 308.07 338.23 361.10 376.03 429.88 479.68 497.68 485.85 486.76 498.12 500.57 501.19 492.00 487.50 493.22 492.50 489.71 492.46 490.46 493.63 498.05 503.33 508.80 515.41 528.30 540.96 553.26 571.39 616.30 640.30 691.48 733.97 729.87 722.77 707.89 670.12 575.87 574.52 522.60 488.67 461.04 428.89 420.71 399.48 391.46 392.36 397.96 403.50 413.15 421.14 441.41 457.96 476.75 489.62 501.00 512.29 512.09 513.70 514.59 509.87 494.35 490.15 485.66 479.77 466.76 420.57 402.37 354.88 345.00 321.37 276.56 252.97 224.93 188.70 156.62 132.07 -351.28 -1407.70 -1513.24 -1515.03 -1906.30 -3185.15 -4513.75 -5100.27 -5291.40 -4770.80 -3142.39 -1510.49 -235.12 -41.74 -11.59 -80.60 -135.03 -186.32 -253.65 -449.68 -643.13 -899.04 -1423.04 -2204.27 -2904.39 -3591.94 -4163.00 -4228.95 -4241.66 -4249.20 -4247.23 -4242.86 -4241.46 -4244.24 -4245.71 -4245.81
-3876.25 -3876.83 -3883.41 -3887.96 -3901.58 -3897.04 -3899.35 -3907.65 -3902.80 -3908.21 -3924.18 -3929.23 -3930.12 -3934.96 -3936.86 -3907.42 -3770.79 -3447.73 -3000.68 -2338.19 -1085.82 -7.51 129.11 157.50 168.26 190.83 218.36 251.29 270.82 290.70 318.72 329.65 338.11 368.98 438.23 457.36 444.94 447.82 452.49 465.62 469.94 465.51 466.22 474.65 473.93 480.94 477.05 479.79 487.66 494.11 497.48 507.19 517.90 530.84 538.47 545.61 569.28 601.03 646.07 670.79 742.95 748.29 741.12 740.87 723.65 692.55 669.09 584.99 508.91 481.69 430.71 423.60 398.47 391.03 391.97 397.11 400.36 409.59 421.32 436.49 459.16 474.12 487.13 496.39 507.49 508.42 508.29 502.84 496.02 487.73 476.51 465.19 461.91 440.56 420.73 383.32 349.30 295.86 264.38 243.48 212.73 189.48 184.22 156.01 133.79 -790.82 -1420.86 -1472.42 -1455.00 -2004.54 -3154.70 -4715.20 -5198.41 -5235.20 -5022.25 -3943.77 -952.97 -509.60 -83.86 -36.36 -77.47 -142.12 -197.52 -247.91 -407.52 -709.50 -902.76 -1447.63 -2214.56 -2637.55 -3058.30 -3803.53 -4164.86 -4254.07 -4257.06 -4259.29 -4252.14 -4260.08 -4260.64 -4259.83 -4259.84
-3913.18 -3913.16 -3916.20 -3924.27 -3930.43 -3937.13 -3941.86 -3943.13 -3948.81 -3946.37 -3940.09 -3940.35 -3941.79 -3947.88 -3943.31 -3875.20 -3717.87 -3333.41 -2528.66 -1725.75 -1144.82 -23.63 117.51 144.30 157.78 182.51 204.94 225.48 245.76 265.68 281.61 302.96 317.20 339.75 377.79 393.26 406.78 426.13 427.79 441.33 449.93 454.38 449.25 449.97 462.83 463.30 466.21 472.88 480.13 490.14 495.37 502.59 515.81 523.93 535.71 544.48 558.28 588.75 634.47 636.80 677.14 707.69 682.41 683.24 689.89 667.69 670.53 600.04 546.69 480.22 434.94 418.18 393.01 391.01 390.77 393.30 399.46 409.57 418.76 444.66 456.91 473.43 485.86 494.31 502.29 505.42 501.80 482.80 480.57 470.32 459.06 457.35 447.25 431.83 404.94 373.08 332.91 270.87 244.27 234.60 170.66 165.24 156.98 -51.14 -742.21 -1367.37 -1422.81 -1396.42 -1443.92 -2157.34 -2973.02 -5032.20 -5188.74 -5348.97 -5182.47 -3989.72 -2130.45 -1026.99 -314.46 -114.68 -109.12 -140.20 -210.64 -260.80 -382.51 -590.26 -1008.05 -1456.24 -2153.94 -2539.21 -3288.29 -3717.49 -4150.56 -4259.84 -4262.72 -4266.49 -4268.98 -4271.97 -4274.43 -4275.41 -4275.47
-3939.81 -3939.75 -3942.40 -3951.26 -3953.04 -3956.80 -3956.55 -3957.26 -3959.29 -3957.80 -3957.94 -3958.28 -3958.97 -3957.25 -3946.05 -3872.31 -3683.33 -3217.76 -2159.03 -1595.54 -1122.28 -600.39 127.14 136.94 151.83 173.96 188.06 198.05 231.21 253.71 264.02 283.91 305.21 328.76 355.35 374.96 367.53 385.92 398.30 400.85 409.28 415.69 435.43 436.04 443.48 448.06 455.87 468.55 472.92 485.89 493.48 502.73 514.28 524.43 534.12 541.95 557.29 566.53 596.26 616.17 643.92 662.03 635.24 617.35 626.23 588.21 570.37 585.40 542.89 461.98 435.34 410.07 392.46 389.41 387.58 390.78 398.73 410.18 416.52 430.33 455.57 462.86 485.22 493.05 500.96 501.30 495.14 479.67 474.14 463.72 449.21 437.85 421.53 407.43 383.79 363.80 319.93 245.06 225.39 185.13 153.21 144.22 72.91 -616.95 -1136.15 -1361.94 -1359.93 -1351.61 -1523.21 -2374.47 -3518.19 -4924.35 -5320.22 -5359.53 -5262.82 -4538.17 -3261.71 -1752.46 -1249.56 -156.27 -167.64 -152.95 -192.89 -264.58 -340.54 -694.02 -1148.44 -1681.72 -2158.56 -2736.80 -3478.97 -3986.04 -4164.59 -4264.32 -4268.89 -4277.59 -4280.60 -4284.48 -4287.05 -4289.49 -4289.56
-3958.15 -3958.08 -3962.89 -3970.84 -3971.03 -3971.83 -3974.53 -3975.79 -3974.71 -3973.48 -3971.68 -3971.08 -3967.27 -3965.45 -3959.30 -3880.29 -3643.37 -3320.79 -2353.57 -1694.11 -1164.77 -747.37 -129.72 119.16 144.99 165.58 170.22 192.36 194.93 210.43 240.23 253.82 285.22 301.15 313.31 333.05 348.00 359.57 380.28 387.58 388.10 386.82 398.97 412.45 432.64 437.61 450.85 460.46 470.55 483.23 491.84 499.49 511.58 522.48 533.68 545.10 562.29 571.32 582.15 600.95 614.09 592.48 589.58 571.73 585.83 560.16 549.34 516.76 494.25 450.85 429.71 404.16 388.74 386.00 384.65 386.01 391.56 401.56 413.10 435.93 453.93 467.95 480.30 490.66 498.35 498.59 486.12 478.08 467.47 450.50 439.87 422.13 406.38 385.16 359.75 326.03 264.54 228.92 205.32 158.51 142.89 130.71 -173.86 -889.82 -1208.28 -1273.91 -1301.73 -1318.01 -1469.39 -2628.80 -3915.29 -4762.38 -5337.44 -5383.73 -5387.57 -5176.72 -4571.58 -2753.53 -1756.74 -805.19 -206.71 -170.09 -208.52 -311.85 -521.31 -900.62 -1447.88 -2001.77 -2357.59 -2954.88 -3768.88 -4013.53 -4226.05 -4269.23 -4276.66 -4282.23 -4286.38 -4290.52 -4292.91 -4298.16 -4298.24
-3973.53 -3973.45 -3979.20 -3979.57 -3988.20 -3988.09 -3988.46 -3987.57 -3986.30 -3982.96 -3984.43 -3980.46 -3976.47 -3974.23 -3962.83 -3916.34 -3762.07 -3547.79 -2899.87 -2356.78 -1459.57 -964.37 -595.91 -248.53 40.67 140.77 162.16 172.10 186.68 202.10 218.83 246.54 260.88 288.47 300.77 306.56 337.26 341.09 365.95 367.88 369.96 382.53 390.43 396.48 413.33 430.19 443.45 451.36 464.47 470.69 486.97 496.49 510.44 521.38 533.76 545.04 561.07 585.75 609.98 614.75 600.21 581.02 570.77 554.85 528.45 517.49 504.53 491.33 453.77 435.59 407.47 394.68 388.46 380.57 376.97 380.86 389.16 396.81 405.78 430.24 455.89 465.28 475.85 489.85 498.80 497.42 482.12 476.07 464.71 437.22 428.22 407.76 374.35 354.51 334.96 275.97 231.87 223.42 204.96 150.06 122.05 29.37 -477.52 -1085.05 -1172.95 -1203.93 -1247.79 -1345.02 -1462.01 -2540.62 -3895.86 -5081.02 -5326.98 -5397.91 -5416.32 -5364.32 -5194.35 -4515.45 -2809.01 -1682.81 -421.51 -240.70 -237.49 -305.53 -709.85 -1220.15 -1419.85 -2439.20 -2736.91 -3137.14 -3879.02 -4235.12 -4258.01 -4265.43 -4276.11 -4282.29 -4288.93 -4292.86 -4297.08 -4302.61 -4302.69
-3986.13 -3986.64 -3990.33 -3993.46 -3996.79 -3999.33 -3997.41 -3996.36 -3998.14 -3990.72 -3989.11 -3986.54 -3982.85 -3978.96 -3963.65 -3940.21 -3820.86 -3593.52 -3159.19 -2715.34 -2218.19 -1507.89 -1069.03 -530.20 -66.97 108.05 144.24 147.35 158.18 180.30 202.65 221.55 246.88 272.33 280.13 283.05 309.52 314.57 323.58 342.70 349.33 359.03 376.23 390.77 396.49 410.18 439.87 444.18 458.39 467.35 482.54 499.30 506.22 520.80 529.37 554.98 593.02 603.31 624.62 604.66 585.63 558.94 535.63 533.73 505.75 478.55 471.85 448.06 442.54 430.96 399.76 390.06 382.20 372.36 371.63 375.38 385.62 395.59 410.46 426.30 444.71 458.21 477.07 497.02 499.32 497.70 485.40 475.52 466.21 435.50 418.55 386.94 351.06 340.74 306.11 260.17 228.17 204.32 169.60 116.89 114.35 -60.06 -337.87 -902.96 -1101.75 -1166.05 -1257.75 -1375.85 -1605.45 -2585.80 -4177.33 -5004.84 -5345.11 -5404.46 -5432.44 -5433.68 -5275.83 -4957.15 -3486.08 -1742.53 -528.94 -259.20 -280.53 -410.59 -684.86 -1121.42 -1521.48 -2469.88 -3356.84 -3857.64 -4079.20 -4228.78 -4254.69 -4262.61 -4274.04 -4279.90 -4287.78 -4292.78 -4297.65 -4302.53 -4302.62
-3992.04 -3991.96 -3994.96 -4000.59 -4002.47 -4003.59 -4004.29 -4002.78 -4002.23 -4000.53 -3996.59 -3991.69 -3984.71 -3981.63 -3974.05 -3966.18 -3916.91 -3842.76 -3570.36 -3365.58 -2697.99 -1904.27 -1337.32 -819.75 -134.81 84.21 117.28 129.92 143.12 162.94 181.93 201.27 213.40 247.24 268.01 277.85 281.74 295.84 309.77 324.11 332.93 342.79 349.82 370.97 390.38 400.03 424.24 442.19 449.76 465.92 479.48 495.88 504.42 521.39 559.35 570.45 614.77 648.58 642.01 593.48 555.31 525.30 520.16 498.51 485.02 474.88 455.62 428.22 419.84 408.36 391.87 385.58 370.01 362.86 367.99 371.43 379.28 395.21 405.50 424.46 440.22 453.75 482.62 496.91 497.00 494.26 484.85 474.52 461.70 429.95 409.47 376.15 339.45 311.07 287.12 242.84 218.85 184.88 133.00 51.91 -97.15 -477.26 -883.78 -1051.28 -1128.41 -1171.74 -1270.79 -1442.83 -2042.76 -2906.35 -4476.82 -5090.81 -5359.79 -5405.14 -5431.41 -5450.26 -5381.37 -5117.47 -3568.52 -2259.31 -611.61 -308.22 -359.76 -631.86 -914.91 -1442.78 -2130.25 -2824.44 -3750.87 -4058.60 -4205.33 -4236.98 -4254.15 -4261.15 -4272.30 -4277.88 -4281.92 -4289.78 -4294.22 -4299.22 -4299.30
-3994.29 -3994.86 -3997.82 -4003.46 -4004.17 -4005.17 -4005.90 -4006.04 -4005.14 -4003.31 -3997.93 -3993.65 -3988.15 -3983.92 -3978.82 -3970.34 -3949.33 -3909.81 -3800.86 -3433.10 -3201.92 -2468.33 -1336.15 -901.02 -496.80 -282.25 -52.25 68.86 106.99 151.85 176.97 181.94 199.64 221.43 233.50 251.44 265.92 282.66 283.48 305.83 313.56 324.02 335.21 358.58 379.12 391.89 408.06 430.11 444.92 467.09 473.21 496.94 507.21 525.27 567.93 596.05 653.25 671.19 652.35 605.97 556.50 518.83 501.74 483.66 475.92 459.08 431.64 422.79 408.60 390.75 382.68 364.82 359.88 356.82 359.96 368.56 376.24 391.14 400.18 419.90 432.22 452.46 460.60 488.86 494.60 493.94 488.40 474.58 451.72 409.87 359.99 336.69 318.20 289.35 252.26 220.77 182.03 152.57 115.07 -21.82 -412.00 -872.77 -1096.29 -1068.33 -1112.79 -1197.97 -1355.51 -1504.50 -1896.15 -3091.27 -4685.39 -5109.89 -5344.02 -5399.50 -5433.16 -5458.98 -5392.69 -5197.34 -3707.48 -2205.09 -761.37 -344.65 -432.35 -820.46 -1382.95 -1916.10 -2147.74 -2798.80 -3653.21 -4112.52 -4221.62 -4242.87 -4249.03 -4257.10 -4265.27 -4273.45 -4274.19 -4282.01 -4286.45 -4292.64 -4292.73
-4002.72 -4002.65 -4004.69 -4009.96 -4013.70 -4014.47 -4010.90 -4012.36 -4012.86 -4010.08 -4005.76 -3999.83 -3994.87 -3987.40 -3984.06 -3979.32 -3971.43 -3964.86 -3907.76 -3713.01 -3457.26 -2640.94 -1774.06 -1144.93 -631.26 -512.76 -405.99 -276.64 -84.97 -48.88 150.53 160.80 172.49 192.60 209.91 220.59 233.40 259.62 277.88 290.69 296.86 308.95 317.65 343.90 363.40 374.56 388.55 417.33 427.97 455.74 470.17 501.25 516.83 547.39 599.12 602.17 685.97 694.73 663.44 608.50 562.62 511.75 486.37 465.23 448.35 430.64 418.52 415.41 393.60 380.73 368.05 356.14 353.41 351.17 354.49 363.21 369.86 384.77 392.25 413.72 426.91 444.69 463.09 475.77 493.23 494.02 487.48 482.06 432.78 403.63 362.39 371.16 302.16 258.09 225.52 211.26 166.52 133.38 114.03 -356.08 -933.05 -1061.10 -1060.68 -1111.19 -1191.02 -1242.78 -1362.63 -1431.30 -2357.77 -3303.40 -4519.34 -5318.08 -5394.33 -5402.75 -5429.72 -5455.08 -5392.76 -5055.03 -3305.46 -1930.24 -595.65 -366.95 -577.32 -1036.54 -1420.42 -2101.84 -3079.78 -3237.67 -3929.57 -4227.91 -4232.69 -4238.10 -4242.58 -4250.56 -4260.00 -4265.45 -4269.54 -4274.68 -4279.65 -4284.02 -4284.10
-4016.02 -4015.95 -4018.09 -4021.09 -4021.49 -4022.07 -4023.72 -4022.65 -4022.46 -4020.91 -4018.27 -4005.96 -4001.79 -3998.41 -3989.28 -3986.13 -3978.12 -3970.65 -3897.14 -3827.13 -3359.17 -2752.03 -1827.87 -1093.72 -552.95 -473.66 -427.30 -523.55 -548.49 -556.50 -335.13 138.81 145.94 176.00 193.26 210.13 219.65 232.79 256.30 266.13 276.86 292.02 305.88 318.59 344.39 361.51 367.27 384.14 407.32 449.43 471.96 505.47 529.53 570.64 627.99 651.46 696.27 690.94 621.84 594.39 558.29 532.09 474.01 449.39 433.81 424.37 410.13 392.44 381.79 370.80 360.37 352.14 343.06 343.71 350.27 355.05 364.51 375.51 384.85 406.12 424.11 441.06 466.75 473.03 487.90 492.35 489.37 457.35 429.09 383.21 361.33 360.46 299.89 236.18 214.08 160.28 131.41 122.26 -225.23 -962.95 -1211.78 -1117.27 -1092.94 -1124.23 -1218.70 -1270.27 -1348.95 -1708.74 -2577.17 -3562.95 -4596.56 -5222.74 -5386.52 -5395.73 -5427.76 -5433.27 -5238.54 -4819.49 -2884.71 -1762.01 -471.02 -511.64 -796.18 -1288.74 -1780.68 -2274.93 -3337.26 -3974.95 -4111.42 -4233.55 -4232.92 -4235.84 -4238.13 -4244.12 -4251.14 -4259.20 -4261.43 -4264.91 -4266.72 -4271.95 -4273.52
-4029.48 -4029.42 -4030.91 -4036.17 -4038.06 -4037.58 -4035.87 -4035.69 -4037.89 -4031.35 -4027.86 -4022.69 -4016.38 -4007.70 -4001.63 -3999.32 -3989.67 -3973.52 -3909.79 -3771.44 -3213.94 -2818.68 -1837.15 -1082.00 -703.07 -729.51 -931.78 -797.49 -823.05 -1015.02 -888.15 -425.35 131.48 162.41 164.22 186.42 200.77 215.07 229.40 242.33 258.20 273.02 290.54 296.82 315.74 326.81 351.21 372.94 393.63 449.78 470.56 511.81 558.51 611.38 668.61 679.61 638.58 609.39 586.74 558.21 529.38 502.71 464.65 426.89 420.37 414.47 403.51 387.72 372.16 357.49 348.09 338.84 335.26 336.20 344.11 349.97 359.62 366.63 379.52 405.48 421.50 447.15 460.94 462.19 470.90 469.03 463.25 447.61 405.99 387.44 387.93 287.18 233.05 198.98 184.43 137.16 114.10 -103.20 -589.72 -1179.86 -1190.95 -1148.55 -1129.04 -1173.31 -1218.87 -1299.42 -1402.41 -1874.99 -2875.41 -4121.21 -4747.46 -5295.39 -5372.54 -5394.09 -5420.99 -5438.18 -5327.66 -4457.11 -2688.76 -1226.35 -448.18 -498.27 -1154.93 -1496.75 -2345.73 -3058.22 -3891.47 -4209.75 -4232.92 -4232.67 -4231.96 -4234.65 -4235.48 -4237.89 -4241.67 -4246.04 -4247.92 -4253.60 -4258.18 -4262.42 -4262.51
-4045.92 -4047.70 -4052.24 -4050.52 -4052.35 -4050.02 -4053.04 -4048.72 -4052.82 -4048.81 -4044.90 -4038.67 -4036.00 -4020.32 -4012.51 -4008.95 -4003.80 -3992.37 -3906.11 -3712.77 -3280.55 -2599.90 -1892.41 -1408.31 -1294.05 -1280.97 -1279.94 -1398.35 -1626.71 -1623.77 -1707.47 -1121.19 -139.53 128.38 149.66 174.01 186.28 199.12 208.34 220.78 238.11 244.43 270.39 281.34 310.19 321.79 343.28 361.50 401.31 431.11 484.95 528.49 603.29 659.06 619.86 614.58 599.30 544.75 550.48 525.40 511.57 470.87 438.65 419.03 413.31 405.04 395.76 379.63 365.99 348.20 341.00 332.04 329.78 330.39 333.71 337.05 348.87 360.14 371.80 389.01 411.03 441.76 455.97 457.09 459.91 444.58 427.71 416.27 394.17 383.15 385.67 322.09 227.90 199.40 174.73 117.93 -72.64 -664.20 -1057.70 -1206.02 -1129.93 -1143.21 -1201.03 -1193.10 -1252.25 -1334.71 -1427.65 -2106.55 -2908.47 -4525.52 -5193.83 -5359.62 -5392.76 -5404.00 -5434.87 -5428.27 -5118.33 -4764.59 -2095.19 -561.24 -344.09 -555.54 -800.05 -1465.61 -2502.15 -3645.99 -3997.96 -4238.77 -4233.09 -4232.41 -4230.95 -4230.03 -4230.17 -4233.56 -4238.32 -4242.47 -4242.09 -4242.80 -4247.61 -4251.20 -4251.28
-4070.21 -4070.16 -4069.14 -4068.54 -4073.37 -4083.66 -4075.05 -4069.47 -4070.53 -4063.40 -4062.24 -4054.97 -4050.97 -4041.42 -4033.97 -4025.80 -4021.55 -3996.33 -3962.04 -3777.49 -3456.63 -2775.63 -2273.29 -1990.80 -1873.77 -1992.59 -2089.76 -2225.10 -2289.80 -2675.26 -2844.01 -1927.72 -1091.92 123.88 148.95 158.23 169.97 181.74 197.35 208.01 212.82 223.15 241.28 257.99 287.14 301.45 325.20 352.89 387.09 436.79 501.72 541.00 625.96 626.46 609.51 543.61 548.75 520.79 504.13 485.99 479.00 464.47 432.35 413.99 404.33 395.26 382.96 378.12 349.22 339.50 333.83 324.69 321.73 323.95 326.78 329.33 341.03 353.34 367.66 380.62 403.53 416.83 439.99 446.68 435.42 413.88 407.10 387.81 366.78 391.16 321.67 237.80 214.15 171.78 156.89 60.22 -331.25 -763.40 -1210.28 -1150.92 -1123.14 -1166.18 -1239.85 -1254.24 -1331.44 -1455.99 -1886.43 -2715.81 -3721.60 -4796.78 -5296.57 -5356.17 -5397.08 -5422.18 -5444.79 -5371.63 -5096.47 -3897.15 -1650.51 -617.83 -365.70 -517.21 -997.91 -1481.21 -2367.46 -3468.33 -3801.02 -4162.33 -4233.40 -4231.62 -4230.17 -4229.91 -4229.30 -4229.68 -4232.80 -4234.40 -4233.30 -4233.10 -4239.24 -4239.25 -4239.33
-4098.51 -4098.45 -4096.78 -4102.40 -4104.54 -4101.51 -4105.55 -4096.73 -4087.57 -4087.37 -4083.57 -4073.96 -4068.13 -4059.26 -4057.17 -4045.87 -4039.73 -4026.16 -3997.79 -3823.42 -3608.21 -3269.90 -2993.27 -2847.35 -2775.12 -3157.14 -3221.76 -3216.43 -3368.03 -3326.48 -3718.71 -3913.40 -2164.18 -345.08 140.91 145.56 156.32 161.95 176.90 186.05 200.10 218.69 242.88 261.91 271.43 281.88 300.72 330.78 380.52 409.95 453.74 547.45 604.46 571.37 515.81 467.88 481.19 478.31 463.92 456.41 444.52 421.21 414.19 406.80 400.56 386.33 373.77 352.69 337.16 333.23 321.52 319.03 318.07 318.89 319.17 325.42 334.88 350.20 367.32 382.66 398.45 410.45 425.57 427.27 409.78 400.38 364.29 355.37 325.90 309.48 265.69 231.94 190.49 136.64 32.03 -150.40 -588.38 -1067.53 -1151.71 -1121.49 -1151.53 -1212.84 -1297.58 -1406.35 -1503.37 -1950.08 -2255.19 -3448.91 -4578.87 -5142.89 -5293.11 -5356.65 -5406.17 -5433.38 -5459.11 -5368.16 -5001.14 -3304.86 -1593.01 -645.48 -439.59 -558.22 -1049.36 -1948.27 -2550.22 -3278.92 -3899.53 -4137.61 -4235.38 -4232.78 -4230.21 -4228.74 -4229.18 -4228.50 -4227.49 -4224.61 -4228.06 -4228.17 -4229.55 -4227.99 -4228.07
-4119.81 -4119.75 -4118.05 -4123.48 -4121.07 -4125.64 -4123.19 -4110.66 -4108.57 -4103.17 -4099.18 -4091.53 -4087.25 -4084.85 -4073.48 -4068.02 -4054.83 -4050.31 -4019.66 -3983.69 -3905.25 -3653.29 -3538.77 -3445.98 -3509.15 -3577.17 -3664.29 -3655.01 -3827.67 -3879.05 -4038.25 -4338.64 -3426.83 -1626.54 -406.30 54.64 133.04 142.76 151.64 167.56 182.36 198.12 232.35 237.11 257.57 270.74 284.28 320.74 358.91 384.20 442.68 515.06 542.07 485.59 460.55 435.64 434.98 423.29 433.87 416.69 420.84 416.05 414.22 404.85 388.81 373.07 359.01 346.79 332.29 324.73 317.99 316.59 315.79 313.40 314.96 326.03 332.85 348.25 366.53 380.98 392.45 402.64 407.66 406.05 385.36 356.84 342.50 306.64 289.35 269.09 221.76 193.62 171.70 24.57 -93.70 -538.82 -1169.84 -1167.37 -1132.77 -1161.03 -1264.60 -1530.01 -1586.89 -2140.92 -2332.15 -2596.65 -3906.69 -4372.10 -4967.10 -5238.56 -5341.88 -5367.67 -5420.59 -5453.21 -5465.56 -5344.58 -4469.52 -3660.58 -1772.79 -667.13 -555.25 -910.00 -1296.85 -2167.65 -2709.94 -3430.85 -3898.75 -4133.16 -4237.53 -4232.95 -4230.61 -4227.76 -4226.33 -4224.95 -4221.23 -4219.19 -4218.84 -4220.40 -4222.50 -4217.95 -4218.02
-4134.72 -4134.66 -4135.53 -4138.74 -4137.09 -4141.22 -4140.44 -4133.36 -4127.80 -4118.06 -4118.07 -4114.38 -4104.01 -4101.07 -4094.22 -4094.26 -4082.32 -4078.64 -4074.00 -4037.60 -4042.02 -4018.99 -3905.43 -3893.71 -3905.08 -3945.96 -3947.00 -4013.13 -4017.11 -4068.04 -4155.83 -4308.11 -4323.44 -3520.92 -630.70 -299.30 115.15 118.47 126.25 146.16 171.94 186.10 195.13 206.20 231.73 247.27 273.40 310.77 325.32 365.18 420.56 450.53 471.72 425.02 423.99 399.10 391.76 396.61 404.11 386.72 393.77 387.39 391.31 389.55 388.69 370.97 355.03 340.46 328.98 323.84 317.26 311.65 310.45 311.19 312.23 323.64 331.87 339.61 362.10 381.98 391.41 399.60 399.83 399.32 385.69 346.65 321.39 302.35 259.60 233.88 196.17 172.47 149.01 -123.08 -549.97 -890.07 -1170.98 -1179.63 -1184.21 -1305.58 -1701.48 -1915.33 -2113.07 -2735.64 -3349.34 -3976.69 -4563.17 -5095.87 -5326.80 -5417.78 -5404.26 -5402.10 -5438.75 -5457.96 -5473.70 -5414.60 -4793.63 -2635.15 -1507.59 -551.84 -744.70 -1088.77 -1424.67 -2361.68 -3040.19 -3558.66 -4154.78 -4242.72 -4238.44 -4234.34 -4229.63 -4226.84 -4224.15 -4221.51 -4218.76 -4215.27 -4211.40 -4211.72 -4213.54 -4209.16 -4209.23
-4147.50 -4147.44 -4147.28 -4150.85 -4153.31 -4154.25 -4151.56 -4148.05 -4142.40 -4138.23 -4134.77 -4132.39 -4132.02 -4125.77 -4121.46 -4113.55 -4108.40 -4099.49 -4091.66 -4098.92 -4072.97 -4064.59 -4032.00 -4052.50 -4037.10 -4081.91 -4102.41 -4110.93 -4121.64 -4139.09 -4153.64 -4216.37 -4310.37 -4272.03 -2153.33 -1012.55 -178.42 29.27 70.07 130.77 151.79 168.18 189.14 197.61 211.66 229.62 248.65 279.42 310.52 343.62 393.38 402.41 411.39 388.49 374.40 371.24 381.66 371.41 361.02 359.62 362.36 365.54 374.29 387.93 389.36 366.35 352.95 337.55 324.88 321.21 310.63 305.74 306.17 308.35 312.10 318.49 330.38 339.82 363.30 373.01 385.40 391.72 393.70 380.07 371.07 336.21 316.53 278.10 242.12 210.58 173.05 124.11 121.55 -96.81 -548.01 -1140.01 -1187.56 -1317.11 -1542.89 -1944.80 -2984.94 -2879.20 -3410.28 -4086.58 -4590.67 -4975.58 -5155.69 -5446.75 -5443.47 -5534.94 -5533.43 -5450.87 -5393.84 -5389.23 -5335.16 -5152.36 -4124.47 -2459.93 -899.15 -562.17 -790.04 -1197.05 -1719.43 -2390.76 -3192.27 -3718.83 -4196.88 -4243.84 -4238.75 -4235.48 -4230.14 -4226.69 -4224.25 -4220.42 -4213.51 -4213.40 -4209.44 -4206.99 -4207.20 -4201.74 -4201.82
-4157.80 -4157.73 -4160.13 -4161.35 -4164.35 -4166.08 -4163.25 -4158.98 -4154.48 -4149.12 -4147.74 -4143.77 -4141.26 -4142.22 -4143.91 -4139.28 -4134.18 -4128.23 -4126.45 -4117.92 -4127.17 -4118.80 -4112.25 -4117.23 -4107.92 -4129.26 -4135.11 -4145.72 -4159.31 -4156.96 -4168.41 -4175.90 -4238.88 -4182.81 -3840.24 -3196.96 -897.91 -517.33 -153.37 120.89 127.01 146.02 164.37 173.35 199.53 215.92 224.23 248.90 292.60 321.44 353.91 368.82 331.21 339.93 345.55 330.57 334.81 325.79 339.22 337.05 341.75 341.05 353.43 376.16 385.57 371.20 356.71 331.65 322.46 311.68 304.90 303.06 303.41 306.24 312.90 318.58 330.48 344.98 355.23 371.00 380.50 386.06 384.65 373.47 345.38 334.96 302.21 271.97 230.31 196.70 159.19 123.98 6.42 -422.34 -1283.68 -1270.95 -1359.17 -1760.24 -2233.26 -2875.61 -3756.47 -4479.37 -4731.27 -4988.26 -5134.63 -5311.43 -5453.13 -5587.92 -4851.77 -4615.25 -5107.13 -5187.65 -4949.31 -4741.51 -4603.94 -3990.87 -3654.50 -1854.47 -676.25 -682.89 -920.36 -1541.57 -2222.90 -2734.10 -3403.67 -4000.44 -4239.68 -4242.39 -4239.93 -4237.35 -4231.70 -4226.81 -4223.57 -4217.71 -4210.30 -4207.80 -4205.60 -4203.11 -4199.14 -4195.77 -4195.84
-4162.63 -4162.57 -4164.25 -4167.32 -4170.12 -4171.42 -4171.22 -4169.53 -4164.40 -4163.28 -4163.26 -4160.79 -4160.90 -4156.45 -4162.59 -4161.61 -4160.08 -4160.64 -4152.64 -4154.06 -4156.51 -4146.66 -4147.21 -4149.72 -4146.06 -4163.33 -4161.79 -4171.81 -4184.75 -4184.76 -4181.08 -4184.69 -4177.19 -4112.39 -3883.76 -3361.06 -2445.46 -1111.67 -689.71 -405.08 -52.58 127.21 143.02 161.68 174.99 196.98 223.99 222.39 245.94 285.37 297.03 293.88 277.07 289.54 297.95 300.25 302.08 307.91 314.65 314.12 319.04 317.04 317.98 340.92 358.60 373.42 349.72 333.64 321.57 308.33 302.62 301.13 301.54 304.72 309.51 318.09 328.57 342.41 353.88 376.95 381.07 383.82 380.96 357.22 338.05 329.24 292.83 274.21 200.07 167.74 125.32 124.04 -30.43 -230.85 -687.16 -1459.64 -1906.97 -2776.40 -3552.15 -4737.34 -4868.97 -5103.41 -5314.32 -5403.25 -5521.64 -5637.18 -5675.05 -5793.17 -4637.28 -2758.88 -3371.32 -3811.70 -3379.79 -2193.83 -2182.19 -2164.14 -1547.07 -870.56 -634.70 -694.98 -1042.82 -1744.57 -2249.53 -2969.32 -3599.78 -4137.52 -4228.71 -4239.77 -4242.35 -4238.69 -4234.72 -4230.07 -4222.52 -4216.59 -4209.36 -4205.77 -4202.59 -4198.39 -4194.78 -4191.72 -4191.78
-4166.83 -4167.70 -4169.82 -4170.75 -4173.38 -4174.88 -4175.82 -4173.87 -4178.54 -4177.21 -4174.07 -4174.79 -4173.02 -4180.16 -4183.97 -4189.71 -4188.95 -4196.64 -4190.94 -4191.25 -4188.98 -4174.34 -4169.96 -4167.47 -4176.18 -4175.49 -4185.61 -4187.42 -4200.87 -4206.64 -4196.77 -4189.30 -4175.61 -4111.02 -3928.22 -3501.64 -2626.96 -1842.42 -1077.07 -658.87 -375.09 122.11 132.01 148.14 171.89 186.74 208.27 203.16 221.73 238.76 258.69 230.63 240.36 251.37 279.48 272.64 276.37 288.91 289.64 304.72 300.38 306.97 306.46 304.47 316.95 341.58 350.29 336.18 324.41 305.58 299.53 297.95 299.51 302.91 309.34 319.98 330.61 338.74 355.09 370.21 379.80 383.32 381.34 351.36 326.82 295.30 273.98 254.85 205.22 169.43 135.12 113.07 -244.31 -942.93 -1454.75 -2034.33 -2947.85 -3637.02 -4677.67 -4895.44 -5298.43 -5374.27 -5496.46 -5670.50 -5158.70 -4765.08 -4047.77 -3139.49 -2472.36 -463.59 -349.12 -489.36 133.11 126.18 -210.95 -967.09 -793.13 -684.09 -599.52 -762.66 -1082.69 -1890.54 -2462.07 -3098.65 -3603.81 -4030.75 -4219.94 -4237.06 -4243.00 -4240.73 -4236.53 -4231.11 -4222.77 -4217.36 -4210.51 -4207.70 -4199.39 -4191.91 -4188.65 -4187.87 -4188.24
-4175.46 -4175.40 -4175.01 -4178.87 -4181.87 -4181.34 -4185.33 -4187.52 -4188.00 -4188.13 -4192.60 -4191.03 -4191.46 -4193.92 -4204.46 -4207.52 -4205.06 -4213.72 -4214.25 -4214.78 -4213.73 -4206.15 -4200.84 -4196.09 -4198.04 -4197.77 -4205.58 -4210.42 -4212.22 -4224.50 -4219.05 -4212.84 -4219.22 -4156.59 -3956.49 -3486.67 -2999.96 -2038.19 -1189.30 -663.30 -513.39 -79.78 114.82 138.44 161.63 172.98 179.24 178.38 186.40 197.53 202.63 203.57 204.84 229.21 229.46 237.45 247.40 266.55 261.74 255.49 265.22 279.82 287.10 297.04 300.68 317.81 362.44 351.81 329.52 304.50 296.94 296.60 298.46 302.48 306.46 319.22 327.98 336.79 352.22 363.68 377.61 379.72 370.68 350.51 324.81 297.09 286.23 232.91 192.91 166.25 131.28 101.30 -973.81 -1497.67 -2405.68 -2898.08 -4090.93 -4555.22 -4958.35 -5177.02 -5364.67 -5505.39 -5628.90 -4947.10 -3319.96 -2327.66 -1664.22 -512.65 116.80 132.38 146.76 158.25 142.83 147.29 132.18 29.97 -253.90 -613.81 -784.12 -918.36 -1498.43 -1951.60 -2815.00 -3500.29 -3826.71 -4155.91 -4227.12 -4237.08 -4246.78 -4244.04 -4238.61 -4231.31 -4222.36 -4218.04 -4211.25 -4205.39 -4194.82 -4190.16 -4187.91 -4185.64 -4185.71
-4186.42 -4186.36 -4187.02 -4189.13 -4195.29 -4193.28 -4195.28 -4198.98 -4202.19 -4206.05 -4203.94 -4204.55 -4205.07 -4208.78 -4216.46 -4226.63 -4229.92 -4233.36 -4234.60 -4238.86 -4233.13 -4228.52 -4218.01 -4215.51 -4218.39 -4216.53 -4218.80 -4224.94 -4234.81 -4237.98 -4231.76 -4228.13 -4228.25 -4205.83 -4061.86 -3638.35 -3054.96 -2430.45 -1371.86 -903.79 -496.32 -399.92 -77.85 126.65 142.33 156.18 163.46 169.15 169.41 165.82 166.07 165.24 172.66 203.80 209.02 222.86 232.86 233.75 245.30 246.66 249.22 262.30 261.81 268.62 287.29 305.57 347.48 355.17 342.92 303.84 293.77 293.09 296.44 300.04 309.25 320.19 329.23 343.45 356.87 365.57 371.83 374.15 361.59 349.28 327.31 311.97 301.23 219.40 188.90 154.99 120.89 -436.78 -1371.72 -1865.68 -2390.76 -3768.77 -4570.44 -4960.83 -5023.41 -5125.39 -5284.06 -5018.01 -4067.27 -1876.12 -756.15 -73.24 125.43 133.20 144.75 161.34 176.70 185.36 172.06 156.09 142.94 119.83 66.95 -727.14 -1114.58 -1414.20 -1781.08 -2392.77 -2934.18 -3597.11 -4022.25 -4222.15 -4248.12 -4254.05 -4247.97 -4244.14 -4239.62 -4232.24 -4224.39 -4217.77 -4211.46 -4204.79 -4194.36 -4188.79 -4187.27 -4183.89 -4183.96
-4198.98 -4198.92 -4198.65 -4203.32 -4202.23 -4209.99 -4207.72 -4214.52 -4212.52 -4215.99 -4217.43 -4219.60 -4223.52 -4227.81 -4234.22 -4243.19 -4253.33 -4256.50 -4256.15 -4261.37 -4253.45 -4247.84 -4238.90 -4233.18 -4235.20 -4238.44 -4239.77 -4235.58 -4241.86 -4246.08 -4253.24 -4251.13 -4245.69 -4239.93 -4075.54 -3954.40 -3262.17 -2628.02 -1683.24 -1051.16 -715.56 -497.21 -444.49 8.71 127.71 133.94 144.95 144.74 144.94 147.74 158.01 161.44 166.74 178.82 189.09 207.04 201.99 207.58 212.29 206.10 232.61 244.08 245.14 251.92 272.88 287.74 296.09 314.41 332.78 325.51 303.94 289.70 291.55 297.50 311.17 321.31 325.48 348.22 360.58 363.37 367.31 366.73 354.34 332.30 310.39 300.85 365.12 290.96 194.77 -153.84 -434.22 -701.12 -1352.09 -1782.25 -2448.58 -3314.18 -4142.51 -4134.20 -4193.37 -3391.39 -3641.27 -2901.01 -1324.74 121.39 129.72 156.17 172.43 173.53 190.64 190.25 194.42 202.14 180.09 158.93 149.90 123.49 -340.77 -988.84 -1409.45 -1747.91 -2344.72 -2617.54 -3125.02 -3885.41 -4114.38 -4223.25 -4245.78 -4255.06 -4248.56 -4246.36 -4241.42 -4233.02 -4226.26 -4220.82 -4212.99 -4201.95 -4194.48 -4188.17 -4184.00 -4183.46 -4183.53
-4214.25 -4216.22 -4217.92 -4217.87 -4219.99 -4220.60 -4222.52 -4223.22 -4225.45 -4226.36 -4227.97 -4230.60 -4232.31 -4234.89 -4246.45 -4257.51 -4265.39 -4266.54 -4273.06 -4272.87 -4273.99 -4265.26 -4257.52 -4259.37 -4258.75 -4258.46 -4258.18 -4259.51 -4256.76 -4263.30 -4261.11 -4260.83 -4259.13 -4248.70 -4207.08 -4033.38 -3714.09 -2589.26 -2244.82 -1609.30 -1008.56 -621.21 -404.50 -352.79 -39.00 49.23 128.90 132.32 131.93 134.66 132.25 145.98 146.35 152.89 155.09 176.82 173.33 175.48 184.68 194.34 207.40 218.25 229.88 236.20 239.81 248.77 259.01 276.54 305.59 325.13 287.30 283.02 289.13 295.21 305.95 321.33 330.35 343.24 352.12 358.49 362.31 357.98 334.42 324.12 294.13 264.71 284.90 225.15 144.89 -249.00 -854.77 -863.11 -1445.85 -1663.54 -2083.43 -2704.06 -3000.53 -3043.21 -2668.86 -2137.64 -816.73 51.00 113.43 148.72 180.04 210.72 219.79 230.70 231.46 213.13 194.02 186.00 172.91 152.97 141.37 118.26 -578.93 -1521.62 -2149.77 -2467.67 -2744.92 -2948.37 -3275.58 -3797.25 -4202.17 -4240.39 -4256.47 -4255.50 -4251.70 -4248.17 -4242.10 -4236.57 -4228.86 -4219.96 -4213.72 -4202.81 -4195.25 -4187.56 -4185.01 -4183.84 -4183.90
-4233.93 -4233.88 -4241.59 -4236.24 -4243.35 -4240.93 -4244.40 -4238.56 -4236.23 -4233.73 -4236.31 -4238.57 -4242.65 -4247.17 -4258.12 -4269.67 -4279.89 -4282.13 -4285.14 -4285.08 -4284.63 -4283.81 -4278.72 -4276.48 -4270.32 -4274.70 -4275.16 -4278.28 -4275.50 -4270.49 -4270.95 -4269.36 -4267.73 -4255.91 -4226.43 -4053.73 -3872.56 -3355.37 -2407.11 -1915.18 -1408.63 -961.06 -658.71 -513.68 -495.52 -150.42 -277.18 -198.87 20.35 77.55 -8.71 -15.52 131.50 136.70 141.97 145.17 157.36 157.69 166.26 176.02 185.32 197.73 202.41 207.60 219.22 230.18 243.82 261.33 275.21 279.41 288.19 278.25 284.55 294.47 305.03 316.26 325.71 331.97 344.74 349.00 347.25 344.28 326.78 312.47 273.70 249.03 215.30 193.52 145.72 116.90 -734.15 -1388.08 -1543.16 -1513.46 -1627.41 -1744.25 -1909.45 -1869.11 -1225.23 -393.03 143.69 144.83 185.28 203.44 221.37 231.24 237.61 251.11 241.29 214.06 186.17 177.23 169.75 136.26 124.62 -189.27 -1064.90 -2258.30 -2594.19 -3049.84 -3505.68 -3523.55 -3737.63 -4095.16 -4229.33 -4257.08 -4257.47 -4255.19 -4252.48 -4249.82 -4243.34 -4236.09 -4229.59 -4222.08 -4214.68 -4203.37 -4196.89 -4190.48 -4187.78 -4185.09 -4185.15
-4253.92 -4255.69 -4258.56 -4259.89 -4261.02 -4261.58 -4257.52 -4253.52 -4246.96 -4240.98 -4243.58 -4243.94 -4248.98 -4254.52 -4272.34 -4281.13 -4289.49 -4292.80 -4299.43 -4303.12 -4301.08 -4299.42 -4296.90 -4296.72 -4299.43 -4297.32 -4296.49 -4293.78 -4288.12 -4282.15 -4279.28 -4276.92 -4272.78 -4271.33 -4250.04 -4224.95 -4022.00 -3583.53 -3319.62 -2511.39 -1781.30 -1450.69 -1149.38 -889.66 -520.95 -487.28 -390.23 -352.06 -370.19 -322.68 -429.07 -486.00 -22.97 120.03 102.61 126.55 125.38 127.05 137.80 154.83 169.56 184.37 190.83 201.35 211.07 218.08 226.71 235.37 246.38 251.87 259.37 273.24 279.89 289.24 299.93 307.85 312.06 325.43 333.56 344.82 341.12 333.37 320.48 299.71 259.86 218.36 188.97 149.58 131.76 115.02 101.20 -1043.44 -1547.90 -1552.32 -1548.60 -1607.84 -1629.21 -1380.42 -272.29 146.36 181.98 209.89 229.42 229.35 247.09 260.09 251.62 235.48 215.37 199.94 170.50 157.25 126.71 112.90 103.51 -160.50 -1632.12 -2636.24 -3070.55 -3587.16 -3689.21 -3861.11 -4117.91 -4169.96 -4250.16 -4256.78 -4258.87 -4257.10 -4254.89 -4249.53 -4244.73 -4238.09 -4231.14 -4226.16 -4215.93 -4206.68 -4201.00 -4194.13 -4190.43 -4187.20 -4187.26
