-5012.62 -5012.64 -5030.23 -4996.55 -4999.49 -5001.69 -4979.16 -4973.92 -4961.13 -4962.62 -4956.30 -4956.33 -4960.83 -4965.21 -4991.70 -5007.58 -5030.04 -5043.53 -5047.43 -5057.95 -5062.10 -5003.80 -4925.62 -4659.71 -4366.75 -4287.01 -4675.98 -4869.57 -4867.43 -5087.47 -4971.84 -4572.29 -4250.10 -3792.68 -3240.53 -2790.82 -2510.60 -2510.26 -2708.57 -2679.78 -2759.74 -3369.28 -3401.85 -4070.03 -4359.06 -4684.14 -5237.83 -5216.78 -5260.10 -5273.12 -5309.48 -5315.06 -5322.91 -5363.17 -5359.46 -5352.30 -5343.15 -5332.23 -5322.73 -5311.72 -5301.43 -5291.16 -5276.52 -5254.88 -5232.63 -5169.30 -5065.27 -4855.70 -4473.90 -4048.55 -3704.38 -3234.61 -2985.55 -2768.69 -2287.85 -1740.06 -626.35 -23.49 -6.55 2.62 26.19 61.51 104.38 145.17 161.83 234.43 489.39 622.73 714.96 865.30 790.76 640.30 646.31 786.77 715.94 562.56 246.79 101.99 38.47 -56.91 -111.25 -1008.36 -4476.46 -2643.71 -2132.91 -1712.60 -1849.01 -710.81 -626.71 -539.08 -1386.28 -3370.43 -6152.79 -6666.48 -6918.28 -6448.35 -6143.25 -5912.19 -5646.10 -5167.86 -3471.25 -2909.51 -2980.02 -3359.40 -3639.61 -4070.76 -4411.37 -4458.56 -4445.55 -4417.91 -4398.31 -4388.39 -4368.23 -4363.71 -4347.12 -4338.04 -4331.86 -4330.48 -4326.71 -4323.20 -4323.27
-5138.78 -5151.51 -5157.00 -5139.60 -5117.49 -5069.10 -5061.41 -5017.42 -5037.98 -5045.61 -5000.77 -5013.96 -5016.33 -5012.49 -5041.36 -5068.87 -5108.29 -5108.30 -5126.73 -5112.80 -5106.86 -4967.49 -4589.68 -4019.55 -3320.56 -3443.42 -3447.42 -4143.52 -4252.37 -4593.61 -4377.43 -3638.22 -3004.14 -2733.37 -2417.54 -2001.82 -1891.58 -1929.81 -2019.68 -1984.66 -2053.34 -2251.85 -2624.69 -3011.47 -3610.98 -4056.35 -4608.57 -4950.12 -5022.55 -4970.36 -5030.60 -5113.82 -5251.65 -5293.75 -5345.20 -5345.95 -5344.05 -5337.27 -5327.97 -5320.19 -5310.14 -5302.19 -5292.25 -5251.45 -5236.36 -5133.20 -5034.12 -4799.86 -4389.85 -3886.69 -3417.75 -3204.32 -3047.24 -2785.43 -2143.81 -1086.94 -10.17 -0.29 7.00 11.11 38.96 80.64 118.09 166.47 206.30 303.40 503.52 829.24 1116.49 1270.70 1171.96 1100.21 1250.77 1179.27 1299.21 858.85 260.83 105.98 39.62 -32.24 -58.39 -1001.36 -5550.66 -4781.23 -3829.78 -3307.68 -2546.71 -1873.55 -1040.47 -972.94 -1615.06 -4468.92 -5775.42 -6057.79 -5964.26 -5834.11 -5536.56 -5637.21 -5350.39 -4802.35 -3489.67 -2891.04 -2977.21 -3520.23 -3871.99 -4107.03 -4401.87 -4446.42 -4430.97 -4410.68 -4393.09 -4369.61 -4358.63 -4348.93 -4335.15 -4326.65 -4318.71 -4317.53 -4310.01 -4308.07 -4305.54
-5351.59 -5327.42 -5291.61 -5283.03 -5238.02 -5227.44 -5202.47 -5167.71 -5100.80 -5126.28 -5106.36 -5092.84 -5098.59 -5139.25 -5222.32 -5201.14 -5252.35 -5225.52 -5213.96 -5191.36 -5152.73 -4970.62 -4234.22 -3189.29 -2489.48 -2368.65 -2785.08 -3102.32 -3061.37 -3541.22 -3740.02 -3081.83 -2284.79 -2003.78 -1863.27 -1602.32 -1086.84 -1332.11 -1237.13 -1670.09 -1193.23 -1983.16 -2491.84 -2675.50 -2885.43 -3195.85 -4001.31 -4382.00 -4478.87 -4598.93 -4705.79 -4880.17 -4905.27 -5123.43 -5301.70 -5327.06 -5294.05 -5317.57 -5289.95 -5301.05 -5318.14 -5307.69 -5297.50 -5282.40 -5255.97 -5196.60 -5010.04 -4647.68 -4113.22 -3734.90 -3373.28 -3198.42 -3172.88 -2635.99 -1646.68 20.81 21.63 19.25 26.01 60.40 92.60 116.31 150.69 195.89 217.38 260.92 320.38 695.89 1041.16 1103.61 1385.26 1501.75 1547.83 1441.37 1366.91 631.03 408.44 174.21 39.73 -8.74 -46.29 -644.71 -5384.45 -5351.77 -4947.24 -4417.26 -3666.98 -3060.37 -2452.21 -1945.78 -1815.97 -2657.95 -2525.02 -2571.76 -2807.06 -2559.27 -4469.71 -4664.62 -4377.43 -4429.44 -3433.65 -3116.29 -3151.97 -3485.53 -4102.50 -4363.83 -4420.81 -4433.42 -4414.30 -4391.21 -4373.33 -4357.10 -4353.93 -4332.05 -4323.04 -4311.63 -4306.00 -4297.23 -4295.17 -4290.30 -4290.35
-5530.18 -5529.98 -5450.27 -5428.03 -5409.34 -5426.11 -5420.29 -5354.28 -5336.36 -5287.95 -5259.13 -5223.46 -5299.41 -5309.90 -5334.04 -5328.70 -5326.35 -5398.22 -5386.84 -5355.23 -5249.75 -4957.40 -4081.10 -3243.60 -2091.39 -1983.83 -1978.04 -2138.44 -2315.75 -2722.71 -2785.69 -2487.40 -2132.30 -1333.62 -910.89 -475.19 -368.73 -109.44 -106.44 -359.42 -316.59 -1370.09 -1665.79 -1485.77 -1975.13 -2262.75 -2967.54 -3436.63 -3827.31 -3564.03 -3746.71 -3964.59 -4201.24 -4487.68 -4976.78 -5065.99 -5223.84 -5166.30 -5043.06 -5185.23 -5281.28 -5308.79 -5245.64 -5196.81 -5107.23 -4930.93 -4951.40 -4232.66 -3896.26 -3530.91 -3210.16 -3135.35 -3174.47 -1928.55 -913.43 30.07 43.60 56.88 58.81 87.57 122.62 139.52 180.40 202.07 239.59 268.84 314.31 470.10 552.89 737.11 903.36 1141.73 1273.85 1476.14 1489.91 910.35 754.22 191.57 79.37 0.17 -21.94 -84.94 -3522.74 -6181.14 -5718.18 -4963.86 -4697.60 -4530.25 -4096.18 -3005.57 -2294.73 -1453.19 -1130.59 -1151.50 -1244.62 -1470.13 -2269.94 -2705.57 -3235.14 -4112.99 -3771.20 -3246.68 -3074.16 -3484.99 -3959.44 -4292.50 -4415.28 -4419.77 -4397.36 -4380.10 -4353.87 -4348.56 -4330.49 -4319.20 -4308.57 -4295.37 -4288.43 -4282.64 -4279.28 -4277.09 -4275.15
-5653.52 -5653.38 -5661.52 -5588.87 -5556.30 -5539.51 -5520.87 -5480.62 -5501.09 -5478.50 -5467.22 -5429.31 -5437.05 -5470.70 -5480.02 -5555.95 -5561.08 -5633.70 -5548.36 -5506.50 -5410.20 -5007.59 -3945.91 -2980.92 -2138.35 -2041.23 -2031.41 -2044.07 -2000.42 -2259.00 -2367.67 -2388.05 -1360.45 -386.24 -305.11 -211.80 -78.78 -59.37 -45.69 -67.93 -45.32 -96.47 -390.14 -99.28 -74.56 -721.38 -1561.81 -2529.24 -2579.47 -2660.61 -3152.37 -3184.96 -3408.79 -3635.42 -4293.82 -4761.72 -4834.89 -4842.25 -4818.48 -4864.97 -4957.55 -4674.98 -4946.99 -4907.12 -4630.98 -4308.80 -4286.51 -3524.72 -3497.19 -2730.25 -2812.18 -2607.43 -1379.14 -386.44 -100.09 46.86 66.16 82.51 89.49 98.08 128.41 149.96 189.54 224.18 258.99 288.12 312.38 370.09 435.23 507.76 595.01 712.37 928.95 1213.99 1397.40 1297.08 990.25 641.73 258.09 10.63 -25.77 -57.46 -3198.32 -5686.03 -5068.32 -5530.78 -4957.26 -4970.00 -4919.49 -4319.84 -3427.18 -2657.32 -1529.12 -1097.00 -935.78 -904.44 -1425.86 -1722.28 -2669.91 -3723.36 -3578.44 -3135.26 -3006.50 -3364.09 -3680.42 -4156.74 -4353.08 -4394.99 -4380.16 -4357.08 -4343.35 -4324.85 -4310.97 -4303.87 -4292.71 -4278.70 -4273.90 -4272.27 -4264.90 -4258.42 -4258.47
-5719.26 -5719.16 -5724.12 -5691.92 -5697.32 -5691.68 -5664.30 -5649.85 -5676.45 -5663.70 -5620.83 -5651.00 -5621.45 -5668.56 -5690.15 -5668.04 -5663.81 -5690.56 -5698.84 -5651.44 -5515.89 -5237.32 -4104.56 -3330.56 -2417.43 -2363.91 -2463.19 -2445.66 -2246.74 -2310.38 -2058.22 -1453.74 -705.12 -174.08 -79.17 -32.68 -28.07 -8.68 7.63 -11.55 -9.88 -15.37 -36.08 -15.68 -37.11 -92.97 -861.22 -940.47 -910.16 -1852.83 -2212.76 -1441.91 -1379.45 -3402.60 -3576.58 -3904.77 -4054.32 -4150.07 -4000.14 -4045.72 -3696.04 -4025.62 -3817.48 -4088.18 -3708.18 -3132.71 -2648.74 -2553.16 -2318.98 -2274.13 -1863.99 -897.78 -368.71 -263.74 38.60 57.86 78.31 97.83 106.50 122.00 149.71 169.03 191.83 230.36 278.63 300.85 344.41 375.96 398.18 432.30 491.48 546.54 687.68 958.68 1071.28 1288.41 1150.45 734.47 223.65 66.60 14.28 -23.36 -42.67 -96.27 -2781.72 -4832.15 -5419.51 -5139.83 -5167.59 -5140.47 -4522.03 -3590.88 -2814.51 -1785.00 -1187.62 -985.29 -1093.59 -1297.77 -1754.36 -2482.42 -3232.20 -3175.20 -3069.12 -3453.91 -3758.04 -4069.05 -4303.93 -4364.23 -4357.56 -4337.23 -4315.52 -4307.64 -4292.84 -4279.48 -4271.18 -4258.68 -4254.05 -4244.80 -4242.00 -4240.28 -4240.33
-5747.86 -5746.03 -5747.90 -5744.21 -5742.23 -5735.49 -5736.74 -5757.36 -5743.46 -5751.37 -5744.87 -5755.75 -5770.79 -5772.46 -5771.75 -5784.42 -5782.43 -5788.37 -5790.64 -5738.72 -5623.92 -5471.82 -4734.66 -3784.49 -3707.04 -3245.12 -3477.43 -3647.36 -3291.49 -2611.19 -1771.58 -662.38 -185.64 -97.67 -30.41 10.17 18.46 26.04 27.69 23.93 23.90 15.72 16.67 15.12 -2.00 -46.19 -55.20 -141.63 -123.97 -303.21 -375.62 -538.68 -744.90 -410.59 -1651.91 -1978.52 -2587.68 -2642.60 -2752.86 -2535.41 -2495.95 -2646.30 -2530.78 -2919.07 -2792.06 -2457.74 -2470.14 -2158.12 -2194.99 -2102.55 -1188.35 -112.89 -13.32 39.20 54.38 84.70 104.62 118.82 126.76 156.33 167.59 186.57 218.31 260.06 295.97 303.15 335.26 379.99 395.45 424.53 457.84 491.86 499.91 594.16 723.06 1084.07 1207.97 831.51 397.95 131.61 77.07 14.65 -9.81 -25.37 -144.37 -3177.38 -5917.16 -5300.25 -5153.75 -5240.44 -5241.61 -5091.64 -3825.64 -3365.34 -2429.78 -1400.35 -1235.23 -1165.04 -1197.37 -1522.75 -2379.27 -3147.01 -3122.06 -3448.41 -3817.00 -4017.78 -4283.56 -4339.06 -4326.48 -4308.64 -4303.93 -4289.56 -4273.09 -4262.18 -4249.34 -4237.17 -4235.98 -4225.06 -4218.48 -4220.85 -4220.90
-5764.44 -5763.13 -5764.64 -5766.70 -5762.78 -5766.99 -5775.43 -5783.81 -5795.42 -5787.35 -5786.17 -5801.84 -5803.21 -5808.78 -5806.86 -5805.41 -5806.49 -5809.87 -5816.04 -5804.01 -5766.67 -5650.90 -5269.37 -4944.70 -4797.33 -5017.77 -4894.32 -4494.84 -4033.92 -1831.34 -1142.26 -117.54 -94.20 -52.74 5.51 12.70 25.30 50.46 50.48 43.73 37.17 29.94 28.93 24.71 23.90 25.16 16.96 9.06 11.86 1.02 -23.44 -31.04 -243.72 -172.36 -225.30 -261.18 -977.12 -1585.98 -1596.52 -2128.77 -2112.44 -2012.95 -2177.38 -2274.13 -2397.56 -2367.88 -2348.42 -1984.12 -1261.31 -827.61 -304.28 26.07 43.62 65.31 82.78 109.31 138.66 155.88 156.26 170.38 172.19 206.69 219.50 260.58 291.50 301.47 344.26 374.38 392.83 414.97 446.83 462.61 501.71 537.47 602.24 773.89 1065.40 1029.09 740.59 393.21 94.49 53.83 28.11 12.83 -64.01 -3994.83 -5842.28 -5345.17 -5132.32 -5182.19 -5272.24 -5347.67 -5206.74 -4721.78 -3662.46 -2982.69 -2498.10 -1518.67 -1392.21 -1408.48 -1545.28 -1966.52 -2977.01 -3663.36 -3954.36 -4183.29 -4273.84 -4300.34 -4291.81 -4288.37 -4267.66 -4258.11 -4247.37 -4235.67 -4232.05 -4222.58 -4211.33 -4207.34 -4203.73 -4202.25 -4199.84
-5780.54 -5779.08 -5780.32 -5780.45 -5784.16 -5785.19 -5789.20 -5795.30 -5814.72 -5816.94 -5814.54 -5811.84 -5824.42 -5825.81 -5823.88 -5824.40 -5819.24 -5825.77 -5826.15 -5829.44 -5817.21 -5795.22 -5729.99 -5620.78 -5606.15 -5616.82 -5459.27 -5304.54 -4782.08 -1395.29 -157.43 -99.28 -42.22 -6.54 12.59 17.62 41.49 64.04 96.11 84.50 57.34 49.19 56.46 34.92 34.52 34.32 29.33 25.01 24.10 23.56 23.34 19.38 -4.33 -86.31 -108.38 -155.37 -220.73 -496.64 -816.92 -1466.27 -1537.82 -1676.30 -1778.93 -1848.82 -2318.81 -2509.15 -2273.07 -906.69 -15.24 18.70 25.17 44.11 63.56 86.72 99.18 124.39 193.07 200.68 195.58 191.61 198.82 223.74 230.28 259.17 287.29 299.40 329.80 360.67 384.43 407.01 424.41 433.94 483.54 520.33 547.69 682.17 901.55 1152.00 972.59 752.16 116.59 107.66 110.19 36.43 -3.31 -2084.73 -5865.43 -5912.65 -5474.32 -5122.60 -5133.59 -5247.89 -5369.30 -5271.15 -4946.24 -4332.02 -3837.13 -3158.54 -2241.20 -1460.41 -1252.45 -1238.90 -2183.03 -3573.37 -4265.94 -4356.24 -4277.61 -4276.23 -4266.12 -4257.23 -4239.69 -4233.14 -4224.41 -4213.01 -4205.57 -4198.22 -4191.65 -4187.77 -4179.74 -4179.34 -4177.03
-5798.46 -5798.38 -5803.69 -5801.95 -5797.11 -5805.07 -5808.75 -5813.89 -5821.82 -5827.66 -5826.73 -5835.73 -5841.56 -5840.37 -5842.95 -5842.74 -5832.89 -5836.54 -5836.14 -5839.15 -5836.20 -5821.64 -5790.38 -5774.79 -5740.47 -5722.94 -5777.47 -6311.80 -5933.72 -2362.75 -136.45 -72.31 -9.85 6.36 18.17 26.34 58.58 96.84 132.16 100.90 83.47 70.67 75.57 87.61 68.76 51.53 45.65 45.58 40.57 39.19 37.30 29.22 14.80 -9.75 -50.06 -92.40 -129.47 -139.98 -149.85 -356.41 -494.33 -556.43 -833.36 -1114.39 -1723.98 -1398.22 -701.03 -141.98 29.85 40.04 46.64 56.48 101.24 108.48 124.86 189.10 267.70 278.48 210.75 225.67 220.31 228.73 245.31 273.76 290.33 300.44 314.84 336.47 364.93 407.07 421.46 428.49 456.57 495.60 506.80 522.26 751.53 1041.23 990.80 527.56 212.90 194.92 163.62 86.40 48.04 -301.50 -2215.46 -5027.22 -5716.56 -5456.63 -5260.69 -5248.09 -5349.14 -5441.69 -5428.06 -5287.58 -5160.01 -4704.13 -3563.38 -2266.05 -1505.39 -1125.10 -1853.15 -3480.88 -4378.64 -4420.79 -4319.80 -4252.33 -4210.60 -4204.95 -4198.89 -4192.84 -4190.65 -4183.13 -4182.31 -4172.22 -4162.42 -4158.69 -4150.40 -4152.04 -4152.08
-5821.77 -5819.53 -5820.57 -5823.12 -5831.06 -5820.94 -5832.80 -5834.47 -5836.39 -5838.06 -5847.91 -5846.79 -5848.55 -5849.53 -5853.65 -5851.62 -5853.04 -5848.55 -5849.45 -5851.78 -5851.87 -5843.00 -5820.04 -5789.55 -5753.89 -5786.82 -6010.54 -6642.84 -6269.64 -1962.58 -129.64 -29.97 -0.09 15.36 28.31 35.14 64.53 99.76 137.81 164.22 121.60 119.04 110.92 123.55 101.14 86.42 69.32 57.23 50.79 47.32 42.57 38.84 21.84 16.16 5.81 -32.31 -55.39 -99.58 -95.52 -118.96 -161.12 -173.50 -188.23 -530.74 -470.06 -442.19 -128.89 20.60 35.05 47.05 58.52 89.83 102.52 114.63 137.43 178.46 303.08 318.63 271.94 255.15 263.58 247.76 272.11 290.74 299.66 306.48 314.67 330.49 356.29 398.75 414.43 418.09 442.25 469.33 464.81 464.61 549.29 669.46 883.00 799.34 959.46 593.83 247.83 95.52 72.16 -196.19 -645.40 -1063.97 -2707.07 -5651.81 -5284.04 -5128.57 -5229.61 -5395.89 -5482.73 -5492.93 -5415.38 -5164.91 -4428.33 -3252.12 -1630.26 -1159.47 -1632.48 -2897.64 -3854.08 -4586.15 -4368.50 -4257.70 -4199.71 -4176.16 -4176.60 -4164.00 -4158.06 -4152.33 -4149.56 -4144.38 -4141.69 -4134.71 -4132.25 -4128.27 -4125.16
-5849.61 -5849.53 -5854.09 -5850.18 -5847.50 -5850.15 -5850.07 -5851.29 -5853.25 -5853.91 -5855.11 -5857.30 -5856.62 -5860.08 -5864.93 -5864.44 -5862.28 -5865.47 -5862.99 -5864.79 -5859.93 -5852.16 -5823.87 -5798.28 -5756.78 -5784.68 -6350.40 -6688.86 -3929.37 -270.59 -102.85 -26.50 4.26 22.51 35.90 50.97 71.92 91.80 140.50 147.14 141.07 156.88 160.93 148.40 135.99 122.38 107.35 72.60 62.81 67.43 47.55 44.09 36.93 27.07 18.80 7.70 -8.99 -10.77 -27.14 -50.32 -64.93 -55.47 -83.05 -93.77 -40.15 18.00 20.95 33.97 44.98 56.21 65.99 89.65 109.16 114.93 189.59 256.35 364.60 398.33 332.30 284.50 274.34 266.95 286.49 298.33 307.78 313.18 318.14 326.83 343.16 363.38 371.45 393.83 404.85 443.24 451.14 450.99 491.50 581.68 752.63 1045.02 1109.32 691.41 282.16 155.08 83.45 38.20 -15.64 -1134.48 -2729.14 -5338.17 -5225.77 -4996.51 -5164.87 -5364.66 -5486.38 -5503.44 -5497.07 -5339.40 -4823.58 -3034.32 -1749.59 -1106.86 -1260.37 -1779.48 -2939.41 -3881.95 -4502.69 -4295.73 -4192.39 -4163.21 -4138.06 -4137.70 -4129.15 -4133.94 -4123.58 -4127.44 -4112.31 -4111.67 -4100.29 -4098.94 -4098.99
-5872.85 -5872.77 -5875.59 -5877.39 -5880.97 -5880.13 -5881.21 -5870.73 -5861.01 -5856.63 -5859.17 -5863.33 -5863.91 -5869.71 -5875.11 -5877.36 -5877.47 -5878.36 -5880.85 -5878.93 -5872.13 -5856.23 -5829.96 -5788.42 -5768.32 -5850.80 -6513.88 -7202.11 -4642.18 -748.66 -136.05 -17.17 16.89 25.22 43.76 57.08 79.74 114.43 143.08 174.16 201.43 207.88 169.02 187.63 223.83 279.58 200.92 136.22 120.93 104.06 66.13 55.67 48.55 37.19 22.43 17.80 6.65 -2.58 -7.26 -7.13 -5.25 -3.39 2.07 9.88 14.16 28.58 32.61 45.57 56.51 62.14 75.61 88.73 117.67 136.11 219.91 289.90 421.06 424.68 334.03 290.09 286.74 284.92 291.88 303.46 311.21 314.84 319.77 322.56 330.44 347.38 360.84 367.66 381.16 443.75 443.70 449.23 479.22 523.56 649.51 901.82 1153.80 1035.42 677.67 269.84 92.39 81.55 56.58 -1044.18 -2516.74 -5099.03 -5385.27 -5026.55 -5082.46 -5276.18 -5447.97 -5492.33 -5501.92 -5444.86 -4921.55 -3342.36 -1872.44 -836.22 -827.11 -1074.21 -2062.41 -3406.55 -4557.25 -4375.38 -4202.54 -4146.00 -4124.73 -4113.64 -4101.42 -4100.79 -4102.00 -4097.68 -4099.78 -4085.66 -4078.61 -4073.98 -4074.03
-5887.84 -5887.76 -5892.75 -5894.24 -5893.11 -5892.79 -5892.96 -5882.36 -5868.20 -5866.22 -5865.54 -5867.17 -5873.09 -5879.38 -5887.08 -5894.06 -5896.43 -5901.41 -5894.88 -5890.56 -5884.02 -5863.99 -5838.43 -5799.85 -5787.12 -5945.65 -6482.67 -5789.92 -3737.65 -132.91 -52.99 2.88 17.93 34.66 58.84 78.46 89.64 115.98 159.81 178.05 216.00 244.59 217.25 252.59 377.04 303.37 275.05 166.35 153.75 110.32 95.22 79.48 61.55 55.73 41.47 29.41 15.14 3.64 -2.18 -3.69 -3.59 -1.83 9.91 17.27 26.25 34.12 45.04 54.64 66.00 69.95 74.49 94.13 105.03 144.13 181.09 215.18 301.37 343.12 311.48 294.76 290.02 286.97 300.05 309.75 314.00 317.39 320.00 320.54 325.82 326.55 347.83 357.45 381.11 422.76 423.61 442.61 462.67 497.63 600.47 860.38 1166.49 1085.48 854.65 429.22 157.20 123.59 112.72 96.50 -837.00 -3872.18 -5582.23 -5086.75 -5026.51 -5259.82 -5369.48 -5485.59 -5498.27 -5436.24 -4926.40 -3838.99 -2201.52 -733.50 -712.22 -864.36 -1580.87 -2188.63 -3662.46 -4229.14 -4173.97 -4145.96 -4106.29 -4090.53 -4082.60 -4081.09 -4078.13 -4071.51 -4069.56 -4064.25 -4053.76 -4051.69 -4051.75
-5896.71 -5896.67 -5900.63 -5903.86 -5906.73 -5907.18 -5902.57 -5898.09 -5885.43 -5875.48 -5875.79 -5880.37 -5884.15 -5886.94 -5898.86 -5905.06 -5903.95 -5907.52 -5907.01 -5905.25 -5895.61 -5878.45 -5866.35 -5831.69 -5842.49 -6272.62 -6275.85 -3102.85 -747.56 -119.21 -19.63 -3.27 14.64 25.81 65.71 89.23 109.12 128.49 148.74 186.71 212.88 282.60 288.98 260.04 387.76 431.49 336.40 287.69 188.97 143.25 120.03 98.45 76.35 61.63 53.79 37.20 27.74 18.09 10.89 2.37 6.15 8.81 17.57 22.96 39.56 48.69 51.55 59.32 71.06 77.44 84.91 96.33 108.40 144.96 154.61 194.42 240.17 289.17 288.77 288.04 286.01 287.18 299.80 308.88 313.55 317.71 319.74 320.85 321.72 322.51 330.48 348.49 357.55 362.56 367.13 418.39 462.89 480.31 501.19 643.11 1069.53 1136.54 944.27 466.17 285.53 212.74 145.51 78.81 -110.50 -3138.81 -5690.01 -5111.61 -5039.12 -5199.32 -5351.47 -5454.05 -5471.08 -5436.82 -5205.40 -3984.48 -1930.31 -658.61 -512.37 -675.12 -791.03 -1589.49 -2248.57 -3430.57 -3898.95 -4092.96 -4072.82 -4076.90 -4068.29 -4049.97 -4048.96 -4048.47 -4044.43 -4040.07 -4039.17 -4033.12 -4030.46
-5901.76 -5901.69 -5907.41 -5908.11 -5914.18 -5915.47 -5914.80 -5907.84 -5897.12 -5888.90 -5890.81 -5891.95 -5899.67 -5907.25 -5916.92 -5919.66 -5924.81 -5922.57 -5922.07 -5915.49 -5911.57 -5904.42 -5893.81 -5868.72 -6020.71 -6383.94 -6411.38 -2443.37 -468.94 -100.73 -22.06 1.05 23.22 35.19 52.84 85.33 108.64 137.99 170.16 204.33 259.10 287.37 304.24 339.71 397.83 574.21 499.15 316.25 220.70 192.43 146.13 128.24 97.54 81.90 67.88 47.08 38.30 30.30 25.52 21.96 23.78 22.57 31.39 38.48 44.52 54.66 59.74 73.25 79.76 87.79 94.97 109.58 123.79 145.74 184.14 215.57 234.23 264.59 272.75 278.70 279.27 284.91 293.71 306.43 312.39 316.41 319.01 320.72 323.88 323.45 323.75 347.46 358.86 366.51 371.70 401.98 431.51 463.19 501.08 561.97 958.89 1213.04 1237.86 766.51 426.49 218.33 154.72 98.35 -167.87 -4158.10 -5878.96 -5160.65 -5063.63 -5167.61 -5305.06 -5414.02 -5443.08 -5391.83 -5074.44 -4631.55 -1884.24 -736.26 -418.11 -493.02 -564.48 -1392.34 -2144.61 -3148.90 -3795.40 -3817.92 -4037.46 -4041.87 -4043.41 -4040.05 -4034.16 -4029.36 -4027.24 -4024.06 -4015.93 -4011.68 -4011.73
-5902.03 -5901.96 -5907.23 -5912.50 -5917.29 -5920.99 -5921.69 -5913.46 -5906.20 -5905.06 -5905.83 -5907.09 -5910.64 -5916.14 -5929.14 -5936.19 -5935.43 -5940.13 -5940.42 -5934.55 -5936.51 -5942.57 -5835.52 -5930.38 -5991.59 -4934.23 -3411.93 -1022.93 -389.19 -38.39 -10.23 1.19 22.49 44.17 64.86 83.51 116.49 129.09 166.54 210.01 262.50 313.60 352.79 358.06 423.77 561.52 464.58 401.71 275.17 215.48 176.36 146.43 121.43 95.82 83.97 63.79 46.22 38.52 45.51 38.24 34.25 33.64 49.08 49.49 53.05 60.18 67.72 76.50 87.38 96.39 101.50 124.39 131.29 156.97 173.87 192.27 226.83 250.50 261.22 266.71 276.24 284.98 297.01 303.38 309.35 316.75 321.28 327.28 329.94 330.57 327.90 330.46 335.91 359.56 371.78 383.95 410.31 448.83 500.97 524.13 785.37 1201.47 1286.23 720.92 386.62 276.11 144.02 85.50 -46.66 -1966.54 -5764.55 -5273.65 -5045.33 -5058.55 -5250.57 -5340.83 -5373.31 -5337.82 -5175.46 -3721.75 -2092.18 -747.96 -385.72 -375.94 -619.00 -1044.72 -2260.49 -2702.10 -3029.19 -3600.38 -4018.77 -4027.36 -4031.42 -4023.34 -4013.65 -4009.54 -4008.24 -4004.00 -4000.62 -3992.71 -3992.77
-5897.88 -5897.81 -5905.92 -5910.50 -5917.72 -5920.62 -5922.71 -5920.47 -5914.95 -5913.59 -5914.68 -5919.03 -5926.42 -5929.44 -5942.98 -5948.31 -5955.06 -5958.81 -5949.76 -5939.54 -5946.20 -5855.93 -5510.14 -5395.13 -5020.91 -4371.44 -995.30 -359.47 -91.75 -10.20 -3.12 8.62 25.28 53.00 71.64 90.48 133.56 153.68 184.53 245.69 299.33 296.79 346.22 395.73 453.99 558.16 469.59 393.72 288.75 221.49 193.59 154.07 134.82 109.91 103.62 85.97 62.71 58.86 54.42 51.32 52.66 53.12 55.84 61.89 67.05 72.44 82.54 86.46 94.01 99.07 112.72 122.93 135.66 153.81 171.79 195.75 226.94 239.77 249.70 261.13 269.79 274.65 289.75 297.24 306.76 319.97 332.45 336.00 338.25 340.46 333.35 327.01 329.12 354.24 370.07 387.24 411.64 438.78 470.65 501.16 654.97 1048.62 1170.09 850.22 494.08 250.76 105.42 66.89 7.17 -2210.94 -5231.08 -5138.10 -4955.47 -4980.84 -5204.12 -5323.61 -5349.50 -5288.55 -5081.99 -3757.23 -2145.96 -600.47 -313.17 -316.19 -482.93 -1066.91 -1725.42 -2162.68 -2620.44 -3374.15 -3973.47 -3998.33 -4024.88 -4012.49 -4003.56 -3993.18 -3987.94 -3985.86 -3981.04 -3978.08 -3978.14
-5894.43 -5895.57 -5900.72 -5912.42 -5915.99 -5919.88 -5924.09 -5922.49 -5921.03 -5922.96 -5929.36 -5935.85 -5940.02 -5947.11 -5958.29 -5960.01 -5962.50 -5962.09 -5956.36 -5860.43 -5799.54 -5604.05 -4336.36 -3627.95 -3625.97 -1590.90 -258.85 -163.39 -107.12 -22.77 4.18 18.18 41.44 59.96 71.05 127.51 160.01 189.63 212.73 268.66 353.66 405.10 388.89 401.43 471.05 530.55 447.65 366.71 293.04 244.32 201.43 166.38 148.45 133.39 116.98 100.81 84.22 76.00 69.12 61.21 58.87 71.22 74.80 79.01 86.55 84.90 93.11 99.67 105.79 112.48 117.66 126.18 135.41 154.58 170.15 194.76 209.16 223.07 239.52 251.27 265.40 264.38 277.35 295.57 307.05 323.27 344.45 351.71 353.34 351.61 338.83 334.35 325.59 333.80 362.97 381.64 398.34 435.07 458.61 488.83 549.01 1033.41 1188.61 934.52 638.58 246.71 104.10 35.28 -125.73 -1041.83 -4951.79 -5081.95 -4834.09 -4941.14 -5102.71 -5320.39 -5318.57 -5288.73 -5021.01 -3738.24 -1995.13 -513.02 -294.25 -263.06 -438.40 -797.76 -1072.74 -1700.68 -2833.17 -3311.13 -3407.13 -3769.19 -3976.08 -4014.61 -3997.35 -3988.20 -3978.62 -3974.93 -3971.68 -3966.64 -3966.71
-5894.23 -5894.16 -5901.94 -5909.73 -5914.30 -5923.90 -5925.65 -5928.15 -5929.65 -5933.63 -5936.57 -5942.89 -5950.29 -5957.02 -5966.37 -5959.10 -5954.20 -5937.46 -5734.91 -5611.75 -5205.55 -4824.52 -3808.32 -2170.66 -1753.39 -577.76 -263.59 -187.74 -80.32 -15.86 10.98 30.41 46.69 68.53 88.66 125.69 159.59 192.32 215.64 272.68 343.90 406.27 466.31 449.84 491.16 503.38 433.78 382.88 302.87 276.10 232.20 192.33 163.57 150.82 140.37 116.11 101.86 99.31 85.73 89.23 107.75 104.44 92.29 96.44 102.23 99.44 102.81 108.80 114.47 118.21 124.12 132.63 137.37 149.66 170.00 183.33 207.21 217.67 230.36 251.32 256.39 266.63 285.66 294.37 312.92 331.28 343.45 354.88 357.69 356.89 348.94 340.63 329.92 326.45 338.99 385.46 391.67 417.73 432.35 471.02 513.87 786.08 1014.04 777.01 479.81 225.45 131.32 49.40 -14.79 -1056.20 -3780.91 -4953.74 -4844.51 -4924.14 -5125.85 -5257.83 -5285.72 -5219.93 -4885.88 -3782.87 -1472.91 -698.69 -250.36 -221.93 -255.08 -648.79 -1197.69 -1508.68 -2079.19 -2399.07 -2957.59 -3513.04 -3952.62 -4019.42 -3997.24 -3986.07 -3975.75 -3971.52 -3966.12 -3961.07 -3961.14
-5896.37 -5896.30 -5903.96 -5910.60 -5917.52 -5926.61 -5931.56 -5933.08 -5934.59 -5939.42 -5944.56 -5951.59 -5959.64 -5960.99 -5948.68 -5923.53 -5794.13 -5647.25 -5226.92 -4563.26 -3943.41 -3805.68 -3156.78 -2113.17 -1680.94 -512.62 -204.30 -124.98 -35.43 -8.62 31.48 41.82 57.61 74.46 91.79 122.97 165.24 198.41 241.68 265.34 370.66 417.49 484.90 513.37 546.25 487.91 432.25 377.83 340.94 296.88 244.10 212.04 174.48 159.54 153.90 141.83 112.74 107.71 109.87 114.88 119.73 124.82 112.98 100.43 109.39 110.17 114.56 125.10 127.12 129.99 132.89 137.14 142.31 147.37 169.62 179.28 197.50 209.06 226.66 236.96 249.39 259.11 278.40 296.00 313.67 329.09 341.92 357.84 360.25 360.22 354.74 344.34 336.82 329.56 336.29 373.36 392.88 395.43 401.77 451.16 478.20 643.53 904.58 771.58 305.52 158.51 129.23 71.89 -13.77 -2433.25 -4779.43 -5070.37 -4929.16 -5004.46 -5177.44 -5256.58 -5281.72 -5197.43 -4722.06 -3762.08 -1366.13 -507.00 -182.03 -180.38 -235.34 -462.68 -852.73 -958.64 -1465.19 -2166.39 -2922.03 -3105.74 -3891.23 -4016.02 -3998.85 -3984.50 -3975.91 -3968.15 -3965.02 -3960.70 -3960.77
-5901.33 -5901.75 -5908.06 -5917.40 -5926.11 -5933.97 -5938.79 -5943.98 -5941.46 -5948.97 -5954.80 -5956.75 -5947.08 -5921.35 -5884.17 -5635.51 -5326.72 -4616.30 -4034.35 -3533.05 -3381.35 -2455.60 -2349.01 -1866.25 -762.35 -221.07 -169.96 -85.49 -28.07 0.86 32.30 50.24 67.79 85.72 111.20 171.49 203.04 237.69 263.82 283.15 334.65 389.97 479.46 526.61 558.96 481.81 445.89 389.86 353.52 311.89 257.24 234.10 201.93 180.98 165.31 154.28 139.09 139.25 141.26 148.73 145.10 138.83 134.53 119.21 121.74 123.76 132.57 131.82 134.60 138.44 137.99 143.64 148.17 159.20 166.25 179.40 186.85 202.45 222.34 232.64 251.22 266.24 276.14 294.87 314.58 335.42 347.30 363.75 365.75 361.84 355.68 349.90 341.10 331.35 329.42 368.77 386.48 390.27 397.10 419.25 463.22 454.72 600.96 713.45 416.37 172.01 108.53 64.49 6.08 -1686.52 -4770.64 -5251.20 -5028.08 -5058.74 -5151.77 -5229.48 -5260.14 -5182.50 -4750.43 -3158.44 -1344.31 -422.47 -203.76 -176.65 -234.33 -351.07 -523.12 -856.77 -1198.22 -1826.34 -2261.61 -2969.55 -3814.72 -3972.21 -3999.72 -3989.01 -3977.14 -3972.41 -3969.28 -3965.23 -3965.30
-5912.85 -5912.76 -5922.59 -5928.10 -5933.40 -5944.24 -5952.84 -5959.33 -5975.28 -5977.00 -5975.21 -5940.64 -5898.00 -5709.00 -5302.00 -4837.92 -4152.29 -3720.10 -3104.51 -2551.16 -2168.47 -2053.19 -1714.03 -1245.95 -258.30 -225.29 -158.78 -84.33 -31.73 -6.78 35.31 56.79 73.02 105.53 126.70 157.71 194.44 248.25 292.09 315.39 336.70 374.42 442.88 508.69 535.31 477.95 445.92 399.43 346.50 316.80 267.81 243.25 216.42 198.07 175.39 161.70 161.03 160.66 161.29 160.47 158.79 151.01 144.23 142.33 140.14 138.73 140.24 141.30 141.80 142.98 143.53 147.80 151.59 158.00 166.96 175.65 185.82 200.84 218.35 223.03 256.84 266.08 276.88 297.61 311.87 335.18 351.94 360.22 366.33 363.86 361.30 353.32 346.25 341.34 335.03 356.77 366.21 375.97 396.15 397.11 393.47 371.56 398.24 419.98 352.64 174.15 101.44 67.66 36.47 -1654.33 -3831.68 -5526.12 -5144.26 -5033.45 -5098.78 -5159.98 -5188.41 -5027.61 -4710.36 -2784.38 -1650.96 -351.14 -188.00 -172.70 -225.06 -298.18 -446.56 -746.82 -999.87 -1525.86 -2269.76 -2773.30 -3789.58 -3957.42 -4004.53 -3993.29 -3984.04 -3979.13 -3976.92 -3973.54 -3973.58
-5933.88 -5933.79 -5942.86 -5948.93 -5953.27 -5963.96 -5980.93 -5994.50 -6004.30 -6013.35 -5987.18 -5907.06 -5539.88 -5372.92 -4860.70 -4169.47 -3646.68 -2905.89 -2450.93 -2242.75 -1976.03 -1985.16 -1705.20 -1168.48 -277.99 -242.32 -186.40 -99.28 -28.74 7.27 43.78 64.75 89.20 111.96 139.80 170.29 200.57 282.97 318.46 370.18 387.38 415.80 492.90 501.47 495.96 463.00 404.97 378.69 338.78 304.51 273.41 246.08 231.43 208.59 203.98 188.25 183.01 182.18 178.56 176.22 180.65 167.72 160.85 157.15 155.51 151.72 154.83 150.54 151.10 150.30 149.04 149.60 155.18 160.09 165.60 173.87 186.51 200.63 215.26 226.50 244.78 260.66 277.76 297.46 311.39 332.79 344.10 356.52 364.83 363.75 361.51 354.46 347.08 346.04 339.43 340.52 350.52 363.13 379.09 383.27 371.43 353.87 309.44 277.82 243.63 145.54 106.87 62.24 34.36 -716.24 -4597.56 -5908.67 -5032.53 -5000.43 -5058.89 -5105.42 -5145.79 -4843.71 -4198.71 -2483.38 -705.18 -278.13 -170.56 -172.46 -207.56 -286.97 -407.70 -637.51 -999.09 -1298.21 -1929.88 -2778.88 -3442.31 -3933.29 -4010.81 -3999.80 -3990.68 -3987.79 -3988.06 -3987.89 -3987.98
-5966.30 -5966.20 -5973.14 -5980.79 -6003.65 -6018.54 -6033.00 -6051.34 -6061.79 -6122.52 -6060.19 -5828.01 -5255.60 -4580.16 -3807.23 -3564.68 -3230.31 -2911.01 -2431.02 -2185.01 -2009.42 -1992.68 -1757.20 -938.31 -282.25 -241.71 -171.08 -54.30 -15.17 8.59 46.39 71.11 80.67 130.64 174.48 205.90 257.75 307.52 361.43 404.31 423.76 484.80 521.67 478.56 452.81 444.97 400.50 357.32 345.27 310.40 280.42 256.89 249.42 235.34 212.44 208.55 204.97 211.88 198.81 206.11 204.45 174.21 171.73 169.87 165.41 163.43 164.48 158.24 156.81 155.29 151.36 153.04 155.82 160.54 164.63 173.55 182.05 195.84 209.38 223.36 245.83 259.86 281.50 291.46 320.43 330.61 341.65 353.28 360.56 361.86 359.10 356.03 353.56 354.07 349.65 354.61 358.98 365.79 367.82 369.17 360.29 336.89 315.75 262.53 203.04 159.59 114.44 64.00 23.55 -356.74 -2911.45 -5513.80 -5098.58 -4949.77 -5023.05 -5048.26 -5048.64 -4622.78 -3522.78 -1912.12 -577.21 -186.36 -148.67 -192.04 -242.34 -350.25 -468.96 -615.82 -873.06 -1277.81 -1893.70 -2420.83 -3402.97 -3865.84 -4018.78 -4007.65 -4002.47 -4000.25 -4000.97 -4003.32 -4003.41
-6027.81 -6027.09 -6036.89 -6049.78 -6073.04 -6088.48 -6186.64 -6203.11 -6209.57 -6259.94 -6075.71 -5787.68 -4863.32 -4178.13 -3650.27 -3386.66 -3253.08 -3028.39 -2633.25 -2181.87 -2083.89 -1939.64 -1389.34 -280.88 -259.77 -218.44 -145.95 -27.73 -9.10 1.90 29.09 58.36 98.36 169.82 207.42 209.01 280.63 308.57 377.57 422.88 491.37 517.24 504.27 438.52 418.56 393.21 376.70 355.17 338.16 297.32 280.48 274.35 276.55 252.25 234.68 234.84 267.11 265.45 235.71 238.04 220.64 212.38 187.31 186.73 182.77 175.16 169.75 165.39 161.54 160.10 155.58 154.33 156.26 159.27 164.67 170.74 176.97 191.30 205.38 219.00 237.40 257.81 283.68 297.53 313.33 326.57 334.31 351.20 354.55 355.83 356.84 355.94 356.76 361.12 360.94 362.04 368.82 368.10 365.23 359.11 348.74 304.82 296.95 246.90 199.06 152.60 117.33 86.19 29.94 -73.32 -2524.10 -5224.26 -4868.09 -4847.44 -4973.80 -4967.42 -4808.75 -4222.39 -2300.70 -858.66 -301.45 -176.74 -153.06 -182.92 -222.95 -343.53 -486.23 -665.44 -921.43 -1155.82 -2134.26 -2868.15 -3612.49 -3955.18 -4030.77 -4021.93 -4011.57 -4014.72 -4021.48 -4022.54 -4022.63
-6167.87 -6167.67 -6179.49 -6180.24 -6190.14 -6217.11 -6252.28 -6254.07 -6269.78 -6026.14 -5689.61 -5253.52 -4653.02 -3889.57 -3612.24 -3411.43 -3375.79 -3222.91 -2711.92 -2179.70 -2130.31 -2084.38 -1023.13 -272.75 -236.29 -212.89 -157.14 -54.18 -7.79 4.28 29.72 63.79 86.39 159.83 221.56 243.92 288.98 305.82 348.02 415.87 483.27 467.20 423.45 416.34 398.25 350.32 345.38 331.36 317.20 303.48 287.30 282.23 283.20 274.85 256.38 251.94 316.17 294.78 275.58 265.78 249.90 230.05 210.50 201.11 192.14 186.39 177.91 174.82 168.38 162.31 158.73 156.02 156.72 158.50 162.55 169.32 178.11 190.51 200.91 218.14 231.78 251.65 274.91 290.62 301.51 321.88 332.17 347.38 349.82 352.50 353.37 356.44 360.67 374.31 376.28 377.64 379.47 374.11 366.56 334.19 324.87 266.00 231.16 193.66 152.28 133.91 107.84 47.37 -34.93 -589.83 -2559.89 -5077.67 -4649.35 -4758.27 -4887.05 -4839.29 -4432.96 -3784.77 -1659.16 -459.36 -240.10 -161.76 -177.20 -201.02 -213.54 -303.82 -384.42 -617.71 -825.55 -1395.54 -2616.58 -3334.31 -3864.97 -4053.67 -4038.37 -4031.78 -4029.02 -4032.70 -4039.78 -4043.57 -4043.67
-6390.74 -6384.96 -6307.14 -6198.97 -6194.02 -6204.74 -6126.03 -5858.77 -5703.23 -5402.92 -4918.55 -4362.26 -4287.89 -3967.91 -3907.30 -3650.21 -3585.88 -3385.34 -2858.19 -2163.38 -2032.30 -1652.64 -783.29 -258.00 -239.05 -205.30 -128.29 -49.15 -11.47 4.48 10.31 67.57 103.32 140.67 198.49 252.88 325.31 372.83 377.97 437.06 466.44 451.11 393.13 373.60 367.20 337.30 323.43 315.51 309.60 288.63 283.12 280.10 280.21 277.72 276.22 276.58 321.43 317.34 313.43 297.27 278.52 245.99 231.70 209.88 203.59 194.06 191.70 181.72 173.32 163.78 160.22 156.85 156.73 158.77 161.67 167.11 174.56 183.68 200.82 216.96 231.03 244.99 260.93 281.35 297.12 316.10 325.58 332.51 342.96 345.72 350.94 358.73 367.41 384.24 389.54 387.89 384.38 375.33 355.01 322.18 309.40 245.62 196.12 150.68 119.78 86.46 55.79 24.04 -79.82 -1067.89 -2296.16 -4510.64 -4463.48 -4634.20 -4872.36 -4839.88 -3783.12 -2731.32 -915.87 -432.34 -191.50 -181.43 -188.65 -196.71 -231.40 -319.42 -473.67 -717.45 -957.60 -1660.08 -2908.93 -3780.77 -4045.04 -4063.70 -4055.26 -4046.04 -4044.69 -4050.44 -4054.64 -4068.49 -4068.59
-6234.21 -6234.34 -5896.83 -5812.42 -5716.98 -5445.96 -5284.14 -4963.59 -4669.85 -4464.87 -4441.53 -4244.98 -4166.29 -4188.13 -4187.92 -4097.58 -3899.16 -3458.42 -2880.69 -2228.45 -1607.75 -1319.10 -343.51 -272.98 -232.49 -187.79 -124.82 -56.62 -13.46 3.56 10.53 69.49 129.18 190.71 222.80 267.58 368.84 443.70 441.63 439.68 417.26 402.27 381.51 352.64 330.16 306.86 308.70 299.00 287.44 277.32 274.51 271.87 269.19 267.37 274.62 287.12 311.53 344.47 355.87 340.90 296.38 257.15 246.76 234.21 218.63 203.29 196.11 194.93 181.35 169.99 163.98 158.42 156.36 159.11 162.97 169.21 177.39 184.52 197.31 208.17 226.89 242.87 259.98 271.42 295.95 314.72 320.10 327.01 332.52 341.69 346.86 361.38 372.73 386.05 391.89 390.96 384.06 373.13 339.56 294.67 266.35 220.96 170.29 136.40 95.91 72.07 32.59 -71.35 -395.79 -1980.23 -3362.73 -3843.57 -4243.85 -4639.52 -4813.80 -4809.44 -3665.18 -1938.13 -658.19 -325.15 -175.85 -193.50 -200.28 -204.07 -232.86 -296.51 -515.26 -917.30 -1400.26 -2357.24 -2824.78 -3613.76 -3987.50 -4084.09 -4066.81 -4066.03 -4067.35 -4073.33 -4092.49 -4088.56 -4088.67
-5137.87 -5139.38 -5086.20 -4845.52 -4881.08 -4487.00 -4453.29 -4317.23 -4291.27 -4255.85 -4271.21 -4273.12 -4323.60 -4339.73 -4315.33 -4308.28 -4132.80 -3759.78 -3019.04 -2473.73 -1462.94 -889.20 -352.14 -286.60 -244.45 -186.07 -144.12 -58.36 -19.46 2.12 10.12 61.21 112.28 153.07 217.62 302.18 393.70 406.54 395.92 376.51 362.72 360.77 336.42 310.47 293.13 294.46 286.02 276.70 275.88 266.51 267.61 260.73 259.31 261.42 265.82 280.64 289.28 326.75 352.78 355.09 328.17 269.53 251.38 241.07 239.88 222.06 207.27 199.63 184.04 177.66 168.73 159.46 156.20 156.62 161.91 166.93 171.98 182.65 191.81 205.41 221.90 242.57 262.41 271.46 287.49 307.49 313.26 322.29 323.36 336.84 341.30 353.52 373.58 381.83 386.91 384.52 376.42 348.11 306.00 285.55 225.46 194.56 154.24 113.96 85.98 52.12 8.29 -337.27 -1259.22 -2722.65 -3336.31 -3870.83 -4654.75 -5048.09 -5048.87 -4539.03 -3369.10 -1638.19 -579.46 -207.84 -190.27 -211.76 -215.87 -225.67 -247.46 -333.74 -638.17 -1142.90 -1677.07 -2459.70 -3254.73 -3427.85 -4072.13 -4097.80 -4090.10 -4086.14 -4086.92 -4098.50 -4102.43 -4107.65 -4107.77
-4290.14 -4291.59 -4340.25 -4398.96 -4313.67 -4269.46 -4243.96 -4251.89 -4290.69 -4331.18 -4338.07 -4373.29 -4392.59 -4414.57 -4417.82 -4412.28 -4342.22 -4052.50 -3645.27 -2826.24 -1542.71 -441.50 -337.41 -300.77 -244.60 -190.18 -171.07 -104.08 -64.58 -1.41 9.60 49.98 107.48 169.91 256.38 308.21 321.74 369.77 341.25 312.86 325.69 337.24 306.63 270.32 270.72 268.48 265.61 262.97 261.57 248.87 252.47 251.40 248.23 252.44 260.10 265.72 275.25 299.09 337.67 358.88 345.49 293.49 283.42 253.39 245.72 236.80 217.22 205.62 190.47 182.32 166.28 158.98 155.97 155.34 158.20 163.15 166.91 177.70 185.35 206.07 222.57 239.75 252.78 264.35 291.04 297.56 306.55 314.04 319.98 325.40 335.68 340.07 362.61 375.54 377.98 377.83 361.69 353.22 308.52 269.48 239.82 183.27 127.50 108.15 64.21 29.03 -19.17 -77.90 -974.29 -2303.36 -3101.59 -4443.69 -5304.51 -5358.51 -5168.54 -4702.23 -2845.26 -1007.34 -311.17 -207.23 -195.33 -226.83 -239.07 -252.31 -262.02 -394.05 -695.10 -1276.64 -2003.05 -2631.57 -3273.07 -3808.28 -4110.49 -4111.70 -4106.89 -4106.89 -4108.52 -4109.34 -4119.04 -4123.12 -4123.24
-4262.15 -4262.03 -4279.70 -4276.58 -4302.10 -4319.60 -4333.48 -4358.68 -4380.56 -4395.01 -4413.83 -4425.56 -4441.94 -4447.55 -4459.20 -4454.50 -4368.28 -4175.72 -3845.52 -2808.85 -2562.78 -822.92 -359.67 -310.11 -264.20 -210.01 -178.40 -129.64 -85.80 -23.57 2.99 32.13 67.99 96.51 226.09 259.58 246.79 268.86 253.82 263.59 281.61 268.78 274.25 244.16 234.94 234.08 237.08 241.11 232.86 236.92 243.54 240.07 240.39 247.06 249.18 266.97 278.64 290.05 310.35 360.83 361.12 324.30 297.28 277.12 259.63 245.34 221.98 207.76 192.13 181.62 167.56 159.13 153.18 151.07 151.99 160.12 166.29 178.05 184.67 204.82 218.95 228.07 250.20 262.30 277.76 290.55 302.55 307.20 311.47 320.07 323.46 346.04 356.22 364.31 365.57 357.10 351.78 335.40 286.11 256.23 221.67 179.01 137.39 97.44 40.95 -0.06 -13.52 -36.51 -1148.86 -1745.29 -3597.59 -4674.02 -5339.22 -5484.42 -5258.05 -4135.99 -1822.90 -755.26 -263.44 -193.06 -216.87 -248.11 -248.90 -266.01 -316.26 -439.42 -926.64 -1240.01 -2366.21 -2973.43 -3679.00 -4143.87 -4134.12 -4132.96 -4121.71 -4124.09 -4120.30 -4127.53 -4130.35 -4137.01 -4137.14
-4391.21 -4390.42 -4394.09 -4390.77 -4408.14 -4424.97 -4425.16 -4424.89 -4441.64 -4447.54 -4447.55 -4448.93 -4458.07 -4465.79 -4471.71 -4470.58 -4392.91 -4263.98 -3782.30 -3113.17 -1981.55 -451.94 -364.27 -298.52 -267.75 -235.45 -193.73 -164.14 -121.26 -59.64 -7.94 25.72 52.08 76.05 95.40 124.46 179.01 211.45 209.89 208.49 205.59 201.04 221.84 225.05 217.13 211.52 209.66 219.93 223.94 221.05 223.74 224.06 232.10 242.03 248.66 259.23 277.57 286.59 304.06 358.45 385.12 348.32 332.35 307.97 267.87 246.54 233.05 212.34 198.33 181.14 170.42 158.49 150.74 149.04 149.52 154.72 161.49 169.41 180.37 193.38 206.03 224.55 242.00 264.13 275.01 287.19 293.15 296.69 304.26 309.99 315.45 338.16 350.00 355.28 357.05 347.64 333.22 305.62 273.77 232.43 183.98 161.88 124.49 87.42 62.06 13.58 -509.71 -854.25 -1135.35 -2134.69 -3543.44 -4346.54 -5470.89 -5547.22 -5040.93 -3788.77 -2062.47 -643.29 -273.58 -184.69 -225.26 -238.96 -255.92 -290.87 -384.67 -527.67 -1115.21 -1427.51 -2105.30 -3108.41 -3744.58 -4142.49 -4146.18 -4142.87 -4139.86 -4138.48 -4135.30 -4141.23 -4146.67 -4152.13 -4152.31
-4456.04 -4455.60 -4451.09 -4458.92 -4455.63 -4457.54 -4460.51 -4478.18 -4469.49 -4471.45 -4474.74 -4469.53 -4471.44 -4474.25 -4481.77 -4472.23 -4417.23 -4085.64 -3669.78 -3087.92 -2332.83 -780.38 -382.25 -306.08 -289.03 -249.97 -232.46 -183.30 -122.67 -85.65 -13.16 2.40 22.66 36.12 67.06 97.16 102.86 128.97 153.94 156.55 167.39 170.43 175.54 195.50 192.20 191.94 201.72 202.02 203.93 208.80 213.88 219.98 224.45 236.24 245.30 256.19 274.85 285.87 297.12 355.12 395.87 391.01 377.07 320.90 299.13 266.14 258.92 237.06 207.34 180.72 171.58 154.67 149.09 145.51 145.55 148.39 153.70 159.99 174.54 185.03 208.50 223.42 238.67 250.73 267.47 269.51 281.00 290.54 297.40 300.98 306.37 329.49 345.34 342.03 333.65 327.04 293.98 275.62 253.42 198.75 162.24 136.21 109.27 73.41 55.95 -328.03 -1507.96 -1630.50 -1705.94 -2184.72 -3426.61 -4723.36 -5311.13 -5512.04 -4995.09 -3363.91 -1726.07 -433.00 -225.73 -178.92 -222.86 -254.43 -275.11 -323.69 -484.75 -666.26 -903.24 -1403.13 -2170.37 -2856.61 -3531.07 -4089.72 -4149.37 -4159.25 -4159.96 -4155.52 -4150.76 -4151.65 -4157.94 -4165.73 -4165.84
-4494.57 -4494.95 -4496.09 -4494.31 -4501.36 -4493.41 -4489.46 -4492.47 -4483.53 -4482.60 -4492.90 -4494.00 -4489.77 -4490.31 -4488.49 -4455.41 -4315.32 -3989.13 -3539.57 -2875.33 -1618.26 -527.92 -365.49 -329.32 -309.98 -275.25 -245.44 -195.23 -147.38 -99.97 -30.08 -10.56 7.62 23.49 53.25 65.21 79.82 102.79 112.17 116.01 126.31 131.42 141.10 163.71 165.13 177.05 176.82 182.12 188.86 196.11 201.83 214.16 221.80 233.60 242.33 245.25 265.55 279.52 314.62 344.62 408.83 420.57 413.27 371.20 362.33 336.76 313.62 259.31 209.66 178.59 164.31 153.14 145.00 141.76 141.01 144.23 149.76 153.14 168.27 180.13 200.91 216.23 230.56 241.13 251.34 264.94 274.54 278.28 287.09 297.46 303.79 317.82 327.26 324.74 313.14 297.52 280.25 246.92 207.99 180.78 156.77 106.13 99.11 59.57 37.42 -801.10 -1613.52 -1781.69 -1725.14 -2231.63 -3358.32 -4921.59 -5410.79 -5456.58 -5246.09 -4165.47 -1161.41 -710.84 -266.64 -201.59 -224.73 -261.96 -294.61 -325.93 -460.81 -739.35 -919.66 -1439.77 -2188.37 -2603.43 -3015.53 -3743.80 -4095.52 -4173.89 -4172.51 -4170.35 -4161.01 -4171.10 -4174.08 -4178.65 -4178.66
-4525.94 -4525.91 -4524.69 -4525.02 -4526.87 -4528.25 -4527.07 -4524.92 -4525.37 -4518.55 -4507.78 -4503.06 -4499.36 -4502.50 -4494.69 -4421.93 -4262.21 -3874.27 -3066.32 -2261.43 -1679.71 -546.02 -390.39 -348.06 -326.50 -285.80 -243.79 -208.30 -186.00 -130.04 -107.53 -52.08 -17.59 8.29 31.60 45.83 56.44 84.02 89.52 90.72 102.75 121.47 122.97 129.54 150.61 153.09 159.26 166.91 172.03 183.35 192.49 199.81 216.58 218.38 233.19 242.93 261.23 280.64 301.91 331.00 366.92 376.88 363.08 371.19 360.93 331.79 316.90 251.27 206.58 183.70 154.24 145.04 138.53 135.58 135.24 133.98 143.02 147.97 159.61 181.62 189.23 209.30 222.73 232.94 241.73 254.30 264.56 271.04 275.64 291.35 300.83 307.05 314.98 312.62 295.01 265.27 245.71 226.34 195.00 183.89 125.66 105.88 72.63 -106.08 -767.84 -1559.70 -1634.83 -1622.01 -1658.34 -2355.36 -3166.81 -5237.88 -5398.56 -5564.60 -5400.97 -4206.35 -2337.12 -1226.58 -498.09 -279.22 -257.87 -269.80 -310.98 -344.39 -443.51 -640.49 -1035.36 -1467.50 -2147.05 -2516.53 -3247.81 -3665.81 -4089.57 -4186.02 -4182.91 -4180.74 -4180.83 -4183.31 -4188.20 -4193.70 -4193.75
-4547.48 -4547.42 -4545.65 -4548.67 -4546.31 -4546.39 -4540.08 -4536.59 -4534.85 -4530.08 -4525.82 -4519.96 -4517.00 -4512.07 -4496.67 -4419.15 -4227.37 -3758.58 -2695.67 -2130.70 -1657.08 -1131.94 -386.31 -362.89 -335.38 -299.86 -272.98 -250.82 -202.01 -158.80 -153.00 -101.89 -30.09 0.56 20.23 32.99 32.25 54.09 63.66 64.77 70.82 84.30 110.68 112.31 124.54 130.36 139.64 151.74 155.08 169.01 181.14 193.54 206.16 209.08 222.81 236.56 250.88 267.89 291.16 310.24 335.25 338.34 326.18 314.40 318.57 282.69 264.93 257.94 218.80 174.14 145.66 141.95 135.20 131.11 130.31 130.66 137.47 144.38 151.13 162.56 185.75 193.52 210.50 217.64 237.28 241.94 251.53 267.04 271.61 281.34 293.42 301.38 302.24 294.84 280.13 255.22 227.84 195.57 178.58 147.56 110.95 87.92 56.43 -438.42 -1149.16 -1647.08 -1582.34 -1545.86 -1706.85 -2560.62 -3711.02 -5126.67 -5528.35 -5571.44 -5475.01 -4747.34 -3466.34 -1944.64 -1433.42 -317.23 -316.00 -283.88 -301.00 -351.74 -414.13 -745.01 -1183.83 -1698.45 -2162.42 -2724.38 -3449.07 -3945.91 -4112.74 -4198.99 -4195.06 -4197.45 -4196.18 -4198.70 -4203.03 -4208.85 -4208.92
-4561.37 -4561.30 -4561.18 -4564.00 -4561.84 -4558.99 -4556.40 -4554.07 -4550.27 -4544.55 -4537.86 -4533.65 -4525.34 -4519.06 -4511.01 -4427.47 -4186.89 -3861.99 -2890.68 -2229.34 -1698.74 -1278.53 -645.75 -381.39 -347.62 -310.70 -300.86 -264.22 -253.14 -217.20 -182.35 -160.70 -65.89 -27.02 -9.41 6.16 21.98 36.58 50.60 55.75 58.10 56.44 70.63 86.96 107.35 112.59 130.94 135.71 143.66 154.77 169.24 176.99 188.22 203.46 216.21 229.48 250.02 261.39 278.96 297.12 307.84 289.07 281.91 271.47 287.25 261.50 248.61 215.85 192.77 170.98 150.76 136.31 126.75 125.09 125.43 124.26 125.63 132.80 145.49 160.67 173.14 190.36 196.12 205.14 224.62 236.80 242.70 255.05 264.97 277.46 286.10 292.24 286.98 276.27 265.37 244.84 222.62 169.52 150.06 128.88 108.45 73.75 45.58 -524.85 -1225.87 -1591.03 -1513.49 -1497.57 -1647.30 -2815.27 -4108.95 -4960.47 -5540.24 -5587.54 -5591.54 -5379.17 -4767.12 -2941.15 -1933.67 -966.20 -351.07 -294.08 -318.43 -403.57 -597.71 -958.17 -1489.62 -2029.39 -2368.47 -2952.37 -3748.98 -3981.96 -4182.36 -4212.62 -4211.28 -4205.41 -4206.30 -4210.65 -4212.68 -4221.12 -4221.19
-4572.75 -4572.67 -4573.65 -4571.80 -4575.84 -4572.24 -4569.47 -4564.79 -4560.38 -4553.61 -4550.89 -4543.07 -4534.88 -4529.76 -4514.40 -4464.52 -4306.90 -4089.81 -3438.35 -2893.18 -1993.48 -1494.58 -1121.02 -764.42 -463.24 -341.70 -308.48 -286.13 -268.06 -239.09 -199.29 -160.92 -116.89 -49.85 -21.89 -5.31 15.99 19.16 32.90 34.66 40.77 52.86 60.47 67.18 86.03 100.46 115.94 120.67 129.40 136.43 156.04 169.49 184.69 197.47 213.89 229.45 247.73 275.90 299.96 304.93 291.26 273.59 267.51 256.44 239.49 230.63 209.33 201.50 173.40 159.96 138.87 129.38 123.71 119.29 115.95 117.95 121.05 123.49 132.87 147.53 166.06 177.08 184.62 193.04 211.03 232.16 240.24 253.05 266.39 274.65 279.82 278.76 276.29 252.09 233.37 188.57 180.47 153.03 132.95 116.74 93.84 56.70 -169.08 -729.93 -1423.86 -1536.64 -1452.19 -1522.65 -1639.79 -2727.28 -4087.79 -5277.16 -5525.35 -5596.46 -5614.53 -5558.60 -5383.95 -4696.22 -2978.18 -1844.10 -564.60 -367.82 -349.99 -402.97 -789.80 -1284.69 -1470.35 -2471.94 -2759.35 -3141.24 -3877.83 -4214.23 -4223.65 -4222.92 -4218.74 -4213.79 -4215.40 -4218.07 -4224.33 -4232.07 -4232.14
-4581.60 -4581.74 -4582.35 -4581.93 -4581.92 -4581.94 -4577.37 -4572.99 -4571.02 -4560.66 -4555.07 -4549.90 -4542.12 -4535.04 -4515.19 -4489.63 -4366.29 -4135.85 -3698.29 -3252.26 -2752.67 -2040.66 -1601.33 -1054.18 -578.13 -393.68 -323.70 -307.38 -296.38 -261.29 -206.05 -181.77 -143.65 -105.77 -76.04 -35.62 3.60 10.57 13.87 21.54 27.40 36.25 45.81 57.54 66.74 78.49 108.79 106.34 115.11 128.12 138.85 167.07 174.71 187.93 205.29 238.54 270.26 289.00 301.31 293.31 273.17 259.96 246.67 242.25 224.79 205.77 195.09 174.94 168.28 156.96 136.31 127.63 117.93 111.64 110.81 112.23 115.97 121.21 130.86 137.00 151.24 163.65 177.39 193.45 202.43 212.94 245.83 260.56 269.48 274.62 273.85 264.98 252.57 232.13 190.37 167.25 148.72 123.39 101.21 85.56 73.55 49.11 -65.37 -639.46 -1228.37 -1478.52 -1458.64 -1555.07 -1786.17 -2772.63 -4368.40 -5197.87 -5538.76 -5597.04 -5624.06 -5620.01 -5453.89 -5130.52 -3652.23 -1894.87 -668.76 -383.45 -392.27 -511.00 -769.43 -1190.74 -1580.79 -2514.76 -3389.37 -3873.40 -4083.14 -4219.81 -4228.56 -4227.43 -4227.91 -4228.47 -4228.30 -4229.22 -4233.32 -4241.55 -4241.62
-4584.22 -4584.14 -4584.98 -4586.84 -4585.80 -4584.30 -4581.81 -4577.91 -4575.11 -4570.37 -4563.41 -4555.74 -4544.32 -4539.06 -4528.32 -4518.21 -4465.09 -4387.77 -4111.89 -3905.02 -3234.00 -2437.83 -1869.43 -1351.36 -653.47 -421.99 -367.67 -342.04 -314.76 -289.74 -239.95 -203.91 -175.98 -135.59 -112.66 -87.73 -36.81 -4.15 3.46 9.68 14.11 19.73 26.61 44.23 59.58 65.96 85.83 93.03 95.76 112.94 130.31 152.82 163.64 186.77 226.01 235.44 276.10 309.92 304.34 279.90 256.22 239.24 234.78 217.35 206.22 197.22 184.55 159.08 152.38 144.23 132.63 125.97 112.57 106.02 105.43 102.61 106.62 115.29 124.24 131.63 145.84 155.36 163.74 184.91 198.43 211.41 237.10 264.29 274.69 275.37 272.46 255.42 220.32 184.71 170.40 135.29 128.42 109.56 78.34 56.39 47.69 -51.22 -347.78 -948.21 -1397.33 -1462.54 -1461.37 -1623.50 -2226.03 -3093.33 -4665.96 -5280.47 -5549.27 -5592.74 -5616.30 -5631.91 -5556.06 -5285.95 -3726.31 -2408.97 -747.37 -431.95 -471.97 -729.29 -1004.05 -1517.59 -2186.95 -2875.32 -3788.81 -4080.93 -4218.89 -4240.75 -4240.81 -4239.11 -4240.00 -4236.30 -4232.00 -4236.95 -4241.49 -4250.79 -4250.87
-4583.03 -4583.25 -4585.06 -4586.54 -4585.66 -4584.37 -4582.12 -4580.21 -4577.33 -4572.63 -4564.37 -4558.32 -4549.99 -4543.80 -4536.03 -4524.18 -4499.09 -4457.85 -4345.48 -3973.34 -3741.11 -3003.94 -1868.00 -1432.34 -1026.69 -804.28 -560.11 -416.30 -362.80 -307.28 -250.32 -222.36 -184.92 -162.82 -156.56 -138.18 -70.82 -37.31 -30.81 -3.07 -1.14 3.84 13.93 31.93 48.58 58.24 67.77 77.90 86.80 108.03 119.39 148.51 167.63 189.71 235.06 257.97 298.13 317.39 324.98 279.78 240.66 229.96 219.15 204.29 197.40 185.35 167.49 159.97 147.24 132.35 125.64 111.17 105.01 100.17 97.35 96.61 97.90 103.12 111.47 122.54 128.05 141.60 145.19 166.67 182.93 205.61 227.33 257.26 271.84 273.34 251.48 222.51 184.62 169.89 141.58 110.39 85.07 70.86 54.13 45.04 -25.75 -241.37 -829.38 -1314.75 -1371.13 -1464.14 -1547.84 -1685.29 -2078.48 -3277.14 -4872.52 -5297.19 -5528.81 -5582.16 -5613.23 -5633.28 -5560.96 -5360.40 -3861.00 -2350.06 -895.17 -464.83 -544.44 -920.63 -1470.02 -1992.54 -2216.62 -2855.55 -3700.23 -4148.19 -4246.38 -4256.59 -4249.61 -4244.36 -4245.49 -4241.47 -4240.02 -4247.21 -4251.46 -4258.95 -4259.02
-4586.67 -4586.60 -4587.93 -4590.27 -4591.03 -4590.31 -4585.90 -4585.27 -4583.71 -4579.46 -4573.27 -4565.15 -4558.86 -4548.49 -4544.00 -4536.63 -4525.86 -4517.85 -4457.01 -4258.68 -4000.72 -3179.26 -2308.68 -1676.90 -1160.41 -1041.25 -932.39 -790.42 -557.99 -516.05 -290.63 -256.82 -227.63 -209.06 -189.59 -170.07 -125.28 -89.62 -50.06 -9.88 -9.36 -7.44 -2.68 16.16 29.10 39.92 49.18 61.82 72.44 94.79 102.40 137.77 170.08 197.54 252.54 274.99 314.49 320.70 317.65 278.57 241.25 218.64 202.07 184.84 174.09 163.65 157.69 156.39 138.35 126.01 115.61 104.27 100.23 93.95 92.64 92.75 92.33 95.56 96.56 107.97 114.93 123.74 135.89 154.46 174.79 196.15 215.39 238.28 268.41 266.86 255.99 239.00 163.39 134.86 115.50 103.96 65.70 51.66 45.06 -108.64 -449.03 -752.04 -1274.24 -1448.74 -1433.78 -1440.91 -1546.76 -1612.30 -2541.34 -3488.69 -4704.67 -5501.04 -5575.30 -5580.61 -5604.64 -5622.61 -5556.13 -5210.66 -3452.49 -2070.09 -724.83 -487.99 -687.20 -1135.11 -1511.83 -2182.40 -3148.37 -3298.16 -3980.86 -4270.23 -4262.96 -4260.27 -4257.00 -4251.65 -4250.81 -4252.93 -4251.14 -4253.76 -4257.28 -4266.49 -4266.56
-4595.32 -4595.25 -4596.48 -4597.71 -4597.11 -4596.00 -4596.25 -4593.88 -4592.53 -4589.32 -4585.90 -4572.01 -4566.80 -4562.79 -4551.09 -4546.38 -4535.25 -4526.25 -4449.67 -4376.94 -3904.99 -3295.62 -2365.88 -1628.45 -1081.47 -1000.41 -952.70 -1049.05 -1049.19 -1053.98 -818.37 -301.00 -274.73 -237.44 -198.46 -170.56 -166.18 -140.66 -117.20 -97.10 -44.66 -19.04 -11.18 -1.35 13.88 26.40 28.52 30.52 50.86 87.15 99.47 132.59 160.74 194.36 243.56 278.19 304.99 306.50 260.12 262.76 248.55 219.94 180.19 173.65 161.72 156.58 148.32 136.60 127.41 119.16 109.66 102.43 91.43 86.72 86.58 84.86 83.87 87.88 83.87 98.12 104.78 111.29 123.22 139.01 163.57 181.54 203.80 233.00 248.70 228.94 221.70 195.93 151.85 106.23 86.70 66.14 43.63 30.16 -66.77 -764.51 -1725.13 -1530.94 -1413.91 -1365.73 -1420.53 -1457.94 -1532.03 -1891.60 -2760.76 -3746.23 -4778.46 -5401.57 -5562.70 -5567.67 -5595.20 -5593.66 -5392.79 -4968.20 -3026.05 -1898.09 -597.03 -630.74 -905.98 -1387.70 -1872.87 -2357.56 -3412.73 -4042.59 -4168.90 -4283.20 -4275.70 -4266.64 -4261.81 -4258.88 -4257.22 -4259.00 -4259.22 -4260.96 -4263.88 -4271.76 -4272.78
-4605.36 -4605.29 -4605.74 -4608.72 -4609.64 -4607.89 -4605.76 -4604.92 -4606.31 -4599.51 -4595.60 -4590.11 -4583.38 -4574.05 -4567.10 -4564.72 -4552.58 -4533.95 -4467.97 -4327.03 -3765.31 -3368.35 -2379.89 -1618.98 -1234.47 -1258.08 -1455.36 -1318.41 -1343.85 -1545.05 -1379.06 -880.88 -309.88 -255.54 -250.24 -208.28 -195.52 -182.14 -173.94 -151.99 -96.35 -43.94 -29.29 -21.32 -16.98 -9.84 12.18 24.04 31.55 64.01 87.92 129.18 160.49 196.45 245.11 260.83 258.74 244.87 222.56 204.71 220.97 201.03 169.21 145.76 139.90 137.61 132.74 127.98 119.77 106.39 97.58 88.07 83.23 79.83 78.71 78.22 71.98 74.50 77.04 84.69 94.04 98.98 103.00 107.68 125.97 145.08 176.81 212.93 226.17 226.44 213.60 149.22 116.25 79.33 59.77 51.12 21.47 -55.24 -451.20 -1425.70 -1551.34 -1457.28 -1416.39 -1381.96 -1414.54 -1488.61 -1588.40 -2059.60 -3057.76 -4301.37 -4926.17 -5468.52 -5542.63 -5558.96 -5582.10 -5593.22 -5478.47 -4600.21 -2825.79 -1357.96 -571.60 -613.58 -1262.19 -1597.45 -2437.88 -3143.61 -3968.80 -4281.18 -4300.07 -4289.80 -4283.11 -4274.59 -4265.91 -4265.23 -4261.53 -4262.44 -4264.67 -4264.76 -4268.60 -4278.43 -4278.51
-4617.78 -4619.01 -4621.59 -4619.89 -4620.67 -4618.09 -4620.27 -4616.27 -4619.68 -4615.97 -4612.31 -4606.55 -4604.63 -4588.47 -4580.64 -4577.34 -4571.41 -4558.75 -4469.46 -4271.61 -3836.35 -3150.80 -2438.72 -1949.59 -1829.64 -1812.30 -1804.96 -1918.84 -2146.74 -2151.10 -2199.48 -1532.13 -584.88 -309.08 -275.18 -242.89 -234.67 -214.60 -212.65 -186.92 -139.13 -98.07 -60.23 -47.25 -28.70 -18.65 -1.48 11.48 27.78 29.64 79.93 129.35 188.29 234.58 206.46 206.78 215.53 178.06 182.35 161.93 197.22 177.65 151.81 138.56 132.57 127.40 123.37 119.80 112.86 98.16 90.77 82.98 78.89 71.94 68.22 68.05 62.23 64.34 68.21 67.92 76.14 83.83 90.65 99.89 111.60 124.46 167.17 186.75 198.46 196.34 192.79 152.01 89.35 59.27 53.61 19.78 -67.66 -386.84 -1253.70 -1622.80 -1430.45 -1388.09 -1418.59 -1400.49 -1451.16 -1527.59 -1617.92 -2291.89 -3090.51 -4701.54 -5365.79 -5527.66 -5553.73 -5565.01 -5589.11 -5577.94 -5261.71 -4905.73 -2225.92 -685.71 -462.81 -666.34 -906.83 -1565.00 -2595.45 -3732.53 -4079.63 -4314.24 -4303.30 -4295.90 -4287.09 -4283.09 -4276.52 -4268.11 -4270.08 -4272.03 -4268.29 -4270.39 -4275.94 -4283.82 -4283.89
-4636.40 -4636.34 -4635.16 -4634.23 -4638.13 -4646.66 -4639.29 -4634.43 -4635.53 -4629.37 -4628.97 -4623.20 -4620.21 -4611.68 -4605.27 -4597.70 -4593.76 -4566.68 -4530.67 -4342.15 -4019.13 -3330.45 -2823.50 -2536.20 -2412.47 -2524.58 -2618.94 -2747.22 -2810.92 -3201.50 -3380.45 -2363.55 -1487.90 -325.01 -300.29 -300.53 -276.05 -253.71 -237.24 -208.23 -208.94 -181.37 -132.18 -82.33 -58.03 -41.80 -12.29 2.60 15.88 29.97 58.49 107.87 176.55 192.07 185.94 167.51 173.87 150.52 136.16 122.42 117.83 149.88 134.74 121.36 116.22 116.27 110.22 112.86 97.71 88.24 83.14 73.15 67.73 64.59 63.62 62.05 57.45 56.70 57.39 62.28 64.55 68.93 71.18 79.68 88.18 105.66 143.20 154.50 171.12 182.02 156.54 108.39 91.29 40.15 34.17 11.52 -119.26 -652.38 -1675.18 -1529.87 -1390.55 -1404.65 -1462.76 -1470.25 -1540.13 -1657.41 -2078.69 -2901.46 -3901.04 -4970.01 -5463.96 -5519.85 -5554.70 -5575.12 -5593.66 -5514.64 -5233.63 -4030.57 -1776.57 -739.74 -483.25 -627.71 -1101.92 -1580.63 -2461.33 -3556.12 -3885.41 -4241.51 -4308.72 -4302.27 -4293.16 -4285.76 -4284.74 -4281.08 -4281.16 -4279.95 -4277.42 -4276.84 -4280.27 -4287.91 -4287.98
-4658.14 -4658.08 -4657.04 -4661.66 -4663.76 -4661.69 -4665.67 -4658.40 -4650.71 -4651.65 -4649.00 -4641.81 -4637.83 -4631.03 -4631.48 -4620.87 -4615.02 -4601.82 -4571.44 -4392.32 -4173.53 -3829.90 -3548.55 -3395.88 -3318.62 -3693.75 -3753.86 -3742.06 -3889.45 -3847.77 -4252.19 -4449.58 -2598.20 -777.17 -328.12 -331.48 -305.86 -282.77 -267.96 -265.11 -245.60 -190.41 -153.07 -115.81 -96.71 -89.15 -50.82 -33.20 -14.57 26.02 36.10 75.64 145.70 129.78 108.18 103.45 107.47 105.16 97.47 102.45 104.66 104.46 109.50 107.07 103.72 100.20 99.20 89.79 84.77 78.40 67.05 64.93 62.34 51.29 49.28 51.80 48.90 43.90 48.77 52.95 53.23 57.16 61.93 61.99 72.36 82.12 109.69 127.74 140.69 134.57 111.90 89.86 36.74 12.06 2.94 5.19 -150.36 -1141.52 -1615.10 -1445.32 -1420.92 -1453.70 -1532.83 -1632.99 -1718.38 -2157.99 -2449.11 -3634.46 -4753.97 -5312.07 -5455.39 -5513.71 -5556.14 -5580.33 -5599.85 -5504.60 -5133.92 -3431.80 -1715.75 -764.12 -552.47 -667.80 -1153.52 -2047.36 -2644.83 -3369.36 -3986.01 -4220.75 -4314.85 -4309.58 -4303.04 -4299.58 -4293.46 -4287.86 -4284.64 -4284.15 -4282.13 -4285.30 -4288.27 -4291.72 -4291.79
-4673.45 -4673.39 -4673.17 -4677.81 -4676.63 -4681.31 -4680.13 -4670.40 -4668.98 -4665.62 -4663.37 -4658.49 -4656.95 -4656.74 -4648.45 -4645.24 -4632.82 -4628.87 -4596.46 -4558.52 -4477.96 -4217.26 -4097.89 -3998.14 -4054.94 -4117.45 -4199.13 -4182.40 -4352.66 -4400.49 -4561.09 -4864.32 -3937.58 -2140.29 -919.98 -435.39 -327.44 -300.58 -296.69 -279.67 -255.65 -222.71 -185.11 -202.92 -156.10 -123.25 -89.55 -76.16 -52.72 -5.83 23.53 53.89 89.34 64.36 60.68 59.37 68.54 65.08 75.17 72.31 80.60 92.71 99.69 97.82 98.60 90.54 86.99 83.50 75.31 67.02 62.12 57.93 53.11 39.45 42.66 42.17 37.01 36.21 32.37 36.89 40.97 40.71 43.64 42.69 51.08 59.49 76.31 93.58 92.55 87.44 74.98 38.34 18.20 -45.23 -51.67 -70.73 -671.22 -1453.57 -1526.37 -1461.94 -1533.67 -1781.93 -1830.77 -2376.57 -2555.92 -2807.70 -4101.35 -4556.68 -5143.08 -5405.25 -5499.71 -5519.39 -5565.44 -5593.76 -5602.83 -5474.48 -4594.19 -3783.74 -1893.33 -783.24 -665.43 -1016.30 -1399.40 -2266.75 -2806.58 -3522.74 -3986.56 -4219.57 -4320.58 -4313.11 -4308.18 -4304.33 -4300.29 -4297.37 -4293.12 -4288.51 -4287.44 -4292.52 -4293.85 -4295.65 -4295.72
-4682.88 -4682.82 -4684.97 -4688.25 -4688.51 -4693.18 -4693.85 -4688.92 -4684.99 -4678.03 -4679.78 -4679.62 -4673.33 -4673.63 -4670.39 -4673.19 -4663.33 -4660.60 -4655.50 -4615.75 -4617.89 -4590.68 -4468.50 -4451.02 -4455.55 -4488.12 -4483.53 -4543.60 -4543.56 -4590.54 -4677.03 -4829.90 -4844.85 -4046.03 -1147.22 -791.29 -366.50 -347.05 -332.77 -309.34 -279.00 -259.70 -255.84 -255.78 -209.95 -177.42 -147.90 -122.03 -67.24 -36.66 -27.76 -1.36 18.36 23.89 51.46 45.79 43.06 48.11 60.97 53.68 61.26 65.13 82.04 80.38 83.39 77.50 77.89 72.74 68.79 61.28 56.47 46.52 36.84 35.22 27.12 26.73 25.41 25.42 23.97 25.74 30.77 32.71 33.66 36.34 35.86 36.51 53.74 64.91 62.95 52.68 39.13 19.01 10.60 -154.75 -385.76 -894.81 -1674.81 -1593.51 -1514.51 -1613.08 -1965.29 -2171.67 -2362.44 -2972.62 -3576.31 -4190.28 -4758.40 -5278.24 -5500.64 -5579.67 -5559.43 -5549.21 -5577.47 -5592.62 -5603.13 -5541.51 -4916.34 -2754.31 -1623.15 -664.05 -853.65 -1194.91 -1527.55 -2461.18 -3136.33 -3652.72 -4246.48 -4331.51 -4325.92 -4321.01 -4314.68 -4310.12 -4307.60 -4304.72 -4298.04 -4294.75 -4294.88 -4296.25 -4298.73 -4299.85 -4299.92
-4690.86 -4690.80 -4692.71 -4696.45 -4700.24 -4702.44 -4702.23 -4700.51 -4697.22 -4695.14 -4695.37 -4696.75 -4698.96 -4697.68 -4696.71 -4692.94 -4690.08 -4683.03 -4674.65 -4681.81 -4650.32 -4637.85 -4598.85 -4611.91 -4591.16 -4627.95 -4641.64 -4644.41 -4649.93 -4663.49 -4674.77 -4736.67 -4830.23 -4793.50 -2662.98 -1505.76 -644.07 -427.81 -372.63 -336.86 -315.00 -308.49 -289.02 -276.31 -261.53 -224.55 -185.58 -167.56 -148.89 -102.97 -62.60 -39.44 -17.25 4.82 15.13 19.58 29.39 26.26 27.51 31.22 37.66 45.12 63.97 67.67 60.27 70.74 70.12 66.74 59.87 55.92 42.99 36.59 30.86 24.92 20.83 15.93 20.76 19.99 12.46 11.67 16.96 21.83 25.13 23.33 26.03 27.48 28.55 46.61 36.68 24.61 1.49 -40.02 -117.68 -291.86 -674.14 -1369.39 -1634.19 -1650.73 -1842.55 -2221.31 -3246.15 -3137.77 -3656.67 -4324.84 -4811.51 -5186.93 -5353.88 -5630.65 -5615.70 -5696.23 -5684.92 -5594.90 -5530.79 -5518.89 -5460.30 -5274.43 -4242.39 -2575.11 -1012.02 -672.88 -898.19 -1302.92 -1822.52 -2491.18 -3289.52 -3814.83 -4291.00 -4336.99 -4329.64 -4325.40 -4320.93 -4317.13 -4314.25 -4309.98 -4304.76 -4305.27 -4302.66 -4301.60 -4302.81 -4304.35 -4304.41
-4696.95 -4696.89 -4700.72 -4703.33 -4707.30 -4711.06 -4710.61 -4709.05 -4706.82 -4704.40 -4706.06 -4707.21 -4707.38 -4712.72 -4718.41 -4717.96 -4716.85 -4713.22 -4712.16 -4702.21 -4709.70 -4695.74 -4681.18 -4680.17 -4663.42 -4676.41 -4678.11 -4680.32 -4689.96 -4683.76 -4691.75 -4696.93 -4759.46 -4703.72 -4366.06 -3728.58 -1378.73 -986.84 -595.30 -359.09 -358.16 -335.07 -328.48 -316.36 -290.03 -275.66 -226.08 -217.07 -188.40 -135.88 -95.25 -75.82 -58.90 -9.93 0.80 -14.24 5.32 9.04 18.12 18.30 22.47 24.71 35.42 38.25 42.22 57.99 60.67 56.31 54.80 40.98 33.93 28.76 20.33 13.16 6.71 9.71 11.30 5.12 -2.76 -0.25 8.00 11.91 11.35 13.07 11.36 12.04 20.17 -5.11 -10.11 -27.05 -101.20 -197.72 -270.53 -632.85 -1711.33 -1700.56 -1702.77 -2058.41 -2509.80 -3142.18 -4016.42 -4732.78 -4978.71 -5219.23 -5358.46 -5520.70 -5651.70 -5772.93 -5026.63 -4772.98 -5256.44 -5326.52 -5081.38 -4864.80 -4722.98 -4109.83 -3771.01 -1967.57 -786.97 -791.88 -1027.91 -1646.88 -2326.23 -2835.98 -3504.43 -4098.58 -4337.42 -4339.55 -4336.62 -4335.19 -4330.02 -4324.72 -4321.78 -4317.92 -4312.01 -4311.96 -4310.98 -4309.04 -4308.31 -4309.21 -4309.27
-4698.83 -4698.76 -4702.58 -4706.84 -4710.85 -4713.52 -4716.45 -4717.14 -4714.80 -4716.86 -4719.45 -4721.80 -4725.53 -4725.48 -4736.71 -4739.18 -4743.45 -4746.41 -4740.11 -4741.10 -4742.19 -4726.26 -4720.06 -4716.75 -4703.56 -4714.09 -4706.79 -4709.65 -4718.63 -4714.91 -4708.99 -4710.24 -4700.33 -4636.11 -4410.15 -3892.99 -2987.02 -1656.12 -1218.02 -936.31 -564.77 -376.72 -367.26 -340.31 -325.21 -300.26 -268.46 -280.27 -239.76 -186.03 -168.20 -165.66 -116.55 -66.79 -89.63 -78.27 -51.52 -9.35 -0.90 -1.61 9.33 15.91 18.55 23.20 25.50 47.29 53.39 49.60 36.87 26.32 23.00 18.65 11.09 5.70 3.73 -5.75 -8.56 -6.68 -6.27 -0.95 1.61 5.03 5.98 3.02 -3.40 3.98 -31.07 -77.33 -94.77 -138.44 -214.17 -250.30 -309.60 -394.32 -877.43 -1803.47 -2199.58 -3051.97 -3825.96 -5025.36 -5138.35 -5369.58 -5570.16 -5642.19 -5740.09 -5849.81 -5877.53 -5976.57 -4804.47 -2915.28 -3489.37 -3922.02 -3498.21 -2304.67 -2279.26 -2271.22 -1659.43 -981.18 -743.68 -802.61 -1149.74 -1850.25 -2353.99 -3072.78 -3701.86 -4237.92 -4329.51 -4340.21 -4342.33 -4340.60 -4337.84 -4334.91 -4331.12 -4323.54 -4319.55 -4317.21 -4318.28 -4315.55 -4313.22 -4315.18 -4315.24
-4699.85 -4700.93 -4705.44 -4708.54 -4713.58 -4716.81 -4720.66 -4720.28 -4728.47 -4730.34 -4730.14 -4734.02 -4736.93 -4748.59 -4758.47 -4768.36 -4772.83 -4784.31 -4780.56 -4781.06 -4776.56 -4756.16 -4745.25 -4735.17 -4736.61 -4729.21 -4733.69 -4727.88 -4737.14 -4739.20 -4726.04 -4717.11 -4702.45 -4637.87 -4455.70 -4032.25 -3164.72 -2386.20 -1625.34 -1205.56 -909.97 -400.92 -381.83 -368.23 -339.26 -314.58 -299.07 -306.21 -264.36 -235.83 -205.08 -213.36 -171.92 -144.54 -162.91 -157.62 -123.34 -48.37 -19.55 -5.27 -2.82 7.97 11.82 13.00 9.68 26.97 31.25 27.18 27.30 23.05 8.91 2.27 0.39 -6.25 -8.76 -12.50 -12.66 -10.51 -10.02 -9.92 -8.05 -3.08 1.04 -10.04 -34.41 -49.17 -85.39 -102.33 -134.92 -161.52 -180.40 -230.69 -370.51 -1138.63 -1771.19 -2486.54 -3258.54 -3952.70 -5056.39 -5250.25 -5708.52 -5720.83 -5826.27 -5958.31 -5402.45 -4986.99 -4244.65 -3309.26 -2625.09 -607.56 -447.94 -601.63 19.69 16.26 -312.52 -1072.15 -902.88 -793.08 -708.02 -869.98 -1189.85 -1997.17 -2568.13 -3204.33 -3707.98 -4133.45 -4323.55 -4341.39 -4348.98 -4346.81 -4347.17 -4342.26 -4337.29 -4334.22 -4332.70 -4329.38 -4321.15 -4318.54 -4318.78 -4320.96 -4321.06
-4707.08 -4707.02 -4709.68 -4716.47 -4722.17 -4723.99 -4731.33 -4735.49 -4737.78 -4740.34 -4749.07 -4751.07 -4755.78 -4762.39 -4779.09 -4787.35 -4788.24 -4802.71 -4805.11 -4806.27 -4803.55 -4792.88 -4780.88 -4767.46 -4762.38 -4754.71 -4756.23 -4755.72 -4750.95 -4760.42 -4752.04 -4744.86 -4751.52 -4687.88 -4487.92 -4021.68 -3538.15 -2580.61 -1738.50 -1215.29 -1064.20 -621.76 -410.53 -383.52 -355.92 -342.46 -331.82 -328.08 -307.63 -288.32 -266.82 -233.23 -213.13 -197.62 -208.47 -194.62 -162.39 -101.19 -86.84 -118.21 -87.94 -44.07 -20.87 -0.46 -5.61 -17.30 -1.47 11.61 9.84 4.77 -1.53 -3.97 -8.39 -22.04 -31.02 -29.92 -28.49 -27.17 -22.30 -22.33 -24.49 -33.84 -47.02 -65.74 -64.12 -83.54 -95.34 -99.23 -115.16 -137.73 -168.75 -209.70 -610.25 -1470.02 -2867.09 -3571.75 -4581.19 -5067.03 -5575.17 -5629.85 -5827.00 -6026.12 -6129.99 -5284.63 -3599.26 -2533.40 -1838.74 -676.47 -23.57 9.96 26.44 29.03 23.05 21.81 15.36 -76.85 -351.26 -718.00 -891.91 -1026.22 -1606.65 -2060.08 -2922.93 -3607.82 -3934.67 -4264.40 -4335.88 -4345.59 -4357.76 -4360.09 -4354.75 -4349.44 -4343.82 -4340.46 -4340.49 -4340.38 -4330.31 -4326.53 -4325.55 -4327.24 -4327.30
-4720.46 -4720.41 -4724.05 -4729.24 -4739.70 -4738.76 -4743.88 -4749.91 -4754.96 -4763.03 -4761.79 -4765.82 -4769.89 -4779.75 -4792.00 -4807.76 -4814.84 -4824.36 -4827.70 -4833.62 -4826.14 -4818.10 -4800.69 -4791.85 -4786.85 -4777.40 -4771.26 -4773.74 -4779.55 -4778.03 -4769.64 -4764.13 -4764.02 -4744.16 -4599.26 -4178.94 -3598.15 -2975.99 -1922.07 -1460.89 -1058.07 -956.79 -623.02 -406.04 -383.45 -364.86 -358.27 -345.48 -339.28 -335.25 -315.89 -285.67 -266.55 -226.91 -226.30 -205.40 -183.87 -179.37 -152.79 -157.33 -141.77 -85.52 -84.17 -71.30 -50.44 -54.59 -15.73 -3.25 -2.84 -2.89 -19.21 -23.98 -44.77 -54.90 -61.68 -63.47 -55.12 -40.90 -55.80 -64.62 -68.51 -70.30 -82.40 -89.89 -90.04 -94.99 -94.93 -95.89 -107.15 -136.35 -150.47 -208.20 -636.84 -1462.75 -2588.92 -4777.49 -5398.48 -5507.52 -5330.42 -5302.68 -5492.17 -4604.11 -3641.51 -2146.99 -955.16 -207.81 -11.42 11.15 21.60 29.40 34.73 33.58 27.92 24.22 18.02 6.83 -32.68 -829.80 -1221.90 -1523.82 -1890.51 -2502.92 -3045.34 -3708.67 -4134.86 -4334.83 -4361.29 -4371.53 -4367.51 -4365.30 -4364.41 -4361.63 -4358.10 -4354.06 -4352.22 -4348.15 -4338.20 -4335.12 -4332.93 -4333.86 -4333.92
-4737.70 -4737.65 -4739.69 -4749.02 -4749.23 -4762.25 -4760.42 -4771.07 -4769.50 -4776.64 -4780.53 -4786.15 -4794.08 -4803.59 -4813.83 -4828.09 -4843.71 -4851.89 -4853.54 -4861.73 -4851.10 -4842.64 -4827.99 -4814.39 -4808.68 -4805.69 -4801.23 -4787.38 -4790.60 -4791.97 -4797.38 -4794.57 -4788.76 -4783.06 -4620.19 -4502.03 -3811.78 -3179.97 -2239.60 -1611.71 -1280.74 -1067.82 -1016.70 -549.14 -422.96 -403.70 -381.37 -379.07 -375.52 -364.94 -334.01 -324.14 -307.47 -267.49 -249.56 -229.52 -235.66 -221.23 -202.77 -202.24 -180.52 -156.52 -148.64 -117.58 -86.95 -77.82 -54.99 -36.58 -14.11 -29.71 -44.42 -53.93 -70.47 -84.35 -89.57 -93.84 -92.27 -88.53 -101.61 -103.83 -97.19 -96.95 -93.58 -93.67 -93.44 -92.00 -91.52 -90.68 -94.38 -107.12 -123.99 -175.59 -329.47 -868.27 -2455.70 -3756.87 -4784.84 -3242.28 -3369.84 -1863.48 -2287.30 -1183.27 35.50 18.02 6.20 18.61 26.63 27.98 33.21 32.59 33.15 31.31 26.94 22.69 15.94 6.16 -429.42 -1076.65 -1514.86 -1859.40 -2457.81 -2730.91 -3239.13 -4000.65 -4231.73 -4342.16 -4365.96 -4376.26 -4374.27 -4377.28 -4377.69 -4370.54 -4368.84 -4367.83 -4364.45 -4356.30 -4348.43 -4345.36 -4343.12 -4341.21 -4341.27
-4759.87 -4763.11 -4767.56 -4770.16 -4777.04 -4779.07 -4783.63 -4786.27 -4791.50 -4794.61 -4798.23 -4804.07 -4808.88 -4814.04 -4831.80 -4848.51 -4861.27 -4865.74 -4877.28 -4878.12 -4879.64 -4866.61 -4853.12 -4850.81 -4842.95 -4834.12 -4827.69 -4821.05 -4812.84 -4818.54 -4811.41 -4811.01 -4808.51 -4798.08 -4760.43 -4588.34 -4271.00 -3152.51 -2808.78 -2177.87 -1576.87 -1193.85 -977.99 -927.21 -605.06 -512.99 -416.51 -402.01 -396.08 -382.81 -384.41 -358.92 -356.75 -330.72 -312.46 -271.48 -283.09 -265.74 -252.42 -242.24 -217.75 -198.01 -179.50 -168.63 -164.84 -141.79 -122.33 -91.33 -60.97 -55.48 -85.10 -97.38 -111.70 -106.17 -118.51 -124.73 -112.99 -108.18 -117.89 -114.57 -106.15 -104.97 -97.12 -94.59 -80.13 -80.12 -82.20 -65.59 -54.34 -64.95 -89.64 -141.16 -229.92 -319.51 -808.65 -821.54 -2409.77 -401.48 -187.04 -34.71 31.65 39.17 53.83 66.12 45.42 50.77 45.19 42.64 35.96 32.99 28.22 26.58 22.03 14.19 8.67 2.56 -666.38 -1611.87 -2263.70 -2582.61 -2861.01 -3065.66 -3394.98 -3917.80 -4324.53 -4363.79 -4384.91 -4388.44 -4385.80 -4387.46 -4386.58 -4384.93 -4382.69 -4380.27 -4374.02 -4367.43 -4361.64 -4351.17 -4348.82 -4348.54 -4348.60
-4788.96 -4788.92 -4805.83 -4799.61 -4815.08 -4812.01 -4820.45 -4814.57 -4815.04 -4813.99 -4821.68 -4826.94 -4833.44 -4841.33 -4855.47 -4869.37 -4885.85 -4890.65 -4897.31 -4897.38 -4896.96 -4894.69 -4884.04 -4876.01 -4859.89 -4857.84 -4852.90 -4852.47 -4844.64 -4833.86 -4834.53 -4831.83 -4830.42 -4814.82 -4791.14 -4619.54 -4439.73 -3924.77 -2977.32 -2488.35 -1986.08 -1539.65 -1237.03 -1089.96 -1070.51 -716.91 -842.96 -758.12 -525.77 -460.06 -532.57 -537.66 -377.70 -369.83 -378.37 -354.61 -304.92 -272.58 -260.37 -242.02 -228.36 -214.51 -205.75 -195.63 -190.49 -178.97 -154.80 -145.09 -131.79 -131.91 -119.83 -137.43 -131.49 -134.70 -134.36 -132.70 -129.08 -128.55 -126.14 -124.34 -118.40 -108.71 -94.80 -79.14 -69.24 -61.28 -54.70 -36.16 -27.61 -29.45 -55.80 -68.00 -85.98 -129.68 -225.64 -239.28 -360.38 -104.74 -33.69 14.88 91.73 95.17 111.27 113.30 94.12 74.74 59.78 52.44 37.18 31.44 23.37 20.82 17.45 10.34 5.54 -295.72 -1166.36 -2376.07 -2712.28 -3169.34 -3626.18 -3647.08 -3862.89 -4222.46 -4358.58 -4392.79 -4393.67 -4396.30 -4396.08 -4397.06 -4401.57 -4399.92 -4396.08 -4390.78 -4390.47 -4379.61 -4373.92 -4363.18 -4359.47 -4355.38 -4355.44
-4822.42 -4826.43 -4834.71 -4841.21 -4846.36 -4849.67 -4845.30 -4846.89 -4842.26 -4838.38 -4847.56 -4845.09 -4855.39 -4861.95 -4886.91 -4895.12 -4905.78 -4911.62 -4925.46 -4932.78 -4927.46 -4922.59 -4916.86 -4909.15 -4907.41 -4895.59 -4887.52 -4879.57 -4868.75 -4859.59 -4856.45 -4853.26 -4846.33 -4846.36 -4823.83 -4807.53 -4602.63 -4165.92 -3904.08 -3097.00 -2365.10 -2034.58 -1733.09 -1470.35 -1097.01 -1062.60 -959.47 -916.78 -931.59 -873.46 -968.12 -1032.80 -573.02 -415.16 -461.13 -387.02 -341.98 -300.21 -274.28 -247.05 -229.53 -216.24 -209.33 -197.20 -189.12 -183.68 -172.06 -163.81 -163.89 -160.79 -153.30 -147.66 -141.38 -137.13 -135.23 -132.76 -129.91 -129.22 -127.83 -126.29 -115.36 -104.86 -94.32 -63.86 -49.92 -31.90 -29.16 -6.15 -4.77 -10.50 -10.91 -24.61 -35.09 -63.18 -74.50 -82.72 -83.96 -37.22 36.20 48.88 122.77 152.52 166.96 163.90 116.35 101.53 76.53 58.82 42.41 29.67 16.11 12.48 8.99 1.06 -18.15 -277.13 -1740.22 -2759.18 -3195.09 -3712.85 -3815.42 -3991.01 -4252.04 -4307.04 -4388.94 -4398.99 -4404.59 -4405.68 -4412.03 -4414.17 -4413.71 -4412.25 -4410.13 -4405.29 -4401.01 -4393.45 -4387.37 -4375.52 -4367.90 -4360.99 -4361.05
-4855.31 -4859.50 -4864.08 -4872.49 -4877.59 -4887.84 -4890.53 -4882.80 -4878.17 -4871.08 -4869.77 -4876.63 -4875.57 -4889.51 -4897.40 -4920.80 -4936.97 -4947.35 -4948.30 -4950.90 -4950.28 -4952.81 -4945.74 -4936.02 -4938.29 -4936.74 -4920.91 -4918.28 -4894.19 -4885.06 -4882.23 -4878.29 -4880.50 -4875.09 -4877.54 -4824.34 -4756.30 -4430.13 -4165.50 -3841.76 -3210.61 -3088.44 -2517.94 -2119.84 -1898.23 -1272.33 -1200.16 -1045.39 -1057.41 -1091.40 -1214.28 -1193.30 -915.01 -912.72 -591.54 -403.53 -365.40 -316.64 -269.06 -249.02 -235.29 -220.19 -211.53 -196.40 -188.02 -181.62 -172.51 -166.78 -162.75 -158.51 -153.21 -149.11 -144.16 -141.81 -133.69 -127.37 -126.14 -123.94 -123.74 -116.44 -91.82 -83.08 -79.15 -47.13 -24.09 -20.35 -11.26 -6.34 -3.51 -2.22 19.28 30.14 11.23 -11.51 -19.16 -0.79 14.35 56.25 50.48 122.29 241.31 259.41 232.65 198.77 153.67 103.58 74.22 60.09 38.84 30.43 11.12 1.95 -13.51 -30.93 -212.05 -867.29 -2015.19 -3054.59 -3535.53 -3807.85 -4073.72 -4251.66 -4304.81 -4384.48 -4396.05 -4405.50 -4411.57 -4421.30 -4425.78 -4424.75 -4431.95 -4428.54 -4428.34 -4422.72 -4411.42 -4402.22 -4395.15 -4379.13 -4374.96 -4364.85 -4364.91
-4888.36 -4888.32 -4901.01 -4897.52 -4902.76 -4906.80 -4920.95 -4917.42 -4915.58 -4904.86 -4906.18 -4911.03 -4927.41 -4926.92 -4951.14 -4962.32 -4968.77 -4973.15 -4988.08 -4983.84 -4988.01 -4983.93 -4983.79 -4979.24 -4966.29 -4965.26 -4957.21 -4951.62 -4932.10 -4928.15 -4909.05 -4915.24 -4901.81 -4903.68 -4892.44 -4886.48 -4867.00 -4812.23 -4599.98 -4421.42 -4343.36 -3678.91 -3457.59 -3194.42 -2497.17 -2007.64 -1585.66 -1327.23 -1141.05 -1183.19 -1212.58 -1233.74 -1161.95 -1010.49 -659.52 -437.86 -390.97 -322.19 -278.20 -258.65 -242.82 -225.49 -209.67 -195.85 -186.56 -180.29 -171.91 -168.34 -161.89 -156.58 -152.87 -149.65 -145.83 -142.82 -127.69 -122.46 -117.90 -117.99 -110.71 -100.88 -88.44 -62.22 -48.48 -33.13 -15.50 -10.53 -7.25 -5.08 -1.60 11.12 28.09 59.29 40.09 13.91 47.49 101.72 130.58 194.82 158.70 272.99 376.09 323.76 231.24 187.29 134.14 116.19 104.86 53.50 39.01 19.32 -2.24 -24.97 -49.71 -43.33 -678.35 -2267.26 -2980.48 -3314.19 -3808.10 -3996.82 -4227.23 -4330.58 -4379.17 -4388.81 -4404.26 -4420.47 -4425.46 -4434.30 -4436.47 -4444.58 -4443.73 -4441.61 -4440.92 -4436.23 -4425.76 -4410.31 -4402.24 -4384.20 -4380.20 -4365.44 -4365.51
-4923.57 -4923.53 -4928.10 -4935.08 -4948.71 -4959.36 -4957.40 -4955.99 -4936.70 -4934.19 -4945.48 -4955.79 -4944.59 -4953.37 -4977.27 -4995.93 -5004.14 -5015.23 -5014.30 -5024.00 -5028.70 -5027.80 -5020.30 -5007.51 -5013.62 -4993.53 -4994.62 -4984.55 -4971.47 -4959.64 -4950.85 -4943.34 -4947.40 -4939.74 -4936.31 -4927.01 -4919.39 -4858.98 -4748.94 -4712.20 -4517.12 -4369.89 -4205.33 -3871.93 -3407.75 -2707.51 -2064.24 -1897.76 -1670.80 -1554.77 -1463.62 -1379.10 -1225.58 -1127.54 -909.92 -643.26 -415.47 -357.85 -294.39 -263.91 -237.54 -224.01 -204.22 -196.57 -185.67 -179.78 -172.19 -165.67 -162.34 -158.54 -154.90 -147.29 -142.17 -134.83 -127.20 -100.91 -97.34 -96.92 -93.40 -91.10 -68.86 -45.15 -24.56 -11.34 -9.47 -5.30 -5.80 28.27 34.56 35.43 60.52 74.65 65.99 68.33 99.04 133.71 186.68 383.91 346.59 402.06 421.96 300.69 225.60 174.01 132.98 115.52 109.46 84.75 46.00 20.70 -8.02 -47.89 -75.22 -662.91 -1527.99 -2933.05 -3405.68 -3512.67 -3880.81 -4113.71 -4276.43 -4362.50 -4384.59 -4399.79 -4421.37 -4431.98 -4444.62 -4454.61 -4457.74 -4457.80 -4459.21 -4453.83 -4451.85 -4447.77 -4429.13 -4418.98 -4403.71 -4392.70 -4379.38 -4364.62 -4361.74
-4960.26 -4960.22 -4977.76 -4995.19 -4994.84 -4991.92 -5003.52 -5002.19 -4987.63 -4987.25 -4985.70 -4989.69 -5001.64 -5022.40 -5034.57 -5043.05 -5054.64 -5055.10 -5060.83 -5053.90 -5055.02 -5056.11 -5052.41 -5049.36 -5040.46 -5034.75 -5045.82 -5046.37 -5023.11 -5011.58 -5001.73 -4998.36 -4988.15 -4982.66 -4975.89 -4962.66 -4965.24 -4909.05 -4883.14 -4814.86 -4693.13 -4616.56 -4519.16 -4386.46 -4223.91 -3607.38 -3215.35 -2598.68 -2195.37 -2014.84 -1743.05 -1523.23 -1488.28 -1195.12 -1035.42 -715.65 -464.42 -399.71 -346.32 -259.52 -233.55 -213.54 -202.76 -191.39 -183.76 -176.72 -172.87 -166.17 -159.98 -158.02 -154.85 -145.48 -134.17 -120.95 -120.80 -94.54 -84.95 -81.29 -74.63 -64.39 -45.94 -20.98 -14.36 -5.34 -3.34 -2.73 23.59 51.68 64.59 74.92 109.12 127.33 135.15 105.47 126.80 180.63 259.29 474.29 530.95 411.41 314.45 246.86 204.35 151.32 118.72 116.85 112.94 82.22 45.13 17.44 -45.40 -94.75 -819.66 -1642.11 -2490.74 -3162.49 -3520.90 -3912.00 -4100.18 -4266.27 -4337.90 -4359.57 -4389.05 -4418.31 -4431.55 -4442.89 -4460.67 -4469.08 -4473.60 -4475.36 -4473.52 -4466.42 -4457.41 -4451.55 -4435.47 -4419.92 -4398.66 -4390.48 -4377.27 -4353.07 -4353.14
-4997.02 -5002.39 -5009.73 -5021.28 -5028.60 -5039.35 -5048.55 -5039.69 -5039.61 -5034.63 -5059.89 -5065.47 -5066.24 -5062.07 -5068.82 -5074.29 -5084.55 -5083.25 -5083.48 -5092.12 -5095.94 -5103.58 -5098.70 -5102.27 -5081.34 -5081.49 -5083.99 -5078.14 -5060.40 -5048.50 -5028.15 -5034.53 -5023.59 -5014.92 -5023.29 -5012.85 -4995.10 -4964.58 -4891.52 -4818.00 -4718.92 -4616.74 -4482.67 -4366.32 -4136.64 -3971.09 -3578.39 -3245.57 -2920.79 -2596.85 -2163.39 -2043.49 -1728.06 -1369.06 -1254.16 -944.14 -661.92 -542.48 -398.83 -312.76 -235.00 -211.40 -198.57 -185.53 -180.52 -178.35 -173.41 -166.50 -163.52 -151.63 -144.44 -141.29 -123.55 -109.02 -104.51 -90.52 -68.80 -66.28 -54.10 -46.95 -34.35 -20.64 -10.24 -2.89 -0.32 17.45 39.22 61.02 90.43 101.50 130.48 137.79 176.67 180.43 221.92 275.56 346.42 552.83 578.64 369.05 237.48 217.45 172.23 117.85 116.80 114.72 83.60 62.45 25.06 -6.84 -126.29 -706.20 -1554.69 -2147.70 -2689.40 -3338.18 -3856.07 -4119.56 -4176.80 -4308.63 -4352.78 -4375.27 -4407.55 -4422.62 -4441.88 -4461.24 -4471.31 -4481.75 -4486.58 -4486.12 -4481.46 -4475.64 -4466.38 -4446.39 -4433.92 -4419.12 -4395.95 -4379.14 -4364.56 -4339.28 -4339.36
-5034.83 -5041.84 -5052.68 -5058.44 -5071.11 -5081.69 -5088.57 -5091.61 -5102.63 -5101.39 -5106.72 -5106.63 -5117.86 -5113.51 -5113.72 -5127.36 -5129.74 -5124.27 -5125.72 -5136.37 -5123.02 -5142.19 -5124.78 -5134.86 -5142.61 -5134.28 -5126.54 -5118.01 -5116.83 -5099.19 -5101.30 -5090.09 -5085.93 -5065.27 -5049.26 -5041.27 -5010.39 -4979.00 -4936.28 -4868.41 -4743.51 -4667.40 -4549.36 -4325.79 -4170.03 -3916.25 -3668.43 -3419.65 -3033.91 -2725.25 -2467.50 -2303.23 -1701.87 -1469.55 -1269.40 -1175.60 -817.17 -681.62 -458.96 -338.26 -267.85 -224.83 -200.90 -186.40 -179.24 -175.85 -163.23 -156.37 -164.86 -154.32 -135.46 -127.37 -104.71 -86.83 -81.83 -65.48 -56.30 -52.07 -46.78 -38.96 -25.76 -15.48 -10.23 10.59 35.17 37.30 57.79 107.44 128.93 163.22 172.75 188.90 221.50 245.99 277.07 426.96 538.45 587.93 435.98 291.46 204.25 184.03 143.83 112.26 102.56 99.58 57.79 39.51 27.60 -190.05 -393.27 -1525.33 -2182.57 -2537.19 -2966.20 -3565.96 -3990.87 -4149.02 -4284.71 -4325.92 -4367.14 -4391.54 -4415.71 -4430.13 -4453.89 -4470.67 -4485.09 -4492.18 -4491.97 -4492.14 -4483.11 -4477.88 -4462.18 -4443.96 -4425.26 -4408.62 -4388.89 -4360.76 -4347.83 -4317.30 -4321.05
-5082.80 -5082.70 -5089.20 -5111.63 -5110.52 -5123.55 -5134.67 -5142.22 -5144.18 -5145.48 -5148.60 -5162.03 -5169.32 -5165.15 -5175.41 -5162.61 -5161.65 -5168.64 -5157.46 -5161.71 -5175.84 -5175.20 -5198.16 -5185.22 -5183.26 -5175.09 -5171.16 -5177.48 -5160.87 -5139.87 -5135.70 -5112.62 -5113.25 -5114.29 -5095.89 -5079.77 -5054.07 -5016.29 -4954.03 -4877.09 -4755.16 -4640.76 -4519.18 -4332.68 -4120.60 -3820.90 -3673.60 -3401.62 -3119.22 -2954.03 -2675.71 -2414.83 -2003.05 -1542.18 -1269.34 -1213.53 -950.66 -652.31 -436.54 -357.46 -285.37 -242.93 -202.43 -186.11 -174.44 -171.74 -156.38 -146.47 -134.53 -146.31 -120.08 -102.50 -87.99 -74.45 -69.30 -57.14 -41.81 -40.63 -31.79 -24.35 -18.65 -12.41 -4.55 15.38 53.55 106.13 108.33 138.28 156.20 173.99 205.92 230.88 265.54 333.50 339.05 522.17 677.00 559.26 298.31 253.57 185.55 126.86 103.04 92.05 50.52 52.27 43.15 20.35 -75.46 -848.32 -1477.99 -2001.34 -2469.35 -2993.34 -3231.38 -3733.81 -4059.89 -4179.72 -4296.99 -4354.29 -4378.17 -4406.97 -4428.40 -4445.60 -4468.58 -4485.55 -4490.40 -4496.22 -4495.64 -4492.75 -4481.65 -4471.76 -4458.75 -4437.90 -4413.82 -4397.15 -4369.21 -4346.88 -4323.81 -4301.44 -4294.39
-5124.80 -5124.71 -5141.39 -5152.70 -5143.36 -5179.71 -5187.74 -5183.83 -5201.33 -5195.98 -5200.48 -5212.28 -5215.99 -5213.61 -5218.27 -5213.90 -5222.12 -5214.15 -5203.41 -5221.83 -5219.48 -5229.07 -5233.34 -5239.87 -5235.80 -5222.99 -5221.51 -5214.15 -5207.67 -5197.98 -5183.11 -5177.59 -5165.25 -5154.46 -5133.55 -5119.72 -5084.23 -5071.57 -5029.54 -4927.36 -4863.08 -4694.37 -4488.08 -4229.30 -4084.83 -3767.99 -3624.52 -3402.54 -3170.21 -2971.58 -2646.79 -2438.93 -2058.44 -1780.86 -1224.89 -1085.06 -844.29 -563.29 -469.18 -380.78 -304.37 -252.47 -221.81 -191.29 -147.69 -144.59 -122.91 -85.55 -72.81 -88.47 -71.54 -47.00 -58.78 -55.61 -51.73 -45.77 -36.99 -28.85 -25.27 -20.31 -15.97 -7.86 31.24 40.10 88.04 126.57 155.10 166.16 164.51 252.85 288.29 335.21 470.33 730.85 672.32 825.58 720.14 516.10 269.39 148.90 154.29 95.56 73.82 68.76 51.62 45.74 -14.68 -69.76 -124.15 -1494.76 -2029.65 -2572.22 -2815.29 -3142.62 -3476.56 -3697.64 -4209.93 -4263.51 -4345.39 -4373.20 -4396.78 -4412.66 -4436.27 -4463.50 -4477.81 -4489.18 -4494.89 -4495.88 -4493.63 -4489.96 -4475.78 -4463.21 -4441.95 -4420.86 -4394.36 -4374.07 -4352.53 -4316.56 -4300.78 -4271.41 -4268.30
-5166.08 -5165.99 -5188.70 -5181.70 -5200.57 -5217.86 -5226.46 -5232.54 -5235.38 -5245.25 -5255.91 -5263.49 -5248.32 -5261.49 -5256.06 -5256.42 -5250.82 -5252.19 -5265.83 -5263.33 -5261.37 -5265.10 -5278.01 -5269.39 -5273.53 -5268.86 -5267.80 -5262.12 -5246.27 -5245.79 -5228.33 -5220.25 -5217.42 -5202.61 -5184.16 -5165.26 -5146.02 -5122.87 -5063.10 -5009.44 -4936.02 -4821.40 -4591.15 -4372.17 -4043.45 -3829.29 -3654.40 -3491.31 -3225.80 -3025.47 -2658.91 -2396.04 -2169.64 -1777.00 -1503.90 -1245.33 -973.42 -608.39 -476.14 -406.65 -339.27 -299.79 -236.98 -203.26 -160.49 -55.34 -60.89 -51.76 -14.99 -20.71 -32.68 -35.85 -33.01 -31.83 -31.03 -36.07 -27.61 -26.69 -21.84 -15.09 -10.99 -6.52 41.02 98.31 112.88 134.38 162.87 280.33 358.30 607.81 687.10 848.07 1066.60 1613.37 1637.83 1310.05 913.40 761.32 388.37 191.24 102.99 65.71 56.20 52.85 24.53 2.03 -240.47 -276.63 -942.38 -1836.91 -2157.52 -2943.37 -2997.17 -3418.64 -3695.53 -3913.39 -4237.58 -4343.26 -4352.20 -4386.55 -4411.05 -4424.07 -4450.08 -4470.11 -4483.67 -4492.58 -4493.55 -4492.79 -4484.22 -4478.11 -4459.60 -4445.82 -4428.11 -4408.18 -4375.46 -4349.81 -4325.65 -4293.93 -4272.28 -4249.44 -4240.52
-5203.56 -5202.13 -5214.81 -5227.47 -5231.92 -5243.71 -5254.81 -5271.58 -5273.42 -5280.53 -5285.30 -5291.38 -5293.85 -5304.07 -5301.26 -5305.12 -5304.02 -5306.08 -5301.83 -5296.18 -5311.44 -5316.04 -5318.52 -5309.62 -5302.10 -5309.93 -5308.66 -5301.83 -5292.86 -5279.18 -5274.57 -5251.63 -5246.41 -5229.99 -5219.01 -5202.50 -5191.29 -5158.57 -5114.10 -5081.90 -5016.35 -4899.45 -4763.26 -4442.88 -4199.78 -3910.95 -3786.77 -3439.11 -3147.85 -2831.43 -2639.95 -2347.45 -2165.53 -1879.89 -1736.28 -1444.30 -1081.62 -744.97 -524.41 -419.43 -382.96 -337.29 -250.55 -199.30 -120.74 -33.50 -10.33 -8.85 14.53 28.51 18.37 16.22 -11.91 -17.59 -22.39 -19.54 -19.38 -18.36 -11.68 -8.78 12.85 20.60 82.57 118.29 152.51 180.24 312.37 506.83 993.04 1268.64 1454.73 1923.84 1795.00 1912.61 1693.33 974.59 920.64 779.10 446.21 193.33 26.84 5.10 2.24 1.37 -41.28 -330.77 -950.32 -1754.99 -2176.59 -2174.10 -2816.65 -3282.99 -3533.57 -3878.14 -3936.63 -4132.69 -4278.47 -4351.68 -4371.09 -4385.70 -4419.80 -4433.11 -4452.40 -4468.08 -4484.11 -4487.87 -4486.22 -4483.24 -4474.52 -4463.45 -4447.82 -4429.32 -4402.87 -4382.35 -4353.63 -4327.37 -4291.45 -4268.21 -4251.14 -4212.14 -4212.18
-5235.39 -5234.85 -5247.23 -5265.02 -5274.48 -5281.08 -5296.32 -5302.02 -5306.34 -5311.50 -5310.33 -5318.58 -5324.05 -5327.89 -5329.20 -5341.41 -5335.17 -5341.66 -5346.09 -5343.27 -5347.68 -5338.48 -5347.44 -5339.11 -5342.68 -5342.85 -5333.65 -5328.14 -5329.10 -5315.34 -5308.93 -5300.16 -5280.49 -5273.42 -5249.92 -5241.34 -5227.12 -5197.14 -5151.29 -5115.71 -5069.87 -5000.60 -4859.05 -4607.01 -4526.93 -4240.11 -3810.55 -3563.92 -3318.72 -2995.94 -2661.59 -2330.46 -2117.52 -1966.28 -1747.96 -1486.83 -1101.58 -856.07 -496.78 -467.39 -399.45 -325.07 -208.64 -132.19 -50.29 8.73 39.29 21.53 52.17 51.20 47.83 65.66 52.19 29.54 18.60 -9.89 15.45 21.49 22.64 31.56 73.45 74.59 163.59 175.49 167.04 204.88 787.80 1072.00 1784.95 2221.76 2250.56 1966.81 1590.31 964.93 1059.58 707.81 627.66 361.51 143.73 92.14 6.08 -29.58 -83.47 -147.40 -779.97 -1851.77 -2365.40 -2480.94 -2757.57 -2882.30 -3305.30 -3737.68 -3966.61 -4046.59 -4257.77 -4336.39 -4357.12 -4376.45 -4393.40 -4406.17 -4428.29 -4446.82 -4460.26 -4473.85 -4480.47 -4480.61 -4479.68 -4472.04 -4462.44 -4446.97 -4430.21 -4404.45 -4384.68 -4351.91 -4327.15 -4297.33 -4260.48 -4235.74 -4212.58 -4184.50 -4184.54
-5264.45 -5264.41 -5277.09 -5289.91 -5295.63 -5315.44 -5317.52 -5317.88 -5325.38 -5330.81 -5338.46 -5342.59 -5345.08 -5345.80 -5354.47 -5364.30 -5374.17 -5378.88 -5381.54 -5380.66 -5381.09 -5372.53 -5364.59 -5359.14 -5359.21 -5359.03 -5354.06 -5352.72 -5349.44 -5337.35 -5328.77 -5317.85 -5306.05 -5297.12 -5278.56 -5255.50 -5242.02 -5210.58 -5195.65 -5177.76 -5098.42 -5034.53 -4920.68 -4712.67 -4523.26 -4166.05 -3798.85 -3516.85 -3281.46 -2896.82 -2645.37 -2299.09 -2210.17 -1964.53 -1757.14 -1604.32 -1324.81 -927.28 -679.09 -563.43 -425.06 -352.55 -288.67 -175.17 -25.92 22.91 79.10 93.21 107.27 95.30 93.17 102.08 91.59 92.71 82.62 50.81 59.85 89.22 82.45 91.17 93.14 416.44 511.33 342.35 575.09 990.56 1464.26 1643.44 1971.01 2073.80 1694.96 1220.14 905.68 597.06 419.42 446.66 264.26 183.32 24.35 -10.34 -120.43 -208.77 -167.98 -1544.07 -2127.91 -3046.02 -3132.98 -2969.28 -3372.20 -3374.35 -3688.55 -4101.02 -4241.22 -4253.31 -4304.63 -4346.67 -4366.88 -4387.24 -4401.93 -4427.09 -4439.87 -4452.49 -4464.82 -4470.27 -4466.96 -4472.39 -4467.40 -4456.95 -4443.02 -4429.10 -4403.32 -4388.04 -4360.26 -4328.50 -4303.39 -4267.57 -4238.67 -4213.82 -4186.74 -4158.78 -4158.83
-5292.18 -5292.10 -5308.91 -5316.03 -5322.11 -5334.45 -5333.01 -5336.03 -5345.07 -5346.09 -5349.13 -5353.99 -5357.44 -5363.98 -5374.64 -5388.67 -5397.07 -5398.35 -5402.23 -5400.40 -5397.10 -5392.41 -5381.15 -5383.60 -5374.84 -5371.19 -5368.42 -5365.55 -5362.95 -5354.06 -5343.29 -5336.41 -5328.18 -5306.36 -5297.40 -5282.84 -5266.11 -5247.44 -5233.20 -5204.51 -5172.38 -5070.39 -4897.28 -4712.02 -4495.01 -4226.82 -3946.66 -3536.73 -3173.40 -2800.45 -2523.29 -2349.26 -2253.22 -2028.15 -1824.90 -1601.96 -1427.55 -1112.58 -909.86 -671.35 -543.35 -372.06 -344.53 -223.43 8.74 63.17 84.85 126.97 147.53 140.97 129.13 124.56 117.20 118.77 172.33 163.72 197.66 237.62 340.59 424.74 628.00 1227.05 1477.58 1310.15 1233.98 1111.11 881.95 1139.36 1139.34 1087.91 814.83 617.37 568.37 355.38 289.75 113.69 97.89 24.72 -35.28 -118.16 -1280.24 -1769.85 -1468.07 -2579.68 -3364.51 -3616.38 -3550.08 -3543.68 -3757.56 -3938.20 -4049.00 -4129.69 -4296.56 -4342.61 -4359.87 -4367.39 -4387.02 -4404.08 -4418.90 -4438.25 -4456.75 -4467.99 -4469.07 -4464.78 -4460.92 -4459.71 -4447.34 -4446.79 -4422.29 -4410.40 -4388.20 -4362.79 -4340.69 -4302.93 -4278.05 -4247.17 -4225.65 -4191.38 -4159.17 -4136.24 -4136.29
-5316.79 -5316.71 -5329.11 -5335.40 -5340.22 -5345.94 -5353.39 -5353.03 -5358.38 -5360.84 -5362.74 -5367.88 -5372.71 -5376.73 -5387.58 -5401.99 -5410.17 -5410.83 -5411.05 -5412.09 -5407.30 -5403.43 -5394.57 -5389.13 -5383.74 -5381.37 -5376.75 -5375.13 -5372.30 -5360.48 -5351.38 -5343.54 -5338.45 -5325.57 -5311.29 -5291.98 -5280.61 -5257.84 -5254.59 -5232.13 -5222.41 -5155.92 -5007.52 -4792.12 -4662.76 -4482.86 -4186.07 -3866.69 -3292.84 -2767.75 -2492.17 -2289.69 -2139.27 -2033.56 -1842.01 -1700.93 -1522.50 -1271.28 -1042.88 -752.67 -671.37 -405.92 -140.60 -55.12 17.89 84.24 96.33 128.21 182.54 181.88 208.22 242.41 418.47 540.19 441.79 604.42 543.31 787.38 1050.06 1060.60 1262.98 1428.20 1617.44 1301.85 719.65 768.07 619.11 637.36 581.76 400.53 575.77 490.89 337.17 169.51 99.11 77.28 37.81 -68.54 -120.59 -913.45 -3458.25 -3219.53 -3620.04 -3766.09 -3544.06 -3775.49 -3860.01 -4050.90 -4115.07 -4243.38 -4281.42 -4300.72 -4335.41 -4367.52 -4379.87 -4387.11 -4403.42 -4412.31 -4431.50 -4453.05 -4470.28 -4473.87 -4468.55 -4461.10 -4450.03 -4445.66 -4437.33 -4425.44 -4404.98 -4393.10 -4356.06 -4342.42 -4318.13 -4288.14 -4255.93 -4228.55 -4199.38 -4168.60 -4148.09 -4124.05 -4117.87
-5337.26 -5337.18 -5348.28 -5353.05 -5358.69 -5361.31 -5364.39 -5364.19 -5367.67 -5368.65 -5371.49 -5373.64 -5379.07 -5383.22 -5396.84 -5413.07 -5415.74 -5420.06 -5420.38 -5418.89 -5415.84 -5409.37 -5399.09 -5395.80 -5388.81 -5385.15 -5383.41 -5380.65 -5375.29 -5366.07 -5355.13 -5347.07 -5343.05 -5332.81 -5313.20 -5298.97 -5287.58 -5276.22 -5252.68 -5243.43 -5219.42 -5160.70 -5087.16 -4956.90 -4773.73 -4551.98 -4358.16 -3824.59 -3468.02 -2695.12 -2488.35 -2210.38 -2073.27 -1977.19 -1850.75 -1752.71 -1517.43 -1364.83 -1175.18 -847.47 -654.67 -340.61 -100.95 -33.08 47.80 76.46 110.40 158.33 202.68 211.79 294.07 516.53 985.04 1439.05 1465.87 1722.00 2048.38 1877.22 2006.94 1821.05 1652.24 1347.79 1317.40 668.56 434.29 500.47 451.24 529.51 540.65 296.78 455.10 522.44 350.96 132.08 16.20 -37.18 -135.92 -149.16 -330.78 -1406.73 -3632.58 -4212.11 -4102.46 -4148.25 -3945.41 -3919.93 -4086.29 -4229.43 -4302.62 -4339.97 -4352.23 -4367.60 -4380.62 -4386.92 -4398.23 -4407.44 -4430.67 -4438.54 -4455.72 -4468.84 -4473.72 -4471.54 -4465.70 -4451.68 -4438.31 -4429.33 -4419.97 -4405.51 -4395.17 -4369.42 -4351.37 -4327.53 -4300.77 -4273.67 -4242.67 -4209.67 -4189.05 -4146.36 -4130.08 -4103.90 -4103.96
-5353.47 -5353.18 -5358.36 -5362.71 -5365.69 -5367.85 -5370.64 -5370.91 -5370.98 -5371.84 -5374.70 -5378.05 -5382.16 -5387.85 -5400.92 -5411.47 -5419.73 -5423.04 -5424.12 -5422.88 -5420.42 -5410.28 -5402.27 -5396.92 -5390.96 -5386.68 -5382.36 -5380.31 -5375.34 -5366.36 -5355.83 -5344.36 -5339.30 -5330.60 -5317.93 -5307.05 -5289.91 -5276.25 -5259.53 -5244.02 -5217.72 -5173.41 -5111.29 -5008.02 -4821.28 -4558.78 -4134.27 -3854.07 -3134.43 -2897.53 -2543.80 -2143.85 -2022.63 -1857.59 -1780.46 -1702.05 -1590.91 -1446.39 -1287.21 -1005.12 -524.02 -242.43 -90.44 -27.24 37.53 69.40 117.89 179.72 276.31 282.74 450.06 1011.33 1525.30 1787.25 1840.73 1822.53 1942.86 1781.69 1757.13 1602.58 1130.21 776.46 444.28 427.93 442.73 483.54 374.06 368.21 460.88 187.48 271.74 292.01 80.98 4.20 -6.21 -86.53 -189.38 -711.57 -1015.86 -2285.26 -4178.62 -4386.00 -4226.20 -4223.59 -4196.96 -4224.70 -4238.70 -4309.20 -4357.51 -4371.41 -4381.83 -4388.63 -4401.00 -4409.18 -4415.90 -4418.84 -4442.95 -4467.00 -4473.12 -4472.16 -4466.06 -4463.42 -4456.14 -4444.21 -4430.37 -4423.59 -4409.46 -4396.41 -4378.25 -4363.80 -4337.79 -4305.30 -4280.52 -4256.54 -4226.52 -4199.83 -4179.63 -4143.28 -4122.08 -4095.02 -4095.08
-5365.66 -5365.59 -5369.71 -5371.53 -5372.62 -5373.92 -5374.06 -5373.78 -5372.70 -5373.73 -5375.20 -5378.71 -5383.54 -5390.57 -5399.59 -5411.54 -5421.40 -5424.47 -5425.17 -5425.02 -5422.32 -5414.24 -5404.45 -5396.12 -5390.86 -5385.46 -5381.04 -5375.37 -5366.72 -5362.04 -5353.70 -5342.90 -5334.59 -5327.75 -5315.71 -5306.36 -5291.58 -5276.09 -5263.24 -5244.38 -5219.33 -5177.77 -5114.16 -5013.45 -4829.81 -4623.39 -4061.58 -3736.99 -3251.65 -2715.24 -2302.69 -1780.87 -1635.74 -1763.80 -1707.90 -1651.35 -1616.50 -1453.58 -1367.05 -1026.34 -557.22 -159.23 -57.93 18.61 63.27 84.49 156.53 215.29 323.28 350.47 339.46 596.60 853.75 791.66 963.81 967.14 870.66 856.77 976.07 528.32 602.41 486.14 415.72 342.20 460.73 515.49 288.70 252.08 334.18 289.50 143.01 81.12 13.51 -37.86 -581.00 -1943.05 -2308.47 -3342.12 -2655.35 -3601.14 -4320.63 -4373.85 -4264.59 -4264.60 -4255.33 -4325.99 -4331.17 -4363.29 -4386.45 -4391.66 -4400.40 -4415.76 -4421.27 -4431.46 -4437.11 -4445.64 -4466.28 -4485.76 -4489.31 -4480.12 -4469.02 -4458.86 -4450.71 -4432.72 -4416.64 -4403.44 -4396.57 -4383.14 -4367.89 -4346.88 -4320.72 -4303.28 -4269.53 -4240.58 -4221.67 -4195.40 -4173.89 -4140.32 -4116.13 -4091.26 -4091.33
-5373.83 -5373.76 -5375.27 -5375.23 -5375.63 -5375.41 -5375.15 -5373.86 -5372.32 -5373.51 -5375.59 -5378.58 -5383.32 -5390.47 -5403.21 -5411.70 -5422.89 -5425.79 -5427.17 -5426.99 -5422.80 -5418.40 -5406.74 -5399.44 -5391.25 -5384.68 -5378.31 -5372.25 -5364.13 -5354.55 -5346.15 -5340.07 -5330.04 -5324.49 -5316.02 -5300.82 -5291.14 -5278.09 -5266.03 -5245.17 -5219.88 -5168.26 -5119.89 -4936.70 -4750.11 -4422.06 -3994.27 -3414.58 -2990.74 -2373.21 -1702.68 -1435.79 -1347.53 -1504.08 -1537.06 -1596.16 -1622.40 -1516.62 -1382.45 -1043.09 -591.84 -210.14 -43.69 19.33 64.06 110.99 183.78 198.14 262.74 342.57 407.56 395.75 448.40 496.02 656.97 558.23 430.37 478.21 481.05 423.95 443.67 474.55 457.32 325.38 429.88 488.59 256.96 193.02 208.23 160.99 3.68 -32.38 -46.70 -60.71 -1586.12 -3204.46 -4198.17 -4546.51 -4464.94 -4411.32 -4373.96 -4331.27 -4292.58 -4308.39 -4338.32 -4358.79 -4382.93 -4401.09 -4414.60 -4416.39 -4417.94 -4433.88 -4451.50 -4470.41 -4478.90 -4472.17 -4485.89 -4496.28 -4500.76 -4487.14 -4468.06 -4458.86 -4440.12 -4430.84 -4413.89 -4395.92 -4380.66 -4371.95 -4351.10 -4339.86 -4326.03 -4297.88 -4265.61 -4246.09 -4216.11 -4193.62 -4168.77 -4143.83 -4121.05 -4096.27 -4092.38
-5378.33 -5378.27 -5377.66 -5376.83 -5375.80 -5374.85 -5373.65 -5371.79 -5370.16 -5370.71 -5375.64 -5377.42 -5383.03 -5389.94 -5403.21 -5413.91 -5426.37 -5429.08 -5432.29 -5432.54 -5426.81 -5422.87 -5408.79 -5400.02 -5394.25 -5383.92 -5375.94 -5369.55 -5360.45 -5351.15 -5337.40 -5327.90 -5324.17 -5319.59 -5309.53 -5299.91 -5290.99 -5280.55 -5265.00 -5250.98 -5218.76 -5152.20 -5089.19 -4864.18 -4341.32 -3846.37 -3415.17 -2927.10 -2132.28 -1901.81 -1471.74 -1370.03 -1278.47 -1280.18 -1399.37 -1473.37 -1520.22 -1475.40 -1365.21 -1107.30 -831.37 -269.09 -14.48 7.57 87.29 160.33 218.33 254.55 270.42 318.96 401.38 466.81 479.73 554.97 584.86 585.52 399.98 409.23 489.95 422.56 365.49 370.01 371.45 223.30 264.31 204.00 83.49 92.44 71.82 -10.36 -27.92 -69.28 -101.04 -201.34 -1644.19 -3683.08 -4427.22 -4431.39 -4414.97 -4452.38 -4389.70 -4321.63 -4337.96 -4352.39 -4368.89 -4391.38 -4414.27 -4434.33 -4435.23 -4443.77 -4459.95 -4477.78 -4470.78 -4487.86 -4497.68 -4493.74 -4503.79 -4507.94 -4498.29 -4484.64 -4468.25 -4460.95 -4445.17 -4420.92 -4407.79 -4394.83 -4376.26 -4368.54 -4357.19 -4341.09 -4325.91 -4281.36 -4266.89 -4243.30 -4214.59 -4189.73 -4174.47 -4147.36 -4122.09 -4097.36 -4097.43
-5380.03 -5379.96 -5378.04 -5376.12 -5373.83 -5373.17 -5371.29 -5369.51 -5368.24 -5368.97 -5372.72 -5378.72 -5383.47 -5393.58 -5405.49 -5417.67 -5431.43 -5434.87 -5438.57 -5437.70 -5434.44 -5429.93 -5418.06 -5405.88 -5398.39 -5390.21 -5379.28 -5367.47 -5357.32 -5345.92 -5334.35 -5324.11 -5315.37 -5312.40 -5302.28 -5293.61 -5288.71 -5277.16 -5262.70 -5244.11 -5218.12 -5012.53 -4831.08 -3986.80 -3658.47 -3163.36 -2602.37 -1937.90 -1700.04 -1574.97 -1370.73 -1327.87 -1335.49 -1336.30 -1476.47 -1410.98 -1265.36 -1160.10 -1127.49 -1120.72 -1130.44 -471.59 -60.83 27.44 116.31 281.46 317.93 394.52 365.59 383.62 392.13 461.90 573.60 628.52 637.59 590.18 459.58 391.17 497.29 485.38 358.17 279.26 246.18 158.38 156.92 51.97 31.48 60.70 -15.11 -123.66 -170.20 -380.38 -678.61 -1546.42 -2978.81 -4029.23 -4344.79 -4317.21 -4331.96 -4347.02 -4356.28 -4357.31 -4367.28 -4391.31 -4397.95 -4430.36 -4444.52 -4454.86 -4467.27 -4494.54 -4492.75 -4512.54 -4516.10 -4525.18 -4522.61 -4520.25 -4524.17 -4514.03 -4501.10 -4487.23 -4470.54 -4451.92 -4436.79 -4426.15 -4409.97 -4393.04 -4380.61 -4374.89 -4364.92 -4344.20 -4319.20 -4286.56 -4268.52 -4247.27 -4224.07 -4197.72 -4174.91 -4158.41 -4134.19 -4108.12 -4105.51
-5379.95 -5379.51 -5376.43 -5373.26 -5371.30 -5369.72 -5368.32 -5367.15 -5366.67 -5368.66 -5374.72 -5378.86 -5386.76 -5395.02 -5409.75 -5422.54 -5434.58 -5442.20 -5446.98 -5448.13 -5445.10 -5436.70 -5424.45 -5415.49 -5402.49 -5396.11 -5382.98 -5370.75 -5352.89 -5344.47 -5332.48 -5321.52 -5313.95 -5307.74 -5303.06 -5291.76 -5284.35 -5275.44 -5266.39 -5256.30 -5237.31 -5022.88 -4472.60 -4032.06 -2973.94 -2245.82 -1802.03 -1663.71 -1510.17 -1405.45 -1331.75 -1403.05 -1515.30 -1741.14 -1703.58 -1719.76 -1402.90 -1107.48 -1149.20 -1261.41 -1235.75 -538.90 -74.39 58.30 386.88 929.05 1035.16 669.87 649.24 544.22 517.19 636.92 692.60 643.08 526.35 504.33 511.65 348.26 314.60 356.63 257.76 189.98 214.11 130.08 79.38 11.28 -8.32 -21.38 -123.23 -195.36 -1265.73 -1138.66 -1079.52 -3735.45 -4534.77 -4366.54 -4356.65 -4318.76 -4346.99 -4349.89 -4369.33 -4387.37 -4413.55 -4421.84 -4420.01 -4444.68 -4462.29 -4486.18 -4497.94 -4514.22 -4540.75 -4544.46 -4539.46 -4540.69 -4542.38 -4539.76 -4531.79 -4517.40 -4506.68 -4494.20 -4473.21 -4458.62 -4441.70 -4425.85 -4410.26 -4395.48 -4387.65 -4380.14 -4373.53 -4351.76 -4327.68 -4298.28 -4275.84 -4253.32 -4232.76 -4218.50 -4185.96 -4163.67 -4136.87 -4115.69 -4115.76
