-4872.34 -4866.26 -4652.33 -4196.59 -3679.73 -3534.67 -3302.32 -3283.68 -3290.75 -3302.44 -3306.66 -3305.89 -3299.88 -3291.19 -3283.68 -3269.57 -3261.79 -3252.35 -3255.45 -3266.42 -3272.29 -3283.81 -3295.56 -3303.61 -3310.88 -3316.05 -3324.07 -3330.38 -3347.92 -3358.58 -3365.16 -3375.96 -3381.21 -3383.47 -3386.18 -3386.28 -3386.07 -3384.03 -3389.38 -3396.82 -3408.22 -3420.15 -3429.12 -3438.98 -3442.23 -3442.49 -3439.22 -3432.34 -3422.68 -3410.19 -3401.05 -3390.61 -3387.40 -3391.43 -3395.48 -3404.99 -3422.49 -3430.79 -3442.83 -3443.91 -3444.80 -3444.37 -3441.69 -3439.56 -3438.64 -3438.71 -3435.98 -3436.61 -3435.91 -3431.90 -3430.18 -3428.60 -3428.44 -3428.30 -3418.44 -3306.45 -3129.69 -2951.67 -2458.84 -2357.36 -1855.99 -1489.30 -1019.34 -666.69 -474.40 -367.40 -143.51 -89.66 79.76 106.64 132.72 151.53 200.81 244.93 250.98 308.07 336.76 564.54 1963.37 2837.89 4581.74 6269.17 5943.65 2260.48 1574.77 2019.28 434.76 226.28 85.51 -127.62 -592.45 -1220.69 -1962.63 -3067.87 -3634.97 -3827.24 -3859.69 -3858.26 -3853.03 -3851.14 -3854.17 -3857.43 -3858.07 -3858.29 -3862.38 -3871.81 -3876.76 -3882.51 -3887.92 -3893.96 -3897.77 -3905.58 -3911.24 -3914.22 -3914.89 -3915.72 -3916.25 -3916.42 -3917.02 -3918.46 -3918.63
-4900.19 -4896.59 -4829.38 -4587.46 -3817.45 -3727.83 -3365.57 -3292.60 -3299.97 -3309.00 -3310.57 -3310.51 -3306.30 -3301.11 -3289.76 -3274.48 -3265.92 -3257.86 -3263.06 -3270.29 -3277.02 -3285.11 -3295.21 -3302.57 -3308.90 -3312.94 -3318.26 -3329.34 -3347.81 -3357.72 -3366.92 -3375.45 -3380.18 -3384.85 -3387.37 -3386.87 -3387.32 -3387.10 -3389.55 -3394.92 -3407.05 -3419.24 -3431.52 -3439.86 -3445.48 -3445.51 -3442.96 -3436.94 -3423.82 -3411.99 -3399.23 -3394.29 -3389.51 -3390.68 -3397.17 -3403.76 -3419.13 -3427.63 -3440.84 -3442.02 -3441.32 -3438.59 -3437.42 -3436.71 -3433.21 -3430.67 -3429.49 -3430.21 -3428.40 -3425.68 -3422.94 -3424.74 -3426.28 -3422.39 -3366.80 -3204.91 -2944.67 -2684.98 -2244.06 -1971.58 -1545.60 -1243.31 -807.12 -503.43 -379.96 -200.31 -128.88 8.21 60.47 81.93 139.57 169.39 192.03 244.45 250.84 277.88 335.95 490.35 1253.97 2824.85 4462.96 5929.46 5654.18 3096.36 2512.09 3682.69 571.50 264.73 100.20 -239.21 -490.85 -1016.14 -1799.75 -2766.95 -3165.28 -3748.30 -3849.31 -3860.71 -3858.32 -3857.25 -3858.80 -3860.67 -3859.82 -3862.64 -3868.14 -3872.25 -3880.11 -3888.90 -3893.58 -3896.16 -3902.65 -3906.79 -3910.17 -3912.91 -3913.36 -3914.33 -3915.57 -3915.33 -3916.25 -3917.29 -3917.38
-4924.62 -4924.55 -4873.91 -4718.53 -4401.62 -3822.76 -3473.97 -3340.12 -3305.99 -3312.39 -3317.14 -3316.38 -3313.15 -3307.70 -3301.19 -3283.06 -3275.66 -3268.18 -3270.35 -3276.51 -3280.84 -3287.79 -3293.07 -3296.57 -3302.76 -3307.63 -3311.79 -3318.55 -3339.78 -3357.26 -3364.03 -3372.21 -3377.59 -3383.42 -3385.69 -3384.28 -3383.90 -3381.30 -3386.67 -3394.85 -3404.16 -3419.52 -3429.27 -3439.33 -3448.50 -3447.68 -3446.64 -3435.72 -3429.57 -3420.17 -3412.03 -3407.23 -3403.68 -3403.76 -3406.95 -3408.57 -3414.01 -3426.17 -3433.81 -3436.69 -3436.09 -3435.57 -3434.70 -3432.08 -3430.63 -3428.78 -3426.36 -3425.08 -3421.88 -3419.08 -3420.42 -3422.80 -3421.30 -3420.64 -3350.68 -3025.76 -2770.49 -2329.09 -1712.06 -1630.57 -1362.60 -1075.36 -695.60 -495.55 -242.08 -143.60 -62.03 8.49 54.22 78.83 131.75 171.02 221.68 239.50 249.72 277.52 312.00 455.02 1029.69 2023.53 3503.06 4734.92 5732.78 4572.91 3238.99 3000.41 517.74 273.50 149.19 -9.94 -335.87 -671.14 -1352.45 -2451.15 -3107.99 -3673.87 -3827.37 -3852.04 -3862.40 -3863.40 -3863.86 -3866.71 -3867.25 -3866.47 -3873.42 -3881.91 -3890.74 -3893.53 -3895.84 -3903.52 -3905.97 -3908.13 -3909.19 -3909.96 -3911.72 -3913.03 -3913.87 -3914.83 -3915.71 -3917.14 -3917.22
-4941.81 -4941.73 -4903.45 -4814.52 -4581.19 -4078.94 -3561.95 -3397.84 -3318.26 -3315.08 -3319.30 -3319.88 -3319.82 -3312.65 -3306.21 -3294.45 -3288.31 -3282.25 -3285.61 -3283.35 -3285.19 -3288.10 -3291.29 -3291.75 -3294.43 -3299.35 -3301.48 -3311.29 -3328.82 -3350.12 -3361.80 -3367.32 -3374.79 -3381.18 -3383.27 -3378.09 -3377.04 -3375.21 -3382.22 -3388.35 -3400.40 -3416.27 -3427.47 -3438.39 -3445.78 -3446.36 -3443.61 -3439.08 -3435.34 -3425.61 -3423.74 -3419.29 -3415.79 -3414.10 -3413.00 -3412.68 -3416.17 -3421.10 -3429.45 -3433.80 -3433.32 -3432.23 -3430.07 -3427.03 -3426.13 -3424.24 -3423.54 -3419.93 -3417.04 -3416.37 -3416.29 -3419.87 -3416.92 -3417.41 -3363.59 -3150.42 -2416.63 -2117.22 -1649.34 -1422.30 -1046.85 -855.19 -561.10 -338.29 -250.82 -69.36 -30.95 22.77 54.33 102.05 136.93 179.67 221.43 237.82 248.03 351.60 358.68 395.09 1209.48 1665.32 2488.62 4467.82 5443.97 3675.13 1857.17 1083.35 362.83 304.23 215.87 107.95 -317.36 -893.12 -1557.25 -2366.07 -2889.94 -3367.14 -3712.65 -3833.91 -3868.08 -3869.31 -3867.81 -3868.71 -3873.04 -3876.79 -3882.83 -3890.46 -3895.41 -3893.47 -3897.18 -3904.73 -3905.71 -3907.03 -3908.54 -3909.83 -3911.16 -3912.08 -3913.50 -3914.43 -3914.87 -3915.39 -3915.47
-4945.01 -4945.67 -4940.06 -4882.49 -4652.74 -4290.90 -3795.04 -3487.00 -3354.58 -3330.36 -3323.21 -3323.95 -3322.40 -3320.83 -3315.97 -3306.29 -3298.08 -3292.27 -3288.52 -3289.59 -3289.58 -3290.21 -3286.17 -3285.87 -3287.31 -3290.41 -3291.42 -3309.44 -3326.07 -3341.87 -3355.51 -3361.40 -3366.95 -3371.24 -3377.98 -3372.49 -3370.35 -3366.11 -3372.70 -3380.95 -3389.78 -3409.09 -3420.87 -3435.22 -3440.34 -3441.71 -3440.46 -3438.85 -3432.99 -3429.57 -3425.70 -3421.21 -3416.66 -3414.52 -3412.08 -3411.44 -3413.67 -3415.97 -3422.94 -3427.84 -3430.71 -3430.33 -3426.28 -3423.28 -3421.92 -3419.81 -3417.46 -3417.30 -3414.61 -3412.59 -3414.11 -3415.31 -3412.66 -3413.70 -3340.27 -3159.76 -2686.03 -1979.98 -1589.65 -1338.32 -1013.55 -719.75 -470.52 -273.87 -154.30 -48.65 11.62 34.02 68.53 122.49 149.89 193.95 219.25 234.62 296.59 337.55 371.94 386.29 1374.64 1763.12 2671.89 4605.16 5304.84 3805.99 1866.53 2047.66 752.45 300.56 200.44 71.68 -288.64 -764.92 -1435.28 -1842.70 -2482.17 -3154.32 -3623.69 -3838.29 -3873.23 -3873.13 -3871.41 -3872.55 -3876.22 -3881.63 -3888.56 -3893.34 -3895.59 -3896.56 -3899.50 -3904.76 -3905.32 -3906.58 -3908.12 -3909.45 -3910.90 -3911.76 -3913.01 -3914.02 -3914.37 -3914.60 -3914.68
-4947.94 -4947.86 -4951.74 -4927.06 -4801.48 -4563.57 -4036.06 -3665.27 -3436.87 -3362.88 -3328.69 -3329.20 -3331.40 -3328.36 -3321.13 -3314.09 -3306.45 -3301.88 -3297.89 -3296.62 -3294.43 -3289.41 -3285.78 -3283.43 -3283.07 -3283.57 -3290.02 -3298.09 -3322.16 -3336.46 -3343.35 -3350.55 -3356.94 -3364.73 -3364.57 -3357.63 -3360.94 -3357.01 -3361.47 -3373.10 -3381.30 -3400.16 -3412.76 -3427.49 -3435.05 -3435.59 -3435.18 -3436.63 -3429.73 -3428.75 -3423.87 -3418.80 -3414.99 -3411.45 -3408.69 -3407.72 -3408.89 -3410.15 -3416.91 -3422.07 -3428.31 -3426.49 -3424.41 -3421.26 -3418.13 -3416.17 -3414.84 -3413.42 -3412.10 -3412.07 -3412.36 -3411.66 -3367.27 -3278.68 -3205.40 -3059.68 -2714.43 -2223.09 -1568.38 -1248.09 -1017.65 -748.99 -438.16 -246.38 -148.69 -13.31 22.21 62.84 82.64 122.10 156.41 186.52 231.24 262.61 325.51 366.13 377.54 553.00 1275.01 1949.03 3141.46 5192.05 5941.36 4556.02 2922.00 2380.00 484.98 320.15 193.09 30.08 -411.41 -538.77 -1291.75 -1734.76 -2246.69 -3004.95 -3632.35 -3814.09 -3870.55 -3876.73 -3875.97 -3874.76 -3877.82 -3883.35 -3889.90 -3893.20 -3898.19 -3900.93 -3902.40 -3904.00 -3905.00 -3906.34 -3907.19 -3908.13 -3909.13 -3910.75 -3912.71 -3913.45 -3913.56 -3913.84 -3913.91
-4942.05 -4943.01 -4951.21 -4941.35 -4885.81 -4715.68 -4289.06 -3855.38 -3672.88 -3437.33 -3360.83 -3335.80 -3335.49 -3333.92 -3327.08 -3320.40 -3311.39 -3308.46 -3308.45 -3304.24 -3303.20 -3296.28 -3288.61 -3285.94 -3284.79 -3281.40 -3285.42 -3293.91 -3316.85 -3328.98 -3337.82 -3343.79 -3347.86 -3352.13 -3356.35 -3351.12 -3345.61 -3346.90 -3352.52 -3360.35 -3372.79 -3389.08 -3406.22 -3418.78 -3425.51 -3429.03 -3430.56 -3427.90 -3424.99 -3425.31 -3421.09 -3419.01 -3412.46 -3410.01 -3405.84 -3405.31 -3405.53 -3407.41 -3410.49 -3416.29 -3422.01 -3423.69 -3423.13 -3419.84 -3416.86 -3414.56 -3413.42 -3411.54 -3411.49 -3411.70 -3410.21 -3401.04 -3270.50 -3158.84 -3097.11 -2766.81 -2595.95 -2180.09 -1779.07 -1173.16 -1078.09 -662.58 -434.92 -125.42 -60.39 22.01 51.11 67.37 93.17 126.24 159.28 185.55 207.02 292.59 326.88 365.96 382.75 621.67 1130.37 1958.62 3692.70 5634.77 5831.39 3511.21 3303.68 2423.64 555.10 302.16 185.08 -12.06 -201.08 -541.38 -1142.45 -1700.15 -2410.37 -3195.71 -3561.34 -3781.39 -3871.27 -3878.04 -3877.15 -3878.09 -3880.07 -3883.85 -3888.82 -3893.54 -3896.59 -3901.07 -3902.12 -3903.39 -3903.94 -3905.03 -3905.83 -3908.23 -3909.66 -3910.75 -3911.53 -3912.61 -3913.07 -3913.54 -3913.62
-4934.66 -4934.58 -4948.06 -4953.37 -4933.77 -4855.84 -4698.43 -4036.81 -3710.60 -3562.33 -3363.44 -3344.13 -3340.14 -3335.17 -3332.36 -3327.65 -3320.56 -3319.99 -3318.10 -3315.62 -3310.18 -3304.00 -3293.67 -3293.22 -3293.59 -3287.39 -3291.03 -3295.36 -3311.33 -3318.11 -3328.37 -3331.20 -3335.90 -3340.63 -3341.75 -3337.91 -3339.29 -3337.35 -3344.13 -3351.73 -3363.63 -3381.31 -3395.72 -3402.89 -3413.36 -3418.82 -3421.45 -3419.21 -3420.06 -3415.70 -3415.55 -3412.74 -3409.83 -3405.25 -3403.04 -3400.52 -3400.09 -3399.18 -3401.22 -3408.12 -3413.04 -3419.65 -3419.13 -3417.19 -3415.43 -3413.91 -3411.14 -3410.05 -3409.98 -3409.65 -3403.08 -3385.33 -3275.97 -2992.57 -2756.61 -2548.72 -2263.56 -2220.10 -1912.94 -1261.62 -1034.52 -588.32 -356.59 -209.51 -119.86 10.67 46.69 71.15 108.62 136.76 164.95 186.45 212.80 249.27 309.23 350.64 384.86 435.65 1207.88 2066.06 3505.78 4939.59 5143.22 3281.73 2412.03 1764.03 403.09 306.64 185.92 58.59 -88.75 -388.16 -1080.36 -1522.29 -2227.50 -2710.68 -3270.22 -3680.88 -3829.22 -3877.15 -3878.69 -3879.62 -3881.03 -3884.13 -3888.28 -3892.92 -3895.26 -3899.12 -3901.49 -3902.47 -3903.17 -3903.93 -3905.86 -3907.66 -3909.27 -3910.05 -3911.22 -3911.73 -3912.71 -3913.01 -3913.17
-4924.57 -4924.49 -4940.31 -4949.82 -4945.83 -4893.58 -4797.96 -4578.13 -4056.35 -3673.42 -3424.90 -3358.98 -3348.20 -3342.42 -3337.79 -3333.83 -3331.09 -3330.95 -3327.22 -3323.45 -3323.32 -3317.64 -3316.40 -3316.28 -3311.42 -3305.78 -3306.59 -3304.37 -3307.42 -3311.46 -3312.33 -3313.88 -3316.68 -3324.61 -3324.41 -3327.82 -3324.01 -3327.73 -3333.64 -3346.83 -3357.23 -3370.12 -3380.84 -3387.71 -3401.31 -3401.53 -3407.90 -3409.25 -3411.54 -3407.80 -3407.55 -3404.03 -3404.90 -3398.59 -3398.00 -3393.18 -3393.26 -3393.55 -3391.63 -3392.79 -3400.23 -3405.05 -3410.87 -3412.75 -3412.24 -3411.74 -3409.76 -3408.71 -3408.43 -3405.23 -3397.17 -3375.49 -3211.30 -2819.34 -2533.46 -2143.76 -2014.32 -1930.01 -1565.57 -1117.27 -815.20 -498.58 -438.65 -286.68 -129.16 -22.07 64.99 99.31 132.66 152.98 164.90 197.35 222.31 239.32 271.98 334.38 357.86 586.60 2023.44 3013.14 3129.43 5264.00 4324.12 2948.72 1465.15 645.67 457.76 285.81 220.91 141.49 -27.75 -407.34 -825.66 -1857.74 -2313.23 -2887.59 -3456.02 -3651.10 -3859.40 -3878.60 -3880.97 -3880.91 -3882.35 -3884.75 -3890.32 -3894.69 -3898.01 -3900.67 -3901.09 -3901.80 -3902.58 -3903.95 -3905.89 -3907.01 -3908.77 -3909.77 -3910.03 -3910.79 -3911.95 -3912.35 -3912.42
-4914.01 -4913.93 -4930.68 -4941.44 -4956.41 -4941.07 -4887.92 -4689.88 -4353.82 -3725.82 -3538.44 -3445.24 -3381.72 -3364.67 -3352.50 -3344.65 -3339.84 -3337.80 -3338.71 -3335.39 -3332.44 -3328.77 -3330.02 -3328.31 -3322.74 -3318.47 -3313.46 -3311.38 -3306.21 -3300.16 -3294.43 -3295.96 -3301.62 -3296.56 -3307.84 -3306.54 -3313.15 -3320.28 -3328.88 -3342.01 -3351.79 -3358.82 -3366.66 -3375.98 -3385.42 -3386.72 -3394.55 -3396.72 -3397.68 -3395.91 -3400.77 -3390.84 -3394.32 -3391.28 -3390.44 -3385.60 -3379.99 -3375.18 -3369.97 -3377.48 -3383.31 -3386.29 -3394.06 -3410.72 -3410.71 -3409.61 -3408.68 -3407.91 -3407.94 -3406.66 -3399.04 -3319.43 -3055.11 -2646.85 -2326.67 -1930.73 -1775.23 -1738.14 -1514.73 -1153.95 -797.89 -573.09 -409.42 -291.87 -141.76 -11.86 86.62 120.83 144.18 171.74 180.80 204.79 226.73 240.67 256.84 312.75 358.73 857.32 1972.80 2799.59 4247.44 5671.83 4930.36 2993.93 3374.50 2120.97 513.06 278.20 214.49 150.62 -65.38 -287.60 -932.99 -1716.27 -2521.51 -2887.11 -3465.84 -3786.04 -3864.86 -3877.52 -3880.30 -3881.46 -3883.15 -3885.66 -3889.96 -3895.50 -3899.95 -3900.65 -3901.29 -3901.57 -3902.40 -3903.81 -3905.07 -3906.77 -3908.16 -3908.91 -3909.66 -3909.89 -3910.53 -3910.93 -3911.00
-4904.03 -4905.36 -4916.63 -4934.51 -4950.07 -4956.86 -4928.12 -4800.85 -4406.24 -3993.43 -3746.65 -3665.02 -3657.67 -3473.25 -3412.71 -3358.38 -3349.98 -3348.35 -3343.27 -3343.53 -3343.22 -3342.08 -3340.10 -3336.65 -3331.69 -3327.95 -3320.51 -3314.99 -3303.44 -3291.71 -3285.90 -3283.66 -3276.13 -3278.07 -3282.87 -3294.81 -3304.12 -3312.73 -3323.34 -3335.65 -3344.36 -3353.42 -3358.27 -3358.58 -3367.06 -3365.94 -3379.66 -3385.31 -3384.10 -3385.59 -3385.97 -3385.11 -3382.97 -3381.71 -3377.62 -3370.41 -3364.64 -3364.32 -3358.94 -3360.74 -3368.53 -3375.81 -3383.85 -3400.27 -3407.93 -3407.46 -3407.36 -3407.00 -3407.06 -3407.88 -3397.32 -3306.32 -2996.24 -2615.25 -2147.80 -1913.84 -1687.26 -1638.33 -1304.76 -1115.28 -788.92 -587.16 -498.17 -295.05 -149.67 -29.73 69.93 120.41 152.12 177.87 192.71 205.80 223.27 239.10 246.47 286.51 359.35 981.74 1941.82 2751.15 4001.24 5229.73 4237.68 3345.35 3799.76 1710.79 380.08 263.81 217.42 158.71 -7.49 -238.48 -1047.67 -1731.56 -2178.72 -2907.00 -3558.94 -3680.80 -3845.65 -3877.28 -3879.26 -3880.86 -3883.00 -3887.69 -3889.85 -3895.71 -3899.02 -3900.35 -3900.94 -3900.96 -3902.13 -3904.32 -3905.22 -3906.64 -3907.46 -3908.08 -3908.66 -3908.75 -3909.59 -3909.85 -3909.92
-4897.49 -4897.41 -4911.96 -4927.13 -4943.89 -4956.03 -4953.64 -4924.56 -4714.33 -4469.93 -4268.14 -4157.04 -4006.06 -3780.69 -3528.39 -3414.78 -3372.25 -3355.66 -3347.76 -3348.81 -3349.10 -3347.05 -3345.21 -3342.01 -3337.44 -3329.16 -3323.60 -3318.40 -3298.74 -3291.29 -3277.95 -3270.31 -3266.35 -3267.60 -3271.12 -3276.42 -3293.20 -3302.04 -3317.02 -3325.10 -3333.92 -3344.24 -3348.24 -3353.90 -3355.74 -3359.96 -3366.44 -3372.00 -3375.86 -3381.64 -3383.58 -3382.37 -3379.64 -3375.03 -3371.13 -3366.92 -3358.84 -3355.64 -3355.07 -3356.92 -3360.91 -3369.09 -3377.13 -3396.46 -3406.97 -3407.24 -3407.24 -3406.84 -3406.67 -3401.43 -3379.21 -3212.84 -3045.60 -2743.91 -2384.69 -1745.85 -1616.11 -1397.71 -1206.31 -974.42 -871.85 -784.33 -556.51 -387.82 -153.67 -32.85 64.42 133.61 164.67 187.44 196.29 207.84 221.51 234.30 249.14 275.33 526.37 1268.05 2228.95 3418.69 4969.83 5382.45 3364.55 2486.52 1920.12 1267.04 321.72 248.90 221.21 148.63 4.84 -333.78 -661.39 -1823.24 -2330.80 -2775.07 -3572.05 -3753.49 -3863.81 -3877.20 -3877.79 -3880.95 -3883.10 -3888.73 -3891.62 -3896.18 -3899.19 -3900.58 -3900.93 -3900.36 -3901.35 -3903.74 -3905.16 -3906.52 -3907.06 -3907.73 -3908.05 -3908.31 -3908.71 -3908.96 -3909.03
-4891.34 -4891.27 -4906.32 -4922.73 -4938.16 -4950.09 -4960.94 -4948.76 -4873.14 -4761.05 -4749.32 -4683.78 -4517.91 -3973.72 -3840.44 -3522.03 -3433.77 -3408.06 -3357.40 -3349.51 -3350.71 -3350.20 -3349.26 -3344.70 -3340.01 -3331.45 -3326.42 -3314.73 -3300.52 -3288.72 -3275.68 -3265.54 -3258.02 -3259.25 -3265.74 -3274.76 -3284.79 -3298.93 -3308.93 -3320.03 -3330.63 -3339.07 -3345.54 -3346.11 -3348.26 -3355.65 -3361.84 -3370.25 -3374.86 -3380.82 -3384.44 -3383.46 -3380.81 -3375.83 -3372.24 -3365.68 -3358.90 -3356.00 -3352.95 -3354.72 -3358.65 -3364.57 -3378.58 -3394.91 -3404.66 -3406.65 -3406.86 -3406.88 -3407.70 -3397.42 -3363.76 -3220.12 -2921.39 -2751.75 -2301.46 -1917.86 -1552.22 -1250.26 -1087.12 -1001.04 -875.02 -770.65 -649.82 -473.40 -192.82 -50.17 27.54 132.72 171.11 188.07 206.07 208.42 216.42 233.16 249.51 269.97 784.71 1607.87 2954.86 4473.02 6110.90 5780.60 3815.49 3420.52 1379.49 637.05 284.30 248.68 194.15 96.90 -63.76 -333.76 -689.43 -1749.70 -2512.17 -3067.73 -3738.39 -3806.49 -3854.99 -3874.00 -3876.68 -3880.18 -3883.32 -3888.71 -3892.47 -3896.50 -3899.03 -3900.00 -3901.05 -3900.88 -3901.49 -3903.36 -3905.04 -3905.88 -3906.73 -3907.08 -3907.51 -3907.76 -3908.18 -3908.47 -3908.54
-4885.48 -4885.41 -4899.75 -4914.28 -4928.60 -4944.83 -4960.29 -4970.87 -4976.38 -4944.52 -4940.15 -4941.51 -4804.81 -4573.78 -4104.77 -3867.50 -3572.85 -3434.37 -3378.88 -3351.76 -3347.87 -3347.58 -3347.67 -3342.66 -3339.63 -3331.52 -3324.45 -3313.30 -3298.28 -3281.27 -3273.36 -3263.38 -3255.36 -3257.49 -3263.36 -3273.18 -3283.30 -3294.04 -3306.85 -3320.00 -3328.61 -3335.53 -3343.98 -3343.86 -3346.18 -3354.13 -3360.71 -3369.74 -3378.14 -3383.87 -3388.07 -3387.64 -3384.15 -3378.55 -3374.58 -3367.03 -3359.84 -3355.74 -3353.38 -3353.03 -3357.77 -3364.89 -3384.12 -3394.18 -3405.57 -3405.90 -3406.49 -3406.68 -3406.66 -3384.30 -3320.69 -3057.46 -2692.59 -2369.53 -2174.09 -1863.62 -1529.01 -1257.16 -1107.01 -963.26 -881.38 -785.36 -604.05 -434.70 -291.30 -123.03 27.52 137.79 178.63 202.32 212.85 219.04 224.28 234.14 249.39 317.67 1159.39 1507.99 2711.67 3669.99 5902.37 6203.59 4765.66 2713.27 1213.20 596.38 401.55 241.49 190.28 75.51 -139.74 -532.20 -858.82 -1703.42 -2335.96 -3317.98 -3736.10 -3837.28 -3845.65 -3866.13 -3874.41 -3878.89 -3881.73 -3889.34 -3892.17 -3897.72 -3898.56 -3900.41 -3900.92 -3901.59 -3902.41 -3903.58 -3904.81 -3905.19 -3905.87 -3906.19 -3906.74 -3907.21 -3907.69 -3907.91 -3907.98
-4878.26 -4879.62 -4892.47 -4905.05 -4920.30 -4939.90 -4953.49 -4974.84 -4989.54 -4997.15 -5007.90 -4983.32 -4939.07 -4880.60 -4505.47 -4242.21 -3939.61 -3526.67 -3417.88 -3355.57 -3344.27 -3341.04 -3340.64 -3338.44 -3334.54 -3329.57 -3320.14 -3310.70 -3292.29 -3281.87 -3270.91 -3258.07 -3251.69 -3256.55 -3261.91 -3273.38 -3281.28 -3294.36 -3305.47 -3318.57 -3328.43 -3336.54 -3341.49 -3344.95 -3349.22 -3354.20 -3363.05 -3370.34 -3379.39 -3386.31 -3390.16 -3390.22 -3386.98 -3384.42 -3376.56 -3369.33 -3362.83 -3358.26 -3353.21 -3352.53 -3356.11 -3363.71 -3384.40 -3397.90 -3404.51 -3404.83 -3405.52 -3403.94 -3397.55 -3367.98 -3283.18 -3037.18 -2790.91 -2370.00 -1980.12 -1681.76 -1515.94 -1279.56 -1103.40 -945.74 -854.71 -778.54 -563.26 -450.25 -340.28 -226.09 7.27 140.16 168.73 215.49 221.50 225.24 226.30 238.44 263.19 537.05 1500.55 1735.67 2314.74 3755.08 6543.93 6633.84 3692.46 1928.34 1203.10 473.35 297.20 239.65 184.87 58.18 -144.90 -578.81 -980.18 -1744.54 -2472.66 -3070.73 -3522.34 -3774.33 -3821.68 -3856.68 -3874.89 -3879.96 -3882.84 -3888.71 -3892.99 -3896.04 -3899.85 -3900.63 -3901.39 -3902.33 -3902.81 -3903.53 -3904.19 -3904.83 -3905.21 -3905.51 -3905.99 -3906.89 -3907.09 -3907.45 -3907.52
-4872.55 -4872.48 -4884.27 -4897.14 -4909.32 -4926.05 -4942.59 -4963.99 -4989.45 -5010.83 -5022.21 -5031.08 -5016.55 -4985.54 -4866.43 -4576.15 -4084.01 -3717.75 -3514.11 -3404.61 -3343.70 -3336.60 -3329.60 -3325.37 -3325.23 -3322.21 -3314.05 -3304.54 -3291.12 -3275.41 -3267.79 -3258.14 -3252.91 -3254.39 -3262.15 -3272.89 -3288.21 -3296.86 -3306.36 -3318.26 -3328.42 -3335.73 -3340.32 -3342.50 -3347.84 -3351.19 -3361.49 -3369.18 -3379.58 -3386.00 -3391.05 -3390.94 -3389.09 -3384.50 -3379.40 -3370.25 -3365.43 -3356.73 -3352.98 -3351.69 -3353.24 -3362.01 -3386.69 -3400.13 -3403.85 -3404.02 -3403.44 -3402.70 -3398.58 -3349.38 -3241.78 -3070.17 -2672.84 -2499.56 -1945.91 -1562.18 -1420.19 -1206.33 -1065.42 -878.30 -637.74 -581.24 -509.62 -429.12 -400.96 -270.63 -61.17 133.31 207.57 259.71 240.42 235.23 234.27 240.14 262.67 452.51 1396.73 2485.10 4165.08 5230.36 6354.18 4925.77 2954.39 2147.06 866.69 527.01 279.24 243.84 188.78 68.19 -227.45 -462.99 -851.31 -1770.35 -2557.38 -3240.47 -3400.79 -3719.33 -3770.33 -3841.23 -3873.33 -3881.50 -3883.67 -3887.92 -3893.01 -3895.52 -3898.58 -3900.17 -3901.25 -3902.39 -3903.12 -3903.55 -3904.15 -3904.48 -3904.86 -3905.53 -3905.89 -3906.44 -3906.88 -3907.05 -3907.14
-4869.05 -4870.53 -4880.19 -4890.01 -4903.33 -4922.14 -4937.47 -4962.61 -4979.88 -5008.07 -5019.56 -5029.33 -5031.52 -5020.74 -4928.24 -4883.15 -4593.34 -4198.39 -3747.82 -3439.51 -3359.69 -3338.81 -3320.28 -3318.41 -3317.73 -3315.83 -3305.23 -3298.60 -3286.97 -3275.52 -3268.72 -3256.53 -3252.86 -3254.25 -3262.28 -3272.01 -3284.47 -3297.15 -3308.06 -3315.47 -3326.73 -3334.80 -3336.38 -3339.41 -3340.40 -3347.81 -3357.79 -3370.29 -3377.39 -3384.09 -3391.22 -3392.44 -3390.85 -3385.50 -3381.73 -3372.30 -3364.66 -3355.62 -3351.46 -3350.90 -3355.15 -3363.58 -3385.81 -3391.40 -3394.65 -3399.62 -3395.75 -3395.42 -3392.29 -3346.64 -3233.80 -3031.94 -2717.77 -2273.84 -1960.15 -1570.85 -1375.01 -1216.12 -971.08 -630.58 -527.35 -487.01 -430.48 -302.89 -309.94 -208.05 33.34 169.49 335.71 327.48 265.02 239.44 241.38 246.63 252.54 705.60 1908.86 2316.97 3290.87 5406.45 5816.89 4469.52 2827.11 2199.00 616.34 381.67 271.91 221.28 149.67 21.90 -99.08 -425.45 -861.87 -1399.59 -2156.98 -2700.75 -3091.53 -3459.94 -3699.21 -3850.28 -3872.31 -3882.74 -3885.39 -3886.49 -3890.23 -3892.95 -3896.54 -3899.43 -3900.85 -3902.62 -3903.25 -3903.68 -3904.07 -3904.32 -3904.87 -3905.45 -3905.73 -3906.30 -3906.77 -3907.06 -3907.13
-4870.15 -4871.68 -4879.08 -4890.11 -4901.04 -4913.92 -4941.00 -4955.14 -4980.96 -5000.72 -5014.09 -5020.82 -5025.77 -5027.18 -5009.97 -4951.35 -4806.25 -4538.38 -4096.24 -3676.72 -3432.35 -3356.97 -3321.67 -3310.33 -3309.69 -3309.70 -3302.51 -3294.66 -3283.59 -3276.69 -3269.21 -3260.63 -3255.61 -3258.43 -3264.36 -3278.19 -3289.88 -3296.51 -3306.75 -3314.76 -3323.11 -3333.26 -3336.14 -3335.79 -3338.09 -3345.24 -3353.34 -3361.34 -3373.93 -3382.92 -3388.80 -3391.69 -3390.75 -3387.63 -3384.63 -3374.79 -3367.59 -3355.25 -3351.77 -3349.93 -3355.02 -3366.30 -3381.08 -3387.80 -3390.09 -3395.81 -3394.72 -3392.04 -3368.96 -3289.67 -3198.28 -2922.34 -2647.56 -2194.47 -1800.65 -1435.87 -1276.11 -978.32 -791.17 -629.80 -447.17 -232.49 -215.31 -140.04 -101.20 -41.20 78.70 264.40 351.22 333.10 287.81 242.39 244.16 250.66 350.10 708.89 2164.70 2479.45 3724.00 5523.76 5250.86 3349.14 2222.03 3124.37 571.15 372.53 264.10 176.15 87.21 1.16 -217.68 -349.78 -770.56 -1198.26 -1843.35 -2442.30 -2945.55 -3216.56 -3589.35 -3812.88 -3868.82 -3884.11 -3886.26 -3886.84 -3888.48 -3890.78 -3894.68 -3897.48 -3900.38 -3901.89 -3903.30 -3903.51 -3903.77 -3904.17 -3904.68 -3905.01 -3905.69 -3906.26 -3906.60 -3907.01 -3907.08
-4874.65 -4874.59 -4880.64 -4890.01 -4902.62 -4914.44 -4936.14 -4950.13 -4979.67 -4991.22 -5006.37 -5014.55 -5017.96 -5019.81 -5014.41 -4990.06 -4928.58 -4786.77 -4468.43 -3992.79 -3527.06 -3377.62 -3349.69 -3309.23 -3303.56 -3303.26 -3298.99 -3293.59 -3286.05 -3282.26 -3276.38 -3266.49 -3259.85 -3261.37 -3272.71 -3280.63 -3292.93 -3296.27 -3306.19 -3312.47 -3322.44 -3333.56 -3336.72 -3334.92 -3332.91 -3339.75 -3347.57 -3360.42 -3373.56 -3382.73 -3387.12 -3391.13 -3390.49 -3388.60 -3380.98 -3375.92 -3367.87 -3357.82 -3352.47 -3348.48 -3355.82 -3364.25 -3374.47 -3388.78 -3393.54 -3392.62 -3389.60 -3385.94 -3355.03 -3263.92 -3138.71 -2971.41 -2558.37 -2150.42 -1685.97 -1467.29 -1053.86 -893.78 -638.22 -479.21 -370.37 -236.44 -121.51 -8.76 1.74 39.25 94.67 230.58 299.67 310.27 244.57 239.30 241.50 251.32 394.38 998.82 1314.55 2732.05 3641.77 6306.60 6484.86 4518.12 2175.24 1966.35 443.06 278.24 250.45 193.52 96.84 20.56 -161.70 -397.87 -652.43 -1243.93 -1865.96 -2326.82 -2756.54 -3098.37 -3536.85 -3721.80 -3859.57 -3884.48 -3885.87 -3887.13 -3887.82 -3890.42 -3894.05 -3897.90 -3900.34 -3901.90 -3902.59 -3902.98 -3903.49 -3903.71 -3904.45 -3904.47 -3905.25 -3905.51 -3906.55 -3906.70 -3906.85
-4884.55 -4884.50 -4894.95 -4898.12 -4906.99 -4916.29 -4937.40 -4953.81 -4976.88 -4987.65 -5001.11 -5004.01 -5008.45 -5009.92 -5005.43 -4994.77 -4950.84 -4864.86 -4724.79 -4289.23 -3814.10 -3543.09 -3364.59 -3317.45 -3301.65 -3296.32 -3295.99 -3293.11 -3291.50 -3287.72 -3283.10 -3275.18 -3271.85 -3274.28 -3278.88 -3290.31 -3294.96 -3301.46 -3306.29 -3313.59 -3319.12 -3329.10 -3331.07 -3332.25 -3332.62 -3335.89 -3345.31 -3359.86 -3370.53 -3380.50 -3388.04 -3390.95 -3390.66 -3388.57 -3382.92 -3374.50 -3368.36 -3359.59 -3353.38 -3350.01 -3354.66 -3359.77 -3366.98 -3386.69 -3391.64 -3390.72 -3386.52 -3375.38 -3315.54 -3225.99 -3058.62 -2934.97 -2617.32 -2128.74 -1837.60 -1600.87 -1235.78 -1040.09 -643.54 -448.60 -274.86 -126.07 -34.98 36.30 64.76 113.11 115.26 157.96 212.62 237.94 229.05 231.61 239.14 249.18 313.12 1231.50 2218.62 4007.75 5538.38 6969.81 6649.84 4599.20 3193.76 2069.07 500.63 288.27 237.85 207.32 151.02 24.32 -169.62 -408.62 -729.47 -951.19 -1476.52 -1929.45 -2571.58 -3060.58 -3488.71 -3730.58 -3857.71 -3883.60 -3885.21 -3885.32 -3887.57 -3890.84 -3893.74 -3896.20 -3898.46 -3900.39 -3902.05 -3902.86 -3903.13 -3903.32 -3903.88 -3904.29 -3904.73 -3905.31 -3905.81 -3906.42 -3906.48
-4900.17 -4903.43 -4907.20 -4909.40 -4916.46 -4924.86 -4944.83 -4958.08 -4972.40 -4987.13 -4994.65 -4997.80 -4999.24 -4998.43 -4996.25 -4991.42 -4981.28 -4950.09 -4868.63 -4601.54 -4167.74 -3629.95 -3464.86 -3366.01 -3297.34 -3289.95 -3289.37 -3293.07 -3296.47 -3294.86 -3298.81 -3292.59 -3290.43 -3288.15 -3293.12 -3296.20 -3300.02 -3304.41 -3309.17 -3315.90 -3323.19 -3330.06 -3331.82 -3333.47 -3333.54 -3336.25 -3344.91 -3358.23 -3370.36 -3379.85 -3386.95 -3389.99 -3390.33 -3387.23 -3380.99 -3375.60 -3366.84 -3360.75 -3354.86 -3352.31 -3350.44 -3354.55 -3366.29 -3381.84 -3383.57 -3382.78 -3377.65 -3369.43 -3263.05 -3146.06 -2920.41 -2821.87 -2459.51 -2197.48 -1856.63 -1558.30 -1235.76 -941.64 -731.76 -440.86 -193.08 -78.14 -2.42 56.96 101.55 130.20 151.46 175.07 200.89 205.50 215.93 226.07 235.54 243.79 290.20 996.66 1649.13 2404.90 4547.38 6564.79 5820.19 3815.67 2180.62 1353.73 587.87 298.87 243.39 213.00 158.97 28.39 -84.22 -304.44 -590.28 -720.29 -1138.35 -1774.76 -2214.19 -3022.45 -3481.78 -3673.62 -3770.00 -3866.86 -3878.04 -3880.63 -3887.44 -3889.39 -3890.74 -3893.90 -3897.08 -3900.52 -3901.55 -3902.02 -3902.48 -3902.55 -3903.36 -3903.69 -3904.30 -3904.71 -3905.57 -3905.90 -3906.07
-4915.56 -4915.61 -4918.34 -4923.21 -4933.36 -4938.76 -4950.75 -4959.89 -4977.96 -4983.93 -4989.64 -4993.76 -4995.14 -4992.97 -4988.55 -4979.38 -4978.86 -4967.14 -4927.29 -4788.88 -4524.90 -3927.23 -3593.93 -3411.78 -3301.17 -3284.12 -3283.76 -3291.71 -3301.44 -3303.16 -3301.09 -3299.17 -3298.53 -3298.67 -3298.34 -3303.84 -3306.56 -3311.27 -3314.63 -3320.52 -3325.00 -3330.29 -3334.63 -3337.23 -3334.41 -3336.52 -3344.65 -3356.94 -3365.07 -3381.59 -3387.28 -3389.93 -3389.48 -3386.39 -3381.68 -3374.79 -3368.10 -3356.87 -3353.62 -3350.79 -3348.42 -3353.41 -3359.26 -3370.09 -3375.41 -3377.84 -3375.51 -3361.67 -3294.35 -3210.95 -2875.27 -2700.16 -2415.46 -2144.95 -1934.46 -1546.76 -1126.72 -882.79 -627.96 -387.88 -171.61 -37.88 35.77 84.02 122.80 149.54 168.52 177.67 190.55 202.74 211.59 223.75 232.61 243.09 378.23 813.05 1216.67 2248.72 4579.45 6174.57 5576.49 3260.52 3076.16 2902.81 560.30 333.62 267.04 217.08 182.08 110.99 -36.36 -158.43 -315.83 -597.29 -1104.81 -1672.58 -2289.84 -2814.19 -3360.57 -3655.11 -3706.44 -3840.75 -3874.24 -3878.32 -3887.34 -3889.04 -3890.28 -3892.65 -3896.39 -3897.86 -3900.51 -3900.72 -3901.56 -3902.08 -3902.36 -3902.98 -3903.47 -3904.24 -3905.13 -3905.33 -3905.40
-4926.98 -4928.64 -4931.94 -4936.08 -4941.16 -4947.73 -4955.01 -4966.46 -4974.65 -4980.36 -4984.55 -4987.13 -4989.06 -4988.00 -4983.31 -4974.46 -4970.60 -4966.48 -4959.80 -4879.94 -4746.52 -4253.89 -3851.32 -3463.53 -3311.75 -3280.69 -3280.18 -3287.34 -3298.03 -3302.70 -3300.70 -3300.05 -3301.09 -3302.80 -3303.90 -3307.22 -3311.09 -3315.80 -3319.86 -3323.87 -3326.95 -3335.96 -3339.21 -3342.69 -3338.60 -3341.27 -3350.61 -3353.55 -3373.84 -3385.86 -3389.40 -3390.21 -3389.01 -3386.08 -3380.91 -3373.35 -3368.63 -3360.26 -3354.82 -3349.82 -3346.58 -3348.53 -3354.95 -3360.26 -3367.67 -3364.65 -3357.62 -3351.10 -3260.26 -3145.24 -2862.39 -2648.23 -2287.78 -1880.20 -1422.81 -1065.10 -892.19 -625.29 -465.50 -247.17 -102.83 7.03 56.78 93.15 125.97 155.71 169.05 184.50 192.47 201.64 212.08 218.83 235.24 250.03 285.61 660.38 1285.85 3735.83 4127.32 6867.76 6417.99 5091.08 3387.57 2705.88 474.67 346.01 260.64 228.47 188.05 150.02 52.09 -10.31 -298.14 -808.36 -1279.69 -1661.53 -2094.48 -2688.02 -3266.61 -3457.49 -3693.05 -3824.21 -3877.81 -3884.60 -3886.99 -3888.72 -3889.84 -3891.12 -3893.35 -3897.29 -3898.96 -3899.99 -3900.45 -3901.23 -3901.59 -3901.97 -3902.92 -3903.33 -3904.02 -3904.30 -3904.37
-4937.12 -4937.06 -4936.93 -4940.90 -4944.82 -4951.38 -4958.46 -4964.55 -4973.17 -4977.24 -4981.30 -4984.08 -4984.94 -4983.59 -4975.66 -4967.48 -4965.53 -4961.60 -4961.15 -4937.92 -4837.32 -4579.56 -4268.32 -3632.66 -3399.23 -3301.45 -3276.67 -3279.54 -3296.36 -3300.61 -3300.47 -3300.90 -3303.09 -3304.23 -3303.89 -3294.32 -3288.53 -3308.33 -3307.06 -3304.53 -3312.65 -3327.81 -3345.03 -3344.12 -3344.78 -3348.59 -3357.22 -3364.85 -3370.58 -3388.57 -3391.20 -3390.83 -3388.89 -3384.13 -3379.75 -3371.21 -3366.68 -3356.88 -3353.66 -3347.97 -3344.44 -3343.40 -3343.75 -3343.89 -3353.10 -3357.60 -3347.75 -3336.00 -3284.21 -3178.73 -2806.38 -2487.70 -2040.11 -1825.78 -1314.22 -990.77 -764.17 -539.50 -347.44 -211.75 -88.75 -24.96 66.16 89.58 132.24 153.92 168.05 183.25 199.87 206.01 212.45 222.63 231.63 249.25 300.92 981.05 2838.52 2993.72 3577.99 5811.80 6642.32 5191.53 3088.81 1769.25 811.91 397.13 310.66 241.47 217.32 161.21 93.63 -18.22 -237.21 -637.12 -1122.32 -1539.90 -2018.87 -2665.07 -3006.22 -3341.66 -3532.39 -3737.32 -3871.51 -3884.12 -3884.56 -3882.74 -3886.97 -3890.89 -3892.65 -3895.00 -3898.13 -3898.68 -3899.92 -3900.27 -3900.55 -3901.59 -3902.15 -3902.31 -3902.74 -3903.36 -3903.43
-4944.19 -4944.13 -4943.98 -4947.42 -4949.28 -4952.13 -4957.33 -4962.74 -4967.92 -4973.15 -4976.92 -4977.28 -4978.00 -4974.95 -4969.44 -4959.65 -4956.97 -4955.56 -4957.46 -4959.25 -4896.62 -4746.93 -4327.41 -4114.96 -3517.76 -3328.85 -3278.84 -3276.57 -3286.22 -3296.58 -3299.13 -3297.99 -3298.29 -3297.19 -3267.21 -3248.45 -3211.74 -3177.48 -3215.15 -3197.97 -3214.08 -3268.08 -3324.43 -3334.30 -3344.40 -3347.57 -3362.58 -3365.33 -3374.22 -3387.99 -3392.19 -3390.76 -3388.78 -3384.43 -3377.36 -3371.56 -3364.69 -3355.29 -3352.19 -3345.13 -3341.12 -3338.07 -3338.81 -3339.02 -3345.15 -3350.30 -3347.00 -3333.63 -3266.16 -3048.97 -2727.91 -2199.90 -1898.16 -1528.20 -1353.62 -919.42 -679.67 -473.53 -305.33 -202.41 -77.97 4.83 45.07 92.87 118.63 151.31 169.21 188.86 201.64 211.04 216.53 227.69 237.25 250.09 306.80 471.76 2059.99 2528.16 3070.28 7009.27 6572.01 4964.24 2545.67 1794.03 1176.07 467.18 304.87 280.46 226.03 179.71 84.00 -68.16 -292.17 -625.99 -1009.95 -1462.59 -1915.55 -2363.27 -2731.36 -3025.10 -3364.46 -3741.44 -3828.29 -3872.48 -3880.03 -3881.46 -3883.42 -3890.46 -3891.32 -3894.36 -3896.35 -3896.81 -3898.66 -3899.30 -3899.78 -3900.99 -3901.57 -3901.78 -3901.79 -3901.99 -3902.26
-4952.79 -4952.74 -4953.41 -4952.91 -4952.24 -4954.20 -4956.85 -4958.02 -4962.77 -4967.87 -4968.04 -4968.10 -4968.72 -4967.97 -4962.73 -4955.16 -4952.53 -4953.01 -4957.22 -4962.97 -4959.13 -4851.36 -4632.69 -4050.61 -3528.13 -3328.45 -3272.92 -3269.95 -3280.12 -3285.50 -3278.21 -3278.02 -3234.54 -3238.00 -3168.40 -3001.57 -2736.42 -2865.03 -2899.01 -2873.77 -2916.99 -3028.88 -3216.49 -3279.62 -3290.71 -3312.18 -3348.50 -3347.98 -3362.91 -3371.00 -3388.55 -3390.10 -3387.72 -3381.60 -3377.09 -3368.61 -3361.66 -3354.47 -3348.05 -3341.86 -3337.32 -3333.10 -3333.32 -3334.47 -3339.23 -3345.23 -3346.32 -3331.11 -3201.01 -3017.63 -2632.15 -2195.27 -1895.09 -1515.34 -1260.66 -952.28 -644.91 -505.80 -313.27 -222.43 -82.88 6.52 46.14 91.61 128.73 146.77 161.45 182.34 194.96 216.89 225.79 235.95 244.56 257.31 291.23 470.73 1265.29 1752.55 3787.11 6416.93 6687.33 5438.20 2983.23 2716.14 1552.40 762.06 310.11 306.00 271.68 192.01 95.07 -28.93 -184.40 -534.18 -906.56 -1357.93 -1667.41 -2027.50 -2508.24 -2876.57 -3353.78 -3574.23 -3749.78 -3845.17 -3873.30 -3884.69 -3885.93 -3887.94 -3891.63 -3893.34 -3895.19 -3896.36 -3897.74 -3898.49 -3899.15 -3899.30 -3899.62 -3899.67 -3900.33 -3900.53 -3900.60
-4975.94 -4976.79 -4965.61 -4964.97 -4959.11 -4964.99 -4958.20 -4956.08 -4956.30 -4954.95 -4952.08 -4953.20 -4952.95 -4949.72 -4955.18 -4955.56 -4956.39 -4964.86 -4964.47 -4970.76 -4961.75 -4874.54 -4620.36 -4263.10 -3563.26 -3240.95 -3234.40 -3233.38 -3263.98 -3273.95 -3254.57 -3178.71 -2947.41 -2813.61 -2674.86 -2445.51 -2007.04 -1900.86 -2135.90 -2206.92 -2199.73 -2299.85 -2863.42 -3154.45 -3097.87 -3282.65 -3308.49 -3313.98 -3314.18 -3352.20 -3364.37 -3366.45 -3386.22 -3379.31 -3372.40 -3365.03 -3359.07 -3349.59 -3344.07 -3334.70 -3329.42 -3326.61 -3324.51 -3328.76 -3335.36 -3341.26 -3328.02 -3307.74 -3159.62 -3030.26 -2747.46 -2374.60 -1971.27 -1449.77 -1291.50 -948.44 -729.31 -546.62 -359.13 -226.97 -87.14 -7.05 61.42 98.01 125.80 144.00 157.13 170.34 192.56 222.26 240.93 243.16 247.18 264.23 320.42 498.37 1113.47 2027.46 2725.50 5009.88 6950.38 6578.49 4679.01 2647.67 1975.88 1193.83 436.98 383.88 280.01 238.68 206.87 62.90 -52.14 -308.73 -669.36 -1073.45 -1445.33 -1914.66 -2179.71 -2802.66 -3025.18 -3534.80 -3739.53 -3853.12 -3876.03 -3885.44 -3886.01 -3887.00 -3890.24 -3892.85 -3894.85 -3895.90 -3896.76 -3897.31 -3898.00 -3897.89 -3898.09 -3897.83 -3898.68 -3898.86 -3898.92
-5038.19 -5038.20 -5050.50 -5015.70 -5013.76 -5009.94 -4986.52 -4977.69 -4962.77 -4956.83 -4950.17 -4945.50 -4943.80 -4945.62 -4961.68 -4970.10 -4984.71 -4990.41 -4988.56 -4990.43 -4981.14 -4871.27 -4644.99 -3895.75 -3242.47 -2789.12 -2951.26 -3056.41 -3054.03 -3201.32 -3120.64 -2827.44 -2581.59 -2247.31 -1854.05 -1545.55 -1356.70 -1346.04 -1483.04 -1444.53 -1436.84 -1907.66 -1952.15 -2439.11 -2635.98 -2846.95 -3247.97 -3223.97 -3257.43 -3270.72 -3307.88 -3314.92 -3325.93 -3366.99 -3364.77 -3356.37 -3350.91 -3346.29 -3338.91 -3330.04 -3324.79 -3319.76 -3317.52 -3321.93 -3322.23 -3326.43 -3317.23 -3255.77 -3083.67 -2787.70 -2505.00 -2053.69 -1785.72 -1515.87 -1110.04 -920.49 -746.61 -521.15 -370.47 -239.88 -85.67 -27.49 54.66 106.37 117.69 156.97 186.94 189.91 206.37 261.23 260.78 269.19 266.92 298.26 350.66 554.05 1971.88 3098.26 3711.32 6406.88 7671.91 7882.77 5232.31 3310.28 2124.45 1582.53 928.82 373.89 311.17 252.05 218.21 133.81 -31.66 -239.76 -616.13 -894.05 -1331.90 -1630.34 -2281.44 -2549.40 -3224.82 -3480.60 -3739.58 -3854.20 -3879.09 -3881.99 -3882.97 -3886.36 -3888.85 -3892.08 -3893.94 -3894.59 -3895.20 -3896.17 -3895.76 -3895.38 -3896.28 -3896.74 -3896.67 -3897.52 -3897.59
-5156.57 -5167.85 -5169.57 -5147.82 -5122.34 -5071.80 -5059.84 -5013.98 -5027.54 -5026.77 -4981.53 -4988.80 -4984.44 -4978.22 -4998.83 -5019.40 -5048.17 -5042.14 -5052.83 -5032.71 -5011.15 -4779.96 -4110.65 -3284.77 -2320.44 -2226.29 -2170.86 -2589.72 -2661.30 -2876.38 -2723.88 -2169.43 -1695.16 -1498.92 -1259.43 -927.49 -878.55 -912.61 -955.84 -921.12 -974.79 -1068.60 -1329.55 -1615.44 -2056.33 -2339.59 -2745.60 -2994.59 -3051.32 -3030.41 -3077.30 -3141.64 -3260.79 -3306.32 -3350.86 -3348.62 -3345.69 -3339.50 -3333.92 -3327.92 -3322.60 -3315.82 -3311.68 -3309.91 -3312.29 -3313.16 -3298.33 -3217.32 -3014.85 -2647.94 -2228.41 -1985.44 -1869.06 -1776.36 -1177.24 -903.31 -619.56 -432.27 -330.29 -250.65 -145.56 -69.65 33.12 161.16 219.48 251.39 237.87 270.93 269.47 293.62 298.61 283.82 279.04 320.38 385.54 554.83 1119.91 2637.99 3456.68 5337.43 6554.06 7335.70 5883.40 4068.39 2307.63 1898.64 820.27 485.18 394.00 285.92 222.77 121.19 27.79 -159.64 -474.99 -903.38 -1004.61 -1707.08 -2441.03 -2796.68 -3230.46 -3536.18 -3702.24 -3859.72 -3880.98 -3880.26 -3879.90 -3883.35 -3887.45 -3891.41 -3893.35 -3892.91 -3893.54 -3893.53 -3893.62 -3894.41 -3894.79 -3895.53 -3895.65 -3896.04 -3895.91
-5358.67 -5334.65 -5296.46 -5283.36 -5234.93 -5219.24 -5191.22 -5151.46 -5085.14 -5099.34 -5074.96 -5056.46 -5056.06 -5086.69 -5156.29 -5133.19 -5174.76 -5145.25 -5127.31 -5098.54 -5041.75 -4771.86 -3779.61 -2469.18 -1680.00 -1513.66 -1744.32 -1935.01 -1915.65 -2207.35 -2297.80 -1779.81 -1179.01 -938.04 -816.30 -647.19 -443.60 -567.56 -519.24 -710.07 -450.94 -847.20 -1111.12 -1280.21 -1424.43 -1653.59 -2220.26 -2513.83 -2618.99 -2755.50 -2829.77 -2955.36 -2978.87 -3161.25 -3316.19 -3330.13 -3297.78 -3316.41 -3289.12 -3300.38 -3322.50 -3313.60 -3306.54 -3295.82 -3284.59 -3286.43 -3209.68 -3112.43 -2809.02 -2513.76 -2167.35 -1918.95 -1895.01 -1847.36 -1620.92 -1031.95 -617.56 -458.73 -391.71 -237.03 -66.04 70.29 160.24 279.36 287.78 296.38 310.83 296.99 299.31 306.89 315.78 316.52 324.16 347.47 403.22 495.13 659.93 1674.16 2016.35 2887.07 3834.80 6000.70 6136.59 4540.30 3959.08 2933.65 1206.36 661.76 506.65 355.69 229.11 191.88 136.36 23.99 -245.59 -523.66 -894.41 -1322.03 -2122.28 -2443.24 -3148.60 -3483.20 -3806.94 -3866.80 -3879.49 -3878.53 -3878.00 -3881.14 -3886.73 -3891.00 -3892.54 -3891.70 -3891.98 -3891.21 -3892.27 -3892.94 -3893.60 -3893.81 -3893.94 -3894.46 -3894.52
-5526.60 -5526.41 -5445.42 -5419.53 -5395.98 -5405.11 -5393.91 -5324.59 -5300.31 -5247.94 -5215.86 -5173.79 -5237.17 -5241.83 -5258.02 -5247.67 -5240.13 -5299.74 -5281.01 -5239.96 -5113.98 -4763.63 -3701.77 -2708.47 -1407.91 -1278.07 -1254.47 -1354.62 -1452.04 -1712.22 -1653.07 -1351.00 -1048.99 -736.28 -463.03 -76.97 -87.77 8.56 -87.44 -168.89 -35.52 -670.06 -797.24 -873.19 -951.05 -1059.52 -1394.46 -1762.43 -2116.86 -2019.94 -2071.75 -2242.33 -2414.95 -2633.13 -3039.12 -3109.59 -3234.50 -3178.39 -3070.43 -3192.68 -3289.99 -3315.94 -3269.53 -3237.05 -3171.56 -3034.67 -3047.69 -2649.44 -2419.38 -2160.91 -1854.92 -1819.34 -1891.59 -1496.29 -1129.24 -761.04 -376.10 -80.51 12.50 146.02 172.88 197.16 266.57 294.53 310.80 324.18 322.69 313.25 308.79 311.62 322.87 344.14 373.74 393.02 410.04 472.90 570.83 1299.05 1397.97 2156.22 3427.08 5746.39 6708.73 6372.49 4736.83 3040.04 1888.76 1364.37 836.96 352.89 263.33 220.13 157.62 78.26 -121.15 -365.27 -671.58 -1123.83 -1881.46 -2493.84 -2936.33 -3290.63 -3719.29 -3846.13 -3876.95 -3877.26 -3876.90 -3879.83 -3885.22 -3889.04 -3890.30 -3890.27 -3890.22 -3889.56 -3890.33 -3891.47 -3891.68 -3892.45 -3892.64 -3893.18 -3893.27
-5637.67 -5637.54 -5637.37 -5568.46 -5534.22 -5507.86 -5487.37 -5439.92 -5453.00 -5422.36 -5406.26 -5362.59 -5363.48 -5390.56 -5391.27 -5452.60 -5452.07 -5511.20 -5427.48 -5375.50 -5267.30 -4808.32 -3571.91 -2459.87 -1492.34 -1388.99 -1368.71 -1380.05 -1289.40 -1421.12 -1374.23 -1264.78 -895.77 -471.72 -110.69 141.47 257.04 344.57 175.83 114.60 192.35 100.47 -749.80 -864.51 -550.71 -707.06 -887.50 -1121.25 -1332.58 -1454.45 -1489.61 -1549.69 -1714.14 -1891.51 -2426.34 -2841.89 -2895.61 -2901.12 -2883.99 -2913.38 -3021.16 -2816.65 -3047.93 -3030.32 -2855.41 -2637.77 -2604.80 -2070.81 -2044.22 -1509.84 -1486.91 -1293.13 -848.08 -510.70 -210.50 66.47 251.97 264.66 264.73 273.79 258.69 280.41 285.53 293.27 304.37 315.45 303.41 300.39 308.56 322.31 339.98 382.44 409.35 409.55 465.54 504.92 524.28 685.60 1827.23 2731.30 4069.41 4831.83 6795.41 6827.12 5477.81 3583.92 2985.73 2275.64 1664.33 555.75 277.13 244.24 203.30 114.53 -6.26 -66.25 -445.58 -882.64 -1823.71 -2553.18 -3050.96 -3428.69 -3674.10 -3853.74 -3877.84 -3877.64 -3874.63 -3875.45 -3882.79 -3886.64 -3889.19 -3888.56 -3888.37 -3888.39 -3888.84 -3889.01 -3889.84 -3890.83 -3890.71 -3891.57 -3891.63
-5689.78 -5689.69 -5687.23 -5658.20 -5656.77 -5644.19 -5611.83 -5593.78 -5612.10 -5593.07 -5546.99 -5565.27 -5531.03 -5566.64 -5579.18 -5552.00 -5543.97 -5558.28 -5562.57 -5504.86 -5360.30 -5036.80 -3729.31 -2841.07 -1808.36 -1771.88 -1894.55 -1856.33 -1531.69 -1476.58 -1439.91 -1265.39 -999.87 -148.26 109.17 418.61 492.65 520.20 396.85 299.19 208.43 161.91 -253.61 -121.95 -25.90 -175.25 -501.24 -723.16 -745.52 -1133.14 -1126.67 -945.23 -922.70 -1620.36 -1737.06 -2058.07 -2248.67 -2364.16 -2264.30 -2294.74 -2023.99 -2312.63 -2179.18 -2447.60 -2232.99 -1830.62 -1471.88 -1397.59 -1188.09 -1107.38 -920.15 -696.17 -444.87 -230.73 224.28 268.90 286.72 319.25 314.90 294.81 284.19 282.41 280.53 278.62 276.59 283.54 283.86 293.55 302.22 325.57 349.50 388.21 414.19 458.34 484.83 509.60 529.61 592.10 1823.93 2293.83 2673.74 3633.28 5911.18 7011.03 6677.22 4801.96 3149.04 2225.95 2094.64 1250.93 304.67 245.36 227.54 88.69 -19.08 -30.45 -247.10 -543.21 -1261.04 -1944.58 -2494.79 -3310.44 -3671.17 -3832.28 -3851.25 -3875.19 -3872.61 -3873.33 -3879.44 -3886.55 -3886.56 -3886.94 -3886.65 -3886.68 -3886.80 -3887.00 -3887.71 -3888.23 -3888.95 -3889.96 -3890.02
-5703.32 -5702.25 -5699.61 -5691.52 -5686.22 -5677.16 -5670.80 -5681.02 -5666.74 -5666.09 -5652.56 -5656.19 -5661.81 -5656.77 -5646.19 -5647.73 -5638.92 -5639.77 -5634.10 -5578.94 -5457.63 -5284.55 -4432.66 -3346.75 -3266.09 -2774.40 -3050.17 -3169.69 -2480.68 -1990.13 -1744.79 -959.38 -540.53 26.69 165.61 370.74 575.95 661.93 694.38 617.33 418.19 267.75 179.40 153.07 238.11 224.78 43.17 -240.92 -397.15 -462.81 -380.84 -523.52 -784.44 -639.84 -1105.55 -1182.08 -1095.04 -1096.73 -1226.98 -1098.79 -1104.47 -1241.37 -1215.59 -1610.72 -1587.39 -1362.43 -1288.72 -1093.07 -1074.59 -1003.79 -724.90 -161.61 -30.12 185.75 334.25 405.71 349.92 357.20 337.87 311.82 288.40 283.31 274.47 265.54 263.23 271.70 276.74 289.16 300.59 332.05 359.26 393.81 409.43 464.71 495.79 511.15 526.28 599.71 930.59 1634.37 2142.40 3752.95 4916.90 5722.09 6617.13 5806.54 4520.82 2639.74 2586.21 2705.01 888.75 306.76 206.56 123.54 86.00 78.79 -43.90 -450.19 -775.68 -1514.11 -2342.26 -3096.83 -3569.45 -3825.49 -3861.14 -3875.43 -3872.52 -3872.57 -3874.96 -3881.20 -3884.85 -3885.19 -3885.27 -3885.11 -3884.95 -3884.85 -3885.62 -3885.60 -3886.51 -3888.22 -3888.28
-5701.86 -5701.48 -5698.95 -5694.12 -5692.28 -5688.42 -5689.13 -5693.84 -5699.72 -5693.12 -5679.72 -5686.21 -5682.06 -5676.61 -5664.70 -5658.88 -5648.92 -5648.27 -5643.24 -5631.05 -5587.35 -5455.47 -5025.26 -4660.18 -4513.08 -4784.93 -4639.79 -4097.76 -3174.75 -1742.75 -1327.14 -474.67 -306.99 -106.63 132.28 308.91 494.86 757.66 828.41 645.38 387.59 357.10 323.12 287.89 256.15 250.45 238.10 253.28 249.37 209.00 153.00 139.72 -438.67 -521.40 -624.31 -609.30 -494.48 -636.45 -613.67 -728.65 -762.81 -766.54 -917.67 -1054.45 -1227.75 -1169.61 -1101.58 -1022.56 -868.15 -731.02 -451.76 159.64 258.57 288.81 446.81 582.97 502.57 380.84 342.53 316.96 299.30 281.96 271.97 259.57 259.50 258.95 267.62 277.49 297.94 329.12 355.55 381.42 416.42 458.50 481.18 504.67 526.06 596.90 654.74 1334.97 2955.29 4117.81 3762.51 4029.63 5365.48 6639.25 5096.59 4457.81 3022.19 2586.16 1459.10 350.54 296.30 215.51 206.99 162.88 8.39 -292.09 -657.19 -1261.14 -1991.43 -2606.12 -3477.52 -3815.15 -3864.26 -3867.31 -3860.68 -3867.42 -3875.00 -3878.66 -3881.61 -3883.18 -3883.50 -3883.50 -3884.19 -3883.33 -3883.74 -3883.76 -3885.62 -3886.63 -3886.72
-5697.95 -5697.71 -5695.19 -5692.99 -5689.52 -5687.47 -5688.88 -5695.96 -5700.51 -5697.30 -5686.97 -5678.21 -5678.36 -5674.77 -5667.02 -5657.50 -5647.50 -5641.86 -5641.69 -5638.56 -5625.74 -5601.93 -5535.16 -5423.06 -5431.64 -5452.22 -5214.91 -4920.58 -4401.22 -1394.23 -488.96 -316.71 -44.66 93.71 225.23 269.66 407.51 512.03 720.56 649.06 701.94 577.06 590.37 423.01 361.48 431.93 339.63 289.62 270.04 262.31 263.45 244.04 210.44 -21.96 -36.07 43.71 2.82 -161.31 -362.97 -464.33 -479.01 -593.37 -690.45 -719.05 -891.84 -1028.48 -1021.49 -882.35 -592.44 -426.59 -128.77 227.20 298.60 354.07 465.92 649.47 616.93 410.76 359.47 327.59 307.94 289.05 272.58 257.78 252.26 253.83 264.80 278.12 297.88 314.72 349.54 380.40 411.72 435.82 477.42 505.63 527.65 577.99 624.48 637.47 2308.27 2592.80 1886.72 3087.62 4181.56 6111.51 6045.02 4572.36 2878.93 1815.31 1326.46 341.03 328.67 270.90 240.26 177.35 92.72 -127.55 -535.31 -1094.33 -1551.68 -2265.55 -3198.84 -3600.43 -3835.24 -3855.52 -3857.15 -3862.68 -3873.73 -3876.49 -3879.73 -3882.06 -3882.01 -3881.77 -3882.46 -3881.91 -3882.47 -3882.71 -3882.84 -3885.10 -3885.78
-5694.67 -5694.61 -5692.39 -5690.04 -5687.32 -5684.90 -5686.27 -5690.46 -5691.58 -5689.34 -5689.73 -5684.49 -5683.83 -5677.76 -5666.25 -5655.51 -5645.09 -5638.76 -5637.94 -5636.51 -5632.79 -5620.09 -5593.97 -5594.14 -5581.76 -5565.04 -5557.73 -5512.41 -5547.04 -2672.87 -413.27 -180.80 62.91 165.46 255.63 298.52 352.83 439.67 614.00 765.86 799.22 817.03 827.93 517.24 447.79 568.14 616.93 515.34 491.98 322.71 305.99 250.05 221.98 159.40 123.64 130.88 110.04 55.60 -57.85 -233.95 -273.79 -324.80 -437.58 -564.98 -735.60 -890.28 -927.48 -729.85 -178.01 42.30 184.30 278.33 420.92 488.68 570.37 624.04 636.53 456.96 351.96 321.90 304.49 277.39 268.62 261.64 256.69 250.78 254.06 262.68 273.61 308.58 340.40 371.13 397.32 430.80 462.52 488.35 531.47 566.86 597.52 626.40 977.44 1101.78 1342.72 2136.33 3915.15 5764.13 6675.60 3506.64 2497.54 2128.59 2662.02 1315.27 361.26 283.68 230.66 188.62 123.02 -39.30 -374.37 -916.56 -1339.36 -2092.40 -2750.20 -3492.38 -3802.79 -3859.71 -3861.34 -3865.55 -3869.52 -3873.14 -3877.17 -3879.59 -3880.16 -3879.98 -3880.55 -3880.44 -3880.59 -3880.72 -3881.35 -3883.52 -3883.59
-5696.11 -5695.31 -5693.37 -5691.66 -5691.06 -5686.50 -5687.34 -5690.80 -5690.28 -5686.01 -5686.30 -5676.75 -5668.54 -5665.30 -5662.87 -5655.56 -5645.42 -5639.46 -5636.55 -5635.46 -5633.01 -5630.17 -5619.87 -5608.61 -5597.49 -5597.96 -5623.12 -5760.36 -6011.34 -5494.10 -1729.83 -129.29 67.82 196.73 241.91 293.15 346.83 397.78 505.04 623.76 722.11 765.27 840.48 795.67 922.57 927.99 1048.89 834.09 745.52 403.79 330.56 320.95 258.49 223.93 218.26 196.37 197.51 143.08 97.64 15.56 -103.71 -130.09 -182.99 -398.03 -346.49 -589.41 -429.98 -226.35 -17.59 172.28 279.73 393.48 454.95 528.67 542.14 507.72 520.12 453.67 377.31 318.22 292.73 277.12 267.12 258.31 252.75 246.01 249.66 254.39 261.81 304.17 349.40 368.79 391.64 412.66 421.72 480.33 512.95 533.59 557.65 598.10 586.08 781.24 1690.46 2575.72 3093.97 6093.60 6492.06 6386.76 5377.35 2687.56 3000.78 1300.54 421.35 287.44 242.92 230.04 165.23 31.85 -199.51 -426.88 -1000.11 -1649.17 -2586.06 -3495.40 -3794.92 -3835.33 -3850.09 -3864.07 -3866.75 -3868.32 -3875.26 -3878.01 -3878.47 -3878.47 -3878.28 -3878.30 -3878.96 -3879.56 -3879.75 -3880.18 -3880.08
-5702.71 -5702.64 -5700.45 -5697.08 -5694.70 -5692.62 -5691.56 -5687.78 -5682.83 -5674.85 -5676.64 -5671.37 -5662.29 -5658.22 -5659.26 -5650.36 -5646.27 -5642.42 -5638.22 -5635.75 -5631.37 -5625.21 -5614.42 -5606.11 -5593.61 -5595.88 -5714.43 -5901.40 -5853.81 -5319.76 -864.79 -122.99 106.19 213.82 242.40 306.97 369.90 429.74 441.57 485.13 566.99 605.43 660.80 861.35 1000.93 1120.52 1212.33 953.56 645.20 531.44 519.70 433.90 376.97 304.33 262.02 238.69 233.55 233.86 201.86 159.38 131.59 134.77 -23.22 -84.32 29.09 -6.20 -27.48 139.36 243.52 299.96 312.14 360.90 401.13 454.34 442.04 443.79 457.16 431.49 351.14 302.38 289.30 273.60 259.59 254.07 255.87 253.09 249.03 249.59 252.85 273.67 335.38 363.74 374.29 383.41 424.38 462.79 487.93 506.69 525.95 549.71 571.31 684.42 1702.77 2243.04 2660.12 4415.46 5806.38 6768.83 5913.56 4328.02 1901.47 1078.89 411.38 321.62 244.83 229.00 181.80 73.41 -43.99 -376.25 -747.49 -1619.23 -2405.24 -3430.73 -3823.80 -3835.42 -3836.11 -3860.12 -3863.69 -3867.82 -3873.11 -3877.57 -3877.57 -3877.58 -3877.04 -3877.37 -3877.33 -3877.82 -3877.96 -3878.40 -3878.46
-5705.10 -5705.03 -5702.58 -5701.10 -5700.66 -5698.64 -5693.90 -5681.95 -5665.88 -5663.57 -5657.15 -5654.64 -5652.47 -5650.41 -5651.40 -5649.52 -5645.45 -5642.28 -5638.10 -5635.03 -5628.51 -5620.72 -5610.16 -5597.94 -5591.25 -5613.58 -5808.59 -6040.60 -5838.83 -5045.37 -1369.00 -29.04 214.99 236.99 258.29 291.63 422.26 612.89 586.66 538.73 649.38 663.67 744.50 868.48 978.27 1137.52 1335.99 1074.34 860.37 811.28 730.80 579.79 423.66 342.18 267.31 254.87 252.80 252.87 246.24 255.08 268.11 251.45 255.36 205.98 203.95 291.60 296.66 307.59 354.55 404.39 369.40 371.31 326.11 307.02 315.16 345.59 452.99 444.62 375.68 293.27 280.27 257.61 242.80 241.88 240.88 249.80 252.93 251.42 253.39 267.08 325.78 357.43 371.07 387.97 411.47 448.17 468.71 482.96 499.25 500.12 506.28 531.77 994.38 1634.45 2530.16 3204.91 4452.04 5936.57 5932.93 4693.66 2069.54 1083.06 583.51 333.62 257.95 232.26 169.14 106.00 -59.87 -377.18 -822.12 -1974.40 -2427.46 -3618.52 -3824.16 -3842.22 -3845.34 -3855.68 -3858.57 -3865.10 -3873.10 -3875.86 -3875.96 -3876.21 -3876.45 -3876.08 -3876.51 -3876.83 -3877.27 -3877.66 -3877.73
-5699.25 -5699.19 -5696.73 -5697.37 -5698.49 -5697.60 -5690.83 -5681.71 -5661.22 -5652.79 -5647.58 -5646.05 -5643.52 -5643.68 -5646.75 -5648.67 -5646.06 -5642.53 -5637.79 -5632.60 -5629.44 -5621.47 -5611.29 -5596.35 -5591.49 -5640.51 -5821.43 -5608.94 -5123.64 -739.43 -65.63 146.59 223.98 252.88 266.34 388.76 504.41 651.98 637.69 561.90 615.23 791.59 968.05 1098.69 1245.46 1306.42 1443.05 1290.54 1188.33 1014.02 688.42 588.26 435.04 393.41 306.20 298.81 262.91 257.86 270.84 301.69 305.22 294.75 268.63 281.74 310.07 353.39 366.01 435.99 444.70 360.93 339.80 299.03 281.17 281.23 307.44 347.88 431.70 410.58 338.68 270.11 264.43 244.86 237.46 238.69 237.83 243.38 252.54 252.86 248.27 251.06 299.69 334.67 347.06 377.97 397.80 428.69 445.82 464.51 478.19 477.62 479.37 534.21 795.11 1390.85 1570.29 1973.29 3289.18 4766.13 5024.71 3298.73 1863.52 1536.42 1404.81 310.75 264.94 235.42 197.34 80.69 -130.67 -403.90 -1004.59 -1998.28 -3230.25 -3798.29 -3833.79 -3849.74 -3849.76 -3852.00 -3857.02 -3863.34 -3871.06 -3874.42 -3874.94 -3875.37 -3875.51 -3875.43 -3875.56 -3876.24 -3876.70 -3877.44 -3877.51
-5689.15 -5689.99 -5690.17 -5690.11 -5690.18 -5690.05 -5685.21 -5672.91 -5658.56 -5648.85 -5643.50 -5641.14 -5640.04 -5641.13 -5646.42 -5648.08 -5645.49 -5642.60 -5638.47 -5634.93 -5631.42 -5627.68 -5624.63 -5598.15 -5590.27 -5680.14 -5720.15 -3803.55 -1461.19 -147.90 66.76 154.50 244.60 269.59 299.68 367.46 424.85 555.72 648.51 768.20 609.67 773.05 940.12 1005.97 1170.94 1358.25 1523.65 1466.22 1141.33 893.49 704.96 520.39 421.44 358.44 364.71 348.22 294.06 283.12 313.31 318.97 307.55 349.30 382.43 363.28 421.58 472.11 426.26 402.92 359.33 325.69 274.09 249.23 259.80 255.85 272.88 306.44 357.31 349.60 282.78 251.73 239.10 247.49 243.07 242.13 240.58 241.42 247.44 256.35 253.46 256.38 283.89 307.56 321.79 356.95 379.02 405.99 433.42 448.01 466.21 474.21 480.24 495.33 571.95 933.80 1123.45 2309.85 3340.02 5883.54 5191.82 3279.66 2949.70 2704.95 1817.76 330.59 267.08 241.27 217.71 154.63 -55.92 -369.07 -1300.06 -3264.86 -3281.49 -3814.90 -3840.22 -3841.66 -3844.31 -3849.16 -3852.55 -3861.52 -3867.96 -3871.93 -3874.20 -3874.53 -3874.68 -3874.81 -3874.82 -3875.21 -3876.10 -3876.70 -3876.78
-5677.30 -5677.24 -5676.88 -5679.58 -5681.04 -5680.32 -5670.97 -5666.21 -5651.99 -5641.55 -5638.58 -5638.05 -5637.32 -5639.32 -5646.52 -5646.97 -5646.49 -5644.43 -5641.49 -5637.94 -5638.61 -5645.24 -5644.95 -5601.60 -5529.38 -5595.86 -5499.83 -3413.38 -885.67 -112.68 42.22 201.04 270.84 307.51 311.04 404.05 463.32 564.65 669.06 829.96 736.24 701.55 760.43 939.46 1149.88 1323.24 1498.86 1418.05 1290.75 1113.34 734.40 659.61 514.38 386.04 444.74 429.62 417.21 378.43 351.02 359.66 384.07 532.34 577.76 530.08 517.52 424.87 359.29 278.67 268.37 256.60 236.01 219.53 238.31 247.72 249.71 250.11 278.73 277.72 263.30 249.54 246.48 239.95 244.82 243.11 242.95 240.40 245.69 254.61 271.40 274.99 281.02 306.62 327.87 353.03 369.47 391.64 421.38 444.38 462.24 468.36 479.18 498.39 517.67 1063.84 2018.80 2451.94 4227.10 6116.03 5247.20 3927.80 3664.08 3026.88 1802.46 507.35 286.28 249.18 230.75 184.32 -65.07 -230.87 -1112.54 -2485.71 -3637.33 -3809.96 -3837.59 -3842.35 -3843.48 -3846.98 -3850.48 -3857.59 -3866.39 -3870.09 -3873.03 -3874.24 -3874.38 -3874.23 -3874.29 -3874.61 -3874.70 -3875.44 -3875.51
-5662.51 -5662.45 -5659.91 -5665.03 -5665.65 -5668.46 -5662.83 -5658.39 -5648.49 -5636.55 -5635.53 -5635.81 -5636.30 -5638.31 -5645.70 -5649.70 -5649.06 -5648.74 -5647.62 -5646.88 -5655.11 -5671.64 -5542.37 -5593.14 -5242.34 -4722.95 -4131.44 -2840.80 -799.11 3.47 93.52 231.37 285.74 318.35 335.66 389.88 583.78 572.70 571.60 752.66 839.77 933.82 770.02 919.73 1065.86 1107.29 1362.26 1467.07 1233.12 1027.69 814.25 573.56 511.50 428.52 503.49 520.77 478.65 402.68 403.32 432.96 511.07 582.86 602.18 558.51 431.07 359.68 328.16 274.92 262.88 239.51 225.24 215.77 220.98 239.25 240.57 239.84 238.38 250.10 245.27 232.37 241.94 245.06 244.93 237.70 240.13 245.52 247.27 262.61 264.33 255.66 266.97 302.87 322.53 351.18 365.76 382.86 408.65 430.82 449.71 456.10 465.82 492.22 512.90 818.82 1642.19 2010.18 3896.97 6354.41 8035.75 7272.72 3264.19 2049.57 1204.54 895.38 278.89 253.76 229.07 186.95 137.17 -121.50 -623.69 -2062.58 -2977.74 -3647.24 -3812.12 -3836.53 -3845.17 -3848.21 -3850.58 -3856.84 -3864.56 -3867.25 -3872.00 -3873.19 -3873.68 -3873.43 -3873.52 -3873.45 -3873.47 -3873.65 -3873.72
-5645.27 -5645.21 -5646.86 -5648.78 -5650.59 -5652.49 -5653.54 -5646.89 -5637.96 -5634.77 -5633.53 -5635.75 -5637.76 -5640.86 -5649.28 -5652.58 -5654.26 -5652.79 -5647.78 -5636.86 -5651.27 -5563.79 -5190.67 -4909.67 -4218.75 -4081.09 -2623.53 -1622.64 -1.28 174.19 221.82 252.18 284.04 354.82 420.01 410.91 479.14 614.36 698.97 956.01 1134.26 1005.21 814.03 942.26 956.83 1165.67 1405.29 1431.32 1252.89 933.10 808.01 704.85 615.14 489.72 562.06 524.87 480.21 462.91 449.58 606.18 665.82 636.81 524.31 440.08 384.47 336.40 317.30 274.40 254.73 238.04 220.42 219.81 221.51 229.73 236.73 232.32 230.63 236.39 234.28 230.26 232.87 235.34 242.10 234.42 237.95 240.56 241.30 248.56 239.10 239.61 257.70 289.49 314.02 342.64 361.22 372.45 387.33 411.19 423.23 435.95 443.62 449.76 476.98 588.31 1456.34 2017.31 2888.53 4200.75 7232.40 6784.67 3942.48 2273.16 1551.37 946.05 279.52 253.89 227.59 160.57 100.77 -135.26 -537.74 -1686.81 -2581.83 -3365.60 -3701.03 -3821.90 -3846.24 -3849.45 -3852.43 -3856.05 -3861.18 -3863.62 -3867.46 -3871.44 -3872.65 -3872.68 -3872.56 -3872.62 -3872.68 -3872.91 -3872.98
-5630.45 -5631.68 -5632.14 -5637.89 -5638.69 -5639.85 -5638.52 -5638.10 -5634.35 -5631.23 -5631.57 -5635.78 -5639.98 -5644.30 -5651.89 -5651.46 -5651.66 -5649.71 -5645.76 -5539.94 -5475.43 -5243.85 -3843.40 -2810.69 -2619.96 -2352.38 -1877.64 -600.53 4.22 224.58 243.64 279.86 323.86 455.61 525.30 573.60 542.54 564.20 823.35 924.25 1169.62 1246.42 1145.86 1168.82 1231.86 1295.72 1331.08 1309.38 1256.20 1044.84 840.23 826.39 683.52 563.85 566.08 539.87 471.10 487.66 556.90 731.85 756.85 632.83 488.18 421.81 367.70 327.42 313.54 286.74 253.06 242.82 222.83 218.88 217.32 226.64 231.37 227.35 224.14 228.35 227.12 226.10 228.21 228.82 239.36 238.33 240.93 240.73 238.92 248.67 240.63 232.36 259.77 279.76 297.30 323.48 353.30 372.98 385.55 402.52 413.38 420.66 428.79 434.87 438.15 586.89 1067.30 1342.09 2516.51 4522.28 6563.29 6002.67 3580.58 2137.13 1877.04 811.45 348.85 246.58 223.61 148.69 69.22 -168.27 -551.86 -1372.13 -2525.56 -2709.79 -3527.51 -3811.97 -3834.29 -3845.37 -3854.27 -3856.25 -3855.60 -3858.38 -3863.41 -3867.48 -3870.99 -3871.68 -3871.96 -3872.15 -3872.23 -3872.47 -3872.54
-5620.08 -5620.01 -5621.38 -5623.92 -5623.53 -5630.32 -5630.76 -5629.03 -5625.97 -5626.43 -5629.82 -5635.05 -5639.75 -5645.73 -5649.57 -5635.25 -5631.51 -5609.71 -5378.42 -5254.45 -4802.37 -4349.00 -3182.85 -1316.85 -1169.44 -1127.57 -1416.35 -790.88 99.86 249.40 284.64 335.09 351.84 498.39 710.53 701.94 680.12 544.82 596.73 805.39 1036.60 1225.20 1285.57 1230.36 1228.15 1166.41 1160.18 1131.30 979.80 1011.49 911.72 810.26 687.66 612.25 572.27 542.44 536.86 545.09 661.30 711.93 600.86 511.90 461.15 425.17 382.07 329.16 311.37 285.30 258.02 237.81 230.18 222.26 219.38 225.28 229.77 227.57 223.31 226.10 227.79 227.75 227.86 232.60 242.97 241.43 240.92 241.10 240.23 243.50 253.82 246.52 260.55 280.61 293.72 318.75 336.25 359.89 381.22 398.64 414.37 425.26 431.07 432.08 435.44 561.10 1303.39 1721.37 2635.04 4579.99 6023.93 5752.65 3816.78 1255.87 1173.23 539.24 348.57 261.91 217.92 123.62 -28.94 -331.76 -820.08 -942.70 -1549.73 -2374.16 -2796.58 -3673.90 -3821.25 -3833.15 -3847.10 -3853.76 -3854.75 -3857.16 -3863.06 -3866.68 -3870.71 -3871.30 -3871.49 -3871.63 -3871.72 -3871.82 -3871.89
-5612.96 -5612.89 -5613.45 -5616.45 -5618.37 -5620.94 -5621.91 -5623.49 -5622.05 -5624.92 -5628.86 -5632.68 -5640.08 -5637.42 -5618.76 -5587.54 -5433.98 -5263.98 -4795.81 -4054.51 -3378.31 -3185.93 -2351.28 -1110.16 -782.36 -534.50 -384.97 -126.70 249.23 272.23 390.94 438.46 413.72 530.20 784.46 867.67 850.67 580.05 584.86 701.80 1075.21 1215.25 1290.93 1197.92 1060.39 1035.98 1026.82 959.67 884.99 893.23 874.72 788.41 662.78 619.19 613.60 612.09 586.99 595.39 706.41 658.15 579.92 491.86 429.58 424.93 398.63 330.19 307.36 268.68 250.93 238.09 230.57 226.65 221.13 223.40 229.16 228.82 226.42 228.00 231.01 230.74 231.52 228.86 237.64 241.59 237.51 239.40 241.28 235.80 249.30 250.03 256.71 276.18 279.91 289.76 313.02 353.94 382.22 388.49 408.85 420.49 425.59 430.24 436.33 547.14 1420.28 1214.33 1820.29 3148.73 5639.34 6458.21 3421.60 1566.12 1548.56 1131.68 306.07 257.89 220.77 141.12 -102.33 -360.86 -927.84 -1218.13 -1584.04 -2137.94 -2673.38 -3370.60 -3733.12 -3815.16 -3849.26 -3853.18 -3854.56 -3855.33 -3861.71 -3868.30 -3870.59 -3870.89 -3871.01 -3871.26 -3871.12 -3870.81 -3870.88
-5609.35 -5609.52 -5610.54 -5612.53 -5615.79 -5617.94 -5621.15 -5622.52 -5621.00 -5625.04 -5629.42 -5629.11 -5613.97 -5580.84 -5536.16 -5243.71 -4880.83 -4063.56 -3409.56 -2886.12 -2724.93 -1623.03 -1413.94 -912.65 -388.64 -58.56 140.59 186.19 281.08 453.21 558.27 554.42 455.81 480.14 620.20 882.14 882.72 793.08 633.25 873.42 972.29 1164.48 1236.16 1192.11 1106.35 986.60 949.99 889.34 834.70 825.12 761.91 728.31 687.75 628.21 620.84 620.40 637.49 661.24 641.13 564.24 525.72 512.65 443.46 414.14 391.36 335.47 291.17 266.66 252.53 248.03 234.99 224.98 223.65 230.07 229.02 228.12 227.71 228.51 229.27 229.22 231.02 233.14 242.16 242.64 234.45 236.16 236.69 236.64 248.03 254.23 256.67 267.81 274.31 282.30 298.44 345.14 363.18 375.84 397.86 411.19 423.43 432.02 449.87 511.03 918.07 1708.81 2574.40 4005.93 5658.76 6315.59 4524.59 2990.57 1965.27 1387.71 321.82 253.39 218.63 152.42 -121.26 -513.07 -961.55 -1492.45 -1727.85 -2269.91 -2810.24 -3278.22 -3573.40 -3811.04 -3847.93 -3850.42 -3852.40 -3855.02 -3861.86 -3867.76 -3870.09 -3870.60 -3870.58 -3870.53 -3870.25 -3869.55 -3869.63
-5612.67 -5612.60 -5614.78 -5615.26 -5617.16 -5620.75 -5625.18 -5629.81 -5641.20 -5641.49 -5636.63 -5597.17 -5545.48 -5320.03 -4841.53 -4300.61 -3504.55 -3016.47 -2331.27 -1743.89 -1306.26 -1112.96 -844.07 -569.40 -116.19 70.25 213.95 297.37 371.38 591.25 672.91 683.95 536.36 581.75 689.54 791.37 939.28 990.34 832.70 968.10 1170.99 1217.13 1183.38 1089.29 1003.15 1004.00 984.14 882.27 813.68 788.12 724.15 721.22 699.23 661.48 646.39 644.76 666.67 732.78 716.94 645.31 572.94 603.87 455.77 399.58 369.67 333.45 284.34 257.69 255.06 249.09 241.86 233.02 231.05 227.86 226.32 228.03 228.05 228.23 229.20 229.70 231.39 236.73 240.13 235.69 233.16 233.89 233.98 233.34 234.45 241.75 242.02 252.75 258.15 262.79 294.21 327.52 346.78 364.97 400.74 412.80 420.22 436.98 459.03 473.80 715.88 1417.59 2682.66 4789.44 6182.20 5359.52 3475.75 2842.10 1937.32 1303.98 316.45 261.98 224.91 94.37 -136.90 -555.82 -841.50 -1517.97 -1991.72 -2364.44 -2975.66 -3347.21 -3667.59 -3810.66 -3849.28 -3851.19 -3852.05 -3853.73 -3862.50 -3867.27 -3869.73 -3870.19 -3870.32 -3870.29 -3870.30 -3868.58 -3868.38
-5625.88 -5625.80 -5628.02 -5627.75 -5628.13 -5633.31 -5645.93 -5656.63 -5664.60 -5671.18 -5637.99 -5532.25 -5108.33 -4912.71 -4317.51 -3512.49 -2904.46 -2078.28 -1595.12 -1380.68 -1081.61 -960.42 -812.91 -781.85 -278.42 167.60 240.14 310.69 356.55 499.27 670.50 790.70 602.27 581.97 796.07 747.02 940.47 1091.34 1049.64 978.55 1074.58 1217.64 1168.13 1069.14 966.68 898.12 839.07 819.64 764.86 737.02 724.04 720.42 716.34 693.33 684.11 693.90 703.83 748.85 726.50 629.76 646.19 729.66 526.11 421.69 390.52 336.57 294.53 269.16 257.67 252.41 243.37 232.04 225.72 222.24 224.75 228.03 227.94 228.39 229.15 230.06 231.35 231.60 231.21 231.24 233.02 233.70 233.79 233.91 232.64 231.78 231.65 231.40 233.80 239.47 295.93 311.07 326.03 348.45 376.52 395.48 420.80 438.67 453.39 559.64 1618.96 2603.93 2707.80 4680.88 6112.27 5778.97 3842.12 2889.08 1367.91 625.04 342.49 255.72 224.57 141.24 -48.19 -420.36 -687.65 -1313.82 -1586.16 -2292.90 -2909.98 -3468.13 -3769.35 -3827.37 -3848.35 -3850.56 -3850.85 -3853.55 -3859.32 -3866.66 -3869.23 -3869.82 -3869.90 -3869.90 -3868.87 -3867.13 -3867.20
-5650.97 -5650.88 -5650.31 -5653.63 -5668.03 -5678.01 -5690.53 -5707.06 -5716.56 -5772.20 -5699.01 -5420.03 -4766.92 -3984.72 -3100.34 -2820.55 -2422.70 -2071.59 -1568.26 -1301.79 -1049.21 -877.17 -847.44 -786.28 -413.95 90.70 248.03 342.70 369.02 487.30 670.81 804.53 766.83 712.56 623.44 763.08 986.87 1137.36 1200.64 1177.80 1159.65 1216.62 1179.01 1103.75 984.62 920.26 819.72 777.09 744.59 719.14 709.78 707.40 704.17 701.32 708.33 728.77 736.65 763.01 741.21 644.39 691.57 793.81 648.36 471.78 422.27 332.56 273.10 259.55 256.41 253.63 241.49 233.25 225.90 224.60 225.82 227.23 227.05 228.20 228.71 229.41 231.63 232.58 231.60 231.19 233.67 233.58 234.05 233.49 234.44 235.22 235.51 236.48 236.84 241.24 273.35 291.58 307.63 314.44 338.80 356.95 389.29 412.33 411.69 698.10 1944.69 2613.54 3887.69 4766.30 5953.04 4990.70 3862.55 2623.94 1674.90 680.46 328.45 260.50 245.26 149.69 47.20 -187.92 -523.67 -1123.56 -1421.43 -2241.77 -2827.35 -3408.44 -3702.67 -3822.29 -3844.13 -3848.14 -3848.76 -3851.29 -3860.22 -3865.94 -3868.71 -3869.25 -3869.37 -3869.17 -3867.97 -3866.08 -3866.16
-5705.80 -5704.49 -5707.67 -5713.70 -5731.02 -5743.15 -5835.86 -5851.68 -5857.39 -5904.71 -5700.85 -5379.83 -4371.12 -3594.73 -3008.26 -2721.14 -2527.76 -2234.86 -1793.53 -1298.54 -1085.10 -922.64 -857.62 -738.38 -309.59 68.27 301.04 457.29 575.29 468.65 522.28 662.01 850.66 882.25 775.33 750.83 950.16 1047.98 1208.59 1198.44 1188.13 1171.00 1113.30 1005.79 923.05 857.96 807.72 758.75 741.75 700.10 697.26 690.16 684.80 709.50 740.79 794.06 840.38 849.43 807.38 670.23 744.29 996.83 719.57 651.71 562.45 418.29 292.47 261.70 257.68 255.32 244.17 233.59 226.26 225.30 227.16 226.96 226.78 227.58 228.00 228.24 231.83 233.34 232.89 232.23 233.51 233.29 233.57 233.36 234.33 235.82 236.46 237.57 237.97 240.74 276.28 289.56 299.09 307.19 310.82 310.10 337.38 347.17 349.37 796.52 1333.40 2118.60 3806.52 5127.55 5899.15 4438.95 2377.73 2431.72 1192.35 416.12 336.56 282.17 218.08 172.42 17.07 -84.75 -389.49 -663.27 -1245.31 -2140.54 -2778.63 -3481.04 -3801.60 -3835.39 -3842.36 -3842.63 -3848.94 -3853.15 -3861.46 -3866.51 -3868.28 -3868.47 -3868.95 -3868.47 -3866.73 -3865.19 -3865.27
-5839.96 -5839.77 -5844.69 -5839.98 -5844.14 -5866.01 -5897.57 -5898.08 -5913.57 -5667.56 -5328.77 -4864.45 -4242.21 -3438.42 -3126.79 -2902.45 -2804.98 -2570.13 -1930.29 -1320.68 -1116.10 -994.50 -895.91 -706.15 -329.07 -27.68 235.23 412.59 699.55 641.82 596.40 608.19 745.20 927.19 942.49 864.33 865.27 885.85 1028.72 1164.56 1150.89 988.69 953.00 1015.69 975.58 880.81 804.85 751.66 732.24 710.97 692.43 671.26 678.19 693.71 768.91 806.32 909.37 978.00 941.76 827.16 818.73 1025.66 975.41 889.37 714.80 601.65 390.97 261.65 259.83 256.21 252.53 243.90 225.61 225.13 224.94 224.92 224.39 225.35 226.06 228.57 231.43 232.86 233.11 233.10 233.00 233.00 233.54 234.16 233.09 233.78 235.43 238.16 238.68 246.30 275.76 295.06 299.18 301.86 306.82 336.73 338.32 346.04 545.43 884.78 1458.03 1918.02 2826.58 4773.67 5528.11 3925.43 1970.29 1259.06 923.62 368.86 299.96 269.84 207.63 162.52 39.68 -91.84 -266.77 -590.78 -1550.00 -2274.26 -2627.62 -3425.16 -3644.63 -3817.78 -3842.43 -3843.54 -3850.37 -3855.57 -3863.25 -3866.96 -3867.77 -3867.95 -3868.01 -3867.64 -3865.58 -3864.36 -3864.44
-6057.75 -6051.53 -5966.66 -5852.38 -5841.33 -5848.25 -5766.15 -5497.08 -5341.47 -5041.49 -4555.36 -3991.72 -3915.93 -3573.16 -3526.72 -3225.31 -3138.37 -2891.97 -2269.67 -1473.01 -1037.84 -883.55 -761.41 -537.47 -230.36 94.21 294.55 398.88 695.24 710.23 739.48 686.32 752.32 807.65 911.26 982.91 1078.25 1056.47 1096.78 1170.40 1122.66 997.29 961.32 894.90 848.67 837.94 749.89 728.50 723.58 683.18 672.82 657.55 661.87 685.52 766.68 776.08 893.55 985.79 1056.41 985.01 927.47 1076.56 1142.03 925.61 812.28 658.71 530.73 310.76 295.75 257.00 254.32 248.93 230.23 229.08 227.28 231.20 224.53 225.80 225.17 229.90 232.34 232.75 233.01 233.09 233.00 232.51 232.53 232.74 232.68 233.67 234.88 237.31 238.76 245.25 258.05 280.25 298.87 305.39 319.87 336.46 340.38 473.27 752.98 1854.08 2234.14 3268.64 4317.71 5353.88 5912.69 3986.27 2233.77 1592.99 920.77 336.64 279.58 244.20 211.30 147.21 52.56 -37.47 -243.52 -720.33 -1339.17 -1967.15 -2698.02 -3426.71 -3751.84 -3827.03 -3840.57 -3844.53 -3850.27 -3858.11 -3863.79 -3866.13 -3866.98 -3867.20 -3867.20 -3866.66 -3865.29 -3863.57 -3863.65
-5897.01 -5897.14 -5552.94 -5461.87 -5360.49 -5085.31 -4920.02 -4597.52 -4302.57 -4097.83 -4076.65 -3880.74 -3801.25 -3825.11 -3827.38 -3734.34 -3526.95 -3052.55 -2411.70 -1692.55 -814.77 -589.20 -571.01 -402.95 35.57 254.70 292.06 390.07 598.91 586.26 598.91 635.29 784.49 924.09 1000.78 1074.55 1198.62 1213.54 1197.72 1207.82 1192.51 1108.01 1074.15 978.42 859.96 743.57 722.39 699.38 671.97 654.73 648.16 641.89 640.49 656.63 706.96 744.56 799.05 884.06 1008.01 1074.13 1093.82 1192.87 1142.34 874.86 645.40 487.40 469.72 381.48 318.59 278.32 257.49 250.37 242.16 242.86 228.91 229.97 229.39 229.23 229.39 231.46 232.79 233.22 233.39 233.17 233.10 232.66 230.71 232.36 233.35 234.17 235.62 236.76 239.56 242.87 246.60 264.99 300.90 310.70 323.22 334.01 366.49 586.35 1490.39 2254.46 2483.21 4253.10 5188.27 6023.63 5344.48 3972.14 2613.13 1791.09 641.31 323.50 281.14 241.50 230.07 202.19 144.09 -2.19 -269.85 -677.94 -1236.23 -2023.54 -2655.12 -3265.69 -3711.82 -3829.70 -3843.27 -3845.58 -3847.51 -3855.73 -3862.09 -3865.50 -3866.67 -3866.17 -3866.10 -3866.12 -3864.04 -3862.82 -3862.90
-4797.23 -4798.74 -4739.35 -4490.91 -4522.40 -4121.17 -4084.48 -3946.26 -3920.56 -3885.24 -3901.31 -3906.45 -3957.77 -3977.75 -3956.25 -3950.22 -3777.73 -3404.09 -2629.31 -2048.25 -892.06 -500.73 -387.12 -135.51 201.51 277.31 306.70 395.92 431.04 452.62 490.56 621.72 752.69 808.61 961.44 1110.39 1226.20 1255.74 1123.70 1103.10 1198.88 1189.08 1052.39 919.23 789.64 709.93 695.24 676.54 655.67 633.12 631.01 617.48 621.77 628.49 652.95 767.08 796.28 955.44 1033.08 1139.55 1173.81 1086.03 947.99 680.79 584.80 615.85 609.20 491.51 354.01 310.99 259.76 254.01 242.93 235.46 237.45 230.90 229.27 229.36 230.56 231.56 233.16 234.24 233.93 233.78 233.31 231.04 230.61 232.68 233.16 234.76 236.88 238.40 240.95 243.81 248.37 256.06 295.68 321.05 330.63 334.62 534.00 1220.34 1984.46 2137.13 3179.88 4896.38 5425.30 4413.31 4246.16 2464.89 2009.54 1347.44 535.20 293.86 263.69 244.01 235.13 210.44 164.56 -40.28 -264.43 -677.04 -1258.91 -2133.70 -2928.18 -3506.86 -3820.87 -3838.65 -3841.10 -3842.69 -3846.59 -3850.22 -3860.63 -3864.08 -3865.25 -3865.55 -3865.53 -3865.20 -3863.63 -3862.11 -3862.20
-3946.71 -3948.15 -3989.42 -4040.85 -3950.82 -3900.37 -3872.12 -3877.36 -3914.96 -3955.03 -3964.47 -4000.51 -4023.77 -4047.42 -4054.28 -4051.44 -3985.59 -3700.73 -3283.24 -2403.47 -1227.60 -593.37 -99.45 97.57 251.61 297.40 299.01 353.58 368.81 518.38 616.30 757.43 932.88 1049.16 1105.19 1179.13 1214.13 1238.38 1146.83 935.48 1112.32 1152.75 1016.02 844.58 793.68 678.91 660.93 647.85 627.14 607.98 608.59 597.79 596.22 618.64 623.54 710.57 816.37 885.17 1021.59 1102.81 1162.61 1010.43 894.25 743.54 921.18 886.43 689.49 500.88 393.71 345.72 308.68 259.88 246.11 234.71 242.43 234.13 231.61 231.99 231.74 232.86 234.71 234.75 233.69 233.09 231.11 230.22 230.42 231.55 233.02 234.43 238.85 240.30 242.30 246.27 248.89 249.85 295.39 310.19 326.18 468.84 761.24 1400.34 2351.32 2613.65 4531.59 5346.80 4467.60 2963.78 3266.89 1825.53 1504.34 696.34 337.51 292.98 254.01 249.75 235.36 197.58 132.21 17.85 -204.11 -699.83 -1288.07 -2488.45 -2999.65 -3699.39 -3829.95 -3837.95 -3839.97 -3837.90 -3839.33 -3851.45 -3862.31 -3864.83 -3864.94 -3864.84 -3864.89 -3864.71 -3863.14 -3861.42 -3861.51
-3916.30 -3916.19 -3926.54 -3918.29 -3935.83 -3947.20 -3957.46 -3979.60 -3999.93 -4014.24 -4033.33 -4045.36 -4062.63 -4070.72 -4085.67 -4084.48 -4006.20 -3814.41 -3476.44 -2319.14 -2027.41 -1122.28 -128.72 130.65 241.57 289.16 300.54 338.55 397.99 497.27 694.45 784.14 907.98 1003.11 1167.49 1108.72 1074.70 1184.55 1096.00 939.84 1024.02 1068.57 961.91 791.04 736.37 628.00 628.65 620.87 604.75 598.54 583.49 568.21 577.76 612.04 601.90 626.51 652.12 728.92 885.11 1054.41 1172.86 1023.02 902.35 944.14 1162.31 1014.24 705.79 697.41 586.92 408.14 332.85 305.13 283.19 252.02 249.38 239.91 235.27 232.12 230.96 232.93 233.77 233.61 231.56 231.19 230.63 230.45 229.86 231.53 232.83 235.98 238.22 241.26 243.08 247.23 249.81 252.39 266.11 309.71 325.29 544.25 1510.00 1662.31 2004.09 3158.17 5788.45 5692.00 4183.81 2662.03 1682.06 1527.85 1216.47 446.37 325.54 277.91 255.97 251.07 226.59 168.56 77.67 -104.90 -332.09 -815.20 -1566.63 -2707.69 -3437.50 -3738.73 -3837.66 -3837.94 -3837.76 -3836.61 -3840.44 -3852.39 -3860.51 -3864.13 -3864.48 -3864.33 -3864.54 -3863.98 -3862.73 -3860.77 -3860.86
-4043.07 -4042.30 -4039.20 -4028.27 -4039.81 -4048.37 -4044.92 -4041.36 -4055.09 -4058.98 -4060.18 -4062.37 -4071.27 -4082.33 -4091.60 -4092.12 -4022.81 -3891.38 -3381.32 -2623.87 -1638.13 -921.70 -153.96 165.97 234.55 277.73 302.92 303.81 307.18 373.26 570.76 675.17 689.36 928.09 1044.65 809.18 890.41 1106.70 1072.72 835.11 799.64 922.50 901.89 846.32 630.67 624.59 610.86 592.79 583.08 566.40 553.22 542.76 551.05 582.83 576.15 576.63 647.73 846.26 1046.36 1036.55 1038.21 1067.59 1119.76 1159.40 1124.03 958.61 917.40 861.28 753.11 530.43 558.06 464.42 294.51 259.54 252.07 244.07 238.77 233.53 231.16 232.35 233.04 232.79 232.06 230.96 230.18 229.82 230.72 231.89 233.67 235.68 238.74 241.41 244.53 248.21 251.16 253.18 253.27 290.98 375.77 1124.91 2485.08 2728.42 3614.00 4268.25 6705.46 5969.57 4340.69 2275.50 1695.55 994.37 600.41 457.58 286.67 260.32 255.62 253.64 240.11 176.13 86.56 -183.00 -625.25 -857.71 -1713.64 -2934.08 -3460.29 -3711.53 -3825.08 -3831.76 -3835.01 -3835.03 -3838.80 -3850.71 -3860.64 -3863.35 -3863.79 -3863.86 -3863.82 -3863.26 -3862.13 -3860.19 -3860.28
-4105.49 -4105.04 -4094.06 -4093.39 -4084.49 -4078.37 -4076.05 -4086.89 -4077.07 -4076.68 -4077.96 -4075.06 -4077.58 -4082.04 -4091.05 -4081.23 -4029.86 -3698.26 -3252.61 -2589.74 -1783.28 -1040.53 -298.81 141.65 188.63 274.75 295.66 304.22 324.68 365.02 495.43 435.19 521.22 863.80 970.16 757.15 624.42 775.59 971.64 720.34 643.31 816.98 791.39 749.30 589.12 549.73 588.50 553.78 532.58 531.52 529.70 526.19 526.36 559.17 568.18 587.21 641.04 872.02 949.20 876.95 987.38 1083.75 1141.53 1158.12 1159.56 1139.35 1123.47 1097.78 883.37 867.51 760.34 582.91 414.08 278.63 264.82 254.54 248.51 239.24 230.62 231.02 233.89 232.59 231.54 230.64 229.66 229.02 230.63 231.74 233.14 235.13 238.26 242.60 246.20 248.78 251.74 254.04 262.56 313.13 497.48 1574.27 2438.29 2767.57 5458.35 6130.87 5927.60 4463.60 2865.88 2611.32 1536.72 756.55 414.79 298.07 284.95 260.95 254.21 247.67 230.87 149.68 9.99 -196.39 -621.12 -988.70 -1776.22 -2447.97 -3490.77 -3743.95 -3809.74 -3825.06 -3830.35 -3837.69 -3838.81 -3851.06 -3858.68 -3861.43 -3862.75 -3862.94 -3863.17 -3862.52 -3861.53 -3859.65 -3859.75
-4141.11 -4141.31 -4136.04 -4126.06 -4124.48 -4112.14 -4100.61 -4098.27 -4087.92 -4083.85 -4086.97 -4085.97 -4082.98 -4084.52 -4086.96 -4055.72 -3918.85 -3589.64 -3117.10 -2387.05 -1290.83 -833.84 -158.61 77.41 141.11 239.16 291.86 303.68 306.12 324.27 402.65 462.52 628.06 776.47 918.57 716.08 555.61 772.57 879.04 842.20 600.72 617.40 610.52 603.51 522.89 517.84 537.53 518.15 518.96 513.31 506.37 507.51 512.41 534.45 548.18 586.29 639.93 685.84 732.67 801.11 1042.25 1126.02 972.51 995.24 994.68 1055.57 1081.06 1083.92 1051.72 1076.87 796.85 595.78 420.85 300.73 269.06 256.90 254.03 250.37 227.41 224.03 230.13 231.16 229.57 228.65 229.12 228.15 229.85 231.31 232.45 235.00 238.89 243.62 246.65 249.92 251.78 257.43 268.42 603.04 1132.10 1064.72 1556.94 3833.75 5055.43 6172.60 4937.88 2932.86 2435.70 2349.88 1075.53 441.54 301.94 291.45 274.51 252.92 253.11 248.94 203.37 170.96 23.42 -220.02 -536.96 -999.40 -1639.61 -2270.51 -3189.18 -3719.59 -3815.85 -3833.34 -3830.55 -3836.38 -3840.28 -3848.61 -3856.38 -3861.34 -3862.10 -3862.05 -3862.91 -3861.93 -3860.95 -3859.16 -3859.26
-4168.78 -4168.73 -4162.16 -4151.63 -4146.59 -4139.14 -4129.08 -4121.58 -4115.24 -4104.67 -4094.20 -4088.02 -4084.63 -4083.53 -4075.21 -4003.81 -3847.00 -3460.76 -2625.18 -1762.96 -1134.23 -551.44 -242.45 -19.83 77.28 219.86 275.98 299.95 302.78 321.02 331.76 435.79 554.66 657.06 691.46 448.10 456.09 675.08 741.50 676.20 608.76 521.67 497.14 488.87 507.24 485.77 502.99 502.05 498.10 490.64 487.04 478.70 471.00 516.14 530.81 577.78 622.98 703.37 754.67 837.43 1009.43 1048.32 899.16 910.82 953.40 912.48 944.57 957.91 901.67 848.92 756.60 632.86 444.91 385.95 300.74 295.01 263.59 259.85 239.05 227.14 229.51 235.31 247.77 233.58 227.94 227.73 228.35 229.25 230.72 236.12 240.70 242.55 247.12 249.85 254.08 267.65 465.11 808.76 1789.33 1629.19 2682.84 4268.94 5980.22 5433.02 3287.15 3261.95 2143.80 1856.92 811.67 387.77 329.10 295.74 283.75 259.11 251.21 237.95 202.59 175.48 -26.80 -357.53 -671.55 -991.42 -1687.10 -2317.13 -3167.57 -3569.47 -3813.10 -3821.13 -3824.86 -3835.87 -3842.40 -3847.51 -3855.99 -3860.77 -3861.56 -3861.77 -3862.02 -3861.75 -3860.58 -3858.75 -3858.85
-4185.37 -4185.30 -4177.19 -4171.12 -4161.03 -4154.13 -4136.58 -4126.69 -4118.71 -4110.39 -4101.19 -4091.57 -4086.41 -4080.46 -4065.83 -3987.63 -3792.77 -3326.26 -2246.16 -1658.26 -1114.65 -672.82 -267.98 -108.40 37.37 176.06 241.13 267.44 288.26 310.62 313.10 357.42 397.68 553.43 560.73 419.86 382.44 443.63 519.76 534.97 496.16 454.13 447.91 449.42 438.48 449.93 472.31 475.80 475.27 472.74 469.55 465.88 480.73 525.06 550.91 577.48 633.35 737.97 856.72 891.07 913.93 953.16 826.37 816.99 885.57 772.94 795.44 878.50 761.66 723.76 747.80 672.56 502.51 399.53 358.95 328.69 265.47 272.74 269.03 268.42 238.17 247.81 238.35 227.05 227.02 227.06 227.82 229.02 230.93 234.74 240.59 243.71 249.03 249.42 254.14 280.32 561.48 1371.87 2095.29 3132.18 4365.10 6194.64 6337.26 4185.15 2381.01 2418.47 2019.80 1209.38 528.44 336.74 330.98 311.92 286.41 267.08 250.23 227.08 191.83 36.11 -135.94 -507.92 -833.71 -1190.15 -1780.37 -2564.33 -3140.73 -3702.12 -3812.37 -3810.58 -3826.97 -3838.84 -3844.01 -3850.05 -3855.34 -3860.26 -3860.79 -3860.67 -3860.81 -3860.70 -3859.94 -3858.42 -3858.51
-4192.79 -4192.71 -4184.68 -4177.92 -4170.82 -4159.95 -4146.19 -4135.96 -4126.64 -4113.11 -4100.24 -4091.84 -4083.50 -4070.42 -4061.05 -3973.76 -3738.69 -3409.89 -2431.23 -1757.53 -1178.21 -766.92 -454.14 -134.22 -42.48 114.23 130.14 249.28 261.37 296.71 306.50 327.51 366.51 425.54 479.33 388.88 351.64 358.07 383.82 426.33 398.06 385.44 390.46 413.79 422.58 433.98 456.64 460.93 462.87 468.18 471.60 487.65 523.59 526.00 563.92 591.53 664.83 759.14 870.15 878.88 827.74 833.87 818.88 757.85 844.64 790.55 748.51 734.46 721.55 629.73 668.77 651.29 526.81 456.12 436.76 452.32 420.22 402.58 344.03 269.07 246.24 239.41 226.38 227.38 227.25 226.95 227.61 228.85 231.87 237.15 242.76 246.18 252.13 252.37 262.77 330.61 877.44 1718.26 2184.62 3732.57 5755.71 6547.34 5308.82 3825.43 2241.93 1537.60 1607.32 511.48 392.78 333.29 323.13 309.31 272.20 257.34 251.05 227.83 168.15 -43.10 -275.48 -605.54 -986.15 -1541.11 -2090.61 -3002.42 -3541.71 -3805.29 -3817.08 -3837.94 -3839.32 -3841.09 -3845.16 -3849.69 -3856.26 -3860.14 -3860.38 -3860.54 -3860.59 -3860.61 -3859.45 -3858.16 -3858.25
-4195.89 -4195.80 -4188.68 -4183.02 -4174.68 -4162.90 -4152.23 -4138.48 -4126.14 -4113.30 -4099.63 -4087.59 -4077.29 -4067.72 -4047.75 -3994.94 -3837.53 -3616.67 -2966.35 -2417.36 -1473.39 -1010.73 -729.36 -491.36 -240.98 -35.81 70.14 117.83 173.94 231.66 276.22 321.30 339.36 375.53 349.10 334.81 336.86 323.90 314.48 320.68 346.81 368.29 362.15 385.64 410.10 414.65 447.28 455.37 461.71 471.71 490.33 493.49 530.62 583.92 644.62 640.83 668.44 824.86 886.67 803.93 759.44 758.77 760.51 706.10 704.25 725.48 643.88 645.86 633.59 564.76 591.41 601.84 560.94 502.22 459.11 417.24 391.48 379.15 341.41 291.54 235.58 230.78 224.11 226.16 225.52 226.24 227.02 228.93 232.32 239.16 246.75 254.16 281.78 306.58 354.89 1252.36 1898.23 1971.41 3094.09 5088.45 5222.04 5146.78 4374.24 3625.12 2280.33 1685.53 898.98 360.97 348.26 330.62 315.48 293.93 277.58 253.68 252.73 218.29 156.82 62.26 -139.85 -410.73 -906.84 -1659.51 -2402.62 -2971.59 -3642.93 -3814.34 -3825.28 -3843.58 -3843.33 -3842.44 -3847.45 -3854.53 -3857.98 -3858.63 -3859.77 -3860.84 -3861.19 -3860.50 -3858.91 -3857.98 -3858.06
-4194.60 -4193.91 -4189.11 -4180.55 -4171.90 -4163.65 -4152.71 -4138.52 -4122.57 -4111.08 -4093.68 -4084.58 -4069.13 -4056.35 -4040.16 -4003.45 -3883.00 -3648.82 -3212.13 -2762.29 -2249.04 -1488.19 -987.77 -609.90 -383.79 -263.43 9.68 13.64 25.03 102.90 245.96 263.08 288.42 297.53 297.88 314.29 322.69 316.05 296.30 312.01 322.86 329.29 333.29 356.24 370.17 376.94 430.70 441.51 465.14 480.52 489.87 527.82 545.78 605.10 654.87 781.24 739.77 853.08 903.67 772.50 746.51 709.22 696.13 682.81 654.43 615.20 594.86 588.20 551.03 531.76 501.80 504.02 471.67 416.26 394.72 362.32 332.79 330.88 258.31 233.70 235.12 237.71 229.25 222.73 221.77 222.35 226.13 228.46 232.81 240.04 251.70 269.49 303.78 378.86 743.96 1981.81 2484.55 2321.61 2989.04 5853.50 5503.12 3601.17 2233.19 2279.88 1679.03 1474.28 716.86 353.02 338.29 323.44 304.60 293.87 276.95 253.14 246.02 215.48 125.37 30.90 -178.40 -587.67 -1033.28 -1959.95 -2779.93 -3318.26 -3751.08 -3830.40 -3840.30 -3844.58 -3843.28 -3845.51 -3850.65 -3854.97 -3857.39 -3857.94 -3859.59 -3861.04 -3860.69 -3860.01 -3858.70 -3857.89 -3857.97
-4185.22 -4185.12 -4180.98 -4174.47 -4165.11 -4155.98 -4141.39 -4131.54 -4120.05 -4102.08 -4085.57 -4074.34 -4059.56 -4049.94 -4028.52 -4013.98 -3954.54 -3880.11 -3603.39 -3396.74 -2719.83 -1896.67 -1281.91 -765.75 -438.74 -293.54 -210.02 -205.75 -80.74 -0.64 93.70 164.99 200.09 253.67 268.56 277.43 280.01 269.29 268.92 283.41 306.33 314.78 316.47 328.45 351.07 354.89 396.02 430.55 427.74 478.22 521.26 577.34 598.98 756.45 741.69 913.57 883.38 957.94 897.03 807.46 739.44 680.07 667.23 639.21 626.38 598.41 582.58 548.82 497.74 497.70 490.45 469.49 416.81 389.53 364.16 326.84 311.44 285.61 257.85 232.32 233.32 228.54 223.43 220.78 221.40 222.76 226.22 228.87 233.19 241.02 252.96 270.33 340.53 779.25 1027.29 1793.06 2828.79 3276.42 4276.67 5508.85 5341.90 3097.24 1814.94 1160.88 1609.60 999.79 337.38 334.73 330.80 321.05 302.19 292.09 279.85 253.98 246.42 216.64 146.87 42.52 -236.18 -462.57 -1182.95 -2079.86 -2875.58 -3606.53 -3778.04 -3823.35 -3838.80 -3842.70 -3843.30 -3845.15 -3850.47 -3854.96 -3858.75 -3860.29 -3861.16 -3861.17 -3860.81 -3859.61 -3858.81 -3857.88 -3857.96
-4170.28 -4169.27 -4168.00 -4160.16 -4155.75 -4146.54 -4132.17 -4121.06 -4110.12 -4092.85 -4074.84 -4064.51 -4047.36 -4032.94 -4021.59 -4006.13 -3979.56 -3935.90 -3820.69 -3450.99 -3211.78 -2465.37 -1282.24 -883.59 -467.01 -335.09 -309.07 -276.97 -275.89 -170.40 25.37 73.46 172.77 236.35 245.63 256.45 255.12 254.25 252.89 263.84 266.46 272.97 270.28 315.68 337.32 345.83 371.16 405.84 443.08 476.09 517.27 597.44 644.31 772.17 860.41 1031.33 1065.97 1021.60 912.09 782.16 706.41 669.22 633.36 604.32 593.59 580.32 566.24 550.92 500.99 484.15 460.12 409.47 397.14 381.70 345.49 307.40 293.54 253.98 236.62 231.74 225.31 219.52 218.92 219.10 218.22 221.47 224.83 228.87 233.56 244.30 264.42 276.77 455.84 893.72 1576.97 2386.51 4195.94 5052.01 5537.11 5274.13 4495.28 3129.75 2557.93 1424.82 930.65 647.88 327.24 325.73 322.25 311.65 295.84 291.24 275.64 255.06 249.23 215.69 149.08 66.15 -176.53 -448.23 -1058.38 -2344.74 -3039.01 -3636.42 -3763.43 -3809.33 -3814.01 -3833.95 -3842.59 -3844.41 -3848.48 -3854.00 -3858.20 -3860.76 -3861.54 -3861.04 -3860.97 -3859.26 -3858.64 -3857.93 -3858.01
-4158.73 -4158.65 -4156.54 -4149.56 -4138.74 -4131.36 -4124.83 -4112.81 -4099.66 -4087.99 -4072.05 -4052.92 -4041.20 -4024.91 -4010.64 -3999.07 -3983.01 -3972.58 -3909.65 -3711.17 -3452.54 -2631.54 -1752.33 -1118.52 -549.75 -357.59 -300.73 -305.07 -320.40 -339.74 -194.94 7.94 144.97 185.22 211.23 226.05 234.38 248.13 248.24 251.46 251.99 253.79 255.54 293.32 303.10 324.08 349.95 368.25 458.84 608.04 574.37 630.21 755.54 859.32 975.56 1065.54 1078.44 968.36 866.66 769.66 717.85 641.53 614.38 588.10 571.83 557.24 539.86 534.06 492.63 465.75 429.19 400.06 382.80 348.59 332.49 301.54 278.10 219.43 209.63 223.91 223.32 220.12 218.93 218.07 218.58 221.48 223.54 226.04 234.80 242.95 262.82 305.34 653.37 1298.27 1636.08 2421.03 3764.10 5871.62 6017.94 4912.73 3002.50 2621.07 2580.88 1285.24 448.66 353.50 328.43 323.05 313.61 305.98 298.30 283.85 272.36 259.59 249.10 217.23 162.52 56.25 -142.24 -383.41 -1148.25 -1904.78 -3046.43 -3632.55 -3671.85 -3790.54 -3826.16 -3839.64 -3847.65 -3848.60 -3851.73 -3857.07 -3858.21 -3860.99 -3861.60 -3861.68 -3860.48 -3859.23 -3858.64 -3858.08 -3858.15
-4150.87 -4150.79 -4146.88 -4140.40 -4135.26 -4125.91 -4117.38 -4106.38 -4095.80 -4078.48 -4065.71 -4048.09 -4035.53 -4019.89 -4007.98 -3996.27 -3981.56 -3968.41 -3885.37 -3816.06 -3343.70 -2729.27 -1800.58 -1062.65 -483.59 -389.71 -324.93 -369.63 -411.01 -451.05 -505.97 -232.11 -35.05 129.43 168.15 200.94 199.95 213.09 236.95 238.70 245.30 250.35 253.83 256.62 270.70 305.92 341.79 375.94 442.76 666.81 684.42 729.43 706.38 901.73 1035.87 1072.04 1068.06 995.66 922.81 844.34 740.48 662.05 593.44 577.37 560.66 548.24 518.68 492.10 473.92 448.33 416.28 397.68 363.78 338.62 313.53 295.15 261.90 219.07 206.87 222.02 221.64 221.07 217.96 217.21 218.06 221.22 224.84 230.53 236.19 253.64 276.68 609.70 1240.03 1962.05 2196.04 4123.85 4968.19 5816.70 6189.43 4989.93 3339.13 1921.41 1609.41 763.77 360.48 346.42 333.09 316.82 311.48 307.99 301.32 290.41 269.87 265.33 248.04 220.36 147.27 71.57 -92.01 -226.43 -757.77 -1464.00 -2550.43 -3444.89 -3731.92 -3819.28 -3833.19 -3839.99 -3847.82 -3850.80 -3854.06 -3860.65 -3861.14 -3861.24 -3862.16 -3862.05 -3860.34 -3859.15 -3858.71 -3858.35 -3858.38
-4143.60 -4143.52 -4140.26 -4132.94 -4128.17 -4117.42 -4109.79 -4100.96 -4091.75 -4078.61 -4062.39 -4047.67 -4034.85 -4017.54 -4003.18 -3991.88 -3977.10 -3956.94 -3886.63 -3744.40 -3181.05 -2782.06 -1799.63 -1040.57 -654.56 -674.41 -866.80 -714.92 -697.63 -796.22 -860.79 -658.90 -215.20 95.89 101.34 148.32 158.89 177.56 202.73 220.12 235.22 244.79 251.39 254.84 258.73 278.17 374.55 413.60 408.35 558.31 727.92 875.96 772.52 866.47 1029.49 1061.21 979.36 939.87 897.49 800.13 715.41 647.02 584.24 563.78 554.97 537.05 507.06 486.20 460.61 428.87 398.43 369.26 348.23 334.20 306.49 289.25 247.10 213.39 209.55 221.48 218.29 217.79 216.18 215.87 215.77 222.56 228.24 230.70 242.93 252.08 318.97 683.01 953.85 1738.65 2914.59 4273.70 6531.86 6198.12 5171.49 4158.09 2459.28 2493.52 2175.79 472.31 352.36 343.71 335.38 319.79 308.48 300.28 297.83 284.00 259.90 254.21 251.42 233.32 189.04 70.42 -74.19 -294.21 -761.22 -1467.74 -2786.55 -3283.85 -3817.62 -3831.31 -3839.52 -3841.30 -3845.88 -3853.23 -3857.74 -3862.06 -3862.57 -3862.68 -3862.56 -3861.90 -3860.58 -3859.50 -3858.92 -3858.61 -3858.68
-4138.56 -4138.11 -4134.82 -4131.43 -4124.48 -4116.17 -4109.12 -4100.41 -4091.48 -4076.51 -4064.93 -4050.46 -4037.62 -4019.65 -4003.89 -3991.26 -3981.99 -3965.60 -3872.23 -3678.34 -3239.41 -2555.78 -1844.01 -1356.89 -1239.42 -1224.21 -1220.72 -1334.47 -1530.79 -1441.57 -1691.21 -1706.44 -642.38 -31.46 66.92 112.16 132.26 160.60 175.36 194.45 220.22 239.47 247.53 251.09 257.06 288.71 442.94 631.67 493.03 547.59 780.68 908.75 950.66 1002.69 1072.51 1055.02 966.73 839.23 795.82 741.81 693.84 627.27 613.22 565.39 547.39 520.62 504.63 475.10 447.51 413.64 399.79 361.74 340.02 322.39 271.93 259.43 243.42 222.51 214.59 219.43 218.59 215.41 215.76 214.44 215.44 220.54 230.26 234.56 246.57 259.73 386.53 475.36 1188.66 2142.86 2954.65 4741.13 5924.24 5409.23 3723.18 3006.03 1565.23 1724.09 565.38 371.19 350.99 341.35 335.51 322.73 311.74 295.68 287.36 275.20 252.32 252.29 242.49 214.01 159.83 113.01 -279.47 -668.46 -1189.11 -2214.70 -2680.20 -3367.43 -3816.69 -3833.69 -3840.43 -3839.20 -3846.88 -3856.06 -3862.09 -3863.89 -3863.47 -3862.98 -3862.61 -3861.85 -3860.46 -3859.91 -3859.31 -3858.96 -3859.03
-4140.31 -4140.24 -4137.06 -4132.34 -4128.76 -4122.19 -4113.46 -4102.99 -4093.90 -4077.89 -4067.48 -4052.37 -4041.21 -4028.01 -4013.63 -3997.29 -3987.62 -3958.36 -3921.76 -3732.71 -3404.38 -2723.22 -2217.05 -1931.41 -1812.41 -1929.59 -2026.34 -2159.44 -2196.93 -2511.96 -2577.88 -2390.36 -1597.92 -21.14 46.53 72.19 100.13 128.44 140.71 156.34 158.00 188.73 202.12 222.05 231.64 308.38 475.53 670.62 724.69 679.58 782.86 919.09 1095.00 1062.80 1088.48 936.21 992.69 928.39 821.52 712.19 633.76 630.28 607.19 561.51 533.12 508.09 483.22 472.31 426.90 405.28 389.49 355.96 333.77 311.51 274.45 256.32 245.09 230.39 218.41 217.20 215.36 214.12 213.91 213.10 214.56 217.11 230.35 242.22 250.83 268.43 549.53 1568.55 1301.97 3031.51 4188.33 5976.85 6523.81 6050.03 3423.45 2325.61 1913.51 976.05 526.43 381.46 348.56 338.63 325.52 314.73 305.48 294.49 280.96 269.87 250.71 247.29 233.14 184.15 119.76 19.86 -496.16 -1094.11 -1573.96 -2544.06 -3292.70 -3489.99 -3816.06 -3833.84 -3836.69 -3844.44 -3854.23 -3861.44 -3865.06 -3864.37 -3864.47 -3864.32 -3863.41 -3862.36 -3860.78 -3860.32 -3859.66 -3859.39 -3859.46
-4145.93 -4145.86 -4141.52 -4139.36 -4134.44 -4129.06 -4121.61 -4109.76 -4096.90 -4082.88 -4073.88 -4059.07 -4047.92 -4032.65 -4020.71 -4007.86 -3998.84 -3977.53 -3948.01 -3768.39 -3550.98 -3209.29 -2930.02 -2778.99 -2705.40 -3083.03 -3147.22 -3142.13 -3284.35 -3225.06 -3512.09 -3683.91 -2041.80 -423.39 9.87 22.26 69.02 91.97 86.00 83.67 101.78 134.98 170.64 167.29 189.65 260.23 355.55 537.19 720.04 823.56 807.65 1019.11 1105.15 983.22 812.95 699.99 825.90 758.39 731.46 725.26 706.58 630.03 585.10 548.71 528.50 494.18 469.17 438.31 414.14 400.97 370.93 355.00 331.84 290.55 277.44 256.00 244.26 226.42 217.96 215.60 213.29 212.98 212.81 212.63 215.00 216.05 238.53 244.06 255.62 269.08 784.96 1663.33 2213.93 3184.58 4912.69 7114.14 6691.05 5292.18 3792.21 2641.19 2164.26 927.51 459.87 340.79 340.14 329.90 320.14 306.74 290.86 283.88 276.48 263.33 247.96 240.75 214.88 168.90 85.42 -242.12 -753.35 -1498.20 -2231.49 -2703.56 -3372.19 -3767.68 -3822.55 -3830.82 -3838.10 -3842.92 -3857.42 -3865.41 -3866.60 -3865.76 -3865.25 -3865.04 -3863.76 -3862.19 -3861.11 -3860.61 -3860.26 -3859.90 -3859.97
-4145.94 -4145.86 -4142.79 -4139.14 -4136.65 -4131.34 -4124.57 -4109.33 -4101.17 -4086.23 -4077.34 -4065.86 -4054.68 -4046.10 -4030.96 -4020.21 -4005.71 -3996.25 -3961.86 -3922.34 -3843.31 -3585.79 -3468.75 -3372.60 -3432.79 -3498.74 -3584.47 -3575.57 -3745.10 -3784.84 -3921.21 -4178.31 -3268.22 -1439.59 -326.94 -58.94 24.15 58.38 27.16 40.60 49.68 72.61 102.99 50.01 193.10 259.38 297.65 455.87 556.34 577.36 728.93 944.42 970.88 812.14 671.85 595.74 684.10 542.93 542.44 645.09 729.96 636.87 579.58 552.14 514.24 489.89 461.29 436.81 408.31 388.79 367.09 354.93 335.23 300.95 289.00 273.90 239.57 222.11 215.61 212.74 209.97 209.99 211.33 211.90 219.79 231.70 238.56 251.45 273.44 368.72 764.36 1758.26 2473.83 4502.26 6221.32 6943.99 5858.29 3951.54 2403.87 1829.61 1405.98 424.69 339.51 328.08 326.47 323.39 308.06 299.60 287.46 279.20 269.59 257.72 246.38 234.77 211.51 107.03 -201.75 -545.14 -1067.41 -1687.44 -2652.57 -3195.29 -3586.11 -3830.24 -3825.03 -3829.82 -3836.63 -3844.47 -3860.36 -3866.85 -3867.43 -3866.81 -3866.14 -3865.77 -3864.53 -3862.69 -3861.63 -3861.16 -3860.73 -3860.48 -3860.55
-4140.94 -4140.87 -4139.21 -4137.02 -4134.58 -4129.59 -4124.43 -4110.21 -4103.16 -4090.56 -4083.65 -4073.36 -4060.66 -4052.69 -4041.28 -4036.14 -4022.35 -4015.60 -4008.48 -3970.88 -3970.74 -3944.65 -3830.11 -3816.32 -3824.95 -3862.61 -3862.49 -3926.88 -3930.46 -3976.93 -4054.17 -4187.42 -4194.00 -3350.78 -554.08 -358.62 -58.50 -27.54 -50.74 -24.11 10.36 8.21 -18.63 -34.17 194.90 240.71 255.68 367.61 385.04 533.92 860.72 935.23 855.14 655.88 694.59 541.01 410.28 439.85 380.24 542.46 660.16 647.13 585.77 544.08 514.14 486.39 452.84 429.26 405.60 390.74 369.25 351.65 330.06 313.84 278.40 260.70 232.62 215.89 210.96 208.18 207.20 207.84 209.69 211.87 216.39 230.19 248.25 252.59 288.68 761.84 1382.00 1259.28 2571.59 4331.03 6282.57 5885.64 4041.95 2900.16 2429.80 2472.38 729.35 440.92 332.06 327.16 322.64 317.68 298.70 286.20 278.13 257.03 256.90 250.25 242.03 224.69 148.48 90.40 -180.08 -1045.81 -1511.53 -2119.85 -2942.29 -3423.72 -3666.40 -3815.84 -3829.23 -3831.74 -3840.09 -3849.83 -3863.13 -3869.19 -3869.18 -3868.42 -3867.45 -3867.29 -3865.69 -3863.08 -3862.36 -3861.80 -3861.41 -3861.13 -3861.20
-4135.41 -4135.33 -4135.15 -4133.21 -4130.68 -4127.99 -4122.47 -4113.81 -4101.84 -4094.16 -4085.94 -4079.07 -4075.55 -4065.69 -4058.84 -4048.25 -4041.80 -4031.07 -4021.18 -4025.14 -3997.82 -3988.08 -3954.10 -3971.54 -3954.93 -3996.15 -4013.74 -4020.67 -4030.45 -4046.43 -4059.42 -4115.98 -4195.97 -4132.82 -2063.48 -958.75 -316.97 -164.73 -127.23 -62.74 -59.38 -70.59 -33.53 10.01 156.08 238.58 257.50 311.00 439.96 620.35 882.51 791.81 625.89 459.87 534.38 535.56 389.83 316.15 293.37 352.41 465.92 550.50 604.87 550.74 519.15 486.88 461.76 430.89 405.31 391.84 363.28 337.51 326.84 306.44 273.79 250.44 231.98 214.25 208.87 206.99 206.34 207.30 208.47 208.46 219.24 240.18 249.28 259.84 450.34 1057.86 1814.80 2269.05 2506.59 4055.44 6829.80 5711.02 4736.40 2049.89 1468.23 1845.85 355.49 346.37 323.36 306.10 318.42 305.04 278.75 251.04 258.68 250.98 248.71 239.93 229.03 192.24 96.45 -52.47 -347.03 -654.05 -1625.05 -2104.24 -2979.78 -3465.20 -3731.05 -3819.77 -3828.20 -3829.65 -3844.97 -3856.55 -3863.96 -3869.42 -3869.83 -3869.29 -3868.94 -3868.49 -3865.61 -3863.83 -3863.09 -3862.48 -3862.06 -3861.86 -3861.92
-4129.02 -4128.94 -4128.14 -4127.56 -4125.19 -4122.53 -4120.29 -4112.16 -4104.65 -4095.80 -4090.83 -4083.69 -4079.45 -4075.39 -4073.09 -4066.87 -4060.25 -4053.62 -4049.32 -4041.10 -4047.92 -4038.72 -4030.76 -4034.08 -4023.83 -4042.00 -4046.22 -4053.51 -4064.92 -4061.52 -4071.32 -4077.48 -4130.69 -4066.44 -3692.10 -3023.85 -930.48 -511.66 -227.60 -94.75 -104.80 -94.58 -27.02 71.49 204.41 236.93 252.34 285.77 452.52 548.47 727.69 757.60 473.99 326.20 402.13 357.53 331.60 271.16 275.36 294.82 343.04 397.73 529.43 575.49 546.54 506.30 467.30 436.74 414.87 389.30 361.65 342.46 319.38 295.30 266.49 250.35 226.50 210.72 208.03 202.55 204.18 205.62 205.77 210.29 226.27 233.54 256.21 288.18 776.38 958.27 1586.76 2649.31 4814.50 5659.66 6657.26 5090.97 4100.53 2653.87 1839.49 971.66 330.94 269.75 273.28 269.71 276.57 263.42 250.62 247.39 246.37 243.65 240.15 224.74 198.35 131.67 54.47 -242.06 -420.41 -764.41 -1341.23 -2562.07 -3240.20 -3656.24 -3804.12 -3829.86 -3827.61 -3833.06 -3853.41 -3865.66 -3869.62 -3871.61 -3872.18 -3871.51 -3870.77 -3870.29 -3866.12 -3864.75 -3863.99 -3863.34 -3863.01 -3862.66 -3862.73
-4119.21 -4119.14 -4120.23 -4117.58 -4116.31 -4115.16 -4112.21 -4109.01 -4103.50 -4098.57 -4095.81 -4091.10 -4088.52 -4083.75 -4085.24 -4083.66 -4080.47 -4079.93 -4072.11 -4072.70 -4074.57 -4064.38 -4063.87 -4065.55 -4060.81 -4075.88 -4072.37 -4078.81 -4089.15 -4086.65 -4080.70 -4081.94 -4072.66 -4001.83 -3760.32 -3217.63 -2258.67 -927.02 -570.45 -384.34 -190.09 -87.11 28.03 107.05 201.67 234.41 253.75 270.63 360.35 427.62 634.08 611.95 435.70 295.83 295.46 270.70 258.75 259.88 263.71 273.30 287.72 329.45 421.97 609.37 660.00 549.74 473.36 464.25 441.60 408.26 367.11 337.17 314.15 296.92 278.80 241.95 215.73 207.73 206.05 202.48 202.75 203.44 204.08 206.26 223.78 240.29 261.92 327.88 1577.36 1897.02 2171.52 2254.66 5037.92 6136.60 5530.52 2840.86 2118.43 2282.41 2061.75 465.01 305.44 254.94 252.56 250.57 248.76 246.01 246.36 242.74 242.50 234.42 203.42 165.91 133.97 30.03 -262.60 -428.34 -820.12 -1122.40 -1715.71 -2750.28 -3441.18 -3748.68 -3802.98 -3828.04 -3826.55 -3836.98 -3855.15 -3867.97 -3873.22 -3873.62 -3873.63 -3873.27 -3874.11 -3871.69 -3867.49 -3865.21 -3865.13 -3864.46 -3863.77 -3863.55 -3863.61
-4108.82 -4108.25 -4108.79 -4109.98 -4110.95 -4109.37 -4108.54 -4106.59 -4105.25 -4101.72 -4099.22 -4097.57 -4094.55 -4097.41 -4100.30 -4104.79 -4103.93 -4110.03 -4105.12 -4105.56 -4103.70 -4090.05 -4085.37 -4082.56 -4090.18 -4088.32 -4096.43 -4094.87 -4104.99 -4106.65 -4094.16 -4084.42 -4068.65 -4002.34 -3817.50 -3375.62 -2492.08 -1701.56 -969.87 -527.63 -282.01 -94.95 38.25 126.83 198.90 233.46 246.61 255.73 290.92 411.61 479.48 346.31 348.16 271.31 262.65 253.00 253.40 257.26 258.20 270.67 278.00 304.77 398.65 563.55 699.42 657.03 554.56 508.61 482.08 404.70 368.42 324.26 310.35 298.13 277.86 231.47 204.22 207.48 201.72 201.01 200.76 201.64 202.97 205.08 223.20 245.30 270.54 803.90 1653.05 2113.09 3774.54 4434.01 6453.11 6430.91 4919.76 2948.34 1750.35 1453.75 564.54 401.04 263.44 253.31 249.44 247.79 242.91 239.96 222.76 232.38 231.19 214.37 159.16 123.35 -0.11 -107.32 -381.12 -936.28 -1169.53 -1489.41 -1766.11 -2949.12 -3398.06 -3752.17 -3827.61 -3829.52 -3828.49 -3838.65 -3855.36 -3871.23 -3875.71 -3874.79 -3874.77 -3874.57 -3875.30 -3873.90 -3869.15 -3867.25 -3865.49 -3865.30 -3865.01 -3864.65 -3864.59
