-4818.80 -4819.87 -4829.03 -4837.83 -4849.48 -4865.70 -4879.82 -4901.70 -4916.81 -4942.74 -4951.89 -4961.11 -4960.56 -4963.12 -4945.59 -4940.36 -4961.14 -5011.31 -5076.95 -5103.22 -5099.38 -5093.47 -5087.12 -5087.21 -5087.12 -5086.72 -5081.25 -5078.97 -5075.98 -5074.36 -5073.65 -5074.27 -5076.69 -5087.19 -5101.58 -5115.53 -5130.59 -5144.26 -5153.43 -5158.39 -5164.99 -5166.72 -5163.48 -5158.16 -5153.90 -5156.40 -5162.46 -5173.17 -5180.64 -5189.35 -5202.66 -5207.97 -5215.28 -5219.82 -5221.14 -5221.39 -5215.33 -5211.02 -5207.91 -5205.75 -5201.49 -5198.77 -5191.01 -5183.48 -5166.71 -5141.00 -5114.11 -5014.52 -4776.25 -4508.29 -4214.76 -3806.98 -3437.01 -3083.13 -2830.34 -2473.25 -2313.68 -2187.89 -1966.13 -1644.32 -1564.27 -1677.60 -1649.08 -1363.31 -1245.22 -920.21 -209.71 72.17 174.66 183.61 42.50 -415.73 -750.82 -994.33 -1053.56 -1124.37 -1202.76 -1288.50 -1363.28 -1371.15 -1362.80 -1501.29 -1728.32 -2127.50 -2734.82 -3525.44 -4300.99 -4813.57 -5511.70 -6732.54 -7728.35 -8353.84 -8563.97 -8594.91 -8603.59 -8603.10 -8587.73 -8427.03 -8120.18 -6121.09 -4457.00 -3840.17 -3803.73 -3921.43 -3972.18 -3976.28 -3989.90 -3979.22 -3971.43 -3961.26 -3956.25 -3948.97 -3942.34 -3938.20 -3932.73 -3928.61 -3924.27 -3919.23 -3916.22 -3914.17 -3914.24
-4815.40 -4816.34 -4823.03 -4832.63 -4841.47 -4853.83 -4879.40 -4890.82 -4911.21 -4930.19 -4939.89 -4943.16 -4946.69 -4950.57 -4942.59 -4937.17 -4926.79 -4965.80 -5022.64 -5067.93 -5092.83 -5087.79 -5081.74 -5077.66 -5078.52 -5080.38 -5078.24 -5076.06 -5073.75 -5073.18 -5073.62 -5076.52 -5078.94 -5090.75 -5102.34 -5121.35 -5135.73 -5143.28 -5151.92 -5157.63 -5162.38 -5165.52 -5163.92 -5155.76 -5151.22 -5153.39 -5158.05 -5164.35 -5176.13 -5186.47 -5196.42 -5207.25 -5211.00 -5215.46 -5215.86 -5215.19 -5210.63 -5204.90 -5202.08 -5197.02 -5191.82 -5187.55 -5179.67 -5168.97 -5150.86 -5129.11 -5101.30 -4916.21 -4727.48 -4384.10 -4134.77 -3619.05 -3332.71 -2961.85 -2688.46 -2341.85 -2181.31 -1939.69 -1775.29 -1596.12 -1351.83 -1106.24 -1210.42 -1007.50 -789.56 -576.40 -179.59 140.94 175.74 183.71 141.39 -469.84 -670.53 -804.49 -943.06 -971.25 -1056.12 -1210.08 -1299.46 -1374.91 -1285.10 -1300.38 -1495.75 -2045.62 -2646.87 -3588.39 -4109.63 -4942.87 -6063.83 -7073.90 -8156.89 -8322.62 -8466.62 -8548.93 -8586.80 -8584.03 -8551.79 -8481.09 -8050.19 -6900.23 -4431.55 -3757.76 -3810.50 -3858.71 -3916.75 -3954.74 -3980.93 -3979.42 -3970.48 -3965.31 -3956.49 -3950.27 -3946.12 -3941.95 -3936.58 -3931.37 -3925.86 -3922.11 -3919.22 -3916.31 -3916.37
-4813.93 -4813.86 -4819.52 -4827.11 -4835.66 -4845.56 -4865.32 -4875.36 -4901.36 -4914.48 -4925.44 -4930.76 -4933.01 -4935.48 -4929.27 -4920.91 -4905.78 -4925.95 -4945.29 -5017.16 -5078.55 -5085.29 -5081.60 -5073.43 -5073.28 -5075.34 -5076.08 -5075.78 -5076.83 -5080.23 -5083.73 -5082.30 -5084.97 -5092.60 -5111.30 -5122.31 -5138.78 -5143.17 -5152.43 -5156.51 -5162.05 -5167.53 -5166.12 -5156.06 -5149.77 -5149.63 -5153.87 -5162.98 -5174.53 -5184.48 -5191.28 -5203.13 -5204.37 -5205.65 -5209.10 -5207.18 -5203.98 -5195.61 -5192.22 -5187.32 -5181.94 -5177.18 -5163.95 -5148.64 -5135.83 -5127.16 -5063.02 -4832.68 -4697.31 -4331.11 -3990.05 -3715.86 -3215.88 -2871.99 -2545.61 -2349.81 -1992.83 -1859.86 -1586.81 -1358.68 -1186.74 -1000.91 -902.59 -737.82 -671.07 -501.46 -202.60 116.16 171.63 174.96 -86.20 -508.51 -568.49 -643.40 -755.40 -741.94 -929.97 -1147.18 -1220.05 -1112.09 -936.44 -1059.13 -1643.98 -1953.85 -2542.63 -3484.16 -4201.37 -5196.86 -6857.69 -7630.80 -8242.16 -8414.24 -8484.61 -8533.92 -8563.28 -8543.26 -8499.17 -8456.37 -7998.25 -6622.13 -4955.86 -3746.59 -3738.78 -3831.93 -3855.33 -3903.39 -3973.94 -3976.02 -3972.05 -3966.51 -3958.79 -3953.78 -3948.61 -3945.16 -3937.45 -3935.50 -3929.15 -3926.92 -3921.67 -3919.45 -3918.70
-4816.46 -4816.40 -4824.42 -4826.57 -4833.82 -4841.33 -4858.60 -4871.41 -4892.30 -4899.25 -4910.66 -4911.85 -4915.45 -4916.04 -4913.64 -4901.35 -4895.96 -4895.91 -4903.65 -4967.88 -5039.31 -5078.46 -5077.99 -5072.08 -5070.02 -5071.08 -5073.76 -5076.68 -5084.52 -5088.49 -5090.05 -5092.80 -5098.02 -5107.10 -5116.92 -5133.71 -5140.80 -5148.79 -5153.21 -5158.48 -5161.05 -5164.83 -5161.80 -5156.05 -5150.66 -5148.00 -5152.20 -5162.06 -5170.72 -5181.27 -5190.14 -5196.18 -5200.75 -5201.48 -5200.76 -5199.59 -5195.59 -5188.42 -5184.20 -5176.63 -5171.13 -5165.27 -5144.05 -5133.78 -5123.93 -5111.68 -5050.96 -4901.90 -4642.74 -4292.92 -3896.79 -3638.23 -3251.39 -2834.28 -2610.88 -2427.33 -2151.32 -1985.71 -1582.08 -1307.01 -1019.36 -779.74 -667.30 -618.93 -587.97 -375.86 -184.42 -40.83 -57.94 4.09 -182.35 -451.56 -485.18 -504.05 -518.70 -653.73 -739.73 -1002.82 -1039.99 -975.39 -919.98 -1163.03 -1565.14 -2386.58 -2883.90 -3222.62 -4506.33 -5756.50 -7146.25 -8149.89 -8388.59 -8456.10 -8487.88 -8456.35 -8493.38 -8453.77 -8406.37 -8371.75 -8033.94 -6778.63 -4465.90 -3628.21 -3555.61 -3586.56 -3724.26 -3910.56 -3969.08 -3974.86 -3969.22 -3968.83 -3961.89 -3957.00 -3950.94 -3947.26 -3942.34 -3937.48 -3931.48 -3927.05 -3924.26 -3920.41 -3920.48
-4823.57 -4825.27 -4828.30 -4828.92 -4834.35 -4838.89 -4854.54 -4864.65 -4876.99 -4887.70 -4895.18 -4896.64 -4896.31 -4894.53 -4892.91 -4890.31 -4885.63 -4883.19 -4878.39 -4907.54 -4981.10 -5050.87 -5069.22 -5072.95 -5065.24 -5069.28 -5072.93 -5081.57 -5092.62 -5097.18 -5109.79 -5111.89 -5116.46 -5120.34 -5132.19 -5139.69 -5145.76 -5151.54 -5155.93 -5160.90 -5164.87 -5166.48 -5165.63 -5159.32 -5151.79 -5148.16 -5151.81 -5160.42 -5169.41 -5176.77 -5185.94 -5190.58 -5193.12 -5191.07 -5192.07 -5190.59 -5186.96 -5182.51 -5178.70 -5173.41 -5156.70 -5148.68 -5133.01 -5120.31 -5104.17 -5085.20 -5062.62 -4945.09 -4516.72 -4266.06 -3809.09 -3559.50 -3159.25 -2875.70 -2625.34 -2387.42 -2148.97 -1890.95 -1671.87 -1285.10 -872.58 -693.48 -600.79 -545.99 -512.38 -449.29 -331.57 -199.76 -253.54 -354.70 -392.17 -396.41 -396.98 -383.75 -383.50 -434.76 -462.63 -536.82 -737.75 -676.60 -870.86 -1172.78 -1703.68 -2203.92 -2757.29 -3634.46 -4629.01 -6154.94 -7613.72 -8110.77 -8249.59 -8331.22 -8417.93 -8376.22 -8361.16 -8322.56 -8288.25 -8195.96 -8010.87 -6845.49 -4525.93 -3357.16 -3259.16 -3390.51 -3701.03 -3888.07 -3945.85 -3964.22 -3969.75 -3970.43 -3965.92 -3961.24 -3951.80 -3948.88 -3944.70 -3942.01 -3933.72 -3929.69 -3926.32 -3922.90 -3922.05
-4829.72 -4829.90 -4832.64 -4835.04 -4840.36 -4843.27 -4851.20 -4858.62 -4872.88 -4876.90 -4881.20 -4886.08 -4886.91 -4885.16 -4881.04 -4872.66 -4876.94 -4883.39 -4880.58 -4871.30 -4918.20 -5005.80 -5053.17 -5061.87 -5059.50 -5063.16 -5070.88 -5084.12 -5102.99 -5109.44 -5113.31 -5119.02 -5126.84 -5132.99 -5136.60 -5146.28 -5151.33 -5156.97 -5160.56 -5165.11 -5167.31 -5167.64 -5167.31 -5166.05 -5153.08 -5151.15 -5151.51 -5157.84 -5162.85 -5176.38 -5180.26 -5185.69 -5187.37 -5184.42 -5186.82 -5182.99 -5179.62 -5173.20 -5167.69 -5159.94 -5144.52 -5120.92 -5115.50 -5105.27 -5097.76 -5065.54 -5046.51 -4930.80 -4663.65 -4391.71 -3975.06 -3596.01 -3358.07 -3008.55 -2787.91 -2389.64 -2060.29 -1830.11 -1576.26 -1210.55 -830.34 -630.17 -546.09 -512.71 -480.07 -413.68 -380.71 -391.25 -399.49 -372.68 -354.36 -309.32 -278.02 -275.95 -264.22 -297.81 -189.29 -210.27 -456.05 -414.19 -646.88 -1223.21 -1626.13 -2270.79 -3074.55 -3810.74 -4305.05 -6207.78 -7615.47 -7907.86 -8014.02 -8141.85 -8288.87 -8226.29 -8241.61 -8231.94 -8180.61 -8053.85 -7865.63 -5327.58 -4232.65 -3158.83 -3157.25 -3379.31 -3715.28 -3888.86 -3959.14 -3966.25 -3962.75 -3954.92 -3968.36 -3963.30 -3954.00 -3951.40 -3948.53 -3942.61 -3938.37 -3932.11 -3927.47 -3923.41 -3923.47
-4831.65 -4832.25 -4834.66 -4836.90 -4839.99 -4843.40 -4849.32 -4856.21 -4862.03 -4865.97 -4869.08 -4870.59 -4873.21 -4874.24 -4872.11 -4864.90 -4862.85 -4868.96 -4877.18 -4870.94 -4880.38 -4953.22 -5015.00 -5059.54 -5066.05 -5065.01 -5072.71 -5085.40 -5102.73 -5112.30 -5116.01 -5121.41 -5130.11 -5136.05 -5140.73 -5148.28 -5153.57 -5159.66 -5163.90 -5167.02 -5168.17 -5171.84 -5171.18 -5169.47 -5157.89 -5155.06 -5155.65 -5155.97 -5168.07 -5177.63 -5179.94 -5180.30 -5179.37 -5179.21 -5176.77 -5172.58 -5169.90 -5163.78 -5159.87 -5153.80 -5137.22 -5119.78 -5105.78 -5102.15 -5090.81 -5080.93 -5043.47 -4965.92 -4665.52 -4388.88 -4032.57 -3660.89 -3302.44 -2937.55 -2474.43 -2096.93 -1890.51 -1578.29 -1335.63 -955.89 -700.50 -547.16 -517.88 -496.17 -468.28 -418.01 -414.66 -393.84 -337.46 -277.12 -105.30 -153.06 -178.94 -91.95 -67.62 -98.07 -72.95 -68.17 -78.84 -87.62 -408.94 -805.23 -1482.67 -2132.51 -2875.08 -3669.91 -4523.03 -6032.16 -7775.55 -8123.83 -8042.41 -7823.92 -8080.41 -8143.19 -8150.79 -8098.62 -7970.55 -7946.30 -7499.04 -5802.16 -3924.17 -3104.70 -3103.85 -3349.39 -3591.06 -3882.02 -3934.50 -3967.08 -3963.57 -3968.46 -3970.16 -3961.38 -3958.88 -3954.81 -3949.81 -3944.41 -3938.11 -3934.30 -3929.31 -3924.16 -3924.22
-4832.65 -4832.58 -4833.67 -4835.09 -4837.76 -4838.89 -4842.98 -4847.16 -4854.52 -4856.94 -4860.12 -4863.18 -4865.24 -4866.01 -4861.23 -4855.99 -4857.53 -4858.00 -4870.31 -4871.62 -4862.93 -4913.50 -4945.05 -5044.74 -5069.06 -5067.41 -5071.89 -5079.62 -5105.08 -5112.06 -5117.38 -5124.51 -5131.35 -5136.28 -5137.88 -5125.28 -5118.89 -5144.46 -5143.33 -5140.76 -5149.50 -5161.22 -5174.88 -5168.68 -5163.54 -5160.02 -5162.17 -5163.28 -5165.27 -5176.73 -5176.89 -5175.55 -5173.34 -5170.36 -5167.13 -5159.52 -5159.18 -5152.47 -5151.66 -5144.94 -5135.46 -5126.20 -5112.10 -5096.60 -5080.13 -5071.08 -5034.54 -4930.15 -4718.62 -4487.73 -3954.14 -3571.28 -3099.62 -2890.52 -2409.89 -2080.10 -1799.66 -1450.74 -1119.90 -808.18 -612.39 -548.68 -504.59 -494.16 -461.36 -425.35 -368.97 -277.64 -117.85 -4.92 107.63 48.57 45.61 54.41 48.27 20.81 38.21 55.30 94.38 1.70 -22.19 -294.75 -1342.86 -1814.13 -2292.98 -3355.86 -3859.14 -5637.07 -5886.76 -6633.42 -7387.81 -7486.86 -7843.18 -8029.43 -7976.13 -7893.67 -7777.88 -7706.17 -7145.97 -5587.98 -3789.28 -3095.73 -3028.30 -3270.53 -3491.03 -3824.55 -3938.69 -3979.12 -3977.54 -3977.03 -3966.28 -3962.53 -3958.69 -3955.06 -3949.49 -3942.85 -3938.54 -3934.11 -3931.13 -3925.87 -3925.93
-4831.52 -4831.46 -4831.64 -4830.94 -4832.19 -4833.70 -4837.93 -4841.29 -4845.29 -4848.87 -4852.88 -4853.63 -4855.79 -4856.53 -4853.44 -4848.85 -4849.81 -4852.71 -4860.37 -4876.31 -4865.47 -4861.38 -4933.58 -4965.69 -5050.59 -5067.39 -5069.20 -5083.09 -5096.67 -5110.61 -5118.70 -5120.76 -5122.93 -5122.12 -5083.31 -5057.33 -5008.91 -4959.63 -5010.65 -5000.73 -5030.85 -5086.19 -5142.55 -5149.93 -5161.49 -5155.61 -5164.61 -5164.02 -5165.37 -5173.43 -5175.63 -5172.77 -5167.31 -5165.48 -5159.69 -5156.05 -5148.33 -5143.26 -5144.93 -5138.47 -5127.27 -5113.73 -5109.97 -5097.97 -5080.20 -5056.88 -5038.04 -4906.53 -4699.60 -4281.67 -3874.36 -3258.42 -2958.87 -2628.22 -2462.33 -1999.73 -1691.95 -1365.35 -1005.67 -806.22 -602.50 -548.20 -549.71 -501.79 -483.44 -227.70 7.65 95.32 219.31 193.84 196.06 211.53 204.52 215.22 207.24 161.65 124.44 64.17 34.32 -156.25 -14.88 -17.52 -387.22 -1335.24 -1821.31 -1643.32 -1936.67 -3330.98 -2538.35 -4488.16 -6056.54 -6971.60 -7593.81 -7841.89 -7814.58 -7414.71 -7330.09 -7259.90 -6739.98 -5382.45 -3776.38 -2937.70 -2944.74 -3214.28 -3485.95 -3728.61 -3940.18 -3981.43 -3982.13 -3972.14 -3963.15 -3958.73 -3956.29 -3955.71 -3947.11 -3942.64 -3938.37 -3933.62 -3930.51 -3927.51 -3926.98
-4833.33 -4833.27 -4833.52 -4831.92 -4830.96 -4832.29 -4833.83 -4833.96 -4837.49 -4842.45 -4843.05 -4844.43 -4847.77 -4849.62 -4848.44 -4845.93 -4847.98 -4855.63 -4863.54 -4878.59 -4890.40 -4867.75 -4883.78 -4953.80 -5029.02 -5050.43 -5047.08 -5075.94 -5090.98 -5098.44 -5091.52 -5094.01 -5039.99 -5034.72 -4946.16 -4702.78 -4333.05 -4517.69 -4574.63 -4552.64 -4662.76 -4794.20 -4992.40 -5068.78 -5083.73 -5108.08 -5145.98 -5142.08 -5152.73 -5154.58 -5169.57 -5166.81 -5163.70 -5157.86 -5155.05 -5147.22 -5142.21 -5137.38 -5132.23 -5127.69 -5122.20 -5119.31 -5106.17 -5092.16 -5083.42 -5068.04 -5048.02 -4887.07 -4563.06 -4240.03 -3738.87 -3256.54 -2956.67 -2603.64 -2373.61 -2000.35 -1638.53 -1358.88 -956.63 -795.26 -639.24 -558.76 -429.19 -303.56 -137.92 41.58 220.40 219.46 221.17 228.29 238.22 245.95 249.07 242.12 243.25 230.33 97.49 -261.30 -478.21 -450.71 -575.28 -337.78 -117.14 -48.93 -122.15 -449.63 -842.83 -968.58 -1163.24 -2659.70 -4618.85 -6484.59 -7053.04 -7566.36 -7609.66 -7225.47 -6728.90 -6732.51 -6190.40 -5119.09 -3225.45 -2781.60 -2893.78 -3159.00 -3492.09 -3794.49 -3938.50 -3976.93 -3976.43 -3969.08 -3959.52 -3956.70 -3953.87 -3951.52 -3945.52 -3940.33 -3934.11 -3930.55 -3928.66 -3925.62 -3925.68
-4851.30 -4851.91 -4841.46 -4841.08 -4835.61 -4841.16 -4833.70 -4831.33 -4831.24 -4830.77 -4830.00 -4832.69 -4835.41 -4837.96 -4843.54 -4854.08 -4857.45 -4876.09 -4877.57 -4892.26 -4899.06 -4870.80 -4828.16 -4796.58 -4864.85 -4924.39 -4996.19 -5020.84 -5067.66 -5082.59 -5057.10 -4972.94 -4663.19 -4460.08 -4244.50 -3906.57 -3280.60 -3129.78 -3462.17 -3602.28 -3674.97 -3760.13 -4472.76 -4885.32 -4802.91 -5063.39 -5091.56 -5099.25 -5096.74 -5133.63 -5141.85 -5140.93 -5161.23 -5153.29 -5146.84 -5140.47 -5135.65 -5127.73 -5123.34 -5115.75 -5113.75 -5111.54 -5093.61 -5090.49 -5081.02 -5065.61 -4938.85 -4832.86 -4464.28 -4259.72 -3873.20 -3448.32 -3029.69 -2513.10 -2383.70 -1924.94 -1598.36 -1311.46 -1000.33 -830.94 -705.66 -473.20 -13.60 112.03 237.31 235.49 234.04 236.12 234.86 252.56 269.53 257.22 261.36 270.23 269.01 251.21 30.70 -580.04 -1632.08 -1611.24 -1580.89 -1786.84 -1486.98 -385.80 -679.83 -505.18 -274.90 -257.76 -325.94 -660.69 -1528.24 -4983.06 -6269.89 -7072.68 -7406.63 -7044.97 -6420.53 -6207.31 -5753.17 -4423.45 -3527.10 -2507.79 -2680.01 -3105.72 -3394.81 -3814.36 -3940.69 -3993.84 -3978.24 -3964.34 -3957.64 -3955.12 -3951.16 -3947.56 -3941.91 -3937.09 -3931.11 -3928.71 -3927.63 -3923.89 -3923.95
-4910.00 -4910.01 -4924.05 -4890.22 -4888.84 -4885.81 -4862.79 -4854.74 -4840.49 -4837.61 -4831.16 -4829.32 -4831.90 -4835.84 -4859.83 -4874.70 -4896.11 -4908.48 -4912.35 -4922.79 -4927.81 -4870.77 -4795.33 -4531.04 -4239.20 -4162.41 -4556.28 -4751.20 -4749.29 -4974.53 -4860.21 -4460.45 -4136.29 -3674.28 -3112.41 -2652.66 -2361.34 -2347.18 -2539.18 -2496.25 -2580.17 -3168.35 -3182.78 -3846.76 -4135.39 -4456.59 -5013.93 -4983.88 -5027.59 -5039.29 -5077.70 -5084.21 -5092.88 -5136.24 -5135.96 -5129.39 -5125.97 -5123.26 -5116.79 -5109.78 -5107.74 -5106.04 -5096.94 -5085.30 -5068.52 -5017.88 -4920.06 -4721.16 -4345.49 -3930.21 -3595.99 -3118.74 -2844.14 -2538.35 -2048.05 -1791.95 -1475.40 -1153.23 -872.86 -902.54 -461.41 -222.54 78.42 244.94 249.43 254.61 267.28 256.80 256.91 291.15 290.46 295.32 294.23 288.88 280.51 244.77 -168.20 -970.93 -2375.12 -3137.61 -3020.18 -2900.15 -2906.74 -1903.43 -1946.33 -1564.26 -1684.25 -541.06 -443.63 -347.60 -1190.59 -3169.82 -5943.00 -6445.37 -6681.44 -6203.32 -5873.76 -5633.03 -5337.61 -4841.85 -3115.45 -2533.09 -2575.88 -2933.99 -3199.66 -3613.63 -3947.42 -3993.38 -3981.62 -3964.63 -3954.89 -3951.48 -3945.97 -3944.11 -3937.85 -3933.63 -3929.36 -3927.59 -3926.27 -3921.90 -3921.96
-5026.33 -5037.91 -5041.28 -5021.50 -4997.90 -4948.47 -4938.03 -4893.40 -4910.16 -4914.10 -4869.70 -4880.95 -4881.86 -4878.04 -4905.77 -4932.25 -4970.16 -4969.68 -4987.33 -4973.48 -4967.88 -4829.81 -4454.31 -3885.67 -3188.37 -3314.63 -3319.63 -4020.62 -4131.41 -4474.31 -4257.33 -3509.60 -2862.14 -2580.94 -2249.62 -1829.18 -1730.40 -1759.86 -1849.39 -1815.24 -1887.88 -1996.34 -2317.46 -2688.54 -3339.78 -3748.48 -4329.90 -4693.07 -4767.66 -4713.75 -4784.48 -4875.34 -5019.13 -5060.96 -5116.22 -5118.64 -5119.79 -5116.00 -5112.49 -5108.39 -5105.15 -5104.00 -5101.91 -5071.27 -5065.79 -4974.15 -4882.69 -4658.13 -4261.18 -3768.79 -3301.23 -3053.87 -2825.93 -2583.61 -1949.14 -1625.04 -1250.48 -973.06 -441.84 -436.54 44.62 172.74 187.43 258.86 270.81 282.33 288.21 295.51 298.67 309.06 315.73 308.46 308.08 299.28 276.85 232.34 154.90 -612.66 -1472.55 -2630.00 -3261.39 -3677.35 -3771.21 -3620.69 -3436.77 -3103.27 -2365.49 -1688.41 -851.66 -784.19 -1425.05 -4273.72 -5573.90 -5845.07 -5741.48 -5597.62 -5288.96 -5364.19 -5053.27 -4485.64 -3144.93 -2526.29 -2592.81 -3102.75 -3447.41 -3665.35 -3953.65 -3995.49 -3981.57 -3966.16 -3956.10 -3948.20 -3944.03 -3940.19 -3935.13 -3930.98 -3928.28 -3926.12 -3921.97 -3919.16 -3919.02
-5227.53 -5204.06 -5168.05 -5157.59 -5111.52 -5098.52 -5072.32 -5035.76 -4969.92 -4991.02 -4970.09 -4955.74 -4960.62 -4999.43 -5080.09 -5059.57 -5109.30 -5083.26 -5071.51 -5048.99 -5010.59 -4829.61 -4095.33 -3052.03 -2354.46 -2235.26 -2654.77 -2975.90 -2935.70 -3411.79 -3608.63 -2931.54 -2099.26 -1796.92 -1653.71 -1441.74 -1121.95 -1265.31 -1204.04 -1556.63 -988.72 -1725.15 -2040.51 -2254.39 -2493.67 -2801.91 -3637.72 -4057.16 -4154.96 -4303.96 -4428.37 -4628.85 -4650.62 -4881.87 -5065.56 -5097.79 -5064.20 -5090.89 -5066.27 -5081.05 -5104.95 -5100.48 -5097.05 -5092.24 -5077.15 -5027.10 -4856.14 -4506.99 -3984.15 -3611.34 -3245.45 -3010.41 -2880.57 -2595.45 -2256.83 -1447.05 -823.65 -616.22 -289.32 94.29 249.85 261.95 265.83 277.19 282.74 302.75 319.19 312.95 318.02 341.45 345.83 345.64 333.40 330.15 293.12 249.14 206.47 112.61 76.22 -1313.72 -2380.23 -3866.35 -4129.98 -4149.75 -4179.49 -4087.86 -3446.06 -2833.10 -2235.02 -1731.71 -1624.43 -2466.69 -2331.70 -2370.33 -2593.03 -2332.98 -4227.30 -4409.83 -4099.35 -4142.31 -3105.71 -2768.57 -2783.23 -3098.10 -3694.06 -3942.01 -3991.47 -4001.37 -3982.66 -3966.92 -3955.26 -3948.32 -3945.80 -3935.96 -3932.57 -3928.53 -3926.33 -3921.79 -3920.74 -3917.59 -3917.65
-5395.58 -5395.39 -5317.48 -5294.66 -5274.29 -5287.41 -5279.74 -5213.76 -5194.60 -5146.26 -5117.16 -5081.51 -5154.57 -5165.09 -5188.55 -5183.26 -5181.00 -5250.97 -5239.40 -5207.56 -5102.66 -4811.70 -3937.11 -3100.90 -1951.86 -1847.28 -1844.95 -2008.30 -2180.81 -2577.78 -2595.81 -2274.40 -1897.40 -1510.56 -1088.91 -438.55 -430.86 -211.62 -395.53 -518.49 -167.93 -1461.70 -1704.22 -1692.29 -1845.81 -2017.47 -2529.71 -2981.52 -3416.07 -3248.81 -3337.84 -3601.84 -3879.29 -4192.59 -4711.33 -4810.20 -4989.90 -4934.90 -4811.13 -4960.68 -5061.35 -5096.53 -5037.77 -5005.03 -4925.89 -4765.68 -4797.27 -4086.34 -3760.47 -3394.76 -3037.83 -2905.58 -2853.47 -2195.11 -1687.29 -1023.72 -346.18 54.58 246.61 259.68 267.45 274.09 288.58 298.92 323.02 331.04 339.24 336.63 355.68 360.59 377.23 378.73 383.29 365.73 341.76 297.75 257.11 147.71 108.40 -917.08 -2448.62 -3972.15 -4291.85 -4417.78 -4422.89 -4363.13 -4314.21 -4268.61 -3844.14 -2765.60 -2074.97 -1254.26 -937.52 -955.83 -1038.57 -1255.30 -2045.28 -2458.36 -2968.43 -3829.74 -3472.25 -2934.10 -2725.50 -3121.94 -3574.89 -3896.88 -4009.62 -4011.61 -3990.13 -3975.43 -3956.75 -3949.93 -3940.80 -3936.49 -3932.06 -3925.14 -3922.76 -3919.40 -3918.58 -3917.07 -3916.71
-5507.13 -5507.00 -5511.22 -5445.09 -5413.43 -5393.19 -5374.51 -5333.60 -5351.49 -5328.22 -5316.90 -5280.03 -5287.52 -5320.74 -5330.26 -5403.75 -5408.80 -5479.03 -5396.30 -5353.82 -5257.76 -4858.53 -3798.71 -2835.41 -1996.08 -1902.30 -1896.75 -1905.04 -1851.27 -2080.05 -2138.39 -2118.20 -1555.45 -874.10 -316.33 -79.13 152.30 249.57 79.92 90.53 243.95 126.42 -1428.60 -1298.87 -933.09 -1312.31 -1682.40 -2136.63 -2345.98 -2466.04 -2567.33 -2664.73 -2960.13 -3232.19 -3918.51 -4463.56 -4554.33 -4591.84 -4581.42 -4636.75 -4733.39 -4456.91 -4737.45 -4710.11 -4453.92 -4141.41 -4130.32 -3364.99 -3348.57 -2561.46 -2590.96 -2318.16 -1682.71 -1030.73 -400.95 12.40 254.84 264.36 269.96 273.73 277.17 287.01 309.56 327.86 335.00 341.86 354.31 372.39 375.85 384.43 402.53 423.32 418.33 393.18 336.83 318.82 299.32 267.98 167.63 -453.92 -3005.33 -3998.92 -4372.44 -4450.05 -4484.39 -4439.77 -4509.65 -4672.02 -4647.54 -4055.41 -3169.33 -2417.73 -1322.09 -901.00 -737.86 -702.00 -1206.14 -1491.77 -2423.04 -3456.27 -3295.09 -2835.36 -2692.63 -3024.23 -3329.44 -3788.26 -3978.34 -4011.76 -3994.71 -3977.74 -3962.10 -3951.15 -3941.86 -3935.61 -3929.54 -3924.14 -3920.79 -3918.61 -3917.74 -3915.05 -3915.11
-5559.73 -5559.64 -5561.08 -5535.45 -5538.52 -5530.18 -5503.67 -5491.61 -5516.07 -5503.15 -5462.75 -5491.14 -5463.86 -5510.32 -5531.26 -5511.33 -5506.88 -5532.67 -5540.89 -5492.81 -5359.35 -5082.20 -3951.78 -3180.47 -2273.30 -2225.26 -2327.13 -2299.65 -2071.04 -2096.13 -2133.95 -1777.97 -1270.52 -212.00 151.15 269.04 293.28 310.56 279.24 241.01 250.18 225.07 -335.65 -94.62 -151.88 -396.33 -1004.45 -1478.60 -1570.68 -2009.24 -2083.93 -1867.37 -1840.26 -2883.40 -3026.07 -3420.58 -3661.24 -3834.98 -3729.09 -3793.20 -3448.41 -3798.88 -3597.88 -3890.15 -3530.63 -2955.21 -2446.79 -2340.86 -2050.92 -1986.04 -1690.78 -1337.74 -976.12 -638.18 246.89 255.65 265.54 279.09 283.37 296.28 302.05 307.00 321.51 340.84 365.95 383.18 400.06 391.56 395.18 423.65 430.86 452.71 442.28 402.69 387.19 336.37 313.06 341.10 167.64 -290.64 -1843.63 -2703.89 -4417.71 -4517.23 -4459.44 -4502.97 -4625.40 -4827.74 -4878.47 -4872.91 -4241.63 -3326.24 -2570.84 -1570.70 -988.65 -785.51 -883.33 -1082.21 -1526.98 -2238.75 -2977.23 -2897.59 -2776.89 -3148.24 -3437.29 -3731.09 -3963.93 -4017.31 -3996.99 -3974.87 -3967.62 -3957.21 -3946.15 -3936.21 -3929.23 -3923.40 -3920.19 -3917.49 -3916.24 -3913.43 -3913.49
-5573.52 -5573.16 -5573.01 -5569.43 -5568.60 -5564.36 -5563.92 -5581.23 -5572.40 -5580.17 -5574.70 -5587.24 -5600.85 -5605.12 -5604.38 -5616.78 -5616.08 -5622.68 -5625.23 -5573.95 -5463.26 -5312.49 -4577.22 -3632.29 -3558.71 -3105.75 -3338.26 -3487.30 -3062.51 -2565.75 -2174.65 -829.97 -201.59 199.86 198.51 269.67 349.57 411.38 430.56 388.88 321.63 256.63 229.88 234.21 223.50 224.17 -55.44 -606.48 -986.98 -901.60 -740.76 -1097.24 -1447.59 -616.39 -2152.87 -2170.56 -2049.95 -2199.64 -2353.88 -2187.50 -2176.51 -2366.23 -2246.36 -2689.98 -2583.05 -2261.86 -2183.91 -1927.46 -1909.63 -1862.97 -1397.16 -251.68 120.89 264.99 284.99 310.97 308.73 303.12 302.94 321.92 326.83 333.82 353.50 376.91 387.57 409.10 419.91 419.91 433.19 446.42 459.11 479.99 484.68 433.61 411.60 369.20 374.68 370.58 220.72 -241.33 -509.42 -555.09 -1518.29 -2772.18 -3663.57 -4509.40 -4611.49 -4745.08 -4841.36 -4991.01 -4968.47 -4801.25 -3555.97 -3106.10 -2198.39 -1195.54 -1032.90 -959.09 -989.44 -1305.20 -2156.38 -2899.81 -2861.88 -3172.58 -3532.07 -3726.24 -3970.74 -4021.51 -4010.06 -3989.92 -3975.39 -3962.66 -3948.38 -3941.78 -3932.69 -3925.82 -3921.73 -3917.32 -3914.16 -3912.19 -3912.26
-5571.79 -5572.18 -5572.34 -5572.83 -5573.67 -5578.20 -5583.57 -5593.77 -5607.00 -5605.97 -5606.09 -5619.91 -5625.42 -5630.65 -5629.39 -5630.49 -5631.52 -5637.78 -5641.55 -5632.83 -5597.76 -5484.02 -5107.13 -4787.79 -4648.62 -4877.92 -4751.17 -4323.87 -3763.82 -2009.20 -1270.78 186.40 207.26 222.15 229.99 243.15 314.28 500.61 559.21 426.94 313.45 278.97 263.17 260.81 258.70 250.66 236.51 237.98 229.74 221.84 220.86 221.10 -243.28 -247.66 -1100.68 -1424.40 -1249.63 -1535.06 -1498.82 -1677.86 -1679.43 -1645.82 -1788.39 -1927.63 -2103.47 -2006.16 -1924.51 -1848.08 -1711.45 -1528.81 -1011.79 226.30 270.17 291.75 349.48 429.42 391.10 330.72 331.71 335.59 335.26 358.08 366.55 395.58 411.31 435.56 446.23 452.94 468.10 462.02 479.25 515.28 495.81 464.48 437.65 419.72 400.40 463.62 363.09 139.46 -28.44 -42.72 -466.82 -1331.14 -2764.18 -4526.25 -4589.59 -4567.90 -4763.37 -4926.82 -5006.57 -5065.63 -4912.63 -4428.17 -3396.92 -2736.49 -2266.63 -1313.56 -1187.08 -1204.25 -1343.13 -1760.24 -2764.35 -3430.03 -3709.26 -3929.32 -4015.09 -4025.35 -4009.35 -3999.99 -3983.88 -3969.32 -3954.09 -3943.65 -3936.13 -3928.22 -3920.99 -3916.41 -3913.73 -3912.05 -3911.72
-5566.86 -5567.40 -5568.01 -5569.49 -5570.79 -5574.34 -5581.49 -5596.75 -5609.63 -5612.60 -5613.93 -5613.78 -5624.62 -5633.04 -5634.09 -5636.10 -5632.95 -5641.38 -5644.10 -5646.96 -5639.73 -5620.57 -5561.51 -5459.48 -5458.12 -5472.29 -5289.18 -5058.27 -4450.57 -1020.22 185.30 204.31 221.28 224.24 229.32 246.12 310.91 369.52 494.19 440.03 469.48 351.42 342.89 283.78 281.13 273.51 250.18 252.62 244.05 233.39 232.53 226.54 222.76 173.46 81.71 -184.18 -532.05 -796.59 -1096.24 -1352.42 -1388.52 -1453.75 -1534.35 -1536.20 -1723.29 -1860.94 -1870.40 -1743.75 -1376.31 -976.01 -274.39 258.99 297.95 320.61 367.76 484.39 486.06 371.28 356.03 351.94 364.63 393.95 395.67 416.97 435.39 449.05 470.62 491.29 494.14 503.87 532.85 541.51 537.77 499.28 487.90 465.09 459.37 491.84 453.89 459.77 159.57 131.43 -5.60 -1471.72 -2645.08 -4315.16 -4344.95 -4379.88 -4555.11 -4825.24 -4834.50 -4979.52 -5084.39 -4970.85 -4647.00 -4049.84 -3570.64 -2913.64 -2026.36 -1271.90 -1071.95 -1071.73 -2003.65 -3389.80 -4066.37 -4154.93 -4044.73 -4036.23 -4009.76 -4000.59 -3986.46 -3969.36 -3956.86 -3948.78 -3937.73 -3930.52 -3924.58 -3917.64 -3912.70 -3911.66 -3911.55
-5561.76 -5561.70 -5562.28 -5564.11 -5567.22 -5569.83 -5576.36 -5588.58 -5599.32 -5604.91 -5614.17 -5620.98 -5631.90 -5634.73 -5636.53 -5635.74 -5633.31 -5638.30 -5642.10 -5648.17 -5649.17 -5639.35 -5615.47 -5610.72 -5590.28 -5570.10 -5584.65 -5764.72 -5506.92 -2173.54 198.25 217.10 221.82 224.17 239.99 276.62 313.11 352.58 441.73 547.89 556.30 468.07 478.00 334.62 323.12 319.21 349.50 314.92 301.24 271.63 262.63 256.55 233.49 223.31 172.05 67.09 -50.79 -165.40 -332.94 -826.03 -969.54 -1043.89 -1222.88 -1331.31 -1468.05 -1672.11 -1783.59 -1480.39 -335.31 134.96 224.63 275.91 333.60 377.07 445.67 486.80 492.97 402.84 373.69 383.03 388.83 396.45 405.78 428.14 448.03 467.53 498.14 513.16 520.85 528.66 547.49 553.59 566.66 552.19 526.97 509.05 517.22 503.35 437.28 474.99 275.49 188.38 52.45 -1041.95 -2236.15 -3171.16 -4126.04 -4271.36 -4511.37 -4692.39 -4821.14 -4978.93 -5088.56 -5161.63 -5124.67 -4982.16 -4856.87 -4417.80 -3319.35 -2075.62 -1338.63 -975.94 -1710.38 -3321.72 -4216.15 -4256.58 -4147.34 -4067.85 -4027.26 -3997.50 -3988.92 -3973.65 -3959.64 -3951.38 -3941.56 -3932.73 -3925.84 -3920.40 -3913.38 -3910.65 -3910.72
-5560.41 -5560.43 -5561.27 -5562.51 -5564.98 -5567.83 -5572.32 -5585.76 -5594.48 -5600.64 -5607.87 -5611.31 -5617.27 -5622.88 -5630.38 -5633.57 -5633.74 -5637.65 -5643.59 -5647.13 -5651.00 -5649.89 -5638.87 -5620.82 -5598.53 -5600.94 -5688.28 -5994.17 -6229.09 -4597.09 -987.68 217.05 222.46 224.75 230.21 268.15 307.10 357.49 406.74 484.33 573.09 565.84 496.41 426.76 586.36 586.62 616.63 454.54 400.68 319.11 278.76 279.48 269.85 242.81 233.94 178.53 223.10 218.64 213.05 22.46 -401.12 -585.27 -735.90 -975.49 -781.67 -1247.95 -1033.00 -554.04 -87.86 180.32 248.51 328.41 358.20 418.80 473.20 442.56 423.38 387.33 380.22 392.65 406.12 406.64 429.79 448.51 464.64 488.24 508.59 529.09 551.02 559.61 568.23 591.52 598.49 582.73 584.67 564.39 554.34 523.23 460.91 408.04 397.24 382.70 260.65 -340.04 -1126.46 -3376.97 -3838.76 -4256.35 -4478.77 -4617.09 -4815.56 -4845.44 -4987.75 -5136.32 -5192.40 -5195.80 -5112.23 -4872.38 -4173.88 -3048.93 -1491.12 -1046.67 -1530.80 -2782.48 -3737.41 -4464.43 -4238.37 -4107.73 -4040.15 -4014.89 -3988.31 -3975.29 -3963.38 -3956.01 -3947.11 -3938.12 -3929.43 -3921.01 -3914.91 -3909.71 -3908.70
-5562.94 -5562.87 -5562.67 -5564.11 -5565.60 -5570.33 -5572.67 -5578.71 -5580.09 -5585.12 -5597.06 -5604.21 -5602.64 -5613.90 -5624.55 -5628.17 -5631.88 -5636.89 -5643.18 -5646.54 -5648.32 -5644.65 -5630.86 -5616.99 -5590.62 -5594.80 -5817.20 -6174.19 -5732.32 -4143.46 -233.98 217.56 223.02 224.74 225.56 272.08 309.66 342.45 379.70 411.84 495.75 544.81 537.34 530.45 690.45 744.33 756.02 518.81 387.19 383.79 311.40 301.62 294.75 285.05 264.54 244.58 229.79 228.97 221.80 217.22 157.11 59.47 -205.93 -309.44 -19.79 -199.45 -319.84 247.49 247.43 255.86 279.72 347.73 392.35 420.41 412.30 395.63 383.77 384.04 388.95 401.57 411.67 422.41 443.45 464.03 491.68 508.57 527.79 550.28 576.13 584.42 611.57 641.40 646.11 632.95 612.20 591.23 520.89 471.74 444.75 381.34 385.45 533.96 313.59 -10.22 -953.25 -2667.62 -3344.87 -4345.28 -4401.70 -4477.07 -4586.14 -4674.58 -4940.81 -5121.55 -5206.37 -5212.86 -5201.62 -5056.87 -4564.95 -2854.39 -1622.77 -1018.32 -1181.39 -1707.57 -2856.63 -3806.41 -4407.77 -4191.73 -4077.98 -4019.57 -4009.83 -3983.86 -3971.76 -3956.33 -3951.06 -3939.39 -3931.38 -3923.35 -3914.86 -3907.42 -3907.48
-5559.74 -5559.67 -5559.06 -5561.22 -5563.54 -5568.24 -5567.06 -5566.50 -5561.14 -5566.82 -5570.05 -5582.18 -5588.27 -5599.31 -5611.42 -5619.93 -5628.25 -5634.52 -5638.19 -5641.63 -5641.82 -5637.31 -5623.36 -5603.07 -5587.82 -5617.60 -5935.04 -6318.66 -5838.38 -4321.85 -846.87 219.24 224.25 224.47 233.32 249.15 290.56 363.07 390.23 424.89 504.98 569.08 584.03 638.79 790.93 952.98 918.52 622.80 516.41 514.75 376.47 314.20 304.54 303.47 280.04 268.33 255.11 250.77 237.47 242.65 243.51 235.65 246.17 242.78 250.93 276.94 292.14 276.89 309.77 337.45 340.38 364.35 382.67 378.76 363.53 371.23 379.55 384.04 391.09 405.67 415.13 435.94 453.84 473.00 501.06 514.19 557.91 576.76 593.72 613.14 634.48 648.86 650.91 667.26 633.99 571.84 587.70 514.34 454.29 459.03 550.61 648.33 451.83 197.41 -728.88 -1477.47 -1940.77 -3217.33 -4521.83 -4503.73 -4516.17 -4637.42 -4865.28 -5052.91 -5187.81 -5215.21 -5217.44 -5165.76 -4678.01 -3170.65 -1760.23 -782.45 -781.68 -1043.10 -2021.05 -3359.01 -4504.85 -4312.33 -4134.82 -4066.68 -4020.76 -3997.40 -3973.53 -3965.82 -3958.21 -3945.00 -3935.12 -3926.41 -3916.30 -3906.84 -3906.91
-5546.47 -5546.42 -5544.10 -5548.75 -5557.00 -5560.68 -5560.26 -5559.70 -5550.08 -5546.96 -5556.10 -5562.52 -5573.20 -5586.28 -5598.29 -5613.08 -5619.86 -5624.38 -5632.45 -5637.05 -5638.42 -5633.79 -5620.97 -5597.13 -5586.94 -5665.12 -5968.80 -5843.20 -5196.75 -318.72 213.07 224.78 224.42 230.32 255.86 274.44 287.93 359.41 439.84 445.40 491.99 607.56 731.44 855.71 1049.08 1084.98 1161.16 813.02 734.05 600.40 417.89 374.97 342.72 351.11 319.02 297.62 283.42 272.34 262.28 271.60 270.42 267.93 265.75 265.30 271.08 290.22 327.95 325.70 351.63 358.48 358.36 339.72 326.08 359.57 354.24 348.55 361.53 376.77 388.20 406.47 419.48 444.51 468.26 494.69 515.64 538.85 571.40 581.65 611.07 630.92 644.50 662.45 684.78 695.51 654.47 674.85 641.15 553.74 503.96 561.73 517.42 654.20 610.45 254.53 46.05 -303.60 -806.74 -1281.33 -3189.01 -4638.32 -4577.62 -4694.79 -4789.08 -5042.89 -5126.10 -5212.68 -5222.14 -5168.48 -4693.14 -3657.44 -2089.00 -689.85 -688.67 -847.48 -1566.09 -2178.51 -3648.99 -4208.56 -4138.46 -4092.64 -4031.53 -4008.83 -3985.95 -3969.74 -3959.34 -3949.45 -3939.93 -3926.83 -3917.27 -3907.67 -3907.73
-5526.73 -5528.71 -5530.57 -5532.91 -5536.73 -5542.41 -5547.18 -5539.85 -5533.69 -5535.83 -5542.55 -5549.43 -5562.17 -5575.80 -5595.15 -5606.37 -5617.61 -5622.23 -5627.68 -5630.68 -5633.61 -5631.51 -5625.39 -5596.11 -5597.31 -5829.51 -5964.58 -3864.13 -1169.66 180.76 228.15 226.40 232.53 241.70 267.20 283.87 319.78 384.11 436.84 556.15 494.86 590.34 724.56 753.87 919.54 1127.78 1285.37 1152.06 748.54 545.97 438.21 378.34 367.30 363.02 354.28 323.03 308.17 295.28 288.58 279.37 282.95 281.61 284.46 279.27 323.53 342.96 362.60 364.80 371.72 367.59 345.34 329.73 323.23 345.62 346.12 353.84 363.08 378.27 393.16 416.66 427.70 448.63 470.96 499.47 523.07 551.16 575.78 592.62 615.82 633.27 684.36 699.80 714.44 718.92 725.10 675.97 643.13 611.89 613.54 665.88 527.56 549.82 600.27 422.59 227.91 -42.89 -377.35 -1417.56 -2623.88 -4727.57 -4624.80 -4677.22 -4798.17 -4986.72 -5110.27 -5184.48 -5197.08 -5170.27 -4960.93 -3804.15 -1836.50 -628.07 -496.65 -676.98 -801.02 -1601.75 -2268.27 -3439.20 -3899.16 -4074.82 -4043.91 -4028.84 -4000.51 -3976.40 -3962.60 -3949.90 -3939.34 -3926.73 -3918.79 -3908.75 -3907.14
-5502.42 -5502.37 -5502.65 -5509.03 -5517.41 -5520.34 -5516.87 -5521.20 -5516.10 -5520.47 -5529.07 -5540.14 -5552.28 -5562.49 -5589.97 -5595.65 -5608.33 -5616.39 -5623.29 -5629.39 -5632.60 -5640.87 -5637.39 -5605.34 -5617.04 -5860.44 -5970.06 -3122.18 -374.04 203.52 230.77 244.91 263.92 286.36 289.50 314.73 337.08 394.26 450.77 526.28 558.30 579.26 620.71 710.12 885.87 1046.04 1246.93 1083.01 904.43 741.68 473.36 412.45 371.60 378.48 371.16 351.00 332.74 321.17 311.47 308.76 320.56 317.73 330.57 375.78 397.40 387.23 369.20 338.80 335.52 335.51 330.91 323.85 328.54 345.39 349.81 357.22 369.27 386.72 395.48 416.42 431.38 451.74 477.78 502.22 530.68 558.21 579.75 594.85 631.81 647.22 685.09 710.47 732.84 751.63 742.86 738.88 697.54 642.69 685.48 716.55 586.10 485.17 395.52 387.32 219.25 55.45 -154.10 -553.39 -2483.22 -4709.27 -4644.44 -4680.76 -4815.16 -4957.22 -5068.15 -5147.31 -5168.36 -5124.10 -4838.61 -4420.32 -1795.02 -706.39 -421.97 -510.66 -593.94 -1427.52 -2178.17 -3183.86 -3817.53 -3829.40 -4029.96 -4024.51 -4009.67 -3985.40 -3966.90 -3946.90 -3938.65 -3929.56 -3917.90 -3906.19 -3906.26
-5471.80 -5471.76 -5466.32 -5477.95 -5481.96 -5494.41 -5489.56 -5502.07 -5500.40 -5498.23 -5507.54 -5527.31 -5539.56 -5553.59 -5574.92 -5592.55 -5601.40 -5612.49 -5618.70 -5629.84 -5640.68 -5658.66 -5537.81 -5602.99 -5438.67 -5178.06 -4336.43 -1871.57 -360.20 232.38 238.81 257.17 273.45 298.47 317.85 321.24 357.71 390.61 399.26 460.42 574.67 691.87 650.42 703.62 809.40 843.64 1106.50 1167.59 819.44 679.95 529.50 424.17 402.74 398.45 388.85 375.54 351.18 340.66 359.36 355.76 353.66 378.68 430.43 422.32 402.88 383.15 356.33 335.83 332.97 329.53 326.01 322.98 326.52 341.63 348.69 357.91 372.19 389.69 400.50 413.64 438.76 469.81 485.58 502.27 538.53 563.77 584.58 616.00 636.24 672.56 694.62 726.57 747.38 774.22 771.96 753.95 705.05 734.50 721.74 719.92 646.63 542.65 405.61 621.53 312.59 210.33 -114.10 -791.70 -2258.87 -4157.71 -4610.45 -4655.22 -4798.20 -4849.71 -5001.27 -5073.07 -5092.25 -5063.38 -4920.83 -3546.38 -1993.92 -717.45 -387.18 -402.55 -661.00 -1090.21 -2313.81 -2752.37 -3070.07 -3622.32 -4028.85 -4031.76 -4018.34 -3995.87 -3967.83 -3949.86 -3935.90 -3926.47 -3916.75 -3902.49 -3902.56
-5435.03 -5434.98 -5436.26 -5441.85 -5447.61 -5456.76 -5468.71 -5468.27 -5472.39 -5481.29 -5492.29 -5517.48 -5528.21 -5548.73 -5571.20 -5585.90 -5594.99 -5605.73 -5611.80 -5610.95 -5632.77 -5551.14 -5187.64 -4974.36 -4633.33 -4680.68 -1927.10 -262.40 233.38 244.16 253.37 272.29 295.06 318.38 321.38 322.84 374.44 431.34 488.23 633.99 777.54 735.54 670.70 717.66 727.04 883.97 1118.99 1080.60 810.71 580.13 528.52 485.68 475.65 448.91 425.21 399.82 373.79 368.94 369.69 393.72 411.60 461.85 464.75 426.80 386.41 360.83 344.67 331.70 328.66 325.97 323.33 322.90 328.90 339.00 348.41 363.20 381.03 391.77 406.81 417.98 449.00 476.15 495.50 529.87 547.46 571.97 611.78 626.35 643.10 688.85 696.61 724.30 757.11 781.18 806.13 762.05 763.81 818.95 743.18 602.93 550.96 509.40 429.86 766.74 399.72 91.12 -317.31 -1389.94 -2940.77 -4180.94 -4308.98 -4514.40 -4678.05 -4755.44 -4937.93 -5034.35 -5054.78 -5009.74 -4819.69 -3570.76 -2035.29 -571.07 -312.63 -344.60 -525.78 -1125.57 -1787.49 -2225.33 -2680.86 -3428.76 -4004.27 -4015.35 -4026.93 -3996.63 -3974.42 -3947.32 -3932.12 -3920.35 -3911.14 -3899.12 -3899.19
-5396.31 -5399.58 -5397.74 -5412.05 -5415.45 -5419.73 -5424.56 -5446.80 -5452.31 -5464.51 -5470.13 -5495.50 -5519.12 -5533.41 -5556.41 -5573.10 -5586.45 -5595.02 -5604.13 -5516.49 -5469.74 -5271.78 -3947.43 -3054.13 -3078.50 -2866.47 -1711.44 205.76 238.47 254.23 275.31 293.56 316.44 319.55 321.38 384.48 403.34 452.90 558.82 684.04 793.95 934.26 859.20 833.61 890.94 1011.48 1129.17 1083.11 901.74 681.33 606.78 539.26 499.30 488.06 453.33 433.47 408.55 399.26 422.88 473.88 503.46 477.45 413.91 397.68 374.01 349.11 340.93 331.20 328.12 326.48 322.93 322.45 325.59 339.11 349.73 365.56 377.39 393.50 412.63 428.13 460.89 474.97 488.76 533.76 548.04 581.68 627.89 645.58 664.41 683.89 705.82 718.52 755.78 776.44 817.35 818.59 822.31 837.29 730.37 656.85 578.21 562.94 542.97 737.16 606.59 258.03 -175.57 -1317.85 -2937.07 -3742.72 -4122.79 -4315.81 -4536.06 -4697.50 -4836.70 -5013.50 -5007.91 -4991.91 -4745.42 -3540.37 -1879.51 -478.21 -296.41 -281.53 -484.68 -857.90 -1141.63 -1772.02 -2896.78 -3369.38 -3458.46 -3800.31 -3986.70 -4013.16 -3976.62 -3953.87 -3931.76 -3915.64 -3907.11 -3893.98 -3894.05
-5357.07 -5357.02 -5356.32 -5362.79 -5357.25 -5388.10 -5392.71 -5405.40 -5412.00 -5430.97 -5452.38 -5478.31 -5496.55 -5523.31 -5541.92 -5541.86 -5560.81 -5554.75 -5357.01 -5249.78 -4856.79 -4472.57 -3397.85 -1734.51 -1845.91 -1881.03 -1583.23 -347.53 247.95 274.07 296.70 318.38 319.00 320.53 402.45 430.77 471.51 451.57 496.09 588.13 708.03 920.90 1017.36 979.06 961.74 1018.64 963.09 931.43 771.55 771.10 743.75 595.97 510.90 496.25 479.13 461.86 438.36 434.73 479.35 514.05 493.75 438.67 411.47 392.17 376.10 352.59 343.51 333.32 329.64 325.95 324.21 322.16 323.46 332.59 351.92 363.55 383.09 395.56 417.96 447.67 461.22 480.47 514.10 536.86 562.95 601.57 627.40 651.62 670.17 686.86 710.14 731.87 759.04 785.89 812.08 856.56 871.16 862.11 813.60 673.09 602.30 654.31 694.38 829.81 557.09 238.05 65.09 -469.86 -1850.39 -3247.28 -3917.54 -4357.64 -4465.59 -4652.51 -4834.79 -4944.67 -4961.98 -4909.60 -4600.46 -3565.27 -1365.24 -636.68 -238.97 -242.43 -288.22 -706.13 -1266.28 -1581.12 -2150.11 -2465.31 -3014.63 -3551.61 -3972.41 -4027.72 -3982.29 -3956.69 -3931.60 -3918.38 -3903.27 -3889.63 -3889.70
-5316.08 -5316.03 -5309.36 -5320.71 -5327.29 -5333.72 -5336.18 -5371.75 -5382.38 -5408.68 -5430.88 -5450.66 -5484.34 -5501.99 -5502.22 -5495.76 -5375.74 -5245.81 -4835.60 -4183.97 -3580.02 -3436.51 -2748.71 -1673.22 -1441.07 -793.84 -399.09 240.23 264.24 282.12 319.96 321.47 322.12 324.84 475.04 569.59 586.28 467.63 493.26 529.97 760.86 882.13 1044.77 1032.80 954.28 917.76 878.00 788.76 729.76 716.32 705.67 618.44 529.99 500.18 500.56 490.66 450.91 453.29 505.30 521.93 493.22 454.52 423.17 391.25 383.15 359.31 348.33 336.48 329.82 324.86 322.47 321.90 322.15 329.14 351.32 363.98 384.11 391.90 423.24 448.47 465.75 484.64 518.98 540.09 573.48 604.70 624.48 656.29 677.71 697.73 709.66 737.11 763.80 800.43 823.08 839.27 843.77 842.19 887.33 775.78 745.68 777.95 774.04 796.01 419.58 228.49 198.75 -220.26 -1784.25 -3413.73 -4018.91 -4361.32 -4553.33 -4705.17 -4862.35 -4919.16 -4935.93 -4863.91 -4429.11 -3529.15 -1250.48 -440.26 -160.43 -187.14 -263.75 -513.18 -918.48 -1027.30 -1535.01 -2232.15 -2977.83 -3147.41 -3913.20 -4020.56 -3986.07 -3953.45 -3932.86 -3910.22 -3898.45 -3885.48 -3885.55
-5273.30 -5275.74 -5272.00 -5269.71 -5279.16 -5282.68 -5307.21 -5325.24 -5357.76 -5375.69 -5400.22 -5433.57 -5441.39 -5429.35 -5418.02 -5182.21 -4887.90 -4195.98 -3624.27 -3143.89 -3000.60 -2037.66 -1968.27 -1568.22 -556.55 112.00 241.08 254.74 270.54 292.70 321.10 342.01 334.42 337.62 422.89 597.09 610.14 570.98 524.23 597.21 651.27 795.31 968.68 1012.53 964.63 849.56 809.47 762.25 721.49 690.03 640.86 610.19 570.98 536.90 528.14 508.72 490.32 508.18 528.18 505.48 476.15 461.32 440.24 402.98 385.68 376.32 360.57 337.90 330.92 327.60 323.12 322.24 321.89 335.15 345.92 363.44 377.30 400.10 436.83 449.07 476.07 503.76 521.92 545.72 584.97 614.90 641.06 681.66 694.09 706.41 724.02 736.23 760.20 793.30 807.20 800.38 790.71 781.48 798.30 740.02 737.47 727.93 803.90 883.05 654.45 234.76 5.34 -1087.80 -2002.00 -3237.91 -3917.33 -4328.63 -4599.34 -4728.07 -4817.32 -4871.64 -4896.24 -4832.44 -4434.90 -2929.71 -1208.77 -354.09 -164.50 -170.96 -254.88 -391.11 -576.69 -921.31 -1263.96 -1888.10 -2315.52 -3006.13 -3832.40 -3972.29 -3982.90 -3960.46 -3924.73 -3907.21 -3892.85 -3881.47 -3881.54
-5231.43 -5231.38 -5223.24 -5233.95 -5239.73 -5245.72 -5261.29 -5286.62 -5312.10 -5349.34 -5365.51 -5375.37 -5355.96 -5193.10 -4804.83 -4363.04 -3695.81 -3281.85 -2680.84 -2139.49 -1742.69 -1589.65 -1447.93 -1014.16 74.14 190.53 261.49 273.60 277.05 303.43 364.44 412.97 374.61 426.18 473.56 544.64 649.54 675.54 615.75 658.13 817.49 893.87 973.53 947.17 896.97 868.96 839.81 787.35 744.29 711.26 657.15 623.48 586.05 561.91 544.21 524.65 524.64 557.38 555.32 518.95 496.07 468.98 466.11 433.07 402.55 388.64 361.89 341.74 336.73 328.80 324.84 323.88 322.45 333.69 347.30 362.40 379.78 406.43 436.88 445.97 494.66 505.24 527.58 563.60 589.11 620.18 655.32 682.36 698.46 715.94 727.04 745.24 763.39 780.24 794.04 755.79 716.38 719.95 740.16 673.74 636.34 694.73 767.03 856.99 607.80 224.58 -461.10 -1671.33 -2081.74 -3301.84 -4226.36 -4467.02 -4602.88 -4651.96 -4737.27 -4786.46 -4804.83 -4660.10 -4382.85 -2556.93 -1488.65 -272.41 -139.16 -146.24 -236.22 -324.59 -488.64 -800.33 -1054.30 -1575.21 -2309.93 -2803.40 -3800.86 -3947.99 -3980.35 -3951.82 -3926.40 -3904.38 -3894.59 -3878.75 -3876.78
-5194.31 -5194.26 -5184.67 -5183.54 -5193.76 -5210.56 -5241.61 -5270.27 -5303.30 -5354.37 -5352.97 -5275.07 -4978.08 -4830.43 -4344.52 -3676.38 -3170.60 -2455.07 -2012.20 -1814.66 -1536.03 -1450.82 -1433.83 -1437.72 -306.21 247.76 269.42 284.83 295.64 317.33 404.69 474.50 444.20 446.22 558.67 543.31 684.29 786.41 750.14 681.95 745.77 897.64 1002.26 923.45 860.09 816.22 776.32 763.47 726.13 689.53 663.14 620.71 608.21 580.99 567.79 570.84 579.02 601.57 575.52 540.90 522.88 479.88 466.10 441.42 421.37 391.56 375.92 354.32 345.24 333.95 327.06 323.56 326.81 338.62 348.95 363.28 384.42 409.28 435.51 455.15 489.04 510.91 538.93 571.86 591.94 625.89 648.28 678.35 700.74 722.71 730.49 745.40 760.38 775.88 776.70 727.56 692.92 662.04 630.38 613.48 583.75 660.07 664.13 777.90 590.01 204.16 70.19 -822.05 -1613.56 -3465.57 -4583.64 -4665.06 -4597.20 -4622.90 -4682.62 -4711.14 -4750.98 -4475.94 -3877.26 -2251.97 -554.20 -177.53 -95.74 -137.68 -199.49 -302.01 -442.02 -680.29 -1042.48 -1335.57 -1958.70 -2792.88 -3443.11 -3915.09 -3975.10 -3949.48 -3918.63 -3904.12 -3884.75 -3874.03 -3874.10
-5165.75 -5165.68 -5149.28 -5151.12 -5154.56 -5172.85 -5229.75 -5261.32 -5317.40 -5396.30 -5378.21 -5176.66 -4642.85 -3994.69 -3259.62 -3044.58 -2730.75 -2437.62 -1977.78 -1725.75 -1498.16 -1366.24 -1465.85 -1428.34 -525.66 244.93 273.98 300.28 305.16 352.48 444.60 520.67 531.48 530.07 471.92 553.15 719.57 822.87 870.51 849.96 841.62 952.75 998.82 906.80 839.13 807.93 772.86 736.63 712.73 683.29 662.20 637.95 628.36 626.15 611.57 607.31 616.45 641.01 590.75 555.57 544.19 505.15 486.40 444.62 419.39 396.24 380.65 359.81 347.12 339.77 328.49 326.51 324.38 337.40 346.40 363.05 380.68 406.13 425.40 449.69 495.56 518.20 549.08 568.44 612.18 635.76 660.93 690.83 709.47 726.52 733.66 741.16 761.00 772.84 770.67 747.94 752.72 707.79 627.74 564.40 545.70 580.57 605.83 688.20 380.09 239.46 80.23 -423.80 -1190.01 -2416.68 -3594.11 -4617.73 -4587.48 -4559.67 -4637.45 -4641.14 -4640.34 -4251.20 -3207.15 -1679.24 -417.43 -79.37 -69.02 -148.68 -220.99 -353.14 -488.85 -639.89 -895.40 -1301.97 -1904.41 -2422.89 -3381.13 -3827.84 -3965.65 -3933.49 -3910.07 -3896.47 -3879.74 -3869.45 -3869.53
-5164.31 -5162.27 -5149.89 -5151.89 -5165.99 -5188.06 -5297.06 -5345.97 -5394.45 -5484.69 -5356.65 -5103.10 -4214.23 -3576.28 -3078.71 -2841.50 -2735.13 -2540.72 -2162.96 -1706.09 -1521.59 -1437.96 -1480.83 -1159.15 -283.19 249.65 285.56 304.54 311.24 369.66 409.88 476.68 604.21 633.55 570.18 563.54 689.42 731.25 880.44 930.95 1007.95 994.87 932.05 843.85 789.14 757.35 746.05 725.23 705.49 675.60 662.68 645.95 641.63 651.73 662.74 684.95 719.39 706.21 628.05 591.06 607.32 623.88 490.65 471.84 436.69 405.71 387.34 370.89 359.31 351.63 334.79 327.35 323.50 331.91 346.50 359.91 374.60 403.37 421.60 447.97 487.36 516.21 555.91 581.95 603.48 629.77 654.35 691.03 707.78 722.76 729.74 742.83 758.43 771.94 778.09 795.08 816.15 698.90 633.17 574.09 526.25 478.48 504.23 546.75 396.14 230.63 49.18 -213.76 -695.39 -1137.71 -2886.22 -4503.41 -4364.58 -4449.23 -4575.87 -4553.65 -4404.40 -3850.81 -2027.80 -653.91 -140.23 -46.69 -57.81 -122.39 -184.32 -333.02 -483.17 -675.15 -931.89 -1161.46 -2126.40 -2844.98 -3570.53 -3895.92 -3953.75 -3926.25 -3909.34 -3887.69 -3875.43 -3866.60 -3866.68
-5241.68 -5241.53 -5227.34 -5214.37 -5219.93 -5260.29 -5304.77 -5343.32 -5409.49 -5194.35 -4891.43 -4527.55 -3964.94 -3248.95 -3005.82 -2847.51 -2838.58 -2710.66 -2223.62 -1665.25 -1519.62 -1557.29 -1605.58 -729.13 -48.69 234.50 267.83 285.05 340.34 421.08 444.03 475.66 548.75 638.52 665.76 645.32 643.41 631.54 750.60 914.75 998.71 857.42 813.47 820.76 776.38 731.48 714.94 705.02 695.01 680.50 661.39 642.57 642.95 657.77 677.68 698.45 778.96 764.96 712.02 674.39 704.86 688.76 566.86 501.27 450.97 408.46 400.87 387.58 382.58 361.80 345.71 334.02 323.41 329.19 340.09 357.46 378.16 404.28 419.85 459.01 477.45 509.78 551.39 578.66 596.16 634.92 660.21 687.07 709.63 722.83 730.81 744.98 752.26 787.62 808.41 825.84 824.36 770.18 700.16 574.13 561.32 610.77 544.29 392.90 305.71 255.25 129.13 -145.73 -618.79 -1007.11 -2259.30 -4328.42 -4158.87 -4334.30 -4449.78 -4410.49 -4032.10 -3425.47 -1394.22 -260.55 -73.99 -27.18 -79.80 -126.37 -160.47 -281.01 -369.51 -604.35 -814.67 -1382.26 -2582.79 -3295.78 -3805.73 -3975.56 -3940.73 -3924.18 -3894.15 -3884.28 -3870.65 -3864.54 -3864.62
-5406.12 -5399.16 -5293.56 -5159.52 -5148.26 -5178.27 -5119.92 -4882.95 -4766.53 -4541.92 -4096.29 -3602.91 -3564.66 -3302.04 -3277.31 -3064.74 -3027.47 -2854.39 -2350.47 -1630.65 -1405.33 -1247.41 -734.07 -25.77 212.93 249.03 275.59 276.96 356.71 448.36 523.39 515.04 544.49 570.43 638.40 707.66 807.09 792.03 800.76 947.76 974.46 883.44 814.00 743.90 708.52 717.68 683.69 680.27 681.28 650.82 647.40 639.81 643.60 653.86 671.89 684.91 761.24 774.48 796.22 764.18 767.89 780.99 696.15 511.93 480.81 445.49 452.80 415.11 388.02 370.81 356.64 340.62 326.21 325.84 336.74 348.04 367.96 389.77 420.81 453.25 476.77 503.84 533.79 563.21 591.44 627.96 663.55 678.30 707.15 727.35 736.34 749.93 761.04 796.30 819.45 823.11 791.38 719.51 632.12 612.21 581.09 640.97 628.17 361.37 276.67 203.34 40.03 -164.60 -394.87 -1107.79 -1954.23 -3747.10 -3868.49 -4130.53 -4396.97 -4369.48 -3397.70 -2399.15 -673.23 -223.43 -19.03 -43.24 -72.92 -107.15 -162.41 -273.97 -437.52 -685.27 -929.53 -1618.86 -2859.91 -3710.55 -3963.50 -3974.39 -3934.09 -3910.52 -3891.20 -3877.43 -3869.92 -3865.65 -3865.73
-5197.88 -5198.06 -4827.60 -4723.89 -4623.80 -4355.13 -4229.99 -3943.71 -3680.90 -3541.26 -3599.61 -3467.29 -3421.45 -3501.63 -3537.02 -3479.05 -3323.64 -2917.63 -2360.74 -1697.43 -998.92 -810.27 -358.31 178.83 232.62 273.64 278.07 280.24 374.70 453.65 480.78 509.74 592.86 689.04 718.68 815.82 986.24 1000.22 958.13 963.14 963.52 919.99 842.28 752.48 687.03 647.73 661.14 654.53 647.16 630.75 624.54 622.84 626.91 636.68 653.32 676.81 704.10 763.65 843.68 864.37 835.64 827.72 739.00 579.53 480.78 475.42 461.77 447.17 398.58 383.89 370.08 348.62 334.67 323.94 335.41 354.93 377.30 390.64 414.06 438.05 475.49 507.65 523.35 540.58 593.83 625.20 653.15 679.39 706.97 727.88 743.96 756.88 772.63 796.34 814.55 820.66 798.84 739.68 647.11 618.12 625.47 643.15 451.46 318.84 272.32 145.43 -26.52 -334.86 -673.40 -1301.37 -2291.04 -2547.93 -3129.99 -3768.15 -4099.25 -4141.99 -3166.28 -1608.69 -410.80 -114.73 0.73 -43.07 -77.64 -111.10 -153.76 -231.15 -462.62 -856.05 -1342.52 -2287.65 -2746.63 -3524.52 -3883.71 -3955.50 -3926.31 -3907.23 -3885.57 -3879.96 -3869.06 -3861.83 -3861.91
-4059.68 -4061.24 -3980.59 -3708.80 -3742.85 -3346.79 -3342.49 -3259.27 -3274.10 -3307.39 -3380.64 -3457.72 -3555.60 -3640.85 -3651.68 -3674.11 -3541.93 -3201.70 -2483.39 -1935.10 -888.64 -562.90 -68.87 202.69 240.86 275.81 281.04 285.05 351.66 385.24 412.62 502.11 576.62 615.49 718.61 874.42 1051.59 1040.77 868.45 831.06 893.41 875.21 770.57 718.08 655.27 622.31 622.36 626.41 624.32 608.20 610.15 608.73 606.96 609.28 623.16 662.34 666.28 744.21 815.01 923.91 947.19 754.12 627.09 542.02 516.35 499.72 467.07 440.21 398.42 389.54 378.78 359.16 338.74 328.39 329.06 344.26 359.45 385.77 402.20 432.48 460.00 499.97 527.17 548.64 581.83 621.49 645.74 681.54 688.90 734.34 750.61 764.30 780.31 792.45 789.73 813.32 813.33 754.14 710.51 683.10 817.64 625.62 330.73 310.42 223.38 22.54 -123.08 -280.96 -770.66 -1108.30 -1466.90 -2044.50 -2600.83 -3138.94 -3864.08 -3290.59 -2648.67 -1247.42 -314.69 -4.47 -11.88 -51.93 -81.13 -113.97 -149.29 -253.39 -565.81 -1070.68 -1594.41 -2373.01 -3158.10 -3314.43 -3938.16 -3945.76 -3921.15 -3900.90 -3883.60 -3876.10 -3866.56 -3858.10 -3858.19
-3184.93 -3186.42 -3201.87 -3239.43 -3145.97 -3118.36 -3115.28 -3164.25 -3273.08 -3358.05 -3431.61 -3516.02 -3625.92 -3688.96 -3734.13 -3764.73 -3725.30 -3475.81 -3083.78 -2269.69 -1123.02 -275.27 192.60 231.19 246.86 273.22 281.47 286.76 321.86 407.16 451.56 540.85 671.64 759.31 824.95 887.35 912.79 977.38 866.13 706.15 825.09 814.49 703.64 650.80 644.27 606.97 601.21 597.89 596.27 584.02 598.01 594.02 586.18 594.65 603.99 630.43 651.63 699.30 791.87 858.93 862.27 728.55 643.56 590.11 613.57 533.42 465.56 452.06 410.89 392.25 375.82 359.54 341.18 326.62 328.33 345.33 351.96 377.59 394.02 432.93 455.16 489.45 513.59 537.95 588.93 606.84 633.63 668.90 693.03 721.15 754.19 758.27 776.86 738.78 730.80 763.63 784.42 761.28 766.76 769.15 775.55 482.41 306.17 294.63 131.62 -24.39 -166.37 -220.56 -375.86 -561.48 -922.70 -1556.28 -2003.63 -2079.04 -2144.28 -2323.91 -1647.04 -454.98 -40.49 6.30 -14.41 -65.15 -93.54 -131.11 -152.54 -298.17 -602.21 -1179.21 -1901.94 -2521.93 -3144.10 -3660.59 -3951.89 -3938.90 -3912.39 -3894.26 -3879.29 -3873.70 -3861.21 -3851.76 -3851.84
-3145.76 -3145.67 -3131.09 -3109.92 -3121.33 -3150.46 -3191.85 -3254.08 -3339.91 -3404.52 -3497.98 -3561.42 -3646.04 -3694.96 -3761.89 -3802.81 -3752.48 -3586.25 -3273.16 -2228.79 -1981.50 -645.97 106.89 218.84 246.67 265.09 278.09 295.93 337.33 383.24 473.10 537.30 640.79 703.63 847.31 785.63 752.70 825.35 778.78 698.31 757.53 763.52 670.88 590.98 585.48 556.49 563.32 567.71 557.17 558.47 567.41 560.59 564.45 576.76 586.98 616.97 640.04 676.17 714.63 839.57 858.41 705.81 646.29 690.36 720.44 599.18 486.77 496.38 444.93 403.85 379.68 365.29 343.68 325.44 329.06 346.94 361.91 385.45 398.48 432.41 454.44 470.49 508.21 533.24 559.75 589.05 625.72 655.02 688.05 736.96 742.30 750.37 780.04 734.77 681.73 710.76 732.75 726.72 802.45 791.69 581.38 300.66 255.11 191.92 54.66 -36.17 -81.47 -126.08 -238.98 -331.14 -937.22 -1288.00 -1510.29 -1642.76 -1723.01 -1385.85 -575.49 -157.12 27.58 11.55 -37.57 -82.58 -98.49 -133.06 -193.87 -324.06 -810.47 -1124.66 -2244.75 -2840.82 -3520.81 -3975.36 -3949.44 -3930.01 -3903.57 -3890.54 -3873.45 -3863.97 -3856.01 -3845.35 -3845.43
-3279.03 -3278.22 -3254.02 -3224.09 -3237.16 -3269.15 -3287.86 -3330.59 -3394.91 -3470.83 -3531.46 -3581.14 -3653.97 -3719.27 -3764.74 -3806.51 -3768.22 -3662.72 -3198.80 -2521.37 -1494.92 -305.80 93.94 234.84 247.13 256.15 266.30 282.18 319.30 334.05 408.28 481.82 513.32 645.90 710.02 578.02 629.68 729.24 710.29 611.95 599.13 616.41 547.24 546.01 536.81 542.48 541.72 534.82 542.14 536.67 536.56 537.43 552.85 567.87 583.23 603.59 623.93 659.49 724.33 829.93 857.04 768.48 780.31 831.85 803.30 627.74 576.53 536.46 489.73 436.49 406.58 367.53 349.45 334.40 328.08 348.21 360.62 376.77 394.00 414.09 434.61 465.64 492.87 532.67 558.18 591.68 619.39 632.05 683.87 707.05 720.70 702.47 727.38 711.73 654.06 673.03 666.46 685.48 819.84 643.44 303.27 287.74 236.30 130.36 80.90 -2.21 -66.95 -132.79 -202.33 -368.64 -813.85 -1071.15 -1400.03 -1424.06 -1288.35 -925.42 -461.51 -77.89 39.80 19.91 -46.14 -70.60 -102.63 -149.12 -250.09 -395.28 -982.26 -1295.89 -1959.13 -2944.65 -3574.48 -3950.14 -3941.11 -3922.49 -3900.39 -3883.75 -3867.18 -3856.05 -3850.15 -3841.59 -3841.67
-3362.50 -3362.21 -3329.32 -3316.65 -3304.30 -3316.37 -3344.47 -3414.37 -3434.36 -3506.13 -3557.65 -3610.03 -3669.38 -3714.59 -3777.47 -3797.31 -3770.47 -3486.65 -3080.21 -2489.24 -1711.72 -456.78 37.66 212.10 234.37 251.22 254.66 267.17 296.72 319.56 379.43 377.38 424.57 584.83 638.99 550.10 479.26 525.09 607.91 525.59 525.99 518.24 483.94 498.57 498.45 501.52 519.18 510.73 511.79 515.03 518.71 529.55 539.54 558.03 570.07 592.82 617.26 658.48 690.10 779.75 843.98 874.86 896.08 947.40 941.66 761.22 742.28 675.46 508.69 518.45 452.03 365.02 359.74 337.33 324.35 331.23 347.10 360.95 389.76 404.56 440.68 470.47 483.47 512.50 560.03 573.51 610.47 624.59 671.14 711.12 703.38 670.59 664.29 694.49 604.63 641.29 612.07 708.14 892.69 457.52 275.80 242.96 181.64 105.16 16.40 -43.32 -118.47 -154.25 -268.33 -414.44 -780.93 -1159.99 -1333.42 -1396.50 -1244.84 -778.18 -310.53 14.11 47.59 22.18 -44.56 -85.17 -115.11 -167.23 -338.21 -518.38 -756.01 -1246.67 -1997.90 -2669.77 -3341.80 -3878.00 -3921.13 -3913.95 -3890.38 -3878.09 -3860.48 -3849.92 -3844.87 -3837.56 -3837.65
-3431.41 -3431.82 -3410.48 -3383.83 -3393.04 -3382.07 -3401.61 -3438.27 -3462.65 -3525.11 -3596.28 -3639.16 -3692.04 -3739.60 -3780.58 -3785.18 -3679.28 -3379.75 -2945.00 -2279.64 -1058.36 -220.32 63.45 124.49 174.76 238.46 252.06 264.61 280.02 287.75 320.11 360.46 429.09 506.56 594.21 513.14 430.12 450.38 494.61 488.77 460.64 448.66 451.50 458.87 464.58 478.83 480.59 485.07 490.80 497.62 503.44 521.36 534.14 551.93 565.01 573.95 604.13 637.13 697.26 735.09 859.19 880.47 831.48 837.93 810.89 843.64 851.26 788.23 626.38 674.97 489.87 405.79 368.15 340.36 328.49 325.49 342.33 354.05 378.33 397.95 438.80 462.57 482.73 510.47 536.71 567.60 603.31 626.97 672.78 706.45 691.39 643.06 607.34 592.41 586.87 608.39 642.24 819.12 725.90 316.40 249.57 183.29 169.27 106.10 2.08 -89.46 -151.03 -212.54 -261.25 -444.21 -758.57 -1210.05 -1358.25 -1370.08 -1317.08 -1002.62 -161.34 -59.23 23.92 -4.31 -45.12 -93.24 -130.45 -164.03 -300.05 -576.27 -746.84 -1257.55 -1994.14 -2398.23 -2791.62 -3504.27 -3849.88 -3906.47 -3893.31 -3876.82 -3856.13 -3847.34 -3843.23 -3834.23 -3834.32
-3500.71 -3500.79 -3480.30 -3454.23 -3455.74 -3472.58 -3499.52 -3520.91 -3568.33 -3598.69 -3627.22 -3673.48 -3721.89 -3755.82 -3780.82 -3755.30 -3617.84 -3262.23 -2473.37 -1667.32 -1061.09 -230.58 -97.06 -1.69 99.55 225.25 245.20 254.46 263.20 283.05 291.05 317.05 344.14 374.16 431.56 371.64 395.05 428.19 443.32 424.69 431.17 442.49 435.16 426.98 448.56 452.39 458.00 461.92 465.19 478.82 490.94 502.29 526.98 533.98 552.75 570.38 600.61 633.20 679.11 688.35 780.76 820.13 749.38 754.41 766.31 754.77 798.01 754.51 728.24 630.59 464.55 411.85 369.51 348.69 327.24 321.93 337.35 353.34 368.86 400.87 418.46 454.26 478.90 505.56 531.98 561.98 599.05 627.75 664.44 702.16 683.22 641.82 590.49 546.31 502.66 587.22 634.08 712.80 431.53 272.72 204.19 178.14 117.33 77.39 -64.52 -178.74 -206.63 -235.33 -269.55 -471.49 -695.56 -1291.02 -1342.43 -1396.99 -1362.25 -1019.11 -494.01 -199.12 -57.79 -45.08 -63.69 -94.87 -143.63 -175.84 -273.60 -463.84 -850.59 -1272.21 -1935.95 -2295.55 -3006.85 -3415.80 -3818.12 -3901.49 -3886.40 -3872.34 -3856.58 -3848.83 -3844.13 -3834.63 -3834.72
-3564.86 -3564.88 -3539.67 -3532.49 -3517.52 -3524.36 -3544.66 -3567.25 -3599.86 -3622.12 -3660.33 -3711.47 -3742.19 -3767.43 -3791.64 -3749.52 -3583.65 -3142.11 -2108.08 -1546.08 -1044.93 -566.38 -117.28 -73.46 37.41 177.26 220.04 231.41 251.98 273.52 278.98 290.46 296.69 324.85 363.81 350.79 347.97 380.01 386.47 385.61 394.99 399.96 414.29 406.06 412.97 419.99 434.16 445.36 449.73 461.45 475.92 494.58 515.08 527.76 546.08 563.57 599.62 610.72 648.83 679.61 745.49 759.88 698.90 685.69 703.11 649.10 641.66 674.19 623.68 587.81 520.92 430.77 377.10 357.36 333.22 325.44 334.24 356.81 364.89 377.32 413.00 433.08 473.77 488.30 533.58 552.06 587.96 632.55 667.10 689.36 659.29 625.74 563.81 525.45 480.26 585.19 662.60 443.55 276.20 242.11 200.61 166.85 118.15 48.81 -77.22 -211.69 -230.27 -233.73 -293.25 -536.31 -861.25 -1261.02 -1386.01 -1397.93 -1383.33 -1191.37 -830.50 -440.06 -339.56 -65.69 -82.38 -101.06 -128.52 -176.55 -236.53 -557.82 -983.75 -1484.36 -1939.93 -2484.72 -3189.74 -3666.92 -3823.76 -3897.77 -3882.73 -3866.28 -3854.60 -3848.15 -3841.76 -3836.40 -3836.49
-3623.59 -3623.58 -3599.20 -3597.70 -3586.37 -3580.94 -3605.28 -3627.27 -3643.14 -3675.42 -3709.25 -3736.08 -3761.22 -3797.38 -3805.51 -3761.85 -3549.74 -3245.26 -2302.25 -1647.07 -1109.45 -691.35 -275.86 -79.26 -11.64 149.26 185.87 222.79 227.21 237.20 242.04 258.49 292.25 289.80 329.76 340.99 344.47 348.79 368.18 370.72 361.09 357.77 365.46 379.33 389.43 394.36 410.32 419.79 438.13 450.52 463.97 477.84 496.45 522.44 541.40 566.84 609.78 618.87 642.72 692.78 700.27 677.62 678.07 649.94 656.56 630.90 611.16 572.65 561.93 527.90 517.81 445.24 386.02 365.76 340.69 332.90 325.89 347.40 357.15 384.05 415.34 443.87 471.66 492.87 518.52 557.24 597.20 631.10 658.40 653.18 592.59 598.83 599.31 527.17 452.38 545.87 413.28 314.18 298.42 254.20 190.19 161.53 121.57 37.72 -91.28 -204.72 -229.82 -238.28 -282.77 -614.79 -978.24 -1218.43 -1386.73 -1402.11 -1414.18 -1379.84 -1218.63 -747.78 -518.87 -267.16 -98.48 -112.48 -141.79 -221.50 -408.30 -757.67 -1275.52 -1797.73 -2119.47 -2689.00 -3468.54 -3694.86 -3881.22 -3895.09 -3878.49 -3861.91 -3854.52 -3847.65 -3839.83 -3836.45 -3836.54
-3679.25 -3679.22 -3661.47 -3640.69 -3658.33 -3650.07 -3658.62 -3674.07 -3692.82 -3708.84 -3748.83 -3767.38 -3788.25 -3807.74 -3824.38 -3800.63 -3668.15 -3474.11 -2847.52 -2313.00 -1413.56 -938.99 -603.30 -312.37 -135.28 -33.42 153.72 198.64 218.01 230.21 231.39 249.17 276.17 284.44 311.14 312.27 332.61 326.14 353.67 346.02 341.14 346.55 353.06 359.09 372.21 380.23 397.41 403.13 421.24 434.61 455.78 471.70 495.25 525.39 541.54 566.34 613.47 643.14 675.23 677.38 658.47 645.16 642.28 609.01 581.87 587.17 559.42 556.13 527.44 495.23 468.56 425.61 395.69 355.15 348.02 336.39 325.51 340.02 353.77 383.01 425.04 441.98 463.23 496.48 520.69 560.71 599.58 612.86 609.26 590.81 583.98 487.59 555.92 535.25 636.27 628.73 331.08 307.77 299.48 244.51 178.78 144.59 93.36 12.22 -110.33 -175.52 -219.57 -242.56 -280.65 -580.53 -970.80 -1307.14 -1380.40 -1403.37 -1417.38 -1438.49 -1412.59 -1249.76 -802.36 -517.73 -170.25 -141.24 -164.99 -218.45 -590.93 -1074.20 -1250.95 -2228.77 -2501.40 -2871.20 -3587.25 -3905.48 -3900.97 -3891.93 -3876.20 -3862.21 -3851.62 -3844.16 -3837.57 -3836.23 -3836.32
-3729.90 -3730.16 -3718.25 -3702.56 -3697.89 -3708.48 -3700.59 -3713.17 -3748.28 -3742.47 -3773.26 -3786.42 -3811.58 -3829.61 -3832.46 -3831.19 -3731.59 -3526.09 -3108.42 -2675.32 -2188.12 -1469.03 -1009.59 -525.22 -224.52 -129.44 54.33 115.22 139.17 219.11 230.29 234.10 254.86 269.10 275.23 281.86 300.96 300.19 310.58 323.46 323.98 323.21 331.56 342.85 349.76 359.41 389.00 393.32 411.91 427.90 447.96 469.14 480.86 534.55 542.49 585.89 621.45 653.69 703.51 662.46 642.30 613.57 591.77 580.10 565.92 541.77 537.27 526.47 502.66 482.34 447.87 421.58 399.62 367.44 349.70 338.98 327.29 329.67 357.64 382.24 411.60 438.08 465.15 503.79 526.31 549.59 612.64 625.33 617.56 527.44 518.56 428.67 452.36 525.81 532.31 369.57 321.49 289.71 252.88 179.08 162.61 132.61 102.31 24.46 -75.13 -152.69 -212.87 -254.08 -322.87 -576.30 -1025.09 -1273.20 -1381.27 -1406.44 -1426.94 -1449.95 -1433.29 -1382.21 -1008.92 -557.21 -216.84 -162.57 -201.88 -320.13 -568.18 -970.08 -1345.88 -2259.44 -3116.84 -3581.47 -3780.14 -3903.05 -3897.25 -3887.81 -3876.58 -3860.84 -3848.54 -3843.40 -3837.74 -3835.46 -3835.55
-3770.65 -3770.59 -3760.28 -3751.98 -3749.77 -3745.39 -3756.68 -3756.80 -3769.52 -3792.68 -3808.54 -3815.69 -3827.86 -3839.24 -3856.92 -3862.99 -3836.88 -3774.48 -3520.55 -3324.74 -2670.14 -1873.30 -1302.54 -760.42 -251.33 -135.38 -96.40 -79.81 62.62 182.23 223.74 231.77 239.74 257.60 265.24 270.20 278.56 292.18 296.57 300.22 302.11 307.45 312.08 327.32 341.02 349.18 373.05 392.14 400.31 430.73 451.90 462.84 474.88 552.24 564.74 618.18 647.09 722.91 720.93 652.11 632.61 587.28 567.38 550.87 547.04 528.62 520.48 493.42 472.08 459.00 437.85 418.06 391.69 366.36 351.71 339.72 327.33 327.89 347.68 380.73 407.95 440.08 472.94 515.58 530.95 546.95 607.45 630.75 598.79 531.57 491.07 453.92 548.06 503.88 437.77 309.41 284.93 264.28 220.00 163.82 129.20 95.63 51.80 -21.05 -110.34 -154.56 -215.00 -277.71 -444.06 -655.46 -1089.76 -1268.70 -1378.06 -1403.76 -1422.75 -1451.41 -1446.54 -1410.76 -1060.24 -709.42 -253.22 -188.39 -276.34 -533.03 -796.32 -1289.18 -1933.39 -2612.98 -3508.58 -3778.41 -3904.84 -3914.21 -3890.35 -3882.54 -3872.10 -3859.32 -3846.68 -3841.83 -3838.90 -3835.14 -3835.23
-3803.73 -3804.50 -3796.16 -3784.94 -3776.43 -3774.68 -3784.45 -3793.33 -3800.79 -3816.69 -3828.63 -3833.91 -3847.51 -3859.27 -3867.81 -3875.18 -3870.98 -3841.40 -3749.13 -3397.46 -3173.14 -2447.86 -1310.14 -860.99 -431.52 -319.06 -225.06 -199.53 -182.01 37.40 201.95 201.19 236.41 246.24 250.47 258.13 267.91 278.39 275.93 283.63 287.63 293.20 302.32 316.76 331.07 339.82 357.68 386.64 404.53 437.10 448.08 462.47 510.88 545.96 610.40 712.77 782.49 761.22 719.66 653.14 610.97 567.45 552.48 530.66 519.51 508.66 492.29 477.62 463.97 437.43 419.36 395.10 376.67 356.56 344.53 329.10 324.83 333.09 349.53 377.79 402.21 444.04 460.72 508.56 524.72 562.35 609.61 628.81 635.59 578.34 572.72 634.16 696.09 417.83 301.72 274.44 243.01 240.55 210.64 159.39 108.97 61.02 11.66 -50.62 -111.96 -175.14 -237.92 -279.99 -354.84 -609.79 -1036.48 -1231.21 -1358.88 -1398.97 -1425.22 -1452.22 -1447.14 -1427.11 -1099.22 -703.63 -306.46 -231.70 -347.77 -720.06 -1248.23 -1756.72 -1967.31 -2581.76 -3410.02 -3840.21 -3918.33 -3912.96 -3894.41 -3881.02 -3868.53 -3854.49 -3848.66 -3839.89 -3836.85 -3834.43 -3834.51
-3837.75 -3837.70 -3826.64 -3827.47 -3831.93 -3832.11 -3816.51 -3826.74 -3838.58 -3842.83 -3851.38 -3861.99 -3866.66 -3874.50 -3885.71 -3893.73 -3900.66 -3900.80 -3857.95 -3675.28 -3426.95 -2622.76 -1764.71 -1134.43 -599.99 -446.66 -407.89 -413.49 -390.41 -243.85 -13.86 76.12 182.94 215.30 232.93 242.09 248.39 260.47 266.46 273.21 275.06 281.45 286.54 303.90 316.84 325.18 351.86 382.60 387.17 430.34 447.70 474.41 556.47 608.94 701.81 767.28 829.78 773.25 722.43 659.19 612.44 567.18 537.69 508.27 494.92 481.63 471.31 469.73 442.27 423.52 405.21 384.92 372.11 351.88 342.09 325.91 325.77 349.12 358.49 388.45 409.89 433.44 466.30 497.35 527.18 571.74 598.40 621.88 655.76 618.60 578.93 704.31 652.79 382.14 281.30 264.94 233.39 213.85 197.16 148.94 88.64 29.63 -34.68 -117.33 -175.70 -202.48 -246.02 -261.02 -471.47 -635.26 -963.24 -1332.56 -1398.47 -1401.39 -1422.73 -1451.99 -1446.37 -1403.96 -984.84 -628.06 -278.81 -260.22 -490.90 -926.42 -1290.17 -1938.97 -2880.07 -3017.18 -3675.16 -3949.06 -3925.76 -3907.94 -3895.03 -3873.61 -3866.22 -3856.66 -3846.23 -3838.94 -3835.99 -3833.95 -3834.02
-3873.65 -3873.60 -3866.00 -3862.76 -3858.57 -3856.31 -3861.43 -3861.81 -3867.54 -3879.65 -3887.25 -3880.41 -3886.89 -3898.21 -3896.54 -3905.61 -3910.35 -3911.61 -3853.12 -3787.28 -3330.99 -2732.29 -1818.11 -1088.82 -542.47 -454.96 -414.62 -468.91 -539.99 -618.70 -603.17 -131.75 -10.99 148.14 206.33 230.81 236.89 242.94 250.78 254.64 263.08 268.88 277.93 287.69 305.38 322.94 343.94 369.08 381.02 426.98 466.29 539.81 556.17 647.64 746.82 814.69 853.75 804.28 706.10 644.02 602.08 580.13 516.68 496.06 481.84 474.49 460.19 440.03 424.45 412.51 398.47 383.46 360.53 347.39 334.51 324.71 327.53 345.04 360.59 389.52 420.08 439.87 484.49 513.05 543.02 566.71 593.49 635.39 649.86 575.68 505.65 579.16 417.24 266.08 245.02 214.49 196.14 170.86 149.73 79.76 -22.15 -76.62 -111.08 -151.36 -198.83 -214.50 -240.06 -330.58 -528.27 -729.15 -1011.90 -1264.82 -1387.03 -1393.06 -1421.66 -1450.55 -1426.08 -1359.02 -857.28 -552.95 -265.62 -404.99 -711.40 -1172.79 -1641.06 -2104.23 -3137.93 -3747.94 -3858.64 -3950.06 -3932.85 -3900.34 -3885.44 -3877.40 -3860.46 -3855.66 -3845.80 -3836.50 -3832.16 -3832.59 -3833.02
-3907.99 -3907.93 -3899.45 -3901.61 -3901.53 -3897.25 -3894.70 -3896.98 -3906.50 -3902.60 -3910.32 -3914.59 -3915.38 -3917.30 -3921.72 -3929.78 -3929.73 -3921.41 -3867.10 -3735.63 -3188.43 -2797.23 -1825.79 -1078.80 -702.79 -730.43 -934.40 -788.97 -786.84 -911.75 -1019.99 -689.68 -203.40 76.27 89.32 176.43 217.66 232.63 237.91 244.97 253.13 262.25 266.17 273.37 284.92 298.34 330.51 361.64 389.25 438.90 491.24 597.00 592.73 650.69 758.93 832.83 764.99 711.40 677.03 625.51 587.60 550.87 508.19 473.79 463.07 456.66 444.72 432.56 414.34 394.96 381.48 362.58 352.10 342.45 330.87 323.71 321.76 341.74 365.41 401.65 421.66 454.78 497.33 508.00 547.82 572.38 607.97 573.54 596.89 591.28 600.03 421.26 322.40 248.01 199.72 185.80 153.14 133.05 98.01 47.61 -52.15 -111.60 -124.71 -174.33 -193.73 -219.00 -245.63 -385.67 -670.03 -944.90 -1092.65 -1319.87 -1372.02 -1391.36 -1415.60 -1451.41 -1442.47 -1274.03 -793.19 -388.44 -232.47 -410.04 -1064.30 -1381.28 -2197.39 -2882.71 -3684.51 -3979.21 -3984.62 -3946.75 -3928.95 -3904.49 -3880.21 -3871.63 -3858.04 -3851.10 -3843.02 -3835.78 -3831.60 -3832.11 -3832.18
-3941.81 -3943.61 -3940.60 -3932.34 -3930.83 -3925.32 -3930.80 -3925.29 -3936.92 -3940.89 -3942.59 -3942.57 -3948.96 -3937.75 -3939.48 -3946.40 -3947.29 -3943.08 -3867.47 -3679.15 -3255.26 -2581.46 -1880.69 -1403.00 -1294.89 -1285.37 -1288.59 -1408.36 -1614.10 -1538.88 -1818.81 -1830.77 -659.53 -80.50 22.17 107.37 172.86 220.59 224.51 234.03 241.26 245.47 255.90 266.27 283.21 299.47 331.39 353.89 418.95 440.43 520.83 627.69 720.21 754.14 743.80 756.83 707.11 591.72 580.47 613.78 573.86 518.73 487.07 466.13 455.60 444.38 435.65 421.33 403.99 382.71 370.20 354.13 346.46 333.58 324.04 321.58 321.46 347.62 364.20 391.33 419.15 456.37 489.33 509.18 544.62 578.85 589.49 547.03 520.40 536.18 691.96 565.38 320.65 248.34 204.00 160.32 133.54 99.41 69.37 25.91 -50.86 -104.76 -149.93 -161.81 -192.52 -221.14 -245.43 -398.78 -628.81 -1078.99 -1279.11 -1367.07 -1392.58 -1401.66 -1430.40 -1450.50 -1405.99 -1337.32 -627.71 -206.53 -200.34 -466.63 -701.09 -1339.27 -2345.19 -3457.88 -3789.93 -4000.12 -3972.41 -3946.84 -3919.99 -3902.59 -3885.58 -3866.72 -3857.89 -3851.97 -3840.50 -3835.80 -3832.70 -3831.43 -3831.50
-3979.01 -3978.96 -3970.45 -3963.21 -3966.92 -3981.10 -3968.58 -3962.44 -3968.30 -3967.16 -3973.14 -3970.52 -3972.96 -3967.66 -3967.82 -3969.71 -3972.03 -3953.99 -3924.13 -3747.24 -3433.63 -2758.12 -2261.24 -1983.64 -1873.34 -1998.70 -2098.70 -2239.06 -2282.71 -2609.15 -2686.03 -2517.64 -1714.47 -99.53 -48.96 -35.62 59.40 185.07 211.04 218.78 225.05 233.42 242.05 255.36 276.93 296.78 317.13 347.94 394.65 467.65 552.80 645.17 803.38 735.84 732.21 628.96 641.48 588.78 498.65 545.19 541.62 514.57 479.17 460.14 446.47 432.61 417.90 414.51 381.78 370.00 359.58 347.18 337.31 329.15 323.58 320.48 320.98 343.39 364.20 389.59 421.87 435.88 490.67 515.32 556.81 587.49 570.98 513.64 463.05 483.53 659.70 418.35 299.17 242.67 219.88 143.95 114.67 89.17 40.16 8.72 -69.55 -111.54 -160.50 -170.97 -198.11 -237.92 -330.93 -507.32 -765.85 -1075.56 -1322.91 -1356.01 -1396.03 -1417.78 -1444.72 -1452.85 -1411.87 -1101.01 -515.34 -258.28 -224.39 -424.92 -886.33 -1347.04 -2202.25 -3273.60 -3585.44 -3915.13 -3966.66 -3944.79 -3913.92 -3902.68 -3880.29 -3869.77 -3858.13 -3853.04 -3841.52 -3836.05 -3832.65 -3829.99 -3830.07
-4017.28 -4017.23 -4009.63 -4014.39 -4013.61 -4008.23 -4015.25 -4005.04 -3996.39 -4005.57 -4005.20 -3998.86 -3997.62 -3995.24 -4002.51 -3994.79 -3992.96 -3989.01 -3964.28 -3798.46 -3587.09 -3253.91 -2981.21 -2841.25 -2772.32 -3160.44 -3228.90 -3229.01 -3377.43 -3321.09 -3621.35 -3797.79 -2164.52 -525.29 -113.55 -126.74 -20.21 98.65 140.78 149.80 204.10 231.92 241.29 256.10 268.53 284.82 301.34 325.28 409.51 504.56 534.04 695.35 763.65 658.20 560.02 499.25 519.37 478.96 449.20 469.03 476.77 478.19 465.20 448.47 440.40 418.80 405.79 381.41 366.06 360.42 342.57 338.17 331.32 320.92 318.62 319.14 320.40 345.02 368.60 402.18 422.62 453.57 497.04 516.12 558.53 573.53 553.78 514.85 426.07 412.11 572.85 407.70 293.55 242.64 172.37 98.34 87.30 60.75 11.93 -49.05 -89.91 -132.53 -177.18 -208.69 -231.67 -314.99 -395.16 -626.60 -899.45 -1078.79 -1209.71 -1314.74 -1389.93 -1423.16 -1460.24 -1455.79 -1388.80 -969.82 -540.46 -304.41 -323.19 -463.43 -932.25 -1798.28 -2377.62 -3076.09 -3671.99 -3886.82 -3958.59 -3938.14 -3915.95 -3896.93 -3882.08 -3871.76 -3857.70 -3847.43 -3841.97 -3837.35 -3834.63 -3828.80 -3828.87
-4047.26 -4047.20 -4040.31 -4044.65 -4038.75 -4044.73 -4041.83 -4028.02 -4029.33 -4030.21 -4029.52 -4023.95 -4025.14 -4028.16 -4021.86 -4022.54 -4013.41 -4015.31 -3990.95 -3960.06 -3883.52 -3639.76 -3528.54 -3440.05 -3506.94 -3578.31 -3669.49 -3666.51 -3840.92 -3886.57 -4028.08 -4295.00 -3386.60 -1555.90 -442.61 -194.06 -94.36 18.34 -36.21 54.87 129.76 202.99 240.68 246.97 264.10 277.76 294.04 315.84 375.92 416.49 511.06 639.39 655.42 531.72 477.25 456.98 459.78 425.69 423.64 416.10 440.83 482.01 464.08 441.39 422.70 407.30 392.44 375.99 359.58 349.24 340.02 334.18 328.47 318.67 317.67 317.11 319.35 341.12 370.51 398.88 418.91 450.79 498.95 511.92 541.17 554.11 558.48 507.44 561.15 615.51 389.92 288.06 277.28 202.57 127.99 75.24 31.57 6.49 -45.25 -87.89 -135.41 -228.31 -244.78 -323.54 -357.83 -407.07 -664.72 -780.99 -902.96 -995.60 -1144.98 -1239.18 -1360.57 -1425.09 -1460.62 -1454.72 -1281.60 -1070.42 -599.36 -321.04 -448.62 -792.82 -1162.16 -2006.61 -2528.90 -3221.50 -3663.67 -3870.89 -3954.21 -3930.84 -3914.25 -3891.18 -3879.85 -3870.87 -3855.48 -3847.08 -3839.99 -3837.68 -3835.08 -3828.00 -3828.07
-4069.39 -4069.33 -4066.25 -4068.80 -4063.79 -4069.36 -4068.80 -4063.63 -4059.04 -4051.57 -4056.10 -4056.43 -4048.81 -4050.62 -4049.28 -4054.77 -4047.59 -4048.60 -4048.21 -4016.38 -4026.09 -4007.20 -3897.06 -3888.03 -3902.65 -3947.18 -3951.16 -4022.08 -4029.17 -4081.40 -4163.75 -4302.17 -4312.91 -3471.36 -668.08 -485.48 -183.54 -128.81 -174.61 -73.52 37.19 105.84 175.90 232.51 256.68 269.33 291.91 310.81 351.47 407.98 524.50 576.10 572.16 460.45 437.52 408.39 398.69 410.00 411.32 393.91 413.42 406.02 426.55 430.00 418.40 403.86 385.75 367.99 355.32 348.59 340.05 329.71 321.02 318.33 314.79 315.10 317.70 333.48 372.50 405.94 420.84 463.12 485.95 503.40 512.02 517.08 516.37 526.65 661.36 597.87 302.24 263.98 263.50 173.47 85.25 31.37 -17.94 -46.68 -76.85 -106.97 -241.97 -281.41 -326.32 -397.18 -515.90 -638.09 -770.95 -880.07 -917.35 -951.30 -993.12 -1124.85 -1296.02 -1378.50 -1474.09 -1477.36 -1369.04 -793.85 -496.98 -336.99 -625.82 -967.20 -1279.62 -2182.80 -2840.44 -3337.00 -3902.37 -3970.13 -3945.42 -3923.76 -3904.87 -3890.73 -3876.39 -3867.56 -3856.78 -3847.15 -3839.39 -3835.90 -3834.47 -3827.48 -3827.55
-4088.06 -4088.00 -4083.86 -4086.57 -4088.76 -4089.75 -4086.42 -4084.49 -4081.02 -4079.01 -4080.03 -4081.69 -4084.06 -4082.26 -4081.41 -4078.27 -4076.13 -4072.20 -4069.33 -4080.97 -4059.63 -4054.13 -4024.51 -4048.75 -4035.21 -4083.55 -4106.50 -4117.69 -4132.59 -4153.49 -4171.52 -4231.40 -4315.86 -4256.67 -2185.26 -1080.72 -440.80 -292.14 -262.10 -161.66 -99.84 -29.38 143.74 232.74 250.12 269.79 285.30 305.19 333.79 386.17 501.25 496.60 469.58 425.52 390.23 386.20 387.80 381.81 382.11 363.98 362.92 372.26 402.01 422.73 428.17 404.11 393.21 369.94 352.22 346.28 330.93 320.41 317.93 315.73 314.33 314.93 318.22 339.45 384.08 399.61 423.92 467.10 483.08 496.88 492.83 490.78 486.96 501.06 593.42 490.14 285.66 248.90 222.18 147.73 71.75 -9.81 -47.82 -88.88 -128.71 -203.86 -413.69 -412.01 -533.30 -683.77 -711.81 -813.38 -872.02 -913.75 -919.70 -934.00 -977.73 -1025.12 -1178.50 -1348.63 -1425.81 -1424.68 -1172.44 -702.18 -310.19 -321.91 -660.57 -1059.77 -1554.82 -2200.48 -2976.82 -3481.73 -3932.34 -3962.10 -3938.92 -3923.25 -3900.88 -3886.55 -3877.02 -3866.27 -3854.10 -3849.36 -3842.67 -3836.86 -3834.04 -3827.26 -3827.33
-4101.76 -4101.70 -4102.41 -4102.72 -4106.24 -4108.10 -4104.62 -4101.30 -4097.57 -4094.22 -4096.57 -4096.80 -4096.27 -4102.20 -4108.43 -4107.28 -4106.35 -4104.06 -4107.78 -4101.60 -4115.06 -4110.43 -4107.50 -4115.04 -4107.42 -4131.90 -4139.19 -4153.00 -4168.81 -4169.28 -4184.54 -4194.75 -4252.97 -4191.43 -3820.19 -3153.72 -1050.69 -626.69 -355.09 -217.37 -174.04 -80.07 57.77 159.00 248.58 259.88 270.60 294.90 326.31 358.83 435.93 457.81 362.72 380.03 365.20 342.93 354.85 350.42 366.07 352.16 342.38 337.12 370.32 407.03 446.17 429.89 403.88 368.47 353.30 335.13 324.15 319.88 315.71 313.32 312.90 314.51 328.81 354.65 368.84 399.78 417.93 454.89 470.91 487.84 464.57 447.92 450.64 644.88 582.32 365.35 229.84 200.70 162.38 90.76 10.55 -4.22 -79.17 -179.72 -268.59 -347.97 -479.31 -666.31 -777.63 -862.95 -846.49 -883.52 -917.69 -904.32 -902.61 -907.90 -919.76 -909.01 -994.24 -1087.33 -1142.44 -1068.16 -1018.89 -538.50 -229.43 -486.11 -777.93 -1383.51 -2035.29 -2524.27 -3165.83 -3742.85 -3958.45 -3949.58 -3928.63 -3913.61 -3896.00 -3883.77 -3874.72 -3863.69 -3851.95 -3847.55 -3843.14 -3838.20 -3832.88 -3827.29 -3827.36
-4108.92 -4108.86 -4110.12 -4113.93 -4116.91 -4118.50 -4119.38 -4119.21 -4113.90 -4114.85 -4117.80 -4118.55 -4121.60 -4119.34 -4130.73 -4132.02 -4135.55 -4139.36 -4135.52 -4140.19 -4145.62 -4139.75 -4144.01 -4148.97 -4147.61 -4167.80 -4167.19 -4179.22 -4193.65 -4196.01 -4193.94 -4200.48 -4195.69 -4128.45 -3890.63 -3352.32 -2392.84 -1047.50 -663.96 -430.59 -274.66 -184.38 -100.54 70.04 236.72 250.41 265.69 278.67 304.95 320.30 350.76 353.01 315.45 335.46 328.74 328.81 328.75 328.17 330.22 323.45 324.94 320.51 324.14 371.01 428.23 460.09 398.33 378.14 362.24 340.74 323.06 318.86 313.58 312.20 312.37 315.74 324.66 348.23 364.99 405.81 432.45 454.71 470.43 480.31 472.09 441.78 410.91 731.79 366.05 264.82 196.90 185.80 145.32 104.71 52.22 -44.04 -148.37 -303.54 -487.73 -722.95 -742.89 -847.61 -907.20 -926.65 -918.01 -917.49 -915.61 -887.90 -853.52 -813.15 -749.12 -719.99 -707.43 -569.88 -537.67 -540.67 -421.05 -282.75 -309.21 -526.02 -889.27 -1569.39 -2055.46 -2740.78 -3347.57 -3866.85 -3938.76 -3936.83 -3924.45 -3908.43 -3895.43 -3884.41 -3871.25 -3862.34 -3852.74 -3846.93 -3843.84 -3838.26 -3832.26 -3828.06 -3828.13
-4115.57 -4116.78 -4119.63 -4120.59 -4123.01 -4125.25 -4127.83 -4126.60 -4134.67 -4135.13 -4132.67 -4135.93 -4136.85 -4148.37 -4155.81 -4164.56 -4167.47 -4179.40 -4177.10 -4179.27 -4181.05 -4169.47 -4168.28 -4168.37 -4179.94 -4180.59 -4192.77 -4195.80 -4210.79 -4218.52 -4210.39 -4204.57 -4193.62 -4130.77 -3948.74 -3510.05 -2628.71 -1832.11 -1047.52 -581.22 -386.61 -245.35 -129.56 3.16 229.73 244.70 255.87 253.05 279.04 284.13 293.31 271.98 288.06 306.86 322.02 310.23 314.03 316.68 308.53 310.81 306.08 311.10 316.65 343.00 404.22 462.18 444.23 404.21 383.28 348.51 331.47 316.02 311.45 311.37 311.71 315.73 325.17 339.24 367.15 386.52 421.40 443.28 466.17 478.27 463.15 421.48 475.09 428.42 296.23 269.99 192.37 153.99 86.76 23.65 -21.90 -112.95 -315.41 -464.71 -670.81 -743.88 -910.17 -924.88 -937.07 -930.20 -907.48 -894.71 -787.60 -746.91 -669.41 -628.34 -441.30 -291.07 -63.41 -150.40 -171.54 -268.14 -254.30 -352.65 -361.50 -601.91 -911.10 -1689.51 -2242.86 -2851.27 -3340.65 -3750.39 -3921.32 -3922.73 -3913.51 -3905.66 -3891.39 -3882.82 -3869.56 -3862.82 -3854.60 -3851.19 -3841.70 -3834.35 -3830.63 -3828.43 -3828.28
-4126.34 -4126.29 -4126.38 -4131.40 -4135.37 -4135.23 -4141.50 -4145.07 -4146.89 -4148.19 -4155.20 -4155.94 -4159.24 -4164.36 -4178.91 -4184.91 -4184.44 -4198.36 -4201.65 -4205.58 -4208.13 -4202.50 -4201.58 -4199.50 -4203.75 -4204.99 -4215.11 -4221.56 -4223.43 -4237.44 -4232.96 -4227.79 -4235.18 -4175.48 -3976.80 -3505.27 -3019.37 -2052.74 -1189.21 -633.36 -446.34 -299.25 -198.87 -13.76 166.94 229.34 241.59 246.41 252.44 257.06 258.63 253.35 262.46 281.80 277.65 266.75 276.60 292.69 285.08 278.23 283.62 292.09 302.22 330.61 365.12 431.88 515.37 445.22 407.66 347.02 323.41 315.07 310.85 310.87 311.10 312.54 321.13 330.41 355.86 374.05 413.06 442.44 470.30 487.02 468.96 444.00 624.08 596.29 290.41 252.11 171.83 124.75 -28.79 -77.32 -284.24 -355.94 -567.89 -671.56 -778.65 -843.70 -929.83 -930.38 -928.71 -905.89 -862.63 -742.33 -562.56 -474.42 -244.86 -128.91 -115.87 64.05 35.09 86.38 -27.56 -126.41 -370.18 -494.98 -563.60 -732.57 -1297.03 -1735.38 -2576.18 -3236.58 -3543.78 -3853.23 -3912.46 -3912.44 -3911.21 -3897.78 -3889.41 -3879.02 -3867.80 -3862.64 -3855.52 -3850.16 -3839.61 -3834.73 -3831.40 -3828.36 -3828.43
-4139.47 -4139.42 -4140.71 -4143.66 -4151.61 -4150.11 -4153.77 -4158.11 -4162.08 -4169.41 -4168.37 -4171.12 -4173.99 -4181.50 -4192.05 -4205.84 -4211.77 -4219.90 -4223.73 -4232.86 -4229.07 -4228.45 -4220.63 -4220.75 -4226.60 -4226.03 -4230.38 -4238.15 -4249.67 -4253.01 -4247.21 -4244.22 -4245.04 -4223.48 -4081.06 -3659.47 -3077.92 -2453.43 -1388.20 -904.85 -455.88 -365.71 -263.87 -68.73 102.45 200.57 229.75 239.95 243.93 245.35 243.23 238.35 241.61 257.25 256.73 250.87 263.01 265.81 269.43 270.39 273.44 281.91 288.56 294.48 338.62 383.88 506.73 511.73 475.88 373.31 324.23 316.53 310.34 310.22 310.24 310.60 318.17 335.63 355.97 381.80 401.28 433.72 470.89 487.63 489.47 487.26 573.85 922.79 280.33 209.23 124.83 27.67 -121.01 -237.03 -366.11 -645.78 -777.37 -891.32 -885.10 -907.37 -920.66 -889.38 -836.61 -716.85 -591.75 -375.81 -188.04 -55.71 26.19 96.87 115.23 149.32 139.50 127.11 43.38 -202.12 -464.21 -732.93 -859.94 -1199.63 -1568.00 -2156.38 -2676.97 -3319.72 -3722.42 -3905.22 -3922.75 -3916.76 -3901.93 -3893.24 -3884.81 -3875.51 -3867.09 -3861.04 -3855.68 -3849.83 -3840.10 -3834.86 -3832.50 -3828.39 -3828.46
-4153.11 -4153.05 -4153.38 -4159.32 -4159.14 -4168.77 -4167.57 -4175.40 -4174.17 -4180.11 -4183.80 -4188.32 -4194.45 -4202.29 -4211.39 -4224.14 -4237.35 -4244.74 -4247.01 -4256.04 -4251.84 -4249.02 -4243.17 -4240.32 -4245.56 -4251.42 -4254.33 -4250.62 -4258.27 -4262.95 -4271.23 -4269.35 -4263.69 -4257.87 -4094.24 -3973.36 -3282.95 -2650.04 -1704.02 -1067.21 -712.80 -450.38 -387.86 -213.93 -90.77 56.28 217.57 160.57 142.56 116.64 176.29 216.29 219.15 238.74 242.98 244.91 248.22 252.50 255.41 252.48 262.50 267.73 271.85 281.31 316.89 344.55 409.06 467.09 478.45 462.06 408.83 318.93 309.68 309.38 309.33 309.22 310.18 336.06 356.87 372.55 394.49 431.73 466.24 475.72 492.34 489.97 470.94 911.14 429.88 177.36 47.97 -35.41 -151.40 -266.67 -441.00 -614.66 -781.60 -792.26 -797.16 -716.37 -756.99 -748.93 -614.45 -496.12 -380.56 -248.13 -11.67 73.68 147.27 143.89 158.68 150.92 111.38 13.73 -49.47 -237.88 -691.64 -941.10 -1164.39 -1519.62 -2106.85 -2365.06 -2851.33 -3589.01 -3804.89 -3897.08 -3908.76 -3911.86 -3897.23 -3889.60 -3881.92 -3874.07 -3867.22 -3862.42 -3856.62 -3847.11 -3840.63 -3834.87 -3830.39 -3828.83 -3828.90
-4168.19 -4170.16 -4172.51 -4173.79 -4178.19 -4179.92 -4184.04 -4185.68 -4189.05 -4192.10 -4195.64 -4200.36 -4204.60 -4209.39 -4224.98 -4238.72 -4250.58 -4255.38 -4265.67 -4268.99 -4274.05 -4269.21 -4264.50 -4269.94 -4272.10 -4274.39 -4275.79 -4278.98 -4276.15 -4284.18 -4281.21 -4280.80 -4278.46 -4267.45 -4225.88 -4051.71 -3732.70 -2608.95 -2264.93 -1626.84 -1019.20 -606.73 -372.56 -334.57 -220.96 -178.66 -75.82 5.60 -2.22 -25.75 -148.07 101.31 79.97 146.60 233.40 244.29 239.58 238.30 243.06 247.32 250.98 253.71 258.86 266.17 283.90 297.97 307.59 351.47 403.66 455.01 352.08 310.03 308.43 308.70 308.46 308.54 314.29 329.04 338.59 362.86 389.72 411.72 426.74 454.21 466.70 453.22 439.85 634.76 476.66 145.08 -15.02 -54.25 -162.47 -261.75 -371.20 -515.98 -586.54 -667.05 -633.29 -614.23 -567.49 -551.23 -482.14 -470.96 -280.57 -141.49 -98.59 -0.40 94.52 120.64 70.67 55.85 46.91 -78.47 -180.28 -363.01 -894.02 -1298.21 -1867.16 -2228.46 -2498.38 -2682.40 -2985.98 -3490.45 -3879.55 -3907.44 -3911.31 -3902.15 -3895.04 -3887.70 -3879.96 -3874.52 -3867.84 -3860.93 -3856.73 -3847.42 -3841.24 -3834.37 -3831.50 -3829.27 -3829.33
-4186.37 -4186.32 -4194.93 -4191.91 -4201.33 -4200.46 -4205.54 -4201.70 -4201.12 -4200.59 -4206.24 -4210.32 -4217.01 -4223.23 -4237.22 -4252.21 -4265.47 -4270.85 -4279.05 -4282.30 -4286.29 -4289.94 -4288.30 -4288.91 -4284.95 -4293.03 -4295.35 -4300.72 -4298.55 -4293.50 -4294.28 -4292.04 -4289.41 -4275.96 -4245.82 -4072.11 -3890.37 -3373.05 -2425.80 -1933.48 -1423.25 -965.87 -653.58 -488.13 -475.93 -252.36 -258.62 -249.65 -215.04 -278.49 -331.58 -419.32 -279.77 -27.71 169.69 172.01 229.61 230.93 235.48 239.41 240.16 241.89 241.77 241.48 258.39 274.47 292.26 308.76 337.75 327.25 307.94 307.13 307.43 307.56 307.45 306.80 308.88 312.03 329.19 335.19 354.60 393.49 409.00 412.56 431.41 429.95 407.08 414.68 458.33 129.64 -100.38 -242.46 -199.72 -230.01 -282.91 -366.88 -433.08 -485.44 -492.38 -468.57 -454.35 -446.77 -381.16 -320.51 -215.00 -175.54 -92.42 23.97 69.26 68.63 -15.55 -73.00 -61.02 -316.16 -386.08 -733.11 -1271.81 -1828.81 -2317.71 -2796.33 -3248.03 -3241.62 -3431.31 -3774.58 -3897.88 -3908.47 -3905.85 -3896.81 -3891.36 -3886.70 -3878.56 -3871.92 -3867.10 -3862.12 -3856.59 -3847.40 -3842.33 -3836.66 -3833.77 -3829.81 -3829.87
-4205.13 -4206.95 -4210.48 -4214.69 -4218.25 -4221.11 -4218.24 -4217.10 -4212.67 -4209.43 -4214.74 -4216.21 -4223.35 -4231.18 -4252.76 -4263.78 -4275.77 -4282.17 -4294.17 -4302.03 -4303.45 -4305.84 -4306.64 -4311.62 -4317.66 -4318.75 -4320.32 -4318.65 -4314.03 -4308.02 -4305.12 -4301.94 -4295.91 -4293.37 -4270.26 -4244.08 -4039.55 -3600.10 -3335.57 -2527.08 -1795.98 -1462.44 -1153.11 -880.43 -503.36 -473.62 -343.63 -280.42 -277.99 -303.75 -463.16 -477.38 -282.16 -126.75 -116.08 -17.52 -57.31 -24.07 -25.54 162.43 232.48 227.62 225.04 233.90 247.43 257.95 279.67 290.23 298.66 303.80 305.00 305.33 305.07 306.09 305.54 304.43 303.33 307.05 313.84 328.08 345.24 367.16 383.47 397.89 415.65 398.44 377.80 341.73 339.67 171.56 80.93 -199.19 -270.14 -259.60 -300.71 -374.81 -403.70 -396.65 -369.33 -363.26 -314.11 -302.38 -205.40 -157.33 -94.31 -33.05 16.23 40.48 65.11 62.76 -45.90 -182.59 -483.64 -697.60 -959.25 -1122.88 -1549.39 -2141.62 -2759.49 -3323.94 -3424.40 -3569.09 -3802.08 -3841.99 -3908.64 -3905.90 -3902.25 -3895.91 -3889.75 -3882.90 -3878.02 -3872.54 -3867.65 -3864.51 -3857.16 -3849.53 -3845.07 -3839.11 -3835.35 -3830.52 -3830.58
-4220.21 -4221.76 -4223.57 -4228.63 -4232.29 -4237.79 -4237.85 -4230.39 -4225.12 -4219.85 -4221.02 -4226.35 -4230.35 -4240.56 -4252.99 -4272.84 -4288.87 -4298.24 -4304.33 -4309.55 -4313.91 -4322.66 -4324.66 -4328.54 -4334.16 -4341.91 -4338.81 -4340.05 -4327.75 -4320.74 -4316.92 -4312.34 -4311.32 -4304.06 -4299.04 -4250.26 -4179.75 -3857.58 -3583.28 -3256.88 -2628.45 -2503.29 -1934.31 -1535.18 -1309.05 -679.55 -609.24 -438.62 -434.21 -448.02 -536.97 -491.17 -350.23 -300.95 -247.19 -217.86 -218.91 -201.75 -123.78 34.61 93.11 107.99 148.58 228.71 245.39 252.07 268.26 281.45 294.22 299.85 300.92 301.62 303.19 303.65 303.58 302.75 301.35 302.87 310.24 316.78 330.20 341.24 369.08 389.19 381.09 380.60 346.98 318.26 278.54 232.01 112.10 -12.36 -240.03 -304.24 -327.62 -365.84 -362.58 -291.28 -255.01 -230.33 -160.57 -132.00 -79.63 -28.20 25.69 24.96 50.55 56.87 71.67 66.32 -28.12 -242.45 -535.77 -936.63 -1279.48 -1581.45 -1884.70 -2485.13 -3102.46 -3402.13 -3658.19 -3805.00 -3849.02 -3902.47 -3900.51 -3896.19 -3892.51 -3891.18 -3886.95 -3882.57 -3878.37 -3873.77 -3869.14 -3865.39 -3857.72 -3849.05 -3846.62 -3839.13 -3836.36 -3831.44 -3831.50
-4231.61 -4231.55 -4236.31 -4236.96 -4240.83 -4243.91 -4247.53 -4241.87 -4235.69 -4229.48 -4231.16 -4236.94 -4245.45 -4253.55 -4270.48 -4290.04 -4299.32 -4306.96 -4318.76 -4323.48 -4330.10 -4334.81 -4339.76 -4345.79 -4346.80 -4354.88 -4355.61 -4355.53 -4345.38 -4339.82 -4327.98 -4328.58 -4319.65 -4315.93 -4304.98 -4296.26 -4271.76 -4206.85 -4002.72 -3819.02 -3739.86 -3083.67 -2861.28 -2596.96 -1903.39 -1412.58 -993.92 -733.60 -536.77 -568.94 -579.19 -571.98 -459.97 -337.66 -291.47 -256.98 -254.48 -210.95 -130.13 -82.88 -50.14 31.46 153.48 217.88 233.61 242.45 253.81 264.33 283.67 294.55 295.98 299.67 300.50 301.21 301.15 301.23 299.66 299.56 303.46 307.13 314.34 335.41 341.70 360.85 354.26 357.12 335.23 316.71 269.10 231.30 168.62 -164.61 -367.51 -376.15 -366.32 -354.11 -289.83 -176.25 -90.57 -41.03 7.09 10.95 18.19 24.27 46.15 51.51 53.36 66.37 67.34 33.74 -106.63 -396.31 -722.72 -1005.04 -1450.35 -2117.39 -2474.78 -2808.90 -3396.79 -3587.79 -3789.36 -3864.41 -3894.00 -3895.43 -3896.23 -3892.68 -3891.68 -3891.14 -3886.92 -3882.29 -3877.68 -3874.57 -3871.81 -3867.16 -3860.48 -3851.04 -3847.45 -3839.43 -3837.98 -3832.06 -3832.13
-4241.91 -4241.86 -4244.23 -4247.58 -4253.18 -4257.89 -4256.90 -4252.41 -4241.58 -4237.64 -4242.99 -4250.74 -4251.13 -4262.07 -4276.93 -4301.42 -4311.22 -4322.13 -4327.84 -4335.28 -4342.75 -4349.38 -4354.38 -4355.53 -4365.31 -4365.25 -4369.60 -4367.68 -4360.46 -4352.73 -4344.94 -4339.61 -4335.74 -4328.46 -4322.48 -4311.82 -4305.05 -4246.33 -4134.69 -4095.91 -3905.55 -3757.46 -3593.61 -3261.80 -2800.09 -2102.46 -1462.93 -1294.88 -1066.88 -951.15 -855.42 -763.63 -569.53 -484.25 -424.87 -342.01 -258.46 -219.87 -132.04 -52.83 -14.40 23.90 122.01 166.94 226.12 233.30 239.53 254.25 262.49 277.07 289.79 295.76 298.24 297.66 297.84 296.37 297.94 297.28 296.67 299.63 300.61 309.14 324.38 325.36 340.42 339.73 336.46 305.74 264.07 241.53 144.53 -102.35 -384.32 -379.68 -368.12 -303.67 -198.03 5.61 -0.67 70.67 78.57 71.03 56.38 46.49 47.99 53.05 53.97 60.75 61.56 16.00 -155.15 -377.38 -722.45 -1108.06 -1466.52 -2197.32 -2832.97 -3058.68 -3464.12 -3688.18 -3821.05 -3887.01 -3887.78 -3889.67 -3890.57 -3890.28 -3893.32 -3893.22 -3886.39 -3883.65 -3879.79 -3875.41 -3873.00 -3869.61 -3858.20 -3853.33 -3847.56 -3844.89 -3840.23 -3834.11 -3832.58
-4251.43 -4251.37 -4256.17 -4261.94 -4264.82 -4265.43 -4268.99 -4266.72 -4258.82 -4256.07 -4257.22 -4261.96 -4270.08 -4283.41 -4295.95 -4311.71 -4321.15 -4330.83 -4338.26 -4341.93 -4351.30 -4355.22 -4363.19 -4368.34 -4374.16 -4377.80 -4385.63 -4387.13 -4377.56 -4370.61 -4362.10 -4358.31 -4349.25 -4341.61 -4335.31 -4328.65 -4328.49 -4266.65 -4242.07 -4174.83 -4055.26 -3980.07 -3885.09 -3758.26 -3593.71 -2985.72 -2595.33 -1983.95 -1582.68 -1402.61 -1130.29 -913.64 -855.57 -562.00 -481.33 -368.81 -267.66 -208.64 -121.07 -22.89 15.48 56.09 82.37 122.03 196.81 226.24 226.05 239.44 253.04 260.16 279.93 286.03 290.91 289.66 292.21 295.53 295.88 294.78 294.95 295.13 291.71 293.81 297.26 309.51 312.79 328.33 317.28 300.52 272.31 255.70 192.64 62.80 -251.54 -341.18 -323.96 -224.63 -84.21 45.94 109.09 126.00 118.89 98.43 65.25 54.24 44.39 43.63 46.74 45.53 42.28 -18.76 -286.44 -502.63 -989.45 -1454.16 -1883.74 -2654.23 -3086.81 -3502.96 -3687.67 -3827.22 -3867.38 -3873.87 -3882.07 -3887.25 -3890.17 -3890.11 -3891.55 -3894.40 -3890.01 -3888.11 -3882.80 -3877.87 -3873.44 -3869.92 -3861.52 -3854.52 -3847.25 -3845.57 -3843.06 -3833.22 -3833.28
-4257.93 -4258.91 -4261.67 -4266.24 -4271.01 -4274.45 -4279.12 -4277.05 -4274.85 -4272.76 -4284.46 -4291.23 -4294.06 -4297.41 -4306.11 -4317.03 -4326.83 -4334.18 -4338.90 -4348.43 -4353.59 -4364.69 -4373.20 -4381.03 -4383.76 -4392.34 -4395.61 -4395.35 -4389.31 -4380.63 -4369.79 -4369.25 -4360.10 -4352.56 -4350.73 -4343.45 -4325.08 -4294.19 -4226.13 -4156.35 -4057.47 -3959.97 -3834.43 -3718.95 -3494.73 -3330.31 -2947.54 -2613.59 -2291.96 -1969.06 -1530.48 -1405.33 -1084.96 -724.91 -587.75 -435.74 -311.76 -255.20 -116.11 -32.37 49.03 74.63 95.24 139.28 179.85 203.05 220.58 232.95 238.17 255.48 258.23 275.14 282.25 289.23 288.57 288.68 291.06 288.02 284.90 284.30 281.04 282.21 282.37 293.61 299.87 302.93 309.27 295.75 282.92 261.91 240.39 220.67 -16.64 -216.05 -197.52 -101.57 19.54 100.19 125.99 126.77 93.63 80.17 54.51 17.96 20.79 23.80 19.64 14.74 -93.88 -118.13 -463.60 -926.84 -1389.52 -1741.32 -2185.42 -2944.18 -3461.37 -3712.20 -3751.67 -3855.60 -3865.62 -3869.31 -3879.68 -3883.89 -3889.11 -3893.75 -3893.93 -3895.64 -3892.89 -3889.77 -3884.90 -3881.53 -3877.43 -3868.47 -3862.50 -3858.30 -3850.45 -3845.26 -3841.27 -3833.93 -3833.99
-4262.75 -4263.79 -4269.40 -4271.74 -4278.12 -4282.32 -4287.12 -4289.17 -4294.47 -4296.07 -4300.77 -4305.00 -4312.82 -4313.63 -4320.24 -4326.00 -4332.01 -4336.10 -4341.54 -4349.72 -4356.21 -4369.35 -4375.25 -4388.35 -4397.83 -4402.17 -4403.98 -4404.07 -4401.34 -4393.29 -4389.68 -4383.90 -4379.05 -4364.98 -4355.75 -4344.68 -4318.21 -4283.26 -4234.98 -4173.96 -4058.28 -3989.29 -3872.34 -3654.76 -3499.84 -3257.03 -3007.43 -2766.62 -2386.47 -2078.36 -1822.48 -1656.68 -1055.22 -815.21 -594.53 -449.95 -331.62 -285.70 -144.17 -43.67 28.15 69.80 100.05 132.52 162.32 165.41 207.44 219.90 227.49 235.22 256.12 262.84 273.54 279.35 282.15 284.61 284.82 279.88 277.59 279.47 276.53 271.30 274.37 275.80 283.78 294.12 293.95 285.40 282.04 260.68 245.65 233.03 83.74 70.99 -4.91 10.71 90.24 125.12 121.26 82.11 46.22 25.50 -29.19 -56.77 -50.79 -15.16 -26.32 -99.86 -167.07 -286.29 -496.87 -1404.21 -1772.93 -2091.01 -2566.25 -3184.78 -3593.77 -3731.11 -3827.03 -3852.63 -3867.50 -3871.48 -3878.55 -3881.14 -3886.72 -3893.76 -3897.27 -3896.29 -3893.61 -3891.74 -3886.21 -3883.30 -3878.55 -3871.49 -3866.12 -3861.40 -3854.21 -3849.27 -3843.77 -3834.82 -3834.72
-4271.86 -4271.79 -4274.60 -4281.44 -4284.36 -4290.47 -4297.25 -4301.80 -4305.55 -4309.11 -4313.32 -4321.82 -4327.32 -4329.33 -4336.18 -4334.06 -4337.85 -4344.14 -4346.83 -4353.67 -4362.39 -4374.26 -4389.79 -4399.62 -4404.18 -4407.62 -4411.56 -4414.44 -4409.80 -4401.22 -4397.58 -4389.33 -4378.88 -4371.65 -4359.22 -4346.54 -4316.93 -4290.26 -4236.74 -4155.04 -4038.06 -3926.10 -3813.53 -3629.61 -3424.75 -3136.09 -2992.52 -2727.47 -2455.49 -2289.59 -2012.61 -1752.44 -1339.16 -898.55 -624.76 -544.83 -410.87 -263.85 -118.57 -52.50 11.55 50.91 96.57 119.58 138.11 150.49 175.35 210.42 222.47 227.33 241.24 258.81 266.75 270.94 274.62 277.68 274.28 272.62 268.88 263.88 260.77 255.65 261.52 268.97 278.10 276.65 280.61 279.48 275.87 261.13 247.79 242.10 195.82 159.58 113.61 119.17 131.58 120.17 90.33 25.11 -75.64 -134.54 -165.13 -161.48 -170.64 -113.40 -89.93 -209.79 -503.63 -775.36 -993.80 -1582.23 -2031.56 -2617.37 -2858.98 -3345.06 -3649.12 -3748.44 -3827.52 -3862.70 -3868.24 -3873.75 -3879.30 -3885.30 -3893.18 -3895.15 -3896.11 -3895.38 -3893.90 -3892.41 -3887.82 -3885.19 -3880.76 -3874.18 -3867.14 -3862.30 -3855.74 -3849.48 -3842.66 -3837.02 -3835.88
-4280.87 -4280.80 -4286.98 -4290.18 -4290.64 -4302.85 -4309.00 -4312.64 -4319.56 -4322.83 -4327.39 -4334.01 -4339.18 -4343.26 -4346.65 -4346.37 -4351.25 -4352.30 -4352.45 -4367.42 -4370.22 -4383.29 -4394.87 -4404.65 -4411.62 -4413.52 -4419.36 -4419.63 -4416.51 -4411.47 -4405.61 -4395.82 -4386.66 -4379.84 -4364.29 -4350.63 -4320.95 -4302.52 -4268.75 -4175.01 -4106.53 -3947.77 -3744.08 -3507.02 -3363.60 -3060.39 -2925.32 -2705.72 -2478.34 -2288.96 -1966.03 -1759.53 -1381.52 -1100.30 -613.79 -511.15 -373.90 -221.61 -142.82 -64.05 -4.66 46.87 73.92 109.13 128.27 140.88 164.85 195.07 216.04 229.97 235.09 246.85 260.12 265.63 265.09 264.87 271.20 264.40 260.02 259.83 254.88 253.05 256.87 262.61 264.19 268.19 268.74 269.14 266.00 255.84 249.27 240.08 227.73 192.12 154.85 145.35 127.71 85.25 35.71 -54.72 -139.41 -299.93 -420.13 -475.13 -384.74 -289.83 -398.93 -562.86 -674.98 -1108.90 -1522.44 -2184.52 -2455.77 -2779.96 -3094.84 -3297.19 -3769.10 -3808.66 -3862.42 -3868.92 -3871.76 -3873.36 -3879.18 -3890.10 -3893.53 -3895.71 -3895.87 -3895.17 -3893.82 -3892.40 -3889.72 -3886.22 -3880.43 -3875.96 -3869.96 -3863.75 -3858.01 -3850.05 -3844.30 -3837.88 -3836.91
-4289.16 -4289.09 -4295.62 -4296.60 -4303.61 -4311.66 -4317.66 -4323.21 -4328.68 -4334.40 -4342.52 -4347.99 -4346.00 -4355.60 -4355.69 -4357.07 -4356.98 -4361.70 -4367.97 -4374.23 -4377.97 -4389.23 -4402.07 -4409.43 -4416.26 -4417.78 -4424.70 -4424.92 -4421.16 -4416.86 -4410.02 -4400.35 -4394.60 -4383.42 -4367.20 -4354.99 -4339.09 -4320.51 -4267.01 -4215.84 -4149.38 -4045.63 -3827.31 -3610.07 -3288.42 -3080.99 -2918.98 -2765.54 -2520.76 -2319.38 -1961.95 -1697.28 -1470.10 -1067.21 -817.63 -625.11 -455.37 -258.40 -149.78 -82.66 -23.53 6.42 58.61 86.86 110.30 118.56 132.89 158.32 191.49 206.76 236.63 243.21 251.49 257.13 252.41 254.67 254.05 250.90 251.67 249.41 248.74 247.87 248.68 251.37 254.92 261.45 263.33 257.38 256.32 252.32 245.66 239.16 227.26 200.34 135.81 116.57 100.09 63.88 -7.23 -90.59 -165.31 -492.57 -660.37 -686.34 -620.93 -474.84 -658.03 -774.36 -999.79 -1328.69 -1728.57 -2591.33 -2640.11 -3047.07 -3292.96 -3489.15 -3785.36 -3861.50 -3860.35 -3868.63 -3874.19 -3874.32 -3882.00 -3890.14 -3895.45 -3896.70 -3896.42 -3895.10 -3893.97 -3892.70 -3890.28 -3885.88 -3882.43 -3876.94 -3871.63 -3863.82 -3857.73 -3850.75 -3844.92 -3838.83 -3837.93
