-4911.94 -4911.92 -5005.00 -5065.50 -5118.42 -5133.96 -5114.86 -5094.83 -5060.05 -5027.30 -5009.36 -5005.74 -5019.37 -5032.36 -5067.04 -5088.22 -5105.19 -5115.24 -5122.15 -5130.95 -5133.80 -5107.35 -5084.53 -5072.54 -5058.66 -5060.55 -5061.95 -5061.32 -5043.91 -5027.43 -5015.30 -5012.28 -5020.55 -5046.74 -5101.52 -5134.16 -5172.51 -5213.08 -5226.34 -5228.31 -5189.47 -5149.69 -5110.40 -4972.96 -4890.07 -4864.61 -4888.85 -4940.00 -5009.41 -5098.87 -5162.96 -5224.50 -5240.39 -5279.27 -5314.47 -5328.32 -5321.61 -5312.96 -5302.63 -5295.51 -5290.04 -5283.32 -5273.04 -5211.20 -5081.93 -4986.64 -4952.52 -4969.95 -5082.78 -5140.87 -5188.40 -5190.80 -5194.34 -5176.74 -5109.18 -4986.76 -4884.36 -4636.03 -4457.26 -4051.34 -3529.32 -3121.71 -2601.98 -2329.46 -2268.64 -2725.90 -4846.15 -6142.04 -6783.16 -6821.06 -6385.91 -6008.58 -5694.17 -5536.09 -5467.68 -5380.47 -5298.54 -3381.51 -2539.65 -1957.37 -1640.85 -1173.06 -1233.93 -1472.43 -1935.85 -2514.31 -3567.44 -5339.08 -7142.97 -8959.73 -9198.19 -9686.91 -9681.74 -9607.01 -9351.81 -7914.81 -6416.90 -4787.43 -4106.24 -3993.96 -4006.46 -4033.60 -4046.18 -4047.61 -4031.12 -3991.58 -3921.87 -3852.97 -3829.32 -3819.17 -3819.74 -3839.75 -3880.55 -3924.28 -3931.82 -3932.41 -3929.44 -3926.58 -3925.35 -3924.64 -3924.73
-4949.32 -4950.57 -4984.86 -5040.75 -5118.87 -5120.24 -5117.79 -5098.82 -5068.34 -5026.76 -5008.40 -5001.21 -5013.78 -5032.71 -5039.48 -5063.37 -5093.16 -5117.99 -5117.49 -5131.73 -5138.69 -5107.85 -5087.19 -5073.83 -5070.29 -5071.81 -5072.00 -5077.91 -5057.37 -5041.68 -5035.79 -5043.78 -5053.15 -5060.02 -5092.13 -5156.05 -5198.03 -5213.48 -5242.10 -5250.29 -5224.43 -5146.55 -5093.76 -4993.24 -4922.81 -4912.60 -4900.31 -4930.95 -5013.96 -5136.24 -5184.90 -5239.84 -5270.89 -5293.49 -5313.64 -5325.49 -5321.08 -5313.69 -5304.23 -5297.52 -5289.45 -5283.26 -5262.27 -5231.24 -5128.15 -4988.94 -4987.42 -5009.29 -5063.60 -5141.93 -5183.81 -5189.21 -5187.94 -5178.61 -5069.27 -4893.88 -4728.58 -4546.01 -4087.91 -4013.19 -3454.84 -3050.70 -2543.86 -2235.20 -2176.31 -3269.41 -5411.55 -6208.22 -6764.62 -6731.21 -5202.19 -4715.95 -4552.66 -5062.65 -5299.45 -5163.98 -5093.04 -4007.27 -2478.01 -1981.35 -1539.75 -1164.14 -1130.44 -1553.78 -1896.50 -2279.07 -3068.62 -4775.44 -7100.37 -8417.56 -9111.26 -9436.46 -9593.34 -9526.50 -9428.51 -8819.26 -6993.66 -5332.07 -4169.53 -4010.95 -4002.46 -4034.09 -4039.85 -4047.06 -4032.95 -3994.34 -3940.94 -3864.57 -3840.86 -3832.93 -3828.46 -3848.78 -3887.13 -3922.28 -3932.36 -3931.81 -3929.93 -3925.69 -3924.52 -3924.72 -3924.85
-4960.36 -4959.69 -4959.75 -4953.43 -5101.21 -5111.40 -5138.25 -5091.22 -5044.22 -4993.70 -4994.82 -4986.93 -4991.28 -5004.83 -5024.95 -5040.87 -5064.28 -5086.29 -5105.98 -5117.01 -5116.15 -5112.49 -5101.86 -5094.07 -5093.43 -5101.38 -5111.17 -5106.78 -5094.25 -5107.40 -5114.77 -5136.42 -5112.44 -5151.07 -5143.10 -5189.20 -5245.80 -5257.17 -5294.10 -5292.37 -5285.49 -5200.12 -5148.05 -5069.48 -4991.21 -4976.76 -4978.89 -5013.58 -5109.46 -5171.21 -5252.11 -5290.34 -5298.69 -5298.35 -5322.92 -5323.70 -5321.70 -5316.09 -5301.88 -5294.69 -5287.75 -5271.82 -5260.75 -5241.10 -5191.02 -5146.21 -5109.42 -5096.84 -5090.23 -5153.68 -5182.42 -5186.71 -5181.35 -5141.34 -4934.53 -4644.11 -4527.77 -4262.00 -3840.40 -3593.68 -3109.27 -2761.06 -2304.89 -2050.38 -2243.81 -3828.43 -4975.66 -6511.80 -6481.86 -6146.76 -4479.81 -2779.91 -3057.13 -4771.62 -4936.46 -4884.39 -4940.92 -4304.49 -3005.44 -1885.33 -1420.93 -1059.42 -1060.14 -1520.68 -1980.34 -2593.09 -3761.04 -5512.04 -6704.96 -8399.09 -8795.29 -9068.37 -9391.00 -9475.98 -9448.91 -9174.05 -7507.18 -5545.81 -4400.17 -4087.96 -4001.39 -4016.80 -4041.39 -4048.89 -4039.72 -4020.18 -3971.81 -3940.39 -3910.95 -3877.17 -3877.74 -3884.68 -3906.92 -3931.01 -3931.36 -3928.78 -3928.98 -3925.78 -3923.86 -3923.25 -3923.26
-4965.81 -4965.73 -4956.52 -4943.32 -5020.57 -5106.60 -5127.54 -5080.42 -5011.52 -4952.28 -4922.58 -4932.46 -4958.22 -4974.25 -4996.34 -5026.61 -5049.05 -5083.14 -5088.19 -5099.03 -5096.77 -5106.61 -5115.67 -5120.85 -5130.69 -5138.51 -5152.22 -5150.42 -5134.33 -5190.50 -5214.05 -5210.00 -5219.65 -5247.46 -5273.87 -5290.81 -5311.36 -5324.41 -5317.58 -5341.62 -5327.52 -5267.94 -5235.24 -5083.14 -5073.36 -5105.17 -5097.65 -5165.53 -5186.58 -5258.80 -5331.37 -5332.07 -5328.43 -5327.09 -5330.73 -5327.32 -5325.17 -5314.63 -5306.33 -5296.61 -5282.54 -5267.54 -5258.75 -5237.92 -5211.71 -5193.85 -5200.88 -5177.03 -5134.63 -5184.04 -5184.98 -5180.46 -5177.49 -5138.63 -4903.58 -4407.54 -4262.88 -3893.05 -3303.91 -3220.66 -2892.88 -2557.74 -2166.11 -2152.34 -2593.92 -4201.67 -6033.73 -5934.59 -4854.89 -4109.75 -2123.33 -1782.13 -3099.76 -3846.61 -4647.98 -4777.22 -4737.08 -4403.17 -4025.96 -2125.72 -1450.66 -1139.81 -1078.73 -1322.99 -1793.66 -2537.03 -3283.77 -4376.35 -5932.36 -7469.77 -8518.84 -9104.02 -9358.00 -9432.30 -9413.54 -9121.38 -7851.22 -5743.43 -4716.52 -4085.39 -3994.60 -4004.15 -4039.41 -4051.35 -4045.56 -4031.72 -4010.08 -3990.91 -3976.21 -3963.55 -3936.03 -3956.23 -3942.70 -3929.93 -3922.47 -3924.95 -3929.11 -3925.01 -3923.60 -3923.35 -3923.44
-4971.10 -4971.02 -4970.87 -4982.35 -5011.92 -5058.69 -5112.09 -5060.41 -4946.87 -4878.60 -4853.99 -4851.59 -4833.93 -4888.78 -4943.85 -5002.26 -5012.35 -5042.83 -5025.35 -5053.24 -5058.41 -5092.65 -5120.66 -5159.65 -5173.46 -5189.71 -5196.80 -5210.19 -5269.92 -5306.77 -5319.48 -5312.18 -5328.52 -5330.09 -5347.41 -5380.92 -5362.46 -5335.30 -5325.12 -5331.05 -5331.84 -5314.72 -5326.64 -5318.58 -5259.20 -5233.65 -5241.08 -5275.32 -5303.70 -5319.83 -5346.40 -5345.80 -5345.04 -5343.45 -5335.26 -5325.10 -5321.50 -5316.34 -5306.70 -5297.30 -5284.62 -5276.06 -5261.65 -5244.54 -5226.85 -5215.89 -5208.24 -5205.70 -5198.09 -5194.08 -5191.33 -5175.55 -5169.44 -5144.65 -4928.02 -4574.15 -3800.76 -3541.00 -3172.34 -2978.41 -2527.61 -2298.24 -2066.00 -2581.97 -2932.10 -5856.36 -6139.08 -4772.34 -3267.89 -1900.94 -1499.77 -1577.84 -2885.93 -3738.60 -4294.30 -4561.33 -4585.42 -4457.44 -3715.13 -2262.19 -1631.56 -1235.54 -1114.91 -1310.58 -1737.25 -2265.80 -2729.40 -3221.67 -5383.16 -7234.43 -8832.95 -9236.88 -9352.22 -9360.44 -9319.14 -9187.37 -8434.05 -7112.83 -4786.24 -4167.30 -3988.55 -4001.68 -4034.09 -4049.79 -4048.31 -4034.09 -4016.43 -4009.51 -3996.88 -3974.37 -3959.07 -3944.29 -3939.69 -3934.30 -3928.00 -3931.98 -3928.43 -3925.62 -3922.89 -3921.65 -3921.73
-4976.43 -4977.47 -4984.67 -4995.58 -4993.75 -5029.63 -5070.31 -5040.96 -4961.94 -4849.51 -4797.51 -4796.06 -4814.91 -4812.43 -4870.90 -4937.37 -4978.34 -5007.38 -5002.10 -5005.93 -5035.28 -5077.36 -5116.55 -5191.19 -5202.15 -5214.22 -5234.44 -5283.79 -5317.87 -5348.31 -5363.29 -5366.97 -5383.82 -5388.62 -5384.12 -5383.04 -5359.29 -5345.41 -5341.31 -5337.73 -5337.76 -5339.27 -5338.48 -5330.91 -5338.89 -5338.49 -5340.05 -5341.75 -5341.93 -5351.50 -5350.53 -5349.40 -5347.93 -5343.30 -5335.80 -5326.17 -5322.50 -5318.93 -5310.37 -5301.88 -5288.54 -5275.26 -5264.76 -5249.91 -5232.55 -5223.26 -5215.02 -5209.27 -5203.15 -5198.94 -5192.54 -5178.87 -5115.08 -5063.23 -4868.24 -4579.94 -4009.16 -3263.24 -2965.90 -2782.29 -2430.71 -2138.46 -2057.57 -3088.64 -4673.13 -6700.76 -6166.71 -4028.96 -2469.14 -1037.43 -883.93 -1971.17 -2665.44 -3539.37 -4239.18 -4225.67 -4299.13 -4144.46 -3446.09 -2646.71 -1740.88 -1266.68 -1107.78 -1251.11 -1800.46 -2327.43 -3018.23 -3848.94 -6091.13 -8049.67 -9038.84 -9160.32 -9322.84 -9299.77 -9247.35 -9145.90 -8539.23 -7038.14 -5019.44 -4227.75 -4006.28 -3941.38 -3952.94 -3977.77 -4016.99 -4042.25 -4029.92 -4008.65 -4001.29 -3976.02 -3964.73 -3948.24 -3940.58 -3936.68 -3929.51 -3930.80 -3927.17 -3924.29 -3922.34 -3920.94 -3921.03
-4981.31 -4981.23 -4987.38 -4995.51 -4983.42 -5015.93 -5055.88 -5002.74 -4931.19 -4863.28 -4769.03 -4758.82 -4781.33 -4817.41 -4877.28 -4912.23 -4948.47 -4975.98 -4971.16 -4985.36 -5033.79 -5091.52 -5128.35 -5179.40 -5205.40 -5231.02 -5264.05 -5278.80 -5332.17 -5375.62 -5397.18 -5412.54 -5415.80 -5392.33 -5389.78 -5375.87 -5368.18 -5364.13 -5360.54 -5348.31 -5348.88 -5352.67 -5349.46 -5345.16 -5342.18 -5343.57 -5346.47 -5344.74 -5352.80 -5355.24 -5352.17 -5355.65 -5354.74 -5343.08 -5337.25 -5330.30 -5322.50 -5319.56 -5313.17 -5306.38 -5294.34 -5292.50 -5285.63 -5263.24 -5249.61 -5230.34 -5219.03 -5209.61 -5205.40 -5195.61 -5168.24 -5125.29 -4942.42 -4795.58 -4667.00 -4471.24 -4057.89 -3496.12 -2867.62 -2575.60 -2364.17 -2161.09 -2239.64 -2913.09 -4105.69 -7261.48 -7375.90 -3672.53 -1785.91 -691.55 -940.93 -1724.98 -2932.58 -3462.19 -3929.95 -3668.32 -3641.09 -3637.01 -3269.68 -2599.46 -1637.29 -1191.26 -986.81 -1184.09 -1665.14 -2250.84 -3025.30 -4666.85 -6648.97 -8270.97 -8817.53 -8833.22 -9184.37 -9205.90 -9194.24 -9170.01 -8591.00 -7474.01 -5404.22 -4237.81 -4009.55 -3901.25 -3910.54 -3941.59 -4029.84 -4061.24 -4035.17 -4014.71 -3997.75 -3980.85 -3963.85 -3949.03 -3942.72 -3934.51 -3929.08 -3926.53 -3925.32 -3923.29 -3921.40 -3919.82 -3919.90
-4981.21 -4981.87 -4987.79 -4993.05 -5005.93 -5021.17 -5038.17 -4971.31 -4917.98 -4852.94 -4804.72 -4769.15 -4768.96 -4806.64 -4860.88 -4912.30 -4937.71 -4950.07 -4960.24 -4976.14 -5025.41 -5081.42 -5129.93 -5169.91 -5197.38 -5228.45 -5252.78 -5273.03 -5329.27 -5366.36 -5394.26 -5411.44 -5405.63 -5405.52 -5402.61 -5387.87 -5395.07 -5375.89 -5371.26 -5369.29 -5362.81 -5361.73 -5355.66 -5354.16 -5351.38 -5349.98 -5347.89 -5348.40 -5354.22 -5355.93 -5353.01 -5352.71 -5365.08 -5353.74 -5336.63 -5331.44 -5325.24 -5321.08 -5317.68 -5312.77 -5306.20 -5299.51 -5286.48 -5275.96 -5264.31 -5243.52 -5221.12 -5206.79 -5203.82 -5194.45 -5134.92 -5072.54 -4862.59 -4640.66 -4552.53 -4173.69 -3954.69 -3450.34 -3069.23 -2511.81 -2406.77 -2079.00 -1971.84 -3742.82 -5124.15 -7444.29 -6846.02 -3745.34 -1667.99 -806.70 -1054.85 -1692.09 -2271.41 -3722.30 -3674.84 -3300.45 -3017.98 -2938.80 -2728.54 -2242.73 -1537.47 -1124.76 -979.60 -1384.33 -1704.80 -2264.29 -3158.74 -4788.90 -6906.29 -8413.24 -8665.16 -8539.70 -8950.92 -9122.83 -9157.06 -9114.28 -8861.72 -7455.20 -5507.49 -4364.68 -3989.45 -3888.76 -3890.33 -3930.58 -4016.79 -4057.41 -4043.53 -4012.81 -3999.70 -3979.70 -3965.91 -3952.93 -3944.06 -3932.52 -3930.19 -3924.58 -3923.62 -3922.60 -3920.60 -3919.46 -3919.54
-4975.59 -4975.51 -4985.31 -4990.15 -4986.10 -4958.29 -4960.79 -4918.87 -4892.21 -4861.69 -4812.63 -4793.43 -4802.93 -4813.39 -4858.86 -4888.47 -4924.83 -4934.29 -4940.36 -4963.02 -5019.76 -5056.39 -5113.26 -5164.23 -5197.63 -5216.96 -5232.36 -5241.57 -5312.86 -5314.90 -5350.48 -5335.66 -5353.04 -5397.57 -5413.98 -5341.59 -5380.32 -5389.28 -5384.63 -5378.36 -5372.14 -5364.02 -5359.62 -5357.41 -5355.69 -5355.99 -5353.45 -5353.07 -5354.69 -5358.98 -5356.77 -5357.45 -5362.29 -5355.04 -5340.17 -5333.91 -5329.18 -5328.56 -5324.31 -5318.32 -5314.36 -5306.25 -5296.47 -5289.84 -5278.21 -5254.76 -5226.42 -5209.74 -5204.86 -5187.58 -5148.34 -5057.83 -4900.76 -4525.52 -4226.59 -3988.67 -3662.67 -3606.18 -3263.06 -2635.91 -2393.57 -2007.20 -1973.60 -2580.84 -4027.42 -7081.69 -6927.50 -4513.08 -1496.33 -998.30 -1133.03 -1720.66 -2667.90 -3457.60 -3391.23 -2723.77 -2597.71 -2640.65 -2576.44 -2089.29 -1570.90 -1263.34 -1111.23 -1340.71 -1722.40 -2295.17 -3272.77 -3942.57 -6858.68 -7960.45 -8305.25 -8535.87 -8989.91 -9098.47 -9113.11 -9099.51 -9016.95 -7936.35 -6363.91 -4442.41 -4062.66 -3901.86 -3881.96 -3932.11 -3998.23 -4052.76 -4036.88 -4011.46 -3998.14 -3976.97 -3963.45 -3952.53 -3940.82 -3935.13 -3930.62 -3926.09 -3923.21 -3920.32 -3919.86 -3919.07 -3919.08
-4958.16 -4958.07 -4974.84 -4985.22 -4977.59 -4949.14 -4933.58 -4885.76 -4864.91 -4892.66 -4870.04 -4844.87 -4864.57 -4856.24 -4866.59 -4876.74 -4894.58 -4902.54 -4914.08 -4944.41 -4964.37 -5045.66 -5097.59 -5148.93 -5181.25 -5196.06 -5199.55 -5227.36 -5232.71 -5206.12 -5205.25 -5189.54 -5192.51 -5263.71 -5323.87 -5315.45 -5386.53 -5401.99 -5392.06 -5388.41 -5379.70 -5372.86 -5369.93 -5362.00 -5358.44 -5355.07 -5354.64 -5356.04 -5355.85 -5360.47 -5359.74 -5352.47 -5360.64 -5361.07 -5344.63 -5332.62 -5332.00 -5329.43 -5325.86 -5315.21 -5307.51 -5306.55 -5302.09 -5295.26 -5285.80 -5267.70 -5235.33 -5206.82 -5202.60 -5180.01 -5114.13 -4994.05 -4740.38 -4325.32 -4020.60 -3621.89 -3474.26 -3319.72 -2936.04 -2502.94 -2197.18 -1935.30 -1949.28 -2428.85 -4868.67 -6423.45 -6685.85 -4679.67 -1325.95 -1018.39 -1165.47 -1705.03 -2509.36 -3137.53 -2945.33 -2394.18 -2366.37 -2220.47 -2184.68 -1859.93 -1706.01 -1190.81 -1202.78 -1387.98 -1736.76 -2244.72 -2651.26 -3806.36 -5976.59 -7148.11 -7974.55 -8648.21 -8859.37 -9082.68 -9093.65 -9060.88 -8862.57 -8340.19 -6048.15 -4705.92 -4038.22 -3919.53 -3882.38 -3911.43 -3984.54 -4029.24 -4032.43 -3997.25 -3976.13 -3969.00 -3965.02 -3952.46 -3939.10 -3937.30 -3930.62 -3925.59 -3921.71 -3919.23 -3918.94 -3917.96 -3918.04
-4940.74 -4940.66 -4959.12 -4971.14 -4983.34 -4957.76 -4943.66 -4905.28 -4894.94 -4903.43 -4903.87 -4903.53 -4916.90 -4913.32 -4881.86 -4866.13 -4853.14 -4861.00 -4857.41 -4889.50 -4920.30 -5004.83 -5079.38 -5127.45 -5168.80 -5179.95 -5165.04 -5148.27 -5110.03 -5068.20 -5038.31 -5025.31 -5100.48 -5085.76 -5179.31 -5299.44 -5393.41 -5400.37 -5390.88 -5386.63 -5379.01 -5374.04 -5367.51 -5364.01 -5360.04 -5354.52 -5355.44 -5354.53 -5356.27 -5362.66 -5361.84 -5341.37 -5349.11 -5347.80 -5332.59 -5333.49 -5332.62 -5331.37 -5328.74 -5318.15 -5298.30 -5285.87 -5283.87 -5287.98 -5285.67 -5251.61 -5225.75 -5196.69 -5188.44 -5151.77 -5030.77 -4787.64 -4543.86 -4150.92 -3788.79 -3433.58 -3316.40 -3212.40 -2939.30 -2544.72 -2172.71 -2003.79 -2056.19 -2487.84 -4706.83 -6635.85 -6388.26 -4043.59 -1289.21 -959.21 -1172.17 -1587.65 -2170.10 -2060.42 -2211.88 -2109.36 -2100.63 -1864.34 -1813.66 -1867.69 -1670.62 -1151.65 -1131.40 -1598.09 -1884.47 -2446.63 -2975.29 -4165.49 -5429.77 -7063.65 -8327.09 -8606.95 -8907.36 -9038.65 -9037.23 -9003.16 -8860.06 -8081.53 -7049.38 -4789.91 -4189.53 -3984.00 -3887.31 -3891.98 -3938.91 -4003.19 -4019.50 -3971.68 -3951.73 -3955.59 -3943.44 -3950.30 -3935.04 -3932.58 -3926.95 -3922.23 -3919.99 -3917.94 -3916.34 -3915.44 -3915.51
-4924.04 -4925.35 -4938.04 -4955.98 -4971.14 -4955.68 -4935.57 -4918.06 -4870.17 -4883.41 -4899.27 -4900.46 -4907.02 -4923.62 -4902.16 -4865.51 -4824.77 -4804.71 -4822.05 -4832.56 -4896.86 -4968.83 -5058.02 -5122.28 -5147.87 -5152.54 -5125.80 -5109.95 -5063.63 -4990.50 -4953.35 -4942.37 -4938.20 -4945.13 -5039.56 -5230.99 -5383.13 -5395.10 -5389.74 -5384.03 -5378.58 -5377.90 -5371.82 -5364.69 -5360.02 -5357.99 -5357.14 -5354.32 -5348.52 -5357.42 -5360.07 -5354.79 -5336.83 -5327.63 -5326.53 -5328.65 -5331.24 -5330.08 -5327.41 -5319.02 -5283.52 -5271.03 -5251.90 -5246.15 -5250.85 -5141.64 -5132.72 -5155.42 -5172.47 -5130.29 -5055.29 -4799.92 -4387.66 -4025.60 -3550.07 -3381.13 -3214.00 -3156.83 -2781.07 -2582.14 -2201.91 -2044.83 -2031.01 -2547.16 -4581.55 -6469.16 -5970.01 -3374.10 -1424.99 -805.12 -866.39 -1201.33 -1404.55 -1809.66 -1697.54 -1759.84 -1872.75 -1742.91 -1631.90 -1636.28 -1632.29 -1113.73 -1272.02 -1604.81 -1973.04 -2376.45 -3214.60 -4204.83 -5751.51 -7086.77 -8236.37 -8587.41 -8918.89 -8936.25 -8946.90 -8939.92 -8867.58 -8597.59 -6885.18 -5065.80 -4292.89 -3975.11 -3890.19 -3889.59 -3908.85 -3924.40 -3946.95 -3926.45 -3921.20 -3895.73 -3884.45 -3907.17 -3923.61 -3929.22 -3924.66 -3918.73 -3916.24 -3914.13 -3913.98 -3912.83 -3912.90
-4913.51 -4913.43 -4926.59 -4938.60 -4944.67 -4946.32 -4926.58 -4891.05 -4835.51 -4832.78 -4845.68 -4842.39 -4837.31 -4901.55 -4925.00 -4885.70 -4809.19 -4794.45 -4791.16 -4807.82 -4854.79 -4944.99 -5083.42 -5102.03 -5116.51 -5127.26 -5108.51 -5095.85 -5006.18 -4944.71 -4857.81 -4837.02 -4855.51 -4898.23 -5018.50 -5147.11 -5330.49 -5403.34 -5388.30 -5380.61 -5380.86 -5383.98 -5372.36 -5365.84 -5358.34 -5356.69 -5357.27 -5351.52 -5343.05 -5354.96 -5354.21 -5296.97 -5283.63 -5310.92 -5318.25 -5324.70 -5312.15 -5315.30 -5314.75 -5292.34 -5266.20 -5241.39 -5233.66 -5220.50 -5147.40 -5078.48 -5093.73 -5118.21 -5140.20 -5039.47 -4869.87 -4553.95 -4333.55 -4104.23 -3743.06 -3168.00 -3130.06 -2923.07 -2727.55 -2497.30 -2354.93 -2297.94 -2113.29 -2411.65 -4796.57 -6340.21 -5510.17 -2222.37 -742.82 -528.01 -653.95 -939.11 -971.56 -1106.74 -1400.88 -1590.59 -1603.39 -1526.79 -1586.89 -1589.66 -1352.59 -1153.68 -1338.94 -1600.90 -1988.88 -2341.88 -3131.12 -4284.65 -5519.52 -7346.73 -8391.78 -8670.65 -8794.90 -8886.52 -8863.02 -8884.69 -8835.61 -8453.74 -6664.19 -5158.50 -4512.15 -4017.42 -3916.79 -3887.28 -3894.96 -3914.98 -3910.67 -3899.15 -3879.66 -3869.04 -3857.32 -3878.82 -3912.82 -3926.47 -3920.78 -3915.09 -3913.17 -3911.24 -3911.32 -3910.17 -3910.24
-4889.94 -4889.84 -4891.71 -4901.24 -4914.88 -4924.56 -4909.95 -4882.46 -4844.05 -4812.65 -4811.47 -4812.38 -4788.51 -4878.92 -4875.03 -4879.19 -4836.26 -4842.96 -4819.22 -4831.35 -4881.31 -4957.48 -5035.85 -5086.25 -5102.07 -5103.87 -5097.78 -5063.31 -5008.67 -4913.90 -4842.13 -4824.10 -4839.40 -4869.45 -5006.28 -5164.14 -5283.25 -5401.83 -5399.27 -5389.06 -5384.20 -5379.64 -5369.10 -5364.18 -5359.01 -5355.83 -5356.03 -5345.08 -5335.30 -5338.36 -5328.88 -5271.60 -5274.03 -5285.05 -5287.82 -5305.23 -5302.24 -5299.39 -5283.63 -5262.87 -5237.68 -5223.15 -5220.22 -5200.72 -5152.08 -5064.85 -5072.40 -5108.26 -5128.01 -4979.59 -4773.67 -4563.50 -4212.59 -4060.71 -3646.12 -3260.66 -2981.45 -2733.98 -2600.81 -2538.60 -2448.33 -2327.21 -2285.75 -2556.24 -4248.23 -5237.60 -4368.60 -1367.13 -520.19 -304.21 -468.01 -637.53 -765.00 -918.99 -1200.75 -1372.85 -1470.99 -1499.52 -1530.61 -1509.84 -1217.56 -1016.49 -1292.29 -1581.99 -2232.94 -3587.84 -4060.14 -5944.91 -6992.32 -8000.89 -8456.59 -8673.23 -8760.48 -8832.70 -8846.29 -8856.18 -8788.40 -8432.85 -7327.99 -5618.35 -4579.36 -4088.90 -3944.39 -3902.96 -3911.29 -3919.85 -3919.36 -3905.24 -3884.39 -3871.00 -3861.39 -3889.65 -3918.81 -3921.55 -3913.04 -3911.85 -3908.96 -3906.10 -3907.16 -3906.89 -3906.97
-4836.73 -4836.63 -4856.47 -4865.92 -4885.40 -4884.77 -4882.69 -4875.65 -4845.44 -4834.49 -4831.40 -4840.77 -4800.31 -4820.33 -4861.63 -4888.49 -4885.31 -4899.99 -4920.46 -4892.52 -4919.68 -4980.53 -5027.42 -5061.15 -5073.28 -5070.14 -5079.55 -5050.09 -4998.53 -4914.33 -4871.83 -4864.54 -4858.23 -4892.26 -5020.40 -5167.60 -5285.81 -5355.52 -5395.01 -5395.66 -5383.96 -5378.83 -5370.95 -5363.90 -5359.79 -5354.23 -5354.31 -5348.66 -5346.65 -5345.87 -5318.26 -5260.51 -5241.84 -5273.56 -5290.03 -5283.62 -5286.72 -5280.72 -5270.61 -5251.94 -5216.77 -5208.67 -5202.36 -5191.92 -5146.14 -5107.71 -5112.83 -5141.23 -5115.65 -4931.52 -4705.08 -4350.10 -3969.93 -3697.91 -3528.48 -3208.59 -2914.35 -2685.19 -2564.55 -2470.09 -2403.07 -2349.51 -2266.70 -2432.18 -2954.40 -3960.73 -2156.53 -704.75 -186.12 -105.07 -226.56 -522.70 -744.73 -958.97 -1220.27 -1393.37 -1405.06 -1443.18 -1477.01 -1346.25 -1097.08 -934.84 -1170.10 -1729.53 -2563.25 -5359.28 -5066.66 -6897.85 -8150.05 -8258.67 -8627.11 -8761.18 -8792.09 -8821.70 -8824.81 -8810.95 -8777.74 -8645.18 -8039.94 -5889.70 -4593.00 -4191.69 -3996.92 -3916.52 -3919.03 -3936.81 -3936.27 -3931.61 -3918.19 -3897.89 -3904.12 -3902.85 -3911.60 -3910.65 -3907.75 -3905.47 -3903.73 -3902.00 -3902.43 -3900.56 -3900.63
-4771.04 -4762.33 -4769.12 -4799.18 -4807.54 -4834.21 -4836.45 -4852.72 -4872.52 -4882.32 -4909.38 -4898.85 -4892.24 -4886.88 -4900.94 -4899.50 -4922.90 -4978.53 -4983.67 -4967.42 -4960.13 -5002.93 -5016.05 -5035.01 -5047.07 -5049.08 -5042.12 -5036.86 -4990.95 -4951.75 -4924.95 -4907.67 -4937.07 -4975.76 -5043.17 -5172.71 -5239.97 -5318.37 -5357.72 -5390.40 -5377.11 -5375.98 -5364.40 -5365.26 -5358.45 -5351.75 -5348.82 -5347.93 -5356.00 -5344.24 -5263.85 -5217.26 -5202.95 -5213.43 -5258.84 -5255.08 -5250.43 -5252.67 -5243.22 -5230.84 -5202.62 -5187.56 -5181.93 -5175.89 -5158.29 -5148.25 -5144.10 -5137.86 -5096.49 -4946.13 -4665.57 -4204.84 -3922.05 -3616.15 -3303.30 -3059.57 -2915.52 -2682.33 -2519.01 -2378.76 -2294.09 -2285.74 -2180.17 -2207.60 -2679.75 -2834.81 -1310.83 -329.46 51.19 126.06 -7.44 -487.65 -824.22 -1120.74 -1261.37 -1348.41 -1377.86 -1416.99 -1462.76 -1401.21 -935.70 -896.86 -1307.69 -1982.45 -2705.83 -4318.74 -5536.13 -7091.46 -8038.94 -8220.43 -8400.38 -8786.51 -8789.13 -8806.57 -8775.66 -8760.96 -8708.28 -8427.28 -7737.53 -6215.24 -4756.34 -4145.28 -4009.37 -3938.19 -3919.41 -3933.69 -3951.16 -3948.95 -3936.82 -3928.69 -3920.39 -3913.10 -3905.40 -3905.52 -3904.54 -3900.80 -3897.46 -3899.65 -3899.13 -3898.96 -3899.03
-4654.82 -4654.69 -4693.67 -4699.16 -4677.59 -4703.30 -4739.32 -4787.58 -4884.52 -4963.87 -4971.60 -4983.86 -4971.28 -4970.33 -4969.89 -4956.42 -4967.90 -5050.06 -5077.57 -5072.76 -5033.36 -5032.36 -5013.57 -5011.96 -5015.50 -5016.01 -5001.79 -4999.21 -4997.54 -4993.29 -5004.40 -5002.98 -4995.09 -5038.92 -5078.19 -5155.95 -5245.05 -5285.95 -5305.23 -5340.73 -5339.73 -5355.77 -5356.54 -5356.03 -5353.51 -5348.74 -5344.76 -5342.71 -5338.90 -5304.74 -5213.76 -5195.11 -5168.09 -5189.71 -5215.13 -5244.33 -5235.67 -5233.90 -5225.19 -5205.08 -5192.09 -5176.05 -5166.11 -5158.31 -5151.58 -5146.92 -5139.73 -5128.05 -5103.19 -4881.81 -4576.09 -4211.85 -3744.34 -3638.82 -3223.95 -2910.71 -2779.41 -2531.89 -2379.17 -2226.53 -1940.87 -1958.42 -1976.39 -1834.50 -1737.38 -1324.89 -798.82 5.73 100.98 154.54 105.31 -444.61 -956.71 -1135.84 -1233.19 -1281.62 -1325.39 -1401.90 -1428.52 -1356.08 -1077.19 -1168.25 -1420.52 -1981.59 -3100.83 -3599.69 -5134.27 -5862.60 -6226.30 -6968.43 -8384.18 -8693.23 -8756.73 -8769.95 -8727.03 -8744.95 -8646.68 -8393.10 -7872.50 -6524.14 -4840.26 -4171.64 -3999.78 -3939.93 -3925.02 -3936.49 -3944.97 -3944.11 -3937.40 -3929.92 -3921.19 -3915.51 -3907.90 -3904.58 -3902.77 -3901.43 -3898.88 -3899.42 -3899.63 -3898.27 -3897.83
-4572.76 -4573.06 -4595.64 -4605.32 -4611.60 -4633.07 -4681.80 -4801.23 -4888.78 -4997.51 -5009.45 -4995.36 -5015.11 -5017.47 -4977.99 -4962.07 -4951.49 -5024.68 -5090.72 -5120.43 -5107.59 -5075.85 -5010.92 -4991.56 -4984.61 -4968.63 -4957.76 -4974.17 -5005.96 -5029.15 -5031.80 -5040.88 -5062.86 -5085.75 -5095.88 -5167.51 -5210.97 -5252.31 -5270.12 -5274.65 -5281.39 -5315.56 -5331.79 -5365.13 -5361.09 -5353.05 -5345.29 -5349.42 -5329.95 -5274.94 -5191.62 -5148.67 -5138.33 -5154.08 -5159.71 -5204.90 -5212.37 -5211.41 -5201.59 -5192.87 -5175.18 -5164.85 -5152.77 -5146.28 -5140.56 -5134.88 -5129.01 -5120.64 -5082.97 -4943.03 -4749.85 -4300.40 -3800.05 -3446.91 -3208.79 -2883.10 -2699.78 -2535.05 -2267.56 -1859.29 -1745.07 -1854.76 -1809.11 -1473.10 -1343.30 -1011.00 -331.85 -20.85 174.25 183.83 14.67 -473.82 -800.50 -1043.45 -1102.46 -1184.94 -1292.34 -1370.95 -1405.40 -1218.02 -1115.46 -1313.67 -1569.28 -1985.79 -2586.46 -3385.10 -4239.40 -4888.76 -5614.45 -6769.88 -7769.00 -8604.65 -8712.39 -8715.42 -8651.38 -8614.53 -8579.12 -8422.79 -8170.09 -6392.44 -4780.02 -4132.40 -3988.72 -3947.47 -3937.02 -3937.60 -3939.49 -3940.71 -3936.68 -3928.34 -3924.18 -3916.15 -3909.68 -3907.49 -3905.62 -3904.39 -3902.02 -3900.67 -3900.26 -3899.50 -3899.56
-4548.77 -4548.78 -4556.06 -4566.17 -4570.83 -4596.60 -4687.79 -4767.92 -4903.47 -4991.16 -5013.56 -5020.09 -5030.58 -5028.40 -4997.73 -4968.18 -4943.18 -4999.29 -5050.79 -5084.16 -5110.74 -5087.15 -5019.39 -4966.41 -4949.22 -4944.95 -4951.46 -4975.62 -5017.43 -5050.39 -5066.79 -5078.86 -5087.97 -5110.66 -5124.97 -5178.26 -5215.65 -5239.01 -5259.71 -5259.99 -5265.65 -5300.50 -5324.83 -5360.16 -5364.08 -5356.65 -5347.31 -5351.70 -5313.15 -5251.44 -5180.84 -5131.64 -5129.40 -5132.00 -5126.97 -5143.29 -5160.87 -5200.75 -5192.08 -5177.15 -5162.97 -5153.96 -5145.25 -5138.49 -5129.60 -5126.70 -5119.29 -5105.72 -5067.67 -4948.47 -4796.53 -4273.59 -3922.24 -3399.49 -3074.60 -2739.80 -2580.12 -2260.65 -2041.38 -1791.58 -1464.13 -1180.03 -1303.32 -1084.86 -875.82 -651.45 -279.49 100.81 171.08 183.52 125.44 -522.67 -714.93 -848.82 -995.21 -1020.91 -1151.07 -1314.76 -1316.44 -1182.33 -1041.50 -1084.57 -1368.28 -1947.36 -2541.21 -3441.85 -3990.76 -5163.72 -6271.51 -7145.32 -8297.85 -8594.60 -8633.10 -8602.95 -8543.11 -8532.90 -8489.68 -8422.99 -8094.64 -7113.75 -4776.78 -4089.52 -3973.79 -3947.04 -3931.51 -3936.29 -3940.09 -3941.94 -3934.16 -3928.94 -3923.09 -3918.36 -3914.59 -3912.54 -3909.05 -3905.85 -3903.76 -3903.28 -3902.49 -3901.68 -3901.75
-4552.35 -4552.30 -4561.97 -4566.13 -4577.53 -4600.49 -4674.31 -4740.59 -4902.84 -4952.23 -5013.77 -5022.91 -5028.91 -5007.49 -4987.64 -4957.93 -4899.28 -4910.75 -4916.67 -5009.33 -5084.18 -5056.46 -5018.64 -4965.72 -4944.86 -4937.70 -4952.14 -4975.08 -5029.76 -5077.66 -5093.18 -5098.72 -5105.31 -5116.18 -5146.80 -5169.13 -5209.90 -5228.99 -5252.83 -5259.21 -5268.58 -5295.43 -5317.77 -5352.96 -5363.02 -5361.40 -5352.55 -5332.12 -5298.26 -5250.08 -5187.57 -5117.32 -5109.23 -5099.73 -5101.00 -5107.47 -5125.89 -5131.59 -5142.98 -5144.17 -5146.49 -5129.74 -5129.42 -5126.21 -5120.48 -5114.05 -5105.92 -5085.26 -5053.02 -4926.94 -4715.71 -4356.42 -3931.84 -3487.94 -3028.90 -2814.58 -2338.05 -2153.56 -1787.56 -1470.20 -1231.75 -1050.34 -956.27 -790.17 -731.15 -547.26 -244.23 101.47 167.16 170.14 -127.25 -537.02 -611.06 -673.51 -792.77 -767.79 -985.85 -1286.81 -1300.56 -812.21 -624.21 -801.04 -1513.84 -1881.98 -2468.69 -3340.94 -4297.49 -5575.97 -6856.73 -7296.61 -8175.26 -8452.04 -8536.27 -8513.52 -8469.51 -8435.90 -8373.05 -8356.19 -7962.64 -6796.24 -5293.54 -4053.31 -3960.40 -3934.37 -3926.76 -3932.03 -3943.01 -3942.35 -3935.06 -3928.77 -3924.09 -3923.78 -3918.38 -3916.50 -3910.19 -3910.24 -3908.59 -3906.68 -3904.96 -3904.90 -3904.67
-4587.38 -4587.36 -4606.44 -4596.10 -4604.40 -4619.65 -4697.80 -4778.00 -4902.30 -4964.49 -5010.99 -5014.47 -5016.31 -5001.01 -4964.93 -4926.36 -4870.20 -4846.09 -4856.75 -4934.77 -5009.73 -5028.39 -4989.67 -4962.46 -4945.45 -4945.99 -4950.07 -4982.01 -5068.46 -5103.95 -5107.49 -5126.01 -5139.94 -5158.06 -5169.97 -5197.38 -5217.72 -5241.90 -5252.66 -5265.43 -5279.70 -5302.05 -5321.53 -5346.50 -5355.91 -5361.92 -5357.60 -5331.48 -5294.79 -5232.49 -5133.70 -5100.79 -5078.37 -5075.09 -5071.76 -5074.78 -5083.90 -5083.37 -5096.93 -5096.03 -5105.15 -5114.78 -5113.62 -5108.46 -5109.94 -5103.00 -5088.97 -5070.87 -5020.13 -4919.07 -4739.79 -4364.74 -4025.11 -3525.44 -3223.98 -3004.19 -2578.95 -2337.27 -1766.21 -1401.10 -1041.37 -804.74 -707.41 -657.01 -633.79 -409.93 -213.59 -70.50 -100.94 -39.90 -214.61 -451.79 -509.87 -519.42 -530.91 -658.59 -695.30 -1075.11 -1130.68 -758.96 -635.72 -913.89 -1302.62 -2169.55 -2691.31 -3103.00 -4508.74 -5813.47 -6470.26 -7363.55 -8027.14 -8194.36 -8495.25 -8387.02 -8343.07 -8287.12 -8234.05 -8223.22 -7960.43 -6943.96 -4807.15 -3956.26 -3831.06 -3791.21 -3879.79 -3938.05 -3947.92 -3943.84 -3937.66 -3933.70 -3928.42 -3927.24 -3922.42 -3919.56 -3916.00 -3912.86 -3909.56 -3907.78 -3908.36 -3907.12 -3907.19
-4653.94 -4665.75 -4666.81 -4666.00 -4665.41 -4683.30 -4755.34 -4817.16 -4906.44 -4975.54 -4995.40 -4999.36 -4996.81 -4981.50 -4921.96 -4868.14 -4798.31 -4775.15 -4776.93 -4801.67 -4872.41 -4953.19 -4958.56 -4956.76 -4958.23 -4963.92 -4974.11 -5020.54 -5096.21 -5114.61 -5162.45 -5172.92 -5185.83 -5191.82 -5213.66 -5221.90 -5236.30 -5248.72 -5258.87 -5269.27 -5287.96 -5308.22 -5326.54 -5346.36 -5354.68 -5358.31 -5361.43 -5339.50 -5278.43 -5195.66 -5094.93 -5039.48 -5033.71 -5022.07 -5023.05 -5016.12 -5034.17 -5037.19 -5057.28 -5059.82 -5048.13 -5072.20 -5078.58 -5089.04 -5092.46 -5074.12 -5066.39 -5056.52 -4995.29 -4914.60 -4696.59 -4484.68 -4014.09 -3602.52 -3219.66 -2948.13 -2576.00 -2203.99 -1889.58 -1365.32 -898.34 -722.44 -637.96 -578.41 -530.22 -473.15 -356.37 -227.41 -287.57 -383.19 -378.89 -402.58 -415.43 -411.20 -368.05 -404.74 -396.77 -400.56 -643.91 -515.43 -681.36 -1022.92 -1490.66 -2060.71 -2682.52 -3296.07 -4263.47 -5119.11 -5842.81 -7270.43 -7673.29 -7942.82 -8284.24 -8245.54 -8164.04 -8111.59 -8074.34 -8029.01 -7942.60 -7031.92 -4843.05 -3684.98 -3550.24 -3639.46 -3845.16 -3930.88 -3945.55 -3945.31 -3940.06 -3933.60 -3931.19 -3930.25 -3923.32 -3921.31 -3918.48 -3917.38 -3912.75 -3911.49 -3911.41 -3909.56 -3908.95
-4710.41 -4708.23 -4709.02 -4709.45 -4726.89 -4744.63 -4784.91 -4830.91 -4943.19 -4976.86 -4987.22 -4990.97 -4986.38 -4951.24 -4880.60 -4736.99 -4728.33 -4704.15 -4691.86 -4687.50 -4731.88 -4850.28 -4917.44 -4956.79 -4969.17 -4977.58 -4996.90 -5033.66 -5117.69 -5140.97 -5179.22 -5193.12 -5229.43 -5245.70 -5236.62 -5251.45 -5255.82 -5258.80 -5265.15 -5273.12 -5289.67 -5319.68 -5352.90 -5353.98 -5355.97 -5357.22 -5359.32 -5352.54 -5317.83 -5178.70 -5046.23 -4976.69 -4974.98 -4967.84 -4991.04 -4984.19 -4983.02 -4994.64 -4985.71 -4981.10 -4985.61 -5001.39 -5029.91 -5065.91 -5085.35 -5057.67 -5042.32 -5045.93 -5021.72 -4970.91 -4764.51 -4524.43 -4255.34 -3798.26 -3512.92 -2967.55 -2443.60 -2113.62 -1740.19 -1260.08 -852.77 -665.84 -581.85 -532.79 -477.42 -415.93 -392.61 -388.58 -383.42 -374.42 -365.95 -329.67 -298.69 -327.24 -234.73 -243.33 -127.54 -88.99 -300.36 -310.98 -564.28 -1185.74 -1518.47 -2196.64 -2980.91 -3367.96 -3641.09 -4761.96 -5614.96 -6756.19 -7364.21 -7602.08 -7867.67 -7926.89 -7992.28 -8002.27 -7946.65 -7845.91 -7726.98 -5609.34 -4529.37 -3444.07 -3425.82 -3625.73 -3839.53 -3924.96 -3941.13 -3946.41 -3939.57 -3933.05 -3931.78 -3932.11 -3926.52 -3924.55 -3923.32 -3920.51 -3918.48 -3915.54 -3913.40 -3911.47 -3911.53
-4735.63 -4745.07 -4764.12 -4766.25 -4768.63 -4781.99 -4815.76 -4885.34 -4930.21 -4982.26 -4992.50 -4985.27 -4982.66 -4944.68 -4850.49 -4712.72 -4639.96 -4597.57 -4593.15 -4619.44 -4638.35 -4754.70 -4867.49 -4963.33 -4984.54 -4994.10 -5023.06 -5071.93 -5130.70 -5162.60 -5197.82 -5218.62 -5253.10 -5262.88 -5266.95 -5264.53 -5266.98 -5261.58 -5266.78 -5276.96 -5293.53 -5342.71 -5358.41 -5359.28 -5358.87 -5359.08 -5358.98 -5359.71 -5276.13 -5140.07 -5025.62 -4919.12 -4905.73 -4917.65 -4930.73 -4938.06 -4930.72 -4931.41 -4931.01 -4934.13 -4929.10 -4955.10 -5014.83 -5040.35 -5054.17 -5031.92 -5023.48 -5032.10 -5012.03 -4969.45 -4802.94 -4548.85 -4152.27 -3693.16 -3009.15 -2465.18 -2181.73 -1751.30 -1440.20 -1004.66 -739.33 -590.66 -549.67 -508.26 -457.90 -416.09 -412.68 -377.41 -344.40 -282.05 -115.64 -158.25 -204.70 -131.20 -86.93 -42.74 -6.61 70.38 68.66 91.44 -448.74 -1254.21 -1705.17 -2074.89 -2683.59 -3501.29 -3946.53 -4795.71 -6082.02 -6773.09 -6979.04 -7135.27 -7634.25 -7848.06 -7832.17 -7792.78 -7730.67 -7728.47 -7389.22 -5961.94 -4216.93 -3389.00 -3373.07 -3605.79 -3769.54 -3921.24 -3934.02 -3941.60 -3934.92 -3930.06 -3931.63 -3933.51 -3933.34 -3930.01 -3926.74 -3923.46 -3919.98 -3918.49 -3916.20 -3914.07 -3914.13
-4770.00 -4769.94 -4769.89 -4772.17 -4775.40 -4786.73 -4830.96 -4880.48 -4933.48 -4974.65 -4992.46 -4988.10 -4984.65 -4945.69 -4830.60 -4694.27 -4609.17 -4564.41 -4565.68 -4586.37 -4629.85 -4719.76 -4790.77 -4951.31 -4986.05 -4987.68 -5028.16 -5066.14 -5149.84 -5180.28 -5215.16 -5242.76 -5257.71 -5262.68 -5262.51 -5238.78 -5225.94 -5233.82 -5242.33 -5260.02 -5282.58 -5334.43 -5360.40 -5361.45 -5361.12 -5359.96 -5358.85 -5349.09 -5334.17 -5129.69 -5028.66 -4941.19 -4895.40 -4888.31 -4895.18 -4900.71 -4898.62 -4907.40 -4906.35 -4899.64 -4904.14 -4924.62 -4979.40 -5018.58 -5021.50 -5015.12 -5016.15 -5016.40 -5004.96 -4979.91 -4758.81 -4418.67 -3879.02 -3613.25 -2908.70 -2409.19 -2031.07 -1608.34 -1197.26 -867.59 -671.31 -597.80 -526.78 -505.13 -448.55 -425.38 -404.70 -280.23 -94.87 54.09 149.59 60.02 41.69 -5.58 -7.15 41.48 96.96 126.31 155.60 134.08 -84.36 -783.17 -1799.80 -1887.65 -1795.60 -3217.33 -3384.70 -5209.91 -5430.09 -5963.90 -6601.35 -6968.16 -7332.54 -7621.00 -7657.04 -7611.95 -7568.45 -7518.30 -7080.32 -5796.90 -4044.67 -3364.30 -3295.97 -3526.00 -3699.86 -3887.75 -3935.94 -3927.68 -3923.95 -3924.32 -3930.49 -3933.91 -3934.80 -3932.50 -3929.42 -3925.74 -3923.38 -3922.06 -3919.79 -3916.34 -3916.40
-4773.99 -4773.92 -4773.72 -4773.84 -4775.26 -4780.01 -4812.77 -4865.30 -4917.80 -4974.46 -4990.21 -4992.68 -4989.38 -4928.30 -4862.06 -4701.08 -4612.08 -4571.77 -4594.41 -4594.86 -4633.68 -4696.60 -4819.39 -4869.79 -4968.75 -4988.42 -5021.31 -5084.74 -5137.39 -5187.98 -5228.64 -5245.87 -5249.07 -5244.15 -5201.68 -5160.28 -5102.88 -5047.18 -5109.67 -5138.78 -5224.19 -5277.94 -5321.92 -5349.25 -5360.34 -5356.86 -5356.96 -5356.75 -5325.72 -5167.19 -5072.04 -4933.63 -4961.75 -4918.05 -4933.32 -4927.40 -4926.53 -4912.88 -4899.95 -4893.37 -4896.82 -4943.07 -4984.07 -5019.12 -5022.93 -5012.28 -5014.69 -5011.03 -4999.18 -4913.40 -4635.93 -4080.71 -3702.88 -3240.05 -2996.40 -2280.67 -1828.17 -1437.19 -1071.23 -859.15 -656.07 -551.78 -474.43 -460.43 -430.46 -336.69 -271.19 -136.91 171.73 222.66 222.63 223.04 195.58 154.65 128.05 86.64 120.04 91.57 80.99 -35.25 75.40 -157.31 -582.83 -1223.88 -1210.67 -1032.17 -940.03 -2648.31 -2930.61 -4766.12 -6045.81 -6593.05 -7096.99 -7364.65 -7457.63 -7300.95 -7287.37 -7232.78 -6797.95 -5561.05 -4009.07 -3205.47 -3218.61 -3456.49 -3675.20 -3821.78 -3927.75 -3917.93 -3913.35 -3915.54 -3921.81 -3922.23 -3930.90 -3932.56 -3932.13 -3928.57 -3925.90 -3923.72 -3921.63 -3918.88 -3918.16
-4777.07 -4777.02 -4777.35 -4775.36 -4774.58 -4779.63 -4807.70 -4857.64 -4942.66 -4963.70 -4995.66 -4996.44 -4989.40 -4953.41 -4865.91 -4744.50 -4662.01 -4674.67 -4646.51 -4688.94 -4713.03 -4764.43 -4792.57 -4881.18 -4954.73 -4979.59 -4984.54 -5067.12 -5133.08 -5190.23 -5209.10 -5224.36 -5189.34 -5155.90 -5057.26 -4758.85 -4379.46 -4574.08 -4671.42 -4690.56 -4934.97 -5057.97 -5174.18 -5281.33 -5323.27 -5336.97 -5350.86 -5350.99 -5331.30 -5253.21 -5147.71 -5109.23 -5042.84 -5050.24 -5009.06 -5016.48 -4973.65 -4942.53 -4921.96 -4913.15 -4904.09 -4948.70 -4991.07 -5024.12 -5032.00 -5017.93 -5011.69 -5006.80 -4985.05 -4898.06 -4582.57 -4060.10 -3697.27 -3220.69 -2890.21 -2312.38 -1808.90 -1484.27 -1062.52 -878.83 -682.59 -550.53 -400.28 -211.99 -98.51 -90.59 60.34 96.70 224.24 229.18 236.33 242.06 242.33 216.54 219.16 203.27 104.16 -202.95 -369.66 -319.93 -400.81 -195.43 -60.26 -27.71 -136.24 -358.73 -475.59 -589.44 -1198.87 -3264.37 -4855.03 -6265.11 -6628.78 -7082.54 -7190.37 -7139.64 -6819.88 -6830.26 -6331.10 -5357.07 -3479.15 -3042.98 -3134.13 -3339.27 -3649.32 -3852.47 -3921.92 -3916.59 -3906.20 -3906.83 -3913.43 -3919.23 -3928.30 -3933.26 -3933.34 -3929.76 -3926.12 -3923.41 -3921.18 -3919.40 -3919.46
-4795.41 -4796.36 -4786.69 -4785.00 -4779.71 -4788.05 -4819.04 -4866.71 -4939.34 -4986.06 -5009.17 -5008.66 -5003.23 -4967.74 -4921.10 -4834.01 -4797.61 -4815.83 -4795.57 -4785.01 -4810.65 -4810.12 -4792.58 -4749.89 -4812.79 -4874.50 -4953.03 -5009.93 -5129.37 -5182.70 -5175.13 -5147.61 -4888.03 -4601.20 -4332.17 -3930.48 -3228.57 -3047.59 -3384.53 -3615.90 -3898.92 -3910.60 -4563.82 -5052.46 -5021.64 -5317.42 -5337.61 -5344.41 -5339.80 -5308.84 -5255.83 -5229.18 -5127.33 -5173.88 -5154.67 -5121.06 -5077.32 -5016.31 -4974.15 -4955.48 -4945.09 -5001.62 -5077.55 -5038.64 -5035.91 -5026.90 -5001.19 -4998.09 -4977.09 -4907.77 -4709.38 -4252.12 -3777.47 -3119.04 -2913.96 -2217.05 -1810.55 -1485.59 -1105.30 -895.12 -723.59 -543.63 -196.18 103.33 236.59 235.88 235.19 240.37 239.04 246.81 258.52 252.15 254.41 260.66 270.44 257.06 47.95 -465.54 -1445.44 -1439.22 -1501.62 -1583.53 -1307.45 -348.30 -659.58 -510.94 -291.94 -295.62 -417.50 -949.07 -2232.87 -5172.40 -6057.13 -6791.85 -6992.11 -6899.56 -6461.91 -6252.11 -5836.63 -4682.16 -3790.35 -2755.33 -2908.43 -3292.40 -3560.54 -3862.46 -3916.81 -3904.88 -3899.10 -3900.08 -3912.53 -3921.15 -3929.12 -3931.93 -3932.83 -3929.82 -3926.18 -3925.25 -3922.99 -3920.69 -3920.75
-4855.19 -4855.20 -4869.25 -4834.19 -4831.54 -4838.38 -4846.91 -4889.84 -4947.99 -5014.13 -5024.37 -5029.68 -5024.62 -5002.80 -4989.40 -4943.89 -4933.84 -4953.76 -4955.30 -4964.30 -4932.14 -4874.32 -4790.28 -4499.24 -4200.56 -4117.55 -4522.89 -4783.46 -4815.67 -5076.20 -4977.41 -4633.84 -4355.54 -3831.39 -3221.46 -2664.90 -2297.20 -2221.55 -2381.72 -2350.27 -2657.46 -3244.24 -3197.23 -3964.53 -4300.67 -4638.11 -5310.87 -5302.72 -5318.70 -5297.96 -5289.50 -5287.56 -5270.67 -5254.78 -5244.25 -5222.20 -5149.92 -5056.90 -5006.23 -4981.98 -4990.88 -5026.97 -5073.48 -5039.64 -5027.12 -5017.83 -5004.95 -4990.53 -4943.15 -4742.83 -4415.66 -3855.61 -3538.50 -3165.61 -2433.53 -2060.57 -1678.68 -1279.37 -970.42 -934.01 -542.26 -377.24 -64.31 243.89 247.57 251.96 260.27 256.09 254.45 273.11 274.07 279.54 279.56 282.15 281.28 258.63 -239.87 -897.62 -2528.88 -3431.50 -3135.35 -2850.53 -2769.23 -1799.21 -1884.55 -1509.16 -1641.09 -550.03 -481.41 -496.87 -1945.04 -3832.50 -5978.03 -6707.67 -6747.80 -6165.45 -5813.62 -5553.25 -5280.84 -4851.03 -3398.43 -2796.11 -2810.75 -3131.89 -3382.01 -3760.15 -3896.91 -3892.53 -3891.59 -3886.74 -3895.55 -3906.48 -3921.92 -3930.17 -3932.77 -3931.27 -3927.80 -3925.88 -3925.14 -3921.12 -3921.18
-4972.59 -4983.75 -4985.89 -4965.69 -4943.20 -4902.28 -4911.46 -4939.60 -5026.64 -5094.90 -5079.40 -5090.83 -5082.77 -5066.67 -5051.94 -5047.72 -5063.56 -5071.24 -5094.66 -5081.38 -5024.49 -4877.79 -4463.07 -3863.00 -3151.05 -3272.68 -3293.74 -4057.61 -4210.08 -4573.99 -4357.65 -3710.87 -3071.37 -2761.11 -2382.40 -1860.07 -1633.59 -1597.87 -1700.86 -1758.18 -1975.87 -2105.05 -2409.31 -2709.83 -3337.49 -3930.23 -4589.57 -4965.59 -5045.65 -5015.46 -5131.10 -5196.22 -5250.20 -5225.50 -5233.98 -5233.09 -5181.20 -5104.18 -5021.91 -4982.13 -4996.90 -5047.73 -5076.28 -5071.36 -5040.26 -5029.62 -5025.79 -5011.97 -4899.60 -4598.10 -4082.60 -3718.57 -3446.09 -3183.19 -2353.25 -1899.91 -1417.07 -1108.39 -607.17 -572.46 -109.19 107.42 135.84 257.58 268.29 275.69 275.96 276.78 281.94 292.56 294.78 290.87 293.02 293.55 296.51 267.82 -29.51 -968.93 -2078.82 -2979.83 -3574.21 -3860.87 -3855.06 -3625.53 -3457.99 -3143.15 -2334.12 -1644.95 -855.85 -1157.91 -2646.37 -4633.99 -5877.33 -6615.19 -6580.54 -6247.45 -5463.82 -5289.93 -4823.55 -4404.44 -3449.04 -2797.34 -2832.87 -3264.02 -3547.32 -3725.74 -3885.92 -3878.15 -3869.89 -3862.75 -3864.12 -3882.42 -3916.68 -3929.47 -3932.59 -3931.33 -3929.34 -3926.36 -3923.23 -3920.42 -3920.58
-5175.06 -5151.94 -5117.23 -5105.15 -5058.80 -5050.79 -5047.31 -5076.15 -5069.47 -5171.49 -5178.08 -5160.96 -5158.63 -5188.53 -5241.59 -5198.71 -5223.15 -5191.07 -5187.81 -5168.56 -5067.00 -4872.43 -4101.93 -3028.80 -2320.00 -2209.54 -2645.47 -3013.65 -3044.10 -3519.24 -3717.19 -3125.14 -2254.95 -1912.50 -1731.20 -1470.29 -994.52 -1056.19 -1029.14 -1473.81 -1311.92 -1929.66 -2238.73 -2266.39 -2426.17 -2862.08 -3731.47 -4174.73 -4309.79 -4485.09 -4753.85 -5006.20 -4977.78 -5152.06 -5202.44 -5224.38 -5199.67 -5107.40 -5046.19 -5006.97 -5021.14 -5094.55 -5089.15 -5088.66 -5065.35 -5047.62 -5005.44 -4978.02 -4860.47 -4494.92 -4014.43 -3549.45 -3377.38 -3115.23 -2637.16 -1668.89 -723.22 -582.13 -422.58 38.16 250.12 261.01 265.48 275.15 281.20 296.80 307.05 300.09 303.24 318.37 317.02 315.18 314.67 325.12 318.83 268.20 226.74 -164.57 -390.03 -1655.15 -2734.97 -4089.68 -4201.26 -4217.91 -4298.89 -4244.07 -3543.73 -2851.09 -2185.04 -1767.11 -1936.66 -2232.07 -2862.24 -3424.37 -3659.70 -3334.14 -4654.39 -4642.89 -4218.42 -4008.10 -3438.37 -3061.43 -2998.52 -3251.71 -3713.76 -3866.94 -3892.62 -3877.96 -3849.49 -3814.68 -3817.44 -3846.38 -3877.15 -3935.64 -3933.42 -3931.06 -3929.13 -3924.34 -3923.14 -3920.10 -3920.16
-5334.84 -5334.67 -5263.02 -5242.89 -5222.50 -5235.58 -5252.99 -5245.90 -5301.49 -5303.75 -5285.43 -5274.84 -5336.58 -5340.58 -5346.20 -5320.41 -5292.35 -5369.79 -5355.55 -5284.01 -5119.20 -4878.15 -3973.01 -3115.90 -1949.21 -1852.14 -1863.90 -2064.15 -2287.25 -2661.21 -2711.57 -2376.46 -2006.12 -1504.94 -1072.45 -472.96 -368.02 -59.78 -147.30 -402.10 -584.94 -1745.67 -1779.87 -1169.05 -1328.26 -1751.86 -2682.25 -3190.93 -3604.45 -3335.14 -3452.14 -3817.84 -4132.06 -4450.07 -4931.31 -5054.85 -5176.01 -5072.28 -4957.93 -5017.90 -5055.98 -5085.75 -5061.71 -5071.08 -4992.43 -4806.21 -4873.28 -4220.41 -3966.54 -3626.43 -3106.37 -3106.22 -3231.65 -2745.38 -2044.13 -1173.86 -272.40 162.33 236.59 253.76 264.34 270.27 285.87 298.86 322.07 325.36 328.98 321.66 326.66 330.04 339.11 345.04 359.01 361.32 356.66 310.54 293.89 64.79 -40.57 -1254.20 -2806.49 -4092.65 -4218.27 -4439.72 -4502.06 -4462.27 -4421.83 -4361.59 -3866.41 -2751.43 -1969.26 -1214.64 -1325.09 -1530.08 -1763.30 -2300.16 -2901.60 -3042.66 -3209.01 -3694.29 -3559.13 -3182.31 -2934.49 -3247.15 -3629.08 -3839.86 -3896.52 -3878.47 -3843.94 -3812.56 -3817.26 -3834.70 -3900.19 -3929.61 -3936.07 -3927.83 -3925.67 -3922.65 -3920.19 -3918.97 -3918.58
-5426.85 -5426.73 -5423.14 -5372.32 -5343.77 -5329.75 -5326.81 -5364.78 -5429.64 -5439.73 -5419.31 -5411.65 -5443.90 -5471.91 -5479.17 -5536.58 -5538.52 -5612.56 -5506.09 -5467.82 -5341.63 -4936.50 -3854.27 -2874.17 -2037.49 -1949.75 -1949.84 -2003.15 -1966.83 -2116.93 -2274.04 -2164.34 -1615.12 -849.79 -248.67 -107.56 152.44 257.88 135.19 72.81 71.64 -215.34 -188.39 200.93 214.08 -733.88 -1868.25 -2541.19 -2466.21 -2453.43 -2706.23 -2785.30 -3097.21 -3390.72 -4161.45 -4736.03 -4797.53 -4823.70 -4850.70 -4870.76 -4769.75 -4476.53 -4825.86 -4813.69 -4518.59 -4212.86 -4191.07 -3368.01 -3310.86 -2524.55 -2487.25 -2261.89 -1742.13 -1331.66 -578.94 -27.64 250.32 259.51 265.25 268.94 273.00 282.71 306.76 328.71 333.13 333.86 343.22 362.68 357.34 364.32 371.04 391.26 392.62 381.29 363.24 329.08 316.01 274.24 70.63 -745.83 -3173.10 -3803.62 -4145.45 -4339.11 -4334.19 -4385.38 -4521.11 -4682.22 -4701.82 -4069.61 -3154.89 -2438.29 -1422.58 -1029.66 -877.37 -847.22 -1716.70 -1919.64 -2747.75 -3445.51 -3384.61 -3079.30 -2938.64 -3180.63 -3431.20 -3775.03 -3889.87 -3886.39 -3841.02 -3816.54 -3813.78 -3842.07 -3896.31 -3932.83 -3934.29 -3927.04 -3923.24 -3920.32 -3918.23 -3916.13 -3916.19
-5437.49 -5437.45 -5433.09 -5427.73 -5420.18 -5411.15 -5418.29 -5477.52 -5546.58 -5569.31 -5550.76 -5578.97 -5572.80 -5611.53 -5642.90 -5652.53 -5648.89 -5684.35 -5675.59 -5653.84 -5508.32 -5229.97 -4089.06 -3307.31 -2368.54 -2333.07 -2453.75 -2456.15 -2119.36 -2054.44 -2089.54 -1781.81 -1398.28 -191.86 232.28 279.37 303.58 333.05 296.82 225.43 221.60 155.47 220.04 221.45 217.20 -44.35 -1016.55 -1772.57 -1562.66 -2190.59 -2293.93 -2117.61 -2094.85 -2953.20 -3038.87 -3356.52 -3559.72 -3685.15 -3516.71 -3755.15 -3310.59 -3817.58 -3689.75 -3952.97 -3480.23 -2888.84 -2419.66 -2325.27 -2105.73 -2079.90 -1643.62 -1206.23 -928.06 -686.64 215.41 250.54 260.51 272.84 277.43 289.52 296.56 303.91 319.94 339.62 364.03 378.53 389.82 380.85 381.75 399.29 398.08 413.78 412.25 396.06 385.58 345.47 318.31 355.59 176.82 -112.69 -1792.44 -3270.11 -3963.01 -4190.85 -4278.42 -4345.73 -4553.09 -4804.43 -4927.65 -4944.93 -4280.24 -3362.50 -2619.81 -1661.50 -1113.61 -928.24 -1007.21 -1182.97 -1880.53 -2724.57 -3132.96 -3086.58 -2986.64 -3273.97 -3516.25 -3739.37 -3874.34 -3884.84 -3852.60 -3806.63 -3807.47 -3830.56 -3887.23 -3931.43 -3931.33 -3925.14 -3921.56 -3918.02 -3916.53 -3914.37 -3914.43
-5411.37 -5414.64 -5414.17 -5412.99 -5413.38 -5417.17 -5426.03 -5498.01 -5558.46 -5608.80 -5611.77 -5631.10 -5642.05 -5658.13 -5690.63 -5738.75 -5762.63 -5775.84 -5784.64 -5738.31 -5634.02 -5481.16 -4768.04 -3824.68 -3765.53 -3323.21 -3566.56 -3486.07 -2718.48 -2512.28 -2200.56 -1519.36 -884.01 17.44 235.39 260.08 310.61 405.65 499.97 457.17 323.96 255.70 246.21 242.82 220.80 213.67 24.01 -793.92 -660.80 -896.19 -1068.48 -1328.62 -1911.90 -1651.08 -2415.53 -2431.40 -2312.75 -2235.62 -2248.52 -2089.98 -2230.07 -2508.15 -2493.14 -2824.78 -2514.72 -2161.81 -2127.40 -1887.40 -1895.61 -1864.90 -1142.64 -51.48 106.88 248.16 280.90 317.22 305.40 297.92 297.25 313.78 318.90 328.19 345.70 369.71 382.08 400.66 406.00 404.61 413.70 421.68 435.67 438.07 441.61 432.41 413.54 385.71 359.59 342.44 266.93 -8.77 -397.11 -1968.97 -2729.23 -3211.35 -3813.44 -4567.03 -4609.77 -4692.29 -4801.83 -5017.08 -4979.39 -4834.13 -3609.54 -3173.51 -2302.99 -1341.80 -1144.18 -1000.96 -1057.54 -1885.93 -2691.34 -3087.50 -3048.40 -3320.96 -3602.68 -3722.89 -3868.54 -3884.36 -3848.79 -3805.56 -3800.45 -3826.88 -3898.15 -3926.95 -3933.53 -3925.67 -3921.55 -3917.08 -3914.41 -3912.66 -3912.72
-5394.81 -5395.73 -5396.03 -5397.27 -5400.02 -5412.37 -5432.12 -5484.65 -5565.69 -5603.69 -5638.67 -5650.90 -5657.56 -5679.37 -5716.97 -5746.92 -5785.98 -5796.24 -5798.91 -5807.96 -5778.97 -5678.14 -5331.75 -5024.58 -4932.65 -5161.39 -4984.26 -4216.62 -3369.71 -2868.29 -2501.16 -1889.00 -1231.42 -713.48 225.58 241.60 294.74 426.39 601.63 516.24 323.38 282.51 273.45 258.17 255.71 242.50 226.37 51.98 125.73 140.45 127.08 219.78 -1033.29 -1580.24 -1959.19 -1953.89 -1761.73 -1542.63 -1396.87 -1734.36 -1840.11 -1892.40 -2081.81 -2149.60 -2119.67 -1904.52 -1827.44 -1735.70 -1601.35 -1083.05 -538.60 255.65 272.03 291.39 368.78 445.18 379.38 330.33 322.02 328.19 327.64 353.80 361.20 389.45 403.92 424.49 433.23 437.01 444.45 439.09 453.08 477.88 466.51 471.99 460.79 437.07 388.48 338.07 331.82 135.91 -290.11 -879.90 -1494.90 -1469.02 -2765.38 -4181.57 -4634.98 -4528.15 -4681.20 -4867.28 -4956.99 -5053.99 -4925.79 -4500.07 -3458.63 -2827.34 -2355.80 -1384.46 -1275.35 -1533.33 -1987.04 -2273.48 -3053.53 -3533.40 -3754.03 -3851.55 -3888.93 -3876.24 -3826.20 -3803.42 -3800.91 -3830.56 -3901.20 -3940.09 -3935.57 -3926.95 -3920.52 -3916.15 -3914.30 -3912.22 -3911.70
-5390.47 -5390.42 -5390.85 -5391.89 -5393.90 -5401.17 -5426.14 -5494.60 -5589.21 -5620.64 -5648.18 -5655.86 -5664.30 -5685.92 -5714.40 -5761.72 -5786.90 -5796.66 -5799.61 -5810.21 -5811.96 -5802.05 -5753.34 -5661.64 -5654.34 -5646.26 -5475.81 -5294.10 -4715.90 -4079.64 -2592.99 -1386.79 -472.09 105.28 224.33 225.32 275.89 365.77 529.45 507.84 453.84 341.29 310.10 283.12 299.31 256.06 233.66 248.39 243.25 237.46 231.83 224.43 219.86 -162.15 -577.18 -807.48 -982.92 -945.26 -843.02 -1133.79 -1229.83 -1606.99 -1768.97 -1881.24 -1904.53 -1794.06 -1762.29 -1716.31 -1418.50 -676.57 -65.29 279.47 310.20 337.66 393.99 499.58 447.74 356.62 348.27 344.41 356.65 387.17 387.83 407.97 424.85 435.00 453.53 463.71 462.42 474.90 499.18 500.76 499.42 504.33 491.28 451.36 397.53 371.31 424.82 474.97 24.07 -27.96 -89.18 -793.77 -1195.34 -2525.19 -4409.94 -4458.09 -4466.83 -4735.05 -4745.15 -4921.24 -5047.42 -5020.87 -4711.78 -4120.92 -3631.50 -2961.67 -2081.34 -1365.00 -1226.97 -1442.42 -2683.35 -3570.07 -3954.12 -4007.13 -3899.79 -3873.68 -3818.81 -3802.11 -3805.79 -3847.77 -3913.16 -3940.84 -3934.01 -3927.99 -3923.87 -3917.10 -3912.14 -3911.47 -3911.45
-5401.77 -5401.69 -5412.41 -5408.27 -5398.30 -5413.70 -5435.37 -5484.80 -5583.82 -5624.81 -5643.65 -5653.03 -5663.60 -5678.76 -5713.35 -5751.85 -5779.98 -5786.19 -5797.32 -5797.06 -5800.93 -5810.22 -5794.37 -5789.88 -5775.57 -5751.37 -5735.46 -5750.59 -5773.66 -5595.84 -2103.72 -252.56 153.63 216.11 222.29 224.74 257.13 309.49 441.30 513.44 449.85 323.71 330.09 331.35 319.80 292.31 312.34 303.38 273.69 261.93 261.38 255.62 229.61 221.30 -19.97 -325.31 -285.43 -243.98 -255.05 -357.09 -237.36 -400.46 -1112.40 -1732.55 -1700.19 -1641.75 -1697.39 -1514.70 -300.62 232.67 260.18 290.16 359.45 417.46 496.00 493.59 428.26 373.26 363.23 374.20 381.28 389.72 398.05 418.81 434.88 451.09 478.00 483.76 487.16 496.78 513.56 508.66 524.91 534.71 516.18 502.53 467.87 437.80 407.46 502.91 295.53 174.81 100.22 -193.95 -624.13 -2200.14 -4470.05 -4320.95 -4436.34 -4617.10 -4768.09 -4940.90 -5057.72 -5178.44 -5237.80 -5080.43 -4934.79 -4467.32 -3372.89 -2133.92 -1432.12 -1207.21 -2279.90 -3644.60 -4157.81 -4142.66 -4056.10 -3930.12 -3863.20 -3806.36 -3821.11 -3864.87 -3915.76 -3940.37 -3935.05 -3926.76 -3923.84 -3918.70 -3911.93 -3909.86 -3909.92
-5467.75 -5459.03 -5459.03 -5466.51 -5492.07 -5453.88 -5499.83 -5521.26 -5576.72 -5616.11 -5623.19 -5634.31 -5646.14 -5661.37 -5684.65 -5718.43 -5719.41 -5750.50 -5762.75 -5759.95 -5760.58 -5788.08 -5792.33 -5765.23 -5753.59 -5760.65 -5785.77 -5914.33 -6349.00 -5300.73 -1476.09 50.98 207.60 218.69 220.78 236.10 257.24 322.66 402.58 511.62 518.97 407.89 360.67 406.47 485.34 480.84 521.19 380.60 332.43 264.61 261.59 265.43 261.77 239.25 237.43 93.74 173.25 115.91 150.85 190.84 138.60 136.63 105.90 -1311.41 -1171.76 -1382.38 -1191.88 -689.11 -38.22 248.45 276.44 370.85 413.72 487.68 557.18 482.27 419.14 383.65 374.78 384.77 397.46 398.52 421.09 435.38 448.49 468.42 483.99 497.16 511.79 521.54 527.36 539.81 556.90 560.83 566.69 536.69 511.33 483.22 429.28 412.68 300.38 257.05 188.35 -193.65 -462.79 -2663.13 -4102.17 -4217.98 -4299.54 -4518.92 -4799.39 -4832.78 -4943.81 -5109.52 -5262.45 -5323.92 -5246.49 -4964.65 -4235.60 -3094.35 -1529.93 -1103.58 -1720.35 -2968.15 -3747.56 -4500.23 -4248.43 -4040.96 -3917.49 -3900.64 -3861.46 -3901.45 -3926.25 -3933.59 -3932.27 -3927.66 -3925.13 -3919.49 -3913.02 -3908.34 -3907.41
-5593.66 -5593.50 -5601.90 -5574.18 -5558.50 -5570.27 -5569.48 -5577.69 -5584.76 -5590.79 -5601.64 -5610.21 -5610.25 -5626.67 -5637.06 -5649.13 -5668.03 -5665.52 -5688.21 -5679.54 -5691.71 -5674.89 -5658.80 -5640.73 -5645.26 -5688.18 -5859.21 -6068.06 -5609.59 -4165.88 -337.02 199.04 211.56 220.44 222.48 253.57 287.60 353.08 363.30 472.81 484.90 439.07 561.34 589.51 604.46 435.44 640.39 495.37 452.52 373.16 324.88 288.50 275.85 275.92 273.91 256.84 244.75 238.29 221.32 219.76 219.45 219.63 174.44 -273.93 -424.21 -518.32 -485.57 227.76 229.88 276.31 301.34 410.30 473.28 501.03 508.34 448.94 407.17 391.29 387.59 396.00 403.92 412.75 432.34 447.96 469.91 484.48 497.83 512.38 532.27 538.62 554.97 580.18 584.44 589.46 587.43 571.62 509.81 455.68 422.49 349.27 314.23 374.27 220.29 -67.32 -879.04 -3021.18 -3613.03 -4051.19 -4075.67 -4209.66 -4520.59 -4656.81 -4888.99 -5053.54 -5251.93 -5353.06 -5367.82 -5182.47 -4645.44 -2881.29 -1627.76 -978.45 -1080.96 -1542.20 -2808.76 -3792.81 -4437.65 -4249.51 -4080.82 -3949.59 -3959.36 -3931.57 -3933.24 -3930.49 -3928.71 -3927.31 -3924.58 -3919.01 -3911.77 -3906.32 -3906.38
-5687.10 -5686.99 -5681.95 -5678.09 -5688.47 -5686.56 -5680.97 -5634.43 -5580.62 -5569.62 -5564.57 -5575.63 -5580.67 -5585.06 -5586.43 -5584.62 -5595.16 -5596.14 -5582.21 -5593.54 -5591.11 -5584.67 -5547.74 -5540.22 -5519.56 -5546.94 -5802.56 -6195.99 -5692.81 -3263.96 -335.73 209.59 221.00 222.52 236.74 252.23 289.25 429.56 504.10 536.38 533.03 479.52 630.19 793.55 694.48 704.52 852.82 815.40 597.43 500.66 456.28 335.67 311.36 301.20 296.03 282.81 274.12 267.31 244.75 227.16 232.10 222.58 222.60 188.94 56.67 237.04 247.31 274.77 291.34 344.60 386.90 430.58 444.96 416.31 400.11 415.86 393.50 387.60 390.29 400.78 408.94 425.56 439.93 455.63 478.89 488.79 516.52 531.87 544.05 554.32 571.47 583.29 585.82 615.80 619.65 587.35 560.65 464.35 389.81 391.95 389.91 454.73 364.68 146.26 -749.72 -2124.14 -3432.73 -3875.57 -4029.49 -4237.83 -4414.79 -4606.01 -4822.98 -4974.98 -5218.00 -5337.36 -5390.88 -5323.75 -4744.38 -3164.30 -1719.94 -682.24 -667.91 -837.87 -1732.97 -3129.69 -4507.55 -4401.18 -4215.49 -4092.45 -3987.44 -3958.97 -3929.52 -3929.87 -3932.13 -3928.63 -3923.80 -3919.07 -3912.05 -3905.63 -3905.70
-5705.74 -5705.68 -5702.91 -5705.46 -5709.98 -5710.86 -5696.56 -5657.80 -5579.11 -5553.26 -5548.94 -5554.86 -5563.66 -5566.32 -5560.73 -5551.05 -5544.85 -5542.54 -5555.46 -5558.83 -5557.28 -5544.78 -5522.54 -5491.18 -5479.99 -5522.11 -5734.93 -5934.60 -5487.56 -79.74 196.59 221.13 223.07 256.00 277.91 288.96 299.52 413.96 545.18 569.32 607.20 602.90 691.19 873.67 882.57 835.40 1067.52 1058.25 758.73 716.88 488.52 394.35 353.17 359.48 329.20 317.80 292.81 275.79 267.41 261.01 246.60 240.41 231.93 233.40 239.62 252.71 278.94 323.25 322.98 370.81 383.63 374.49 371.92 383.08 383.53 382.92 385.07 387.48 390.69 402.57 411.60 433.11 453.47 473.27 489.60 507.26 526.59 536.74 554.12 567.01 578.91 588.77 605.56 635.20 646.45 630.68 590.37 483.73 427.31 425.65 380.46 503.97 502.01 234.69 -58.97 -786.31 -2610.45 -3549.23 -3882.01 -4175.58 -4422.08 -4659.54 -4758.74 -4968.31 -5090.71 -5300.80 -5385.75 -5323.86 -4761.96 -3651.90 -2077.60 -656.65 -583.32 -691.01 -1243.82 -1704.48 -3326.21 -4077.38 -4154.96 -4138.86 -4033.35 -3984.21 -3942.80 -3930.02 -3927.08 -3927.43 -3925.76 -3919.03 -3912.40 -3904.85 -3904.92
-5686.14 -5688.73 -5690.73 -5693.67 -5698.38 -5702.05 -5686.43 -5639.92 -5579.64 -5542.90 -5535.67 -5541.11 -5551.58 -5557.24 -5550.94 -5541.41 -5539.01 -5539.51 -5546.71 -5550.43 -5546.23 -5528.34 -5508.13 -5463.94 -5472.26 -5572.95 -5770.77 -4635.41 -2085.32 161.69 219.89 221.70 231.09 254.46 289.53 302.45 326.46 393.46 458.47 452.14 490.45 629.61 787.68 978.20 1027.92 1296.99 1319.11 1406.91 1069.43 755.13 549.87 419.64 378.15 379.14 368.30 345.79 325.70 300.18 285.42 275.22 262.07 251.61 253.15 254.37 277.81 301.54 315.43 325.64 342.31 356.00 350.02 348.51 357.23 361.68 367.19 374.86 377.53 384.09 393.11 408.78 416.27 439.06 456.28 476.75 495.69 516.06 532.98 545.85 558.33 572.16 591.69 602.88 616.23 644.06 653.43 603.43 563.14 535.50 491.46 489.03 424.92 509.85 531.51 334.06 228.25 -382.30 -1960.14 -3578.94 -3902.20 -4277.66 -4467.59 -4623.75 -4763.48 -4938.19 -5073.22 -5266.84 -5344.65 -5315.31 -5052.22 -3813.09 -1832.96 -592.32 -455.91 -567.67 -669.05 -1288.58 -1665.22 -2831.04 -3558.15 -4033.04 -4059.56 -4039.69 -3977.75 -3944.73 -3926.12 -3922.23 -3920.79 -3915.51 -3913.18 -3905.20 -3903.81
-5642.18 -5642.15 -5637.06 -5644.35 -5658.80 -5656.58 -5619.04 -5607.40 -5550.64 -5516.56 -5516.03 -5528.59 -5535.91 -5536.24 -5537.30 -5533.35 -5535.93 -5538.97 -5548.01 -5551.54 -5551.30 -5534.01 -5493.00 -5454.82 -5378.45 -5519.83 -5587.49 -3641.05 -1723.34 -107.37 231.64 257.84 277.55 287.00 301.38 324.79 347.81 427.03 411.53 430.21 552.23 581.35 667.12 846.28 1084.79 1290.49 1404.62 1396.30 1172.81 955.75 599.11 511.80 411.35 396.44 385.97 367.19 347.21 324.23 309.77 298.04 292.74 278.76 275.86 293.71 290.94 312.85 325.07 324.33 324.97 332.22 341.04 343.75 346.72 352.47 359.27 362.93 370.85 382.46 389.41 407.72 418.13 441.24 459.80 481.61 501.90 523.04 539.96 548.76 572.27 585.66 597.84 615.67 634.82 654.72 666.76 659.93 618.84 569.27 531.10 531.32 493.90 532.22 620.72 502.19 223.10 -147.42 -689.27 -2328.94 -3713.77 -4299.20 -4451.69 -4633.07 -4799.41 -4967.47 -5084.61 -5231.65 -5318.75 -5280.70 -4913.16 -4457.98 -1796.41 -689.55 -370.76 -422.42 -489.77 -1135.00 -1604.63 -2485.88 -3272.16 -3470.79 -3997.56 -4031.64 -4009.72 -3963.57 -3936.02 -3918.25 -3917.72 -3920.24 -3913.02 -3901.99 -3902.06
-5534.77 -5534.78 -5506.00 -5546.66 -5546.08 -5569.06 -5526.82 -5544.79 -5514.14 -5463.06 -5471.73 -5497.36 -5509.80 -5520.77 -5528.33 -5534.76 -5539.26 -5555.34 -5564.41 -5570.11 -5568.04 -5523.74 -5363.93 -5359.79 -5091.84 -4572.14 -3881.00 -2316.01 -934.86 239.92 259.52 276.70 281.12 304.57 340.85 355.82 377.66 446.48 521.62 483.49 593.32 769.93 896.68 888.72 1091.61 1076.84 1207.76 1160.39 947.86 838.96 691.23 491.45 449.40 418.60 395.06 389.81 363.66 342.94 350.02 335.86 323.49 335.07 358.12 337.33 319.83 320.61 327.87 323.25 322.96 324.40 332.50 335.90 338.33 347.30 353.97 357.81 365.14 381.23 390.73 404.49 425.52 452.35 465.32 487.01 509.30 528.36 545.32 561.38 578.14 599.08 612.87 631.49 642.78 667.17 682.87 679.84 640.50 593.42 582.12 580.25 561.78 618.03 647.29 643.97 267.01 210.88 -55.47 -1110.98 -3229.40 -3999.29 -4383.73 -4605.35 -4768.89 -4859.48 -5078.97 -5192.16 -5281.44 -5248.30 -5065.60 -3595.73 -2000.38 -705.67 -360.87 -351.17 -540.50 -840.07 -1635.09 -2006.98 -2298.11 -3129.49 -3975.31 -3996.80 -4027.51 -3992.70 -3946.49 -3919.58 -3915.87 -3915.22 -3908.57 -3894.92 -3894.99
-5362.22 -5362.27 -5373.32 -5382.78 -5387.60 -5398.41 -5428.88 -5407.51 -5406.59 -5420.10 -5432.04 -5464.52 -5468.84 -5493.87 -5522.11 -5541.59 -5563.04 -5587.76 -5582.50 -5578.74 -5543.62 -5383.34 -5125.75 -4904.57 -4122.14 -3875.01 -2408.55 -1126.46 231.08 264.86 276.14 281.95 284.32 325.40 358.00 371.54 415.15 463.01 525.85 667.01 699.70 612.95 736.52 876.91 1001.96 1017.46 931.82 955.12 815.94 753.36 671.38 508.14 489.62 460.94 429.90 422.57 390.32 386.79 371.44 382.68 390.87 435.92 421.72 368.42 340.76 328.18 329.92 324.17 321.03 321.02 327.67 329.53 335.80 338.73 348.75 357.83 372.01 380.87 393.20 405.47 434.86 454.52 468.80 499.58 515.61 537.81 565.24 573.06 589.85 617.58 620.75 636.18 650.48 674.17 689.35 680.40 661.17 620.38 633.42 651.31 605.91 571.07 493.17 597.77 268.28 163.58 29.45 -625.87 -2886.73 -3884.48 -4166.24 -4424.89 -4570.67 -4715.83 -5053.29 -5196.96 -5247.43 -5199.08 -4970.73 -3621.86 -2063.21 -572.14 -297.58 -309.10 -445.69 -840.46 -1252.00 -1560.10 -1914.33 -2686.95 -3726.84 -3870.52 -3978.93 -3984.18 -3963.98 -3923.31 -3906.63 -3905.07 -3899.60 -3890.76 -3890.83
-5223.48 -5234.28 -5235.95 -5271.06 -5270.36 -5274.38 -5269.00 -5329.51 -5347.53 -5375.75 -5379.92 -5409.23 -5436.53 -5455.74 -5497.50 -5542.79 -5569.30 -5585.74 -5594.22 -5487.11 -5384.04 -5040.50 -4161.61 -3604.77 -3207.36 -2289.30 -1882.41 -122.65 242.41 266.74 280.30 284.66 306.18 366.76 384.63 388.86 430.35 489.15 606.06 750.15 871.21 913.01 865.58 937.86 972.16 962.97 898.58 871.66 722.93 671.06 608.01 543.63 509.97 498.04 454.30 447.26 437.08 417.91 461.29 535.00 510.93 489.04 403.05 346.19 332.83 332.02 330.61 327.76 320.90 320.83 320.88 323.01 330.37 337.78 345.34 354.88 360.75 376.36 395.92 408.98 441.65 452.53 463.75 500.20 517.27 546.24 581.29 593.24 605.18 620.84 629.03 637.82 651.86 668.93 683.63 687.85 679.81 675.39 699.92 698.76 676.27 523.02 420.76 567.55 427.60 217.98 75.94 -584.81 -2289.33 -3621.87 -3998.78 -4244.49 -4446.45 -4612.22 -4846.55 -5209.31 -5216.90 -5196.64 -4905.33 -3605.17 -1916.19 -490.11 -282.94 -260.07 -410.75 -673.92 -859.83 -1199.99 -2079.25 -2585.41 -2797.93 -3272.24 -3788.49 -3953.16 -3968.76 -3938.72 -3914.37 -3898.34 -3893.47 -3880.77 -3880.83
-5153.00 -5152.96 -5155.01 -5162.78 -5155.88 -5194.04 -5202.53 -5241.24 -5286.40 -5328.34 -5357.49 -5384.43 -5403.71 -5438.91 -5482.49 -5513.37 -5550.51 -5553.69 -5357.87 -5190.25 -4733.62 -4157.28 -3437.17 -2323.04 -1903.13 -1534.65 -1493.50 -376.43 262.39 281.18 301.04 325.59 344.96 466.04 434.32 396.93 476.40 471.99 527.20 665.03 875.36 964.42 986.11 914.61 911.06 877.88 868.39 844.49 664.60 645.82 591.35 565.83 523.95 509.27 492.59 477.59 456.90 465.82 577.09 645.94 559.98 465.99 381.16 332.98 332.70 332.03 330.90 327.56 323.78 320.77 320.79 322.49 328.61 333.02 343.73 349.50 362.44 376.40 396.43 420.45 431.76 456.89 483.48 498.91 524.46 555.56 577.18 597.15 612.74 624.41 637.51 649.52 654.57 672.68 681.08 700.36 710.46 718.82 734.42 743.18 740.57 596.38 523.91 690.20 494.04 225.42 8.62 -484.62 -1622.47 -3318.29 -3982.55 -4322.79 -4403.36 -4609.82 -4825.20 -5099.21 -5178.07 -5128.66 -4786.55 -3654.96 -1417.07 -671.10 -255.80 -234.43 -266.96 -551.75 -885.14 -1066.57 -1558.52 -1996.28 -2532.82 -3110.42 -3743.41 -3946.25 -3966.51 -3942.11 -3916.81 -3904.39 -3889.13 -3875.59 -3875.66
-5109.35 -5109.30 -5103.91 -5115.00 -5120.78 -5130.80 -5139.22 -5211.45 -5251.51 -5304.07 -5332.48 -5353.56 -5389.36 -5416.60 -5442.48 -5471.49 -5368.53 -5255.97 -4866.97 -4088.79 -3249.63 -3060.84 -2356.03 -1814.87 -1607.88 -1279.85 -456.21 252.91 284.94 299.58 346.53 348.38 438.88 598.31 523.57 500.80 507.47 489.91 526.26 574.31 869.90 969.19 986.93 903.04 826.30 815.56 786.63 732.51 666.16 636.86 616.44 588.50 545.31 520.05 520.01 515.82 484.71 550.17 736.53 661.76 527.76 432.71 370.96 332.76 336.85 333.71 331.04 326.99 323.64 320.74 320.78 320.86 322.86 329.53 342.67 348.38 361.88 372.61 397.98 417.48 433.72 453.56 481.79 503.72 531.91 558.15 574.42 598.67 616.56 629.29 637.92 650.91 657.63 673.77 685.49 700.06 714.26 719.62 723.19 679.70 700.58 690.56 630.95 665.07 380.24 223.62 190.07 -359.20 -1889.84 -3449.46 -4075.68 -4393.26 -4530.64 -4686.37 -4856.84 -5059.22 -5159.11 -5086.16 -4584.41 -3610.27 -1304.18 -478.15 -196.23 -217.90 -264.75 -431.84 -682.14 -824.36 -1343.74 -2104.22 -2755.31 -2890.35 -3659.16 -3961.69 -3965.58 -3935.43 -3916.89 -3894.98 -3882.49 -3869.52 -3869.59
-5074.10 -5075.85 -5074.31 -5074.06 -5083.64 -5089.79 -5121.05 -5163.26 -5228.87 -5262.03 -5293.61 -5326.93 -5338.03 -5332.77 -5351.76 -5148.43 -4884.31 -4214.95 -3660.13 -3062.58 -2814.18 -1860.16 -1763.38 -1518.45 -1295.81 -555.01 238.34 281.11 288.99 336.50 377.30 467.78 531.41 677.14 682.67 517.93 554.90 603.34 532.80 648.78 786.40 992.63 980.47 921.00 838.88 772.46 738.61 712.32 675.68 646.21 622.28 602.86 578.20 545.69 538.20 532.79 527.11 633.22 771.02 667.13 498.15 418.14 401.50 361.55 348.17 341.22 336.49 326.87 323.27 322.03 320.85 321.15 322.06 329.42 337.46 347.35 354.58 373.34 400.56 414.79 442.32 466.65 480.00 508.74 539.49 565.59 586.11 616.13 625.39 634.03 643.79 650.42 656.23 672.36 681.50 692.60 695.61 688.74 692.30 626.81 598.30 631.77 708.39 758.11 559.00 228.53 -53.41 -1153.53 -2027.89 -3239.45 -3917.86 -4340.19 -4587.45 -4703.68 -4857.81 -5026.20 -5125.42 -5052.96 -4595.72 -3022.36 -1259.58 -383.83 -196.40 -210.67 -300.34 -409.15 -527.32 -822.40 -1293.52 -2008.45 -2395.07 -2984.76 -3731.45 -3945.91 -3960.41 -3941.12 -3908.62 -3890.28 -3874.91 -3864.86 -3864.93
-5062.84 -5062.77 -5059.74 -5060.97 -5066.16 -5075.81 -5096.85 -5129.21 -5152.60 -5200.80 -5215.13 -5239.62 -5222.72 -5073.96 -4729.12 -4343.50 -3703.75 -3276.55 -2661.24 -2130.20 -1728.99 -1503.84 -1423.68 -1232.73 -702.32 -77.49 266.34 289.06 304.54 408.11 426.07 533.92 646.23 799.70 744.01 555.33 701.58 744.66 642.83 713.22 902.86 1035.81 965.27 888.78 824.85 765.74 737.46 717.57 690.01 666.78 638.65 613.35 586.58 571.16 559.34 560.51 571.15 633.51 730.03 703.19 558.00 413.31 404.45 393.08 375.01 359.08 338.60 329.51 326.76 324.66 322.59 321.23 321.51 326.44 337.12 345.26 356.35 377.11 400.14 406.41 457.31 467.60 483.36 514.24 536.08 567.33 594.43 615.42 628.42 639.24 645.35 652.05 659.58 673.16 681.85 683.37 641.96 637.28 653.69 599.31 532.05 606.76 702.03 785.51 552.71 220.93 -413.70 -1577.15 -2383.09 -3471.38 -4240.93 -4456.80 -4587.03 -4655.28 -4840.70 -4951.48 -5014.92 -4845.98 -4532.39 -2657.17 -1554.79 -300.59 -163.47 -184.52 -289.16 -399.80 -573.58 -886.32 -1181.01 -1725.74 -2453.93 -2933.45 -3804.50 -3927.51 -3955.39 -3932.07 -3909.09 -3887.51 -3876.91 -3862.45 -3860.83
-5077.61 -5077.52 -5065.77 -5061.28 -5066.82 -5082.22 -5106.35 -5119.34 -5130.43 -5171.38 -5167.91 -5072.93 -4803.41 -4675.32 -4251.76 -3653.18 -3172.20 -2421.48 -2017.03 -1835.27 -1572.80 -1464.98 -1244.77 -918.71 -529.05 236.52 274.13 292.25 335.82 467.79 504.53 488.71 708.52 817.47 858.21 708.80 838.68 887.02 761.95 746.55 937.43 1092.24 915.40 852.86 815.03 769.22 727.06 717.36 696.97 675.66 648.45 616.16 606.01 592.87 581.78 601.20 606.51 647.60 704.26 663.28 510.61 417.57 403.65 402.55 391.10 361.32 351.12 340.70 333.87 328.95 326.92 322.92 322.36 327.34 334.23 342.81 358.72 375.59 398.92 414.31 447.52 460.71 487.18 514.29 536.61 570.47 586.54 610.63 629.02 642.67 647.49 653.72 657.44 671.07 684.86 677.58 642.46 590.36 556.11 546.10 502.44 583.64 612.98 747.31 570.44 203.72 2.30 -1041.45 -1923.03 -3601.14 -4322.70 -4360.93 -4643.68 -4690.15 -4782.46 -4854.20 -4936.57 -4636.93 -4012.43 -2360.34 -645.76 -232.68 -139.13 -200.76 -306.45 -459.70 -636.80 -878.69 -1197.88 -1643.46 -2363.95 -3054.69 -3547.45 -3907.58 -3950.09 -3929.71 -3900.95 -3887.14 -3868.78 -3856.69 -3856.77
-5084.34 -5084.26 -5067.96 -5063.78 -5072.49 -5090.31 -5120.74 -5127.96 -5130.33 -5175.88 -5150.78 -4943.21 -4418.57 -3797.66 -3147.35 -3000.61 -2727.00 -2470.00 -2034.22 -1821.93 -1621.07 -1564.58 -762.67 -437.13 -38.68 243.59 276.14 301.46 423.65 549.76 597.77 563.47 614.54 747.63 874.91 857.40 995.70 976.23 934.61 932.53 1012.92 1072.92 970.16 882.42 810.58 777.04 733.57 716.20 704.60 678.07 655.15 634.60 622.50 614.26 611.74 620.22 619.44 671.68 697.21 590.86 504.39 458.07 456.90 425.72 397.22 365.91 361.24 349.88 341.37 337.89 328.67 327.67 322.13 326.92 332.31 342.05 352.94 370.70 392.45 412.26 443.85 463.32 496.84 509.78 554.52 577.31 592.78 616.02 631.80 644.09 650.16 653.72 657.74 674.42 686.74 691.27 653.63 613.29 591.60 502.68 444.78 493.08 516.25 685.52 367.35 210.74 -115.73 -575.89 -1576.11 -2598.91 -3215.72 -4240.06 -4700.24 -4751.32 -4758.88 -4818.27 -4820.25 -4375.97 -3292.15 -1759.47 -508.62 -148.05 -128.77 -235.47 -351.93 -509.07 -678.92 -941.43 -1226.35 -1738.03 -2501.12 -2940.64 -3574.17 -3862.35 -3940.35 -3914.88 -3892.94 -3881.41 -3865.57 -3852.87 -3852.94
-5092.36 -5090.21 -5077.43 -5078.04 -5092.64 -5113.40 -5195.69 -5210.01 -5200.86 -5250.50 -5113.09 -4857.74 -3976.16 -3380.24 -2949.11 -2779.48 -2736.95 -2602.23 -2244.31 -1849.19 -1651.43 -981.45 -177.66 231.39 241.36 274.53 293.35 358.63 555.96 613.63 635.30 649.90 675.36 775.09 827.46 833.12 1018.71 1106.73 1109.97 1122.99 1054.00 1048.36 943.47 836.84 802.41 764.38 738.56 725.11 705.90 669.52 657.35 647.60 643.25 623.12 623.04 638.01 671.56 704.62 695.21 553.45 637.87 644.53 457.19 449.10 423.62 387.31 378.74 363.29 354.12 350.34 336.09 328.25 323.89 322.96 328.74 335.25 343.61 365.52 385.47 404.26 430.36 460.25 497.56 520.45 543.63 570.13 585.88 614.86 629.48 643.17 650.74 657.76 665.80 682.16 699.72 713.12 675.03 576.87 570.97 514.08 447.86 405.50 406.16 508.12 366.93 163.63 -68.62 -324.74 -804.28 -978.65 -2572.40 -4236.58 -4464.76 -4727.84 -4765.18 -4760.15 -4574.96 -3953.87 -2063.95 -706.17 -213.26 -121.84 -130.16 -228.57 -362.45 -587.41 -1021.48 -1279.29 -1437.96 -1848.81 -2723.07 -3357.76 -3768.72 -3897.75 -3928.06 -3909.54 -3893.86 -3875.23 -3865.33 -3856.75 -3856.83
-5169.37 -5169.22 -5154.95 -5141.43 -5146.90 -5184.50 -5210.55 -5212.88 -5218.11 -4965.10 -4650.03 -4282.27 -3724.20 -3044.96 -2857.83 -2797.67 -2869.70 -2764.46 -2296.94 -1796.10 -1509.98 -431.54 165.12 244.46 265.22 283.51 303.78 353.31 532.41 550.57 548.55 567.46 576.14 630.77 712.03 789.52 1025.15 1184.22 1256.42 1198.41 1078.90 928.84 881.51 844.28 794.89 747.50 729.85 716.65 697.95 680.79 667.60 657.22 656.43 645.81 652.93 659.96 707.27 746.56 775.52 724.14 740.00 644.14 500.11 461.09 430.03 404.43 403.02 399.03 376.24 361.57 349.36 335.54 325.62 321.73 324.09 333.31 345.41 361.85 377.28 401.28 422.00 454.07 485.87 513.04 530.51 564.70 586.05 608.07 635.00 647.50 654.52 662.00 666.60 699.35 712.11 703.36 662.58 689.77 620.95 525.47 507.00 505.82 466.88 365.07 248.28 173.22 98.88 -139.21 -585.98 -1020.41 -2247.03 -4166.39 -4233.72 -4596.16 -4691.73 -4632.74 -4183.39 -3487.08 -1427.73 -307.12 -128.96 -71.65 -158.40 -256.30 -342.60 -691.29 -978.91 -1547.61 -1816.60 -2247.05 -3171.53 -3672.20 -3905.51 -3943.07 -3915.73 -3906.81 -3882.07 -3874.74 -3862.64 -3856.77 -3856.86
-5324.36 -5317.71 -5211.12 -5070.28 -5060.95 -5091.97 -5023.52 -4751.07 -4597.68 -4323.34 -3878.28 -3385.12 -3347.32 -3105.04 -3153.26 -3014.44 -3031.95 -2890.75 -2400.32 -1586.56 -829.92 120.57 208.17 256.42 262.35 298.63 330.73 369.06 457.81 486.22 471.19 542.83 595.73 615.40 642.51 758.03 891.13 1038.83 1126.56 1052.28 1032.31 976.96 885.89 820.42 762.27 742.55 716.58 700.42 691.40 672.85 666.11 657.53 657.58 665.37 681.30 687.88 740.42 822.75 928.40 905.98 875.77 723.25 605.97 461.00 448.72 435.45 438.04 416.97 395.12 377.14 359.09 341.95 331.24 325.05 321.81 328.25 339.76 351.13 378.26 398.33 420.08 442.74 463.83 494.95 520.97 549.40 580.74 596.42 629.16 649.60 658.68 666.36 676.35 708.09 723.92 735.76 720.79 723.22 662.35 563.39 537.06 597.93 615.28 339.66 235.38 149.86 21.39 -156.84 -410.32 -1247.20 -2068.54 -3755.80 -3917.43 -4344.71 -4660.33 -4615.59 -3492.27 -2431.03 -709.48 -259.02 -58.32 -75.42 -117.65 -190.24 -392.50 -830.33 -1274.42 -1676.87 -1976.02 -2577.39 -3404.73 -3859.08 -3946.88 -3938.35 -3906.76 -3895.60 -3881.77 -3873.32 -3864.46 -3863.31 -3863.40
-5076.45 -5076.67 -4699.21 -4602.41 -4503.98 -4228.45 -4104.12 -3806.61 -3541.56 -3399.70 -3436.14 -3284.03 -3250.11 -3361.06 -3421.64 -3386.23 -3276.02 -2927.81 -2399.38 -1582.92 -255.09 109.98 239.28 255.40 271.19 321.05 339.26 344.54 426.27 461.90 465.04 553.14 647.58 771.68 724.65 762.15 849.60 943.74 1041.85 880.87 905.42 949.28 894.19 814.58 764.62 719.38 710.02 677.19 672.84 662.16 656.87 653.78 662.22 677.70 680.28 709.27 754.81 804.47 917.66 990.48 940.14 815.16 633.43 505.44 448.86 448.01 444.58 444.10 418.28 399.66 380.66 354.84 340.45 329.31 321.49 329.05 340.89 350.58 371.79 382.18 400.41 433.93 456.33 475.09 519.15 545.30 570.38 595.34 625.29 648.83 659.79 674.18 689.75 713.60 728.60 741.55 713.29 666.03 613.64 549.29 590.33 711.55 460.14 280.23 238.30 106.57 -54.98 -366.98 -737.63 -1527.43 -2604.50 -2800.65 -3302.78 -3995.93 -4363.22 -4331.15 -3242.48 -1630.63 -444.70 -154.71 -37.94 -72.03 -112.38 -183.89 -350.36 -703.66 -1258.07 -1925.51 -2432.78 -3163.15 -3421.23 -3813.75 -3932.19 -3907.95 -3897.18 -3891.55 -3878.05 -3871.33 -3863.33 -3861.34 -3861.42
-3873.17 -3874.83 -3802.53 -3527.19 -3570.48 -3158.76 -3172.31 -3128.47 -3165.33 -3237.89 -3332.48 -3386.78 -3500.22 -3565.14 -3550.82 -3563.53 -3423.14 -3132.87 -2411.20 -1698.18 -286.97 141.28 225.55 253.32 270.60 311.36 332.35 345.77 395.19 450.59 501.17 565.62 627.26 806.23 932.83 970.86 1024.04 1075.89 998.31 784.22 775.90 855.29 893.70 843.66 755.01 688.30 673.36 659.22 657.75 647.26 650.29 650.31 653.65 675.30 681.27 713.83 736.26 821.96 894.58 957.77 898.66 717.97 625.02 505.96 480.36 470.32 451.62 443.98 421.99 413.14 394.44 365.10 344.90 334.45 324.26 323.43 325.66 336.97 349.92 371.21 388.93 424.23 454.39 470.36 501.73 542.40 561.45 593.62 606.26 646.09 663.35 685.70 719.95 737.86 744.85 745.41 716.86 652.59 623.65 626.93 792.47 648.42 301.73 278.07 203.14 24.38 -102.61 -258.73 -850.08 -1292.01 -1686.66 -2166.07 -2716.80 -3276.91 -4056.43 -3329.34 -2647.34 -1254.36 -330.41 -33.67 -31.61 -72.52 -108.38 -175.21 -293.03 -698.27 -1398.36 -2349.65 -2847.31 -3311.82 -3667.39 -3725.55 -3926.63 -3905.43 -3893.03 -3885.11 -3874.43 -3865.92 -3862.90 -3860.06 -3860.14
-2957.73 -2959.29 -2980.06 -3026.35 -2929.60 -2910.32 -2922.71 -3023.03 -3232.61 -3359.55 -3437.50 -3530.29 -3620.79 -3664.45 -3657.54 -3625.10 -3553.37 -3328.94 -3021.70 -1664.52 -280.60 169.41 225.29 246.23 268.03 287.35 300.51 338.17 384.31 486.52 573.96 628.23 742.32 880.88 1003.47 909.73 919.62 1016.77 912.25 830.59 715.93 755.21 866.63 848.99 769.52 673.95 660.56 638.58 636.72 629.46 638.90 639.51 642.56 654.70 676.01 689.99 725.99 789.49 905.27 927.89 819.71 650.35 617.20 553.53 564.92 513.37 478.51 472.30 439.27 420.90 386.66 364.95 347.63 332.04 324.77 320.60 320.64 332.91 340.88 367.39 388.91 413.21 435.80 456.42 509.63 525.77 548.12 579.02 608.28 631.93 664.81 689.37 729.65 752.25 767.00 776.33 773.77 764.98 712.82 730.80 784.29 457.28 285.43 270.95 142.09 19.77 -96.48 -156.95 -331.33 -523.84 -880.60 -1529.92 -2083.03 -2111.73 -2193.02 -2337.89 -1652.43 -472.78 -56.49 -8.54 -32.65 -95.14 -132.11 -219.08 -298.56 -797.25 -1495.11 -2621.40 -3326.83 -3488.90 -3731.84 -3838.58 -3918.88 -3903.23 -3889.72 -3877.68 -3868.01 -3865.33 -3860.44 -3856.46 -3856.54
-2909.97 -2909.90 -2896.91 -2876.65 -2887.23 -2921.33 -2988.70 -3104.77 -3296.33 -3414.46 -3534.66 -3601.74 -3681.56 -3703.29 -3695.61 -3631.17 -3550.56 -3414.00 -3182.72 -1605.67 -910.57 46.89 210.94 236.61 257.64 266.91 282.45 336.04 389.35 433.02 566.14 607.13 694.22 749.59 930.89 808.06 782.39 742.43 709.43 744.47 732.16 785.71 904.58 824.00 708.30 627.13 622.39 612.35 595.76 605.21 618.85 620.48 625.78 641.47 647.97 681.64 713.53 763.15 846.03 898.55 824.31 666.30 632.07 658.82 683.86 579.62 501.35 486.24 445.65 425.65 393.13 370.20 351.83 333.11 324.55 320.59 324.70 336.64 343.58 366.97 384.56 395.77 433.73 453.28 476.79 509.06 540.08 567.05 595.76 640.56 647.34 712.61 731.00 752.07 745.95 771.35 800.86 776.11 738.50 831.32 651.14 292.63 249.20 209.77 106.52 29.98 -25.04 -67.24 -182.37 -274.91 -856.10 -1197.55 -1465.91 -1648.47 -1756.33 -1413.81 -598.26 -184.42 5.92 -1.44 -48.47 -117.20 -136.17 -218.66 -408.76 -819.17 -1839.81 -2647.63 -3600.62 -3726.16 -3858.61 -3933.95 -3915.96 -3899.06 -3882.90 -3873.88 -3862.92 -3858.96 -3856.11 -3850.54 -3850.62
-3045.67 -3044.84 -3022.21 -2990.99 -3004.69 -3044.25 -3082.55 -3198.34 -3347.36 -3499.97 -3574.98 -3628.49 -3696.93 -3719.52 -3702.57 -3643.93 -3565.82 -3465.06 -3095.80 -2273.29 -441.48 78.65 206.47 238.49 248.80 253.73 273.22 290.96 300.91 357.36 463.99 523.87 511.91 667.75 743.04 586.60 650.62 608.90 605.61 591.28 621.82 685.41 762.96 663.12 638.32 620.79 601.75 575.31 582.69 583.13 593.21 596.12 618.53 636.88 642.39 658.81 709.62 769.79 881.59 968.85 892.37 746.47 797.48 801.72 719.57 555.76 514.76 510.69 497.23 446.65 430.78 388.10 358.08 343.94 322.80 320.57 325.11 330.72 340.04 353.80 370.04 391.99 421.48 454.82 476.44 510.83 533.55 549.30 590.91 626.52 649.99 701.99 732.84 740.63 710.13 713.32 768.15 789.50 735.78 660.44 331.99 305.22 245.19 156.35 86.34 26.11 -25.71 -80.63 -145.63 -308.67 -735.03 -1002.63 -1385.57 -1410.51 -1277.72 -920.47 -468.74 -101.61 17.42 0.45 -62.87 -95.30 -143.19 -225.08 -437.52 -796.37 -1936.74 -2600.83 -3348.73 -3830.26 -3918.42 -3926.66 -3909.08 -3896.27 -3876.92 -3866.13 -3858.24 -3852.82 -3849.98 -3847.09 -3847.17
-3145.50 -3145.85 -3115.74 -3108.51 -3092.90 -3107.94 -3159.94 -3321.89 -3401.90 -3551.04 -3621.52 -3669.56 -3721.24 -3748.90 -3706.76 -3656.58 -3571.75 -3309.64 -2977.99 -2211.81 -764.80 13.82 119.84 211.78 232.15 245.49 247.75 276.31 303.19 328.22 393.20 365.72 396.24 576.55 639.10 533.74 447.84 466.79 501.65 476.97 516.25 594.12 590.13 539.04 573.58 542.12 554.90 546.30 547.53 560.56 574.81 592.23 612.32 632.32 642.55 661.67 709.24 772.15 807.91 936.25 958.60 923.97 935.48 758.05 684.12 565.27 602.11 698.49 592.95 552.38 491.31 389.19 369.22 349.52 327.67 320.64 320.57 321.98 335.81 345.63 374.98 395.73 422.79 445.17 484.07 497.26 527.22 548.40 581.80 623.11 644.54 676.39 701.33 723.36 641.58 640.28 675.26 802.07 872.78 478.12 291.46 258.90 221.28 143.19 63.91 5.20 -63.10 -99.34 -210.44 -348.08 -714.25 -1153.09 -1328.33 -1390.68 -1243.91 -783.10 -326.37 -3.95 23.27 -7.16 -68.48 -105.47 -183.81 -258.33 -528.12 -851.18 -1441.74 -2475.64 -3366.99 -3710.45 -3943.78 -3919.59 -3904.19 -3890.26 -3862.56 -3853.74 -3850.99 -3848.50 -3845.85 -3843.31 -3843.40
-3277.96 -3279.74 -3264.05 -3230.21 -3258.34 -3227.19 -3270.44 -3362.95 -3449.42 -3584.02 -3709.97 -3761.52 -3801.26 -3808.85 -3743.14 -3634.98 -3476.20 -3184.40 -2831.07 -2109.44 -117.94 -34.39 80.49 115.01 163.46 230.98 243.73 257.62 272.65 276.60 313.11 323.50 375.47 452.20 550.99 480.82 405.24 432.82 436.56 439.85 446.22 461.65 463.74 468.68 478.29 495.26 510.15 519.22 528.77 541.41 553.54 578.50 606.63 631.78 646.49 666.00 701.38 734.11 807.21 861.37 1024.81 1026.05 904.41 777.57 673.56 696.87 709.93 767.68 745.19 720.58 600.82 470.68 378.00 358.62 348.55 320.67 320.61 320.65 331.75 342.38 375.29 394.13 408.35 434.71 462.35 495.11 527.05 554.87 575.44 622.45 649.80 670.95 653.40 622.66 602.82 589.64 661.58 889.21 782.42 374.39 284.68 223.03 215.07 142.73 63.05 -24.81 -83.26 -151.67 -206.29 -378.76 -704.55 -1190.15 -1354.35 -1372.63 -1316.41 -1006.92 -176.24 -77.73 -2.52 -32.37 -73.76 -126.24 -199.97 -261.84 -492.67 -923.40 -1350.28 -2376.22 -3233.45 -3485.59 -3714.43 -3904.94 -3899.08 -3878.74 -3865.46 -3850.20 -3848.03 -3843.54 -3842.24 -3840.26 -3840.37
-3445.84 -3446.09 -3414.94 -3384.62 -3393.36 -3421.41 -3485.54 -3552.74 -3695.95 -3767.96 -3794.13 -3831.95 -3861.74 -3882.84 -3816.99 -3613.40 -3421.29 -3062.92 -2339.90 -1474.64 -250.43 -51.29 -11.08 30.66 86.93 216.03 236.15 243.62 250.07 268.48 277.31 288.80 297.48 316.93 388.74 366.50 376.62 422.24 426.87 423.96 425.58 434.74 439.51 441.00 463.70 471.51 485.86 492.39 503.05 521.12 539.10 559.71 595.57 612.47 635.92 667.37 697.60 745.69 806.74 837.75 916.52 952.46 873.32 811.39 701.62 695.63 770.27 697.87 707.67 693.86 607.90 493.30 378.52 359.79 353.88 332.39 321.32 320.71 325.66 348.63 364.39 392.69 413.49 433.18 461.06 493.68 525.04 556.34 559.32 630.56 660.47 677.26 655.34 604.29 536.98 614.10 693.24 858.75 505.83 328.36 234.30 224.98 149.11 109.69 -1.23 -93.70 -140.25 -180.18 -220.21 -458.39 -706.69 -1309.14 -1357.59 -1406.51 -1364.16 -1032.57 -522.24 -229.77 -87.84 -71.93 -94.61 -126.61 -204.70 -293.36 -554.39 -890.24 -1569.53 -2328.69 -3172.05 -3437.95 -3812.81 -3902.08 -3888.61 -3875.55 -3861.66 -3847.87 -3842.98 -3841.86 -3840.22 -3838.25 -3838.34
-3566.53 -3566.56 -3529.15 -3524.26 -3509.35 -3520.51 -3564.32 -3655.48 -3757.65 -3817.39 -3868.92 -3924.67 -3951.35 -3930.67 -3831.19 -3626.86 -3386.94 -2932.74 -1968.50 -1478.69 -564.68 -145.52 -42.11 -27.67 35.14 150.88 190.52 214.82 239.18 256.22 256.45 262.47 286.12 313.91 345.21 364.98 363.79 384.04 381.04 378.85 383.43 387.79 411.72 406.68 421.08 434.30 453.21 465.71 476.54 498.90 517.54 551.03 584.92 606.21 621.45 651.08 694.71 736.84 824.84 856.98 850.41 852.80 772.36 716.75 729.00 671.31 664.57 647.45 600.42 593.74 559.55 480.88 388.44 361.27 353.95 332.81 323.10 320.72 320.81 334.14 362.17 378.19 417.76 431.39 472.39 489.39 512.45 550.75 575.07 615.43 653.11 683.24 666.45 615.47 543.09 616.69 724.33 493.55 319.88 293.70 249.94 194.76 116.62 54.13 -19.55 -116.15 -169.50 -185.35 -260.23 -537.00 -883.63 -1280.83 -1398.08 -1410.15 -1388.59 -1206.92 -868.14 -486.58 -364.18 -88.63 -115.31 -143.60 -189.59 -361.49 -550.88 -1064.72 -1796.24 -2645.14 -3178.29 -3594.86 -3841.09 -3901.42 -3887.52 -3872.50 -3859.29 -3844.69 -3840.83 -3839.60 -3838.58 -3837.76 -3837.86
-3636.05 -3636.04 -3608.78 -3607.57 -3596.22 -3590.41 -3655.63 -3724.86 -3795.21 -3885.31 -3936.00 -3965.31 -3980.27 -3956.58 -3896.41 -3650.11 -3343.74 -3020.86 -2130.48 -1549.43 -783.29 -272.93 -114.41 -66.04 -30.50 57.85 69.12 207.53 219.49 227.43 230.82 240.22 274.69 279.86 311.47 336.71 349.41 344.79 361.13 362.37 352.76 350.36 359.08 377.28 408.06 414.62 435.39 451.48 467.72 490.77 506.57 532.38 561.17 597.89 618.55 647.82 707.60 748.81 818.17 845.23 776.48 719.90 724.39 657.21 676.65 628.23 628.51 573.72 550.72 534.79 532.55 477.09 408.99 367.11 352.91 336.46 325.88 321.69 320.80 343.08 368.58 390.64 415.30 428.03 456.43 490.26 520.55 544.80 573.74 617.54 617.08 639.41 664.49 584.27 500.81 588.87 432.69 315.55 306.72 271.22 235.04 173.27 106.06 40.37 -36.24 -121.25 -173.30 -196.61 -249.61 -593.12 -986.11 -1231.09 -1402.20 -1417.65 -1426.04 -1387.73 -1256.14 -779.85 -523.27 -276.77 -135.93 -170.44 -248.12 -501.19 -854.26 -1401.40 -2277.18 -3030.86 -3251.63 -3657.57 -3913.34 -3901.88 -3885.47 -3868.52 -3854.14 -3842.60 -3839.74 -3838.27 -3837.16 -3836.19 -3836.28
-3689.64 -3689.60 -3670.70 -3650.52 -3665.36 -3662.68 -3691.75 -3767.53 -3850.62 -3918.68 -3970.94 -3993.15 -4008.81 -3991.00 -3882.49 -3700.42 -3476.10 -3251.24 -2632.70 -2124.07 -1053.70 -669.26 -426.74 -150.89 -134.84 -94.10 30.47 162.08 210.51 222.22 223.17 235.59 264.70 264.70 280.88 285.73 306.75 304.73 341.32 337.84 328.39 339.27 346.81 352.94 379.02 401.42 413.38 429.22 454.08 469.69 502.21 526.80 557.11 593.30 625.45 653.35 700.59 770.99 815.68 763.02 735.16 698.52 679.86 641.49 598.68 573.65 564.62 557.26 520.66 500.50 483.97 451.78 418.89 369.77 359.29 339.70 328.75 322.50 324.17 343.65 376.65 391.39 415.11 429.11 460.09 484.17 523.57 548.95 574.93 605.71 588.56 534.92 601.00 587.72 698.67 665.41 318.99 294.19 285.89 246.33 189.22 133.35 84.45 18.67 -70.36 -124.18 -172.75 -200.03 -243.55 -569.58 -966.83 -1322.91 -1398.26 -1423.40 -1435.43 -1459.66 -1439.18 -1279.08 -839.43 -538.36 -212.37 -224.23 -312.39 -488.48 -1147.20 -1954.06 -2256.18 -3453.57 -3583.64 -3706.60 -3917.63 -3893.91 -3877.73 -3868.31 -3853.49 -3843.29 -3837.88 -3835.54 -3834.96 -3834.30 -3834.39
-3723.98 -3722.76 -3707.83 -3690.37 -3691.16 -3697.88 -3710.57 -3778.33 -3880.81 -3942.47 -3981.22 -3998.54 -4007.27 -3985.19 -3860.18 -3743.41 -3542.16 -3332.95 -2911.52 -2509.17 -2109.38 -1474.36 -1029.28 -433.98 -196.67 -251.60 14.11 141.06 174.63 196.98 221.24 222.98 253.55 258.73 260.22 264.67 285.05 288.94 292.07 306.34 306.24 314.47 331.35 344.44 350.73 368.29 408.32 413.42 437.06 459.54 485.76 523.79 538.52 594.58 618.06 704.22 752.10 801.92 822.68 711.09 684.62 681.14 637.36 615.70 574.42 537.58 531.53 523.69 500.95 485.76 466.69 445.65 408.61 377.08 355.45 341.34 328.60 322.26 338.24 360.36 380.14 394.78 418.51 448.11 466.11 474.25 520.29 552.88 571.34 570.97 525.66 461.38 493.45 569.41 591.53 381.01 303.19 268.57 223.23 163.05 136.12 97.95 79.31 -0.51 -88.16 -139.16 -179.66 -209.25 -293.29 -616.24 -1070.38 -1302.26 -1400.28 -1424.79 -1446.35 -1480.28 -1470.53 -1402.15 -1030.13 -581.52 -255.77 -262.45 -418.09 -692.41 -1117.98 -1809.59 -2443.82 -3333.07 -3806.76 -3929.40 -3912.62 -3895.74 -3876.74 -3866.89 -3853.72 -3842.01 -3835.57 -3833.50 -3832.86 -3831.25 -3831.34
-3708.12 -3708.00 -3696.03 -3692.92 -3682.25 -3686.80 -3704.42 -3787.57 -3856.48 -3903.61 -3929.53 -3952.10 -3983.30 -3967.72 -3896.32 -3844.74 -3775.14 -3666.95 -3427.54 -3218.02 -2582.02 -1881.40 -1432.96 -930.11 -498.12 -404.71 -204.42 -61.89 143.42 173.68 201.94 214.68 214.66 231.81 247.52 255.01 260.09 273.27 279.59 285.47 290.44 297.33 305.07 325.02 343.95 350.14 386.32 410.94 422.72 453.17 477.65 522.67 557.24 661.94 649.28 727.59 793.80 802.77 756.86 694.36 649.52 626.24 615.38 565.00 544.20 529.70 522.32 491.70 470.16 466.55 452.41 425.76 400.01 371.28 354.33 338.81 324.68 333.36 345.40 370.42 390.50 407.98 430.93 456.92 468.69 482.98 520.02 548.73 570.53 564.51 501.31 466.89 580.42 519.66 453.80 275.90 259.86 241.61 173.51 137.42 99.44 65.56 32.07 -41.25 -117.60 -148.70 -189.53 -238.24 -441.45 -729.28 -1170.27 -1338.17 -1401.87 -1423.05 -1441.58 -1481.20 -1491.76 -1436.18 -1055.86 -719.69 -301.83 -305.97 -493.06 -914.84 -1345.79 -2123.33 -2905.00 -3350.39 -3911.16 -3925.95 -3911.26 -3897.01 -3870.88 -3862.27 -3849.25 -3840.60 -3834.66 -3832.24 -3831.41 -3830.36 -3830.44
-3660.61 -3659.17 -3661.42 -3656.51 -3656.45 -3660.79 -3682.76 -3721.78 -3797.11 -3867.40 -3890.34 -3896.83 -3907.15 -3913.30 -3906.40 -3900.75 -3867.27 -3837.60 -3741.98 -3357.08 -3174.37 -2489.71 -1406.28 -1016.03 -612.57 -496.77 -394.07 -148.50 -23.88 129.50 168.05 165.91 208.08 219.95 222.79 235.28 251.08 261.63 262.46 274.90 278.46 283.27 295.13 312.61 332.84 342.85 364.73 394.62 416.60 459.59 474.17 512.31 597.47 701.49 763.75 806.30 835.26 787.53 721.94 660.43 629.50 605.80 578.16 544.50 529.72 515.58 491.04 471.68 463.91 437.90 420.95 399.62 379.95 359.24 346.18 328.40 328.32 347.32 358.68 377.53 397.39 418.19 429.04 458.21 475.13 483.68 509.17 543.11 560.37 557.48 563.54 637.17 698.81 425.78 316.62 269.95 220.09 186.18 144.96 121.28 96.89 56.54 18.51 -40.34 -93.57 -142.44 -204.37 -255.99 -367.46 -779.25 -1269.01 -1359.54 -1399.91 -1416.35 -1442.96 -1480.02 -1491.14 -1454.63 -1092.74 -712.58 -374.04 -459.96 -614.24 -948.12 -1597.56 -2355.48 -2581.79 -3301.98 -3818.76 -3920.55 -3908.37 -3889.94 -3873.99 -3862.13 -3848.44 -3837.77 -3835.04 -3830.57 -3829.77 -3829.25 -3829.33
-3650.43 -3650.37 -3648.68 -3647.59 -3643.83 -3646.58 -3663.60 -3704.27 -3790.42 -3837.12 -3861.89 -3874.96 -3875.55 -3900.30 -3925.72 -3964.07 -3990.41 -3994.80 -3949.37 -3765.03 -3506.51 -2680.08 -1783.87 -1168.59 -633.01 -483.58 -453.23 -482.55 -358.56 -160.19 -1.23 -14.10 77.57 158.72 203.70 219.94 234.66 248.42 256.98 265.84 268.33 274.94 283.41 300.62 315.21 328.44 357.07 392.74 395.26 445.38 469.90 490.63 601.07 666.60 820.54 892.53 799.81 724.85 693.34 642.85 609.26 575.41 547.75 512.98 502.13 482.22 465.08 466.91 437.71 414.65 404.10 383.93 372.17 354.63 342.50 324.57 328.83 362.85 369.55 390.66 404.89 424.21 437.86 456.75 474.37 485.79 500.50 523.82 558.07 574.86 602.69 683.05 632.13 389.32 297.74 277.19 188.67 143.10 124.57 94.63 69.87 52.29 -1.44 -83.75 -136.77 -161.16 -206.27 -230.29 -464.40 -823.67 -1177.86 -1404.18 -1401.32 -1410.96 -1435.34 -1471.82 -1480.60 -1414.96 -969.18 -614.09 -335.87 -405.90 -723.82 -1051.61 -1342.04 -2002.45 -3082.25 -3502.61 -3905.32 -3925.13 -3902.43 -3886.62 -3874.64 -3856.62 -3847.49 -3838.24 -3832.37 -3829.37 -3829.16 -3829.99 -3830.07
-3679.61 -3679.55 -3673.10 -3669.77 -3664.84 -3666.14 -3684.91 -3734.96 -3802.19 -3864.18 -3877.18 -3875.48 -3883.25 -3905.70 -3933.37 -3985.07 -4016.76 -4025.36 -3968.99 -3902.21 -3430.09 -2805.73 -1847.04 -1104.90 -539.29 -451.37 -444.25 -508.36 -587.27 -606.72 -508.42 -341.10 -238.24 60.05 136.63 202.17 219.73 228.76 243.91 249.70 258.47 265.80 278.12 286.20 305.23 329.10 352.06 387.62 394.16 439.40 472.97 545.47 578.12 639.66 766.97 838.98 779.70 728.50 649.42 627.76 581.41 567.35 524.59 503.60 489.95 472.21 456.22 431.93 415.82 400.52 392.99 378.52 356.66 344.90 334.47 324.49 341.14 364.80 377.10 396.32 415.69 429.09 448.98 461.73 481.69 488.56 496.95 521.28 547.89 578.99 592.45 586.54 420.50 278.61 273.90 180.30 130.10 126.27 105.41 66.70 33.83 4.63 -40.60 -101.74 -153.63 -173.32 -202.06 -287.02 -451.92 -674.70 -1068.92 -1342.11 -1404.16 -1411.57 -1434.21 -1460.70 -1427.81 -1312.84 -817.64 -553.65 -256.21 -369.49 -682.08 -1227.25 -1627.18 -2036.29 -2941.08 -3590.83 -3930.87 -3921.42 -3907.55 -3879.58 -3867.28 -3858.50 -3844.38 -3837.62 -3831.34 -3829.84 -3829.26 -3829.41 -3829.46
-3722.17 -3722.13 -3712.29 -3717.52 -3719.14 -3718.23 -3730.63 -3778.22 -3849.07 -3884.20 -3901.97 -3906.66 -3909.82 -3923.50 -3970.96 -4017.71 -4045.02 -4041.06 -3987.55 -3854.63 -3290.25 -2880.16 -1860.47 -1086.05 -704.14 -730.04 -937.89 -797.61 -814.05 -922.73 -920.60 -846.87 -544.54 1.99 12.28 112.41 155.19 204.38 228.37 240.39 248.80 253.59 267.71 275.36 290.30 304.56 336.64 374.45 402.63 450.23 502.59 596.57 601.84 669.07 800.47 836.54 774.60 722.24 653.10 605.47 569.57 554.60 520.78 490.79 472.39 459.54 448.04 425.17 405.36 384.86 372.50 357.38 349.32 337.81 327.44 322.77 350.02 368.02 383.49 408.31 423.00 438.15 453.48 463.13 484.25 489.87 499.35 517.37 545.74 567.60 587.18 480.41 322.61 263.70 238.32 135.46 81.03 90.87 75.89 44.22 -5.97 -29.69 -33.11 -112.53 -138.34 -181.75 -215.71 -348.68 -623.70 -915.25 -1134.72 -1369.12 -1407.55 -1415.27 -1430.88 -1457.78 -1444.17 -1198.32 -763.64 -442.63 -327.45 -476.07 -861.92 -1298.45 -2114.56 -2777.09 -3501.45 -3914.01 -3946.11 -3919.59 -3903.92 -3881.34 -3862.60 -3854.48 -3844.51 -3837.37 -3831.22 -3829.26 -3829.24 -3828.91 -3828.98
-3796.20 -3804.16 -3807.92 -3787.19 -3786.18 -3770.64 -3806.64 -3822.17 -3897.98 -3931.96 -3944.04 -3945.87 -3960.38 -3954.99 -3989.98 -4042.78 -4061.10 -4064.59 -3990.14 -3798.03 -3359.34 -2649.96 -1908.98 -1407.38 -1291.17 -1282.00 -1286.89 -1406.48 -1606.33 -1521.52 -1739.88 -1768.77 -978.30 -254.78 -58.48 38.48 94.13 167.21 217.60 227.87 238.58 244.38 257.32 270.67 288.95 305.76 337.71 353.16 421.86 444.01 554.41 671.17 746.27 783.44 766.74 750.78 746.50 675.49 612.91 602.97 560.19 527.55 502.53 478.62 462.12 448.12 433.40 409.68 393.37 369.45 358.45 346.81 341.22 330.95 321.55 324.33 345.52 369.46 385.66 406.95 424.71 444.50 455.80 471.99 484.56 495.38 514.16 526.33 547.60 561.81 563.40 493.23 320.96 260.90 224.56 92.74 56.63 52.43 48.55 13.60 -30.76 -58.85 -114.29 -104.46 -143.38 -190.72 -220.70 -363.72 -580.93 -1059.52 -1336.76 -1404.22 -1409.86 -1419.19 -1447.21 -1454.75 -1387.82 -1288.72 -643.61 -308.03 -332.27 -614.25 -840.67 -1370.02 -2255.17 -3276.11 -3640.09 -3942.76 -3938.56 -3918.06 -3894.88 -3880.23 -3867.04 -3852.57 -3842.38 -3835.32 -3829.94 -3828.06 -3827.65 -3826.58 -3826.66
-3949.66 -3949.71 -3921.96 -3899.70 -3923.06 -3995.26 -3942.85 -3930.49 -3977.32 -3994.36 -4004.21 -4001.95 -4009.13 -4008.07 -4032.52 -4076.69 -4096.09 -4080.87 -4051.71 -3871.53 -3540.39 -2821.60 -2279.13 -1977.73 -1857.17 -1982.69 -2081.24 -2216.65 -2246.88 -2531.24 -2562.26 -2408.04 -1894.27 -170.82 -60.91 -26.81 22.65 111.47 205.09 213.30 215.05 227.34 240.61 256.60 282.32 303.23 334.35 353.13 383.91 483.95 542.65 653.11 818.89 782.03 768.58 617.56 664.21 643.20 527.10 568.72 575.33 530.72 495.23 464.39 445.33 430.95 412.96 407.08 367.80 352.82 346.69 335.29 327.50 324.52 321.59 323.53 344.29 366.34 390.64 405.65 430.08 438.76 462.49 471.30 487.79 510.47 521.88 530.81 540.48 550.69 573.48 379.29 296.45 254.28 213.43 109.47 56.64 37.38 7.11 -19.35 -80.09 -93.21 -145.03 -140.01 -174.99 -228.72 -314.29 -470.36 -702.55 -1055.61 -1360.55 -1374.68 -1410.97 -1432.60 -1454.39 -1447.78 -1390.79 -1077.54 -551.52 -348.59 -337.41 -562.30 -1012.31 -1394.95 -2144.37 -3147.00 -3427.77 -3824.33 -3933.43 -3915.69 -3888.58 -3880.01 -3854.94 -3849.56 -3840.41 -3835.93 -3829.50 -3827.99 -3826.89 -3825.24 -3825.31
-4142.53 -4142.54 -4107.75 -4130.42 -4133.02 -4113.54 -4139.44 -4094.01 -4064.82 -4078.37 -4075.68 -4065.11 -4062.93 -4068.74 -4105.39 -4111.34 -4120.78 -4124.32 -4098.67 -3924.18 -3695.75 -3308.69 -2990.26 -2808.46 -2734.47 -3115.19 -3182.84 -3174.77 -3285.89 -3211.84 -3411.17 -3482.82 -2614.86 -796.84 -104.35 -76.72 -15.63 31.64 103.91 131.99 194.47 228.12 240.67 260.31 275.29 292.85 325.12 351.67 455.19 572.93 644.32 705.23 782.80 710.20 594.92 512.83 623.01 559.13 480.06 509.77 543.40 520.80 484.42 453.28 439.81 416.38 399.69 366.43 348.11 341.12 326.56 324.83 321.27 320.65 320.13 323.19 342.58 367.90 390.67 411.38 429.96 446.25 467.93 477.90 503.03 512.63 536.28 543.33 521.52 489.03 544.53 387.01 296.10 246.76 186.55 120.14 69.45 30.98 -17.64 -69.32 -107.64 -142.17 -173.59 -183.79 -217.75 -309.13 -393.24 -614.00 -870.82 -1067.46 -1211.92 -1321.72 -1401.31 -1434.31 -1461.66 -1449.45 -1380.81 -945.62 -521.99 -327.43 -378.73 -534.14 -1008.94 -1866.09 -2374.68 -3032.34 -3574.09 -3819.71 -3922.11 -3908.33 -3889.44 -3871.54 -3854.26 -3848.72 -3840.63 -3833.29 -3830.19 -3826.61 -3824.58 -3824.17 -3824.25
-4254.44 -4254.39 -4228.69 -4239.45 -4225.01 -4242.71 -4226.79 -4160.81 -4148.58 -4124.72 -4117.28 -4107.35 -4110.97 -4119.86 -4127.10 -4146.96 -4147.49 -4152.96 -4128.21 -4093.89 -4011.18 -3681.12 -3522.56 -3396.76 -3454.76 -3524.48 -3614.47 -3596.08 -3742.16 -3739.42 -3822.85 -3886.72 -3334.19 -2482.99 -1159.12 -277.71 -66.53 1.60 -32.49 45.55 140.95 204.26 242.25 249.14 276.21 292.13 317.33 357.85 435.94 508.96 695.37 750.06 685.70 562.53 495.38 463.63 495.12 449.35 443.18 409.21 482.69 521.65 490.14 461.05 421.01 394.35 373.74 353.84 337.40 328.34 324.14 321.90 320.29 319.44 319.68 331.08 344.10 364.81 390.21 409.74 424.04 444.59 472.72 493.55 516.03 527.54 536.65 555.74 575.92 559.24 416.08 295.32 284.10 203.35 150.28 111.87 60.97 25.02 -32.43 -91.47 -142.34 -210.33 -219.15 -279.46 -339.95 -388.74 -651.19 -765.89 -913.90 -1018.47 -1162.70 -1253.15 -1369.63 -1424.16 -1455.69 -1447.72 -1275.34 -1082.58 -573.08 -326.80 -510.14 -864.03 -1236.49 -2076.05 -2580.18 -3161.77 -3559.58 -3805.89 -3916.95 -3902.30 -3886.50 -3863.13 -3849.47 -3843.85 -3836.91 -3831.85 -3829.20 -3824.31 -3822.58 -3822.49 -3822.56
-4288.96 -4288.90 -4283.72 -4286.16 -4279.88 -4286.13 -4277.88 -4221.24 -4192.27 -4151.94 -4148.98 -4146.38 -4139.95 -4147.07 -4160.04 -4179.70 -4184.09 -4186.78 -4185.91 -4150.59 -4133.24 -4060.99 -3881.67 -3844.57 -3845.18 -3888.77 -3891.11 -3942.75 -3922.88 -3930.71 -3957.14 -3986.64 -3827.68 -3401.59 -1609.83 -1041.77 -208.77 -147.06 -218.75 -99.64 80.88 165.25 213.58 233.73 263.49 281.58 283.71 335.39 373.86 514.28 591.43 631.73 603.37 471.86 444.63 402.57 392.47 395.20 383.45 381.42 436.61 421.98 437.36 442.51 426.89 392.02 366.51 345.04 330.11 325.14 321.60 319.44 318.71 318.94 319.76 330.13 341.91 355.15 385.79 412.94 425.71 451.07 475.32 499.75 514.98 531.42 519.51 537.76 615.43 546.53 343.22 278.23 276.02 185.90 114.80 83.58 52.92 11.55 -34.60 -83.73 -227.13 -255.96 -286.09 -342.97 -501.44 -653.58 -775.56 -897.46 -946.42 -983.62 -1023.32 -1152.22 -1311.22 -1384.97 -1456.55 -1455.54 -1346.34 -841.72 -556.93 -351.34 -656.88 -1028.76 -1322.81 -2217.75 -2885.77 -3350.27 -3845.01 -3929.88 -3911.71 -3893.25 -3874.55 -3860.15 -3843.55 -3835.36 -3833.30 -3830.37 -3828.86 -3825.72 -3823.64 -3821.73 -3821.80
-4296.42 -4296.34 -4297.96 -4298.75 -4302.02 -4302.78 -4287.38 -4252.45 -4195.43 -4171.01 -4165.07 -4166.21 -4168.06 -4172.15 -4182.64 -4198.56 -4203.86 -4205.30 -4203.46 -4207.38 -4150.19 -4104.01 -4011.31 -3995.51 -3974.27 -4018.49 -4038.58 -4039.24 -4019.56 -4010.07 -4006.94 -4021.79 -3962.69 -3832.63 -2545.09 -1888.29 -1029.66 -574.86 -488.45 -283.82 -245.48 -58.89 103.61 182.41 242.19 275.91 283.44 319.06 374.05 471.81 469.32 511.56 481.25 426.43 389.58 385.52 385.27 375.20 373.30 342.81 352.22 368.60 402.69 417.45 417.08 390.51 370.80 343.68 324.39 320.84 317.59 317.44 317.56 317.65 320.12 326.91 340.03 357.30 389.10 403.07 427.67 464.33 483.02 505.94 508.34 506.00 481.89 493.91 591.09 521.26 329.73 274.50 247.71 169.42 117.42 47.08 21.83 -17.18 -86.21 -204.39 -481.62 -435.93 -522.16 -690.67 -752.49 -861.39 -891.61 -932.41 -943.22 -962.20 -1010.19 -1066.88 -1200.37 -1364.92 -1430.16 -1405.68 -1186.81 -773.28 -406.43 -368.75 -673.78 -1035.30 -1490.50 -2214.05 -3015.38 -3496.76 -3894.79 -3924.18 -3905.41 -3891.15 -3868.84 -3852.82 -3842.18 -3832.95 -3827.33 -3828.51 -3828.49 -3825.06 -3823.98 -3822.38 -3822.45
-4263.51 -4263.38 -4265.48 -4268.24 -4257.94 -4259.13 -4260.85 -4233.06 -4198.01 -4159.42 -4157.55 -4161.38 -4165.34 -4167.17 -4173.23 -4185.02 -4202.98 -4204.56 -4209.57 -4212.14 -4190.62 -4136.61 -4068.53 -4048.24 -4040.42 -4059.39 -4062.91 -4061.53 -4063.38 -4045.93 -4045.96 -4039.35 -4049.76 -3955.80 -3539.09 -3018.23 -1622.21 -1245.20 -754.87 -444.17 -475.02 -313.45 -304.86 -192.83 121.98 254.77 279.44 298.94 336.74 388.34 433.35 454.48 363.58 376.09 374.06 355.76 349.16 330.33 348.15 331.79 330.26 329.04 352.00 365.76 409.42 395.05 365.41 333.40 321.70 316.42 315.29 315.19 315.92 316.09 318.40 325.01 342.93 363.45 376.39 402.39 417.55 459.93 474.63 496.71 478.23 475.02 457.99 617.81 601.90 377.98 279.36 249.82 180.90 121.34 60.17 40.47 -39.78 -125.69 -220.87 -379.62 -631.43 -770.60 -820.52 -879.57 -871.39 -901.73 -926.99 -930.61 -928.82 -941.07 -958.79 -952.00 -1014.51 -1107.02 -1169.18 -1124.72 -1080.61 -639.00 -370.10 -567.25 -824.73 -1385.62 -1950.74 -2366.73 -2946.65 -3606.57 -3886.57 -3913.66 -3891.69 -3876.46 -3859.39 -3846.99 -3838.50 -3830.21 -3825.68 -3824.76 -3827.50 -3824.67 -3822.88 -3822.45 -3822.52
