-4777.20 -4788.78 -4811.43 -4818.14 -4824.41 -4842.74 -4878.21 -4954.63 -5003.32 -5058.64 -5072.06 -5069.58 -5071.82 -5034.98 -4941.07 -4807.60 -4738.60 -4699.64 -4694.87 -4720.72 -4740.19 -4854.91 -4966.30 -5060.50 -5079.39 -5085.35 -5111.30 -5158.09 -5213.63 -5239.80 -5271.12 -5288.80 -5323.94 -5333.58 -5336.14 -5336.51 -5342.02 -5341.66 -5352.90 -5372.39 -5397.56 -5464.82 -5488.13 -5500.93 -5513.10 -5523.95 -5535.77 -5535.62 -5460.48 -5321.97 -5205.80 -5096.23 -5081.75 -5087.01 -5093.53 -5092.63 -5080.25 -5074.22 -5069.66 -5061.65 -5052.70 -5071.68 -5124.82 -5147.48 -5157.62 -5133.52 -5124.30 -5131.33 -5110.46 -5067.37 -4902.75 -4646.65 -4249.76 -3788.83 -3095.93 -2544.71 -2258.42 -1830.82 -1571.23 -1118.86 -676.27 -283.42 -74.85 -23.67 11.43 38.44 50.65 61.07 70.54 77.39 87.38 73.56 55.80 56.42 46.34 12.43 2.95 -6.45 -21.78 -72.04 -542.62 -1380.80 -1848.83 -2230.70 -2860.62 -3693.89 -4154.27 -5013.43 -6309.67 -7010.76 -7228.47 -7392.09 -7909.83 -8136.15 -8129.92 -8101.61 -8058.19 -8078.54 -7770.76 -6361.85 -4647.40 -3840.17 -3843.35 -4094.37 -4267.23 -4427.63 -4442.13 -4445.87 -4435.30 -4424.13 -4418.91 -4409.56 -4405.52 -4399.78 -4394.18 -4389.48 -4390.04 -4389.43 -4390.55 -4390.09 -4390.17
-4825.77 -4825.72 -4826.41 -4834.68 -4840.87 -4861.93 -4911.22 -4963.99 -5018.70 -5063.72 -5085.38 -5084.37 -5083.52 -5046.16 -4935.02 -4801.56 -4715.83 -4676.36 -4675.08 -4697.57 -4742.22 -4828.87 -4899.36 -5056.71 -5088.64 -5088.25 -5124.17 -5158.93 -5238.80 -5265.48 -5295.08 -5321.25 -5338.28 -5341.39 -5341.69 -5320.46 -5307.48 -5322.32 -5337.08 -5365.14 -5392.96 -5461.35 -5500.42 -5514.07 -5527.52 -5536.33 -5544.65 -5540.73 -5531.20 -5323.91 -5223.82 -5133.50 -5084.02 -5070.15 -5073.52 -5075.12 -5063.68 -5063.11 -5056.57 -5046.98 -5040.32 -5058.96 -5107.43 -5142.56 -5138.73 -5126.99 -5125.99 -5122.86 -5110.90 -5085.84 -4863.91 -4521.86 -3978.58 -3708.18 -2996.52 -2504.69 -2144.37 -1761.08 -1401.44 -937.36 -252.15 -72.05 -27.30 12.27 44.59 51.85 54.68 61.50 93.91 99.13 106.44 99.12 92.35 83.13 65.63 42.75 31.73 19.03 -2.87 -90.77 -311.95 -941.42 -1937.33 -2020.65 -1951.01 -3392.92 -3576.25 -5417.25 -5646.82 -6188.62 -6842.21 -7217.50 -7589.55 -7887.63 -7938.12 -7907.62 -7888.00 -7861.01 -7444.95 -6187.03 -4456.26 -3794.48 -3752.99 -4003.96 -4188.88 -4385.36 -4436.28 -4423.78 -4417.29 -4411.53 -4406.69 -4403.71 -4398.08 -4389.16 -4384.94 -4375.31 -4373.03 -4368.33 -4372.53 -4375.25 -4375.33
-4843.01 -4842.96 -4845.45 -4855.37 -4859.21 -4867.16 -4901.71 -4958.47 -5013.81 -5076.03 -5092.12 -5099.92 -5099.07 -5039.66 -4976.38 -4817.89 -4728.51 -4689.29 -4714.85 -4712.74 -4750.98 -4813.24 -4934.29 -4984.39 -5078.55 -5094.59 -5125.66 -5185.37 -5233.36 -5280.77 -5318.58 -5335.43 -5337.87 -5332.75 -5291.20 -5251.62 -5196.83 -5148.36 -5215.94 -5250.14 -5350.60 -5415.84 -5470.57 -5515.09 -5531.79 -5545.22 -5556.64 -5557.53 -5533.19 -5376.55 -5279.31 -5130.99 -5165.57 -5111.74 -5121.98 -5110.24 -5109.75 -5083.50 -5059.73 -5047.61 -5049.61 -5088.89 -5122.56 -5151.23 -5147.81 -5135.72 -5134.81 -5124.50 -5112.45 -5024.75 -4745.15 -4184.47 -3801.88 -3335.58 -3088.41 -2404.99 -2027.96 -1683.34 -1106.18 -678.02 -84.55 -20.53 -12.29 33.10 45.65 69.71 93.73 104.90 126.52 125.17 134.39 143.54 138.78 130.81 108.46 91.58 79.78 34.61 3.71 -142.12 -199.80 -391.20 -769.58 -1356.17 -1352.61 -1193.26 -1124.10 -2842.74 -3137.60 -4978.28 -6265.27 -6825.60 -7343.96 -7620.21 -7724.18 -7578.98 -7589.75 -7557.20 -7146.58 -5932.68 -4404.04 -3629.73 -3658.71 -3922.06 -4155.05 -4308.84 -4419.49 -4409.17 -4401.97 -4394.40 -4390.98 -4383.17 -4379.55 -4380.61 -4371.16 -4366.21 -4363.48 -4360.65 -4360.69 -4359.83 -4361.03
-4858.26 -4858.21 -4864.44 -4866.51 -4868.14 -4875.79 -4906.97 -4961.10 -5051.63 -5070.98 -5108.61 -5112.24 -5107.26 -5072.47 -4987.01 -4866.86 -4784.24 -4800.13 -4770.65 -4814.03 -4837.81 -4887.66 -4913.75 -4999.69 -5070.04 -5092.48 -5095.82 -5173.40 -5237.04 -5293.65 -5309.10 -5322.11 -5286.91 -5254.10 -5155.70 -4861.02 -4488.06 -4682.67 -4790.84 -4816.43 -5075.97 -5206.42 -5334.50 -5456.98 -5512.95 -5532.33 -5556.07 -5564.84 -5547.11 -5473.77 -5366.50 -5328.73 -5255.88 -5257.91 -5209.15 -5213.92 -5164.57 -5125.64 -5100.02 -5086.88 -5068.85 -5107.47 -5143.20 -5170.21 -5173.69 -5151.83 -5140.53 -5129.91 -5105.42 -5012.81 -4692.28 -4163.24 -3795.42 -3328.97 -3027.94 -2500.70 -2118.48 -1607.81 -802.42 -291.37 -50.21 -14.24 6.75 45.62 77.19 93.13 115.94 129.31 145.20 162.63 167.80 197.95 198.22 154.05 148.64 130.43 84.50 12.77 -18.02 -122.41 -619.76 -841.12 -320.15 -224.71 -273.65 -503.51 -655.52 -776.45 -1393.86 -3470.91 -5068.82 -6484.91 -6859.17 -7327.09 -7445.04 -7410.90 -7107.26 -7132.67 -6667.11 -5715.02 -3867.37 -3454.18 -3567.06 -3789.61 -4118.05 -4334.82 -4407.59 -4400.91 -4385.14 -4379.02 -4374.57 -4373.88 -4370.01 -4368.71 -4363.70 -4355.63 -4349.07 -4348.45 -4351.29 -4347.34 -4347.42
-4887.72 -4890.21 -4882.67 -4884.27 -4879.77 -4892.56 -4927.59 -4977.60 -5053.29 -5103.23 -5129.80 -5131.14 -5127.57 -5094.80 -5046.42 -4962.95 -4926.32 -4946.77 -4925.88 -4914.16 -4939.65 -4937.53 -4919.44 -4875.14 -4933.83 -4992.62 -5068.46 -5123.68 -5239.36 -5291.54 -5283.00 -5251.47 -4995.69 -4709.33 -4442.93 -4044.40 -3351.91 -3178.58 -3526.67 -3767.14 -4067.02 -4086.54 -4742.92 -5235.22 -5220.46 -5520.79 -5554.38 -5566.12 -5565.35 -5535.21 -5482.58 -5455.33 -5345.68 -5391.13 -5367.84 -5329.87 -5281.75 -5215.47 -5167.87 -5142.71 -5126.74 -5173.55 -5244.40 -5197.74 -5185.78 -5170.58 -5137.20 -5128.10 -5102.57 -5025.99 -4819.07 -4356.96 -3878.83 -3278.01 -3091.77 -2503.38 -1780.21 -1305.70 -368.20 -77.64 -6.42 26.49 54.97 82.76 116.99 121.32 180.16 323.65 398.39 448.97 387.12 280.87 334.75 444.99 457.90 372.36 52.85 15.55 -16.50 -99.15 -498.85 -2038.04 -2175.75 -586.04 -819.02 -653.60 -454.73 -473.65 -606.78 -1143.98 -2434.22 -5383.71 -6273.41 -7022.31 -7238.09 -7161.27 -6741.87 -6551.64 -6154.94 -5036.67 -4151.00 -3155.89 -3325.29 -3736.52 -4019.01 -4334.47 -4392.13 -4379.05 -4369.11 -4361.84 -4365.45 -4367.00 -4362.87 -4358.72 -4352.72 -4346.89 -4339.20 -4335.33 -4339.48 -4334.70 -4334.77
-4957.81 -4957.82 -4975.43 -4940.52 -4942.18 -4954.26 -4963.28 -5009.01 -5068.63 -5139.14 -5149.50 -5156.69 -5153.55 -5132.16 -5121.27 -5076.76 -5067.76 -5088.80 -5090.37 -5099.46 -5066.44 -5007.34 -4920.54 -4627.87 -4328.09 -4242.24 -4642.77 -4902.57 -4934.96 -5190.56 -5090.68 -4747.15 -4469.64 -3948.94 -3346.66 -2801.44 -2443.54 -2383.35 -2555.57 -2545.44 -2853.39 -3455.34 -3417.67 -4181.68 -4520.57 -4866.28 -5540.98 -5543.78 -5555.06 -5530.87 -5519.96 -5517.99 -5500.72 -5481.72 -5467.33 -5443.99 -5366.16 -5265.59 -5212.08 -5184.03 -5184.69 -5212.09 -5252.99 -5209.12 -5191.13 -5169.15 -5150.14 -5124.96 -5071.59 -4861.49 -4525.56 -3971.36 -3663.78 -3351.84 -2727.88 -2113.40 -1110.49 -302.60 -55.91 -27.33 23.74 50.01 74.18 121.94 133.94 216.51 450.94 619.94 734.16 897.80 718.51 633.10 832.37 870.18 787.65 568.28 212.48 52.08 -13.98 -72.28 -775.66 -2173.97 -3994.65 -2337.54 -2061.78 -1669.87 -1822.63 -728.36 -667.98 -688.54 -2140.21 -4032.62 -6187.71 -6928.70 -6984.67 -6410.60 -6083.16 -5832.43 -5589.33 -5177.06 -3754.21 -3172.53 -3214.89 -3557.29 -3821.93 -4217.24 -4360.87 -4357.72 -4355.52 -4340.02 -4338.96 -4343.38 -4344.18 -4349.78 -4342.04 -4335.69 -4330.30 -4328.78 -4325.58 -4322.42 -4322.49
-5085.04 -5097.35 -5101.61 -5083.79 -5062.79 -5022.91 -5034.85 -5063.62 -5154.46 -5226.41 -5210.46 -5223.84 -5217.23 -5201.11 -5187.53 -5184.35 -5201.68 -5209.86 -5234.05 -5220.68 -5163.47 -5015.43 -4598.40 -3996.84 -3283.29 -3401.73 -3422.14 -4181.72 -4332.30 -4694.12 -4477.66 -3835.02 -3202.26 -2899.02 -2531.94 -2020.52 -1786.60 -1761.99 -1850.35 -1918.70 -2147.59 -2362.53 -2697.53 -2978.53 -3587.19 -4235.51 -4903.02 -5256.56 -5322.52 -5271.70 -5369.03 -5429.10 -5481.31 -5456.52 -5461.07 -5457.96 -5403.38 -5323.80 -5236.93 -5193.95 -5202.13 -5246.05 -5266.58 -5251.35 -5210.74 -5188.94 -5177.64 -5154.45 -5028.95 -4717.49 -4202.68 -3873.20 -3662.02 -3376.32 -2595.99 -1324.63 -156.12 -24.13 -14.40 11.25 52.68 78.01 95.70 138.84 172.28 312.71 528.51 820.49 1181.72 1371.62 1164.45 1180.10 1449.65 1314.17 1439.28 920.57 259.21 69.67 -8.18 -55.23 -506.13 -2837.75 -5567.19 -4574.59 -3781.09 -3352.91 -2534.77 -1844.36 -1049.87 -1348.18 -2835.87 -4828.75 -6078.60 -6827.76 -6803.26 -6483.84 -5711.53 -5562.98 -5120.76 -4721.22 -3793.72 -3162.10 -3217.27 -3681.50 -3971.91 -4167.40 -4334.15 -4329.09 -4319.29 -4307.27 -4301.11 -4303.83 -4331.28 -4338.22 -4332.61 -4327.00 -4319.77 -4317.76 -4311.27 -4309.34 -4307.09
-5299.12 -5275.29 -5240.78 -5230.59 -5185.31 -5179.71 -5177.46 -5208.10 -5200.36 -5306.75 -5314.34 -5298.06 -5296.59 -5328.35 -5383.81 -5340.27 -5366.20 -5333.33 -5330.26 -5310.92 -5209.13 -5013.41 -4240.79 -3166.08 -2455.20 -2343.43 -2776.66 -3141.07 -3169.22 -3644.15 -3842.68 -3260.97 -2406.51 -2072.21 -1900.66 -1594.38 -973.96 -1158.13 -1108.79 -1538.61 -1318.14 -2139.16 -2573.13 -2548.58 -2711.09 -3202.88 -4184.69 -4577.15 -4704.34 -4775.47 -5013.30 -5243.03 -5219.23 -5388.72 -5435.94 -5449.87 -5424.89 -5330.77 -5268.12 -5226.75 -5234.83 -5302.18 -5289.80 -5278.78 -5244.41 -5217.65 -5161.27 -5121.01 -4992.02 -4622.83 -4147.35 -3744.96 -3640.24 -3175.95 -2046.06 -3.92 9.67 12.59 20.19 58.11 75.24 98.98 131.48 161.14 176.17 278.92 376.88 690.65 1109.65 1189.33 1478.94 1575.15 1656.31 1595.25 1530.26 713.87 443.05 181.25 38.36 -25.74 -671.85 -2648.90 -5831.21 -5316.61 -4902.74 -4547.99 -3779.88 -3090.44 -2412.38 -1986.51 -2128.10 -2423.09 -3055.00 -3625.36 -3873.57 -3560.38 -4896.87 -4897.75 -4496.43 -4295.30 -3766.24 -3409.13 -3367.26 -3639.14 -4122.22 -4288.77 -4321.96 -4310.01 -4281.13 -4238.98 -4235.51 -4255.16 -4285.27 -4331.73 -4323.89 -4314.17 -4308.79 -4299.78 -4297.58 -4292.80 -4292.85
-5469.44 -5469.26 -5395.81 -5376.27 -5357.55 -5374.28 -5393.54 -5386.42 -5443.26 -5445.43 -5427.41 -5416.79 -5481.42 -5485.38 -5491.69 -5465.85 -5437.70 -5517.04 -5502.99 -5431.68 -5266.28 -5023.79 -4116.94 -3258.67 -2089.17 -1989.62 -1998.35 -2193.94 -2414.04 -2790.44 -2866.91 -2546.01 -2181.89 -1553.14 -1084.18 -466.89 -339.74 -90.46 -93.99 -315.24 -318.13 -1422.73 -1728.58 -1277.43 -1554.37 -1909.70 -2636.82 -3493.99 -4105.83 -3757.51 -3778.50 -4112.75 -4417.18 -4738.82 -5197.82 -5312.09 -5404.23 -5298.30 -5186.05 -5241.98 -5276.91 -5299.08 -5270.73 -5263.89 -5175.25 -4973.36 -5029.90 -4368.47 -4107.01 -3770.51 -3286.26 -3346.40 -3521.30 -2449.50 -1255.45 2.28 27.35 51.99 47.76 73.68 96.18 119.91 152.81 183.14 231.65 256.51 300.02 465.28 564.60 772.25 954.81 1198.45 1346.96 1564.64 1624.36 1038.93 822.06 198.22 78.11 -11.42 -47.44 -1330.86 -4279.73 -5783.27 -5515.66 -4954.06 -4767.65 -4638.57 -4134.59 -2999.13 -2191.53 -1413.53 -1517.56 -1725.31 -1969.18 -2514.73 -3126.18 -3289.80 -3475.67 -3977.64 -3858.10 -3494.86 -3283.16 -3610.21 -4013.63 -4235.49 -4302.19 -4286.63 -4251.17 -4217.23 -4214.39 -4233.33 -4289.87 -4312.32 -4312.58 -4298.06 -4291.34 -4285.89 -4280.89 -4278.99 -4277.01
-5573.24 -5573.12 -5573.44 -5516.09 -5486.64 -5476.07 -5473.17 -5511.80 -5579.24 -5590.01 -5569.64 -5560.93 -5593.44 -5621.87 -5628.93 -5688.78 -5690.81 -5767.24 -5658.16 -5620.48 -5494.04 -5085.50 -4001.44 -3019.82 -2180.49 -2090.18 -2085.69 -2132.43 -2095.95 -2258.61 -2448.81 -2390.84 -1611.52 -775.04 -414.99 -207.27 -55.23 -35.05 -32.56 -46.68 -34.03 -84.10 -393.75 -96.75 -72.08 -580.70 -711.80 -1322.12 -2711.91 -2992.73 -3146.39 -3200.97 -3532.68 -3833.63 -4587.87 -5054.48 -5091.05 -5073.14 -5082.75 -5097.68 -4994.77 -4696.70 -5037.80 -5013.71 -4698.99 -4383.80 -4348.83 -3521.10 -3464.57 -2701.19 -2671.80 -2532.66 -1484.33 -639.67 -182.76 36.82 65.53 85.45 105.45 116.50 119.11 142.92 175.72 229.39 255.83 272.85 290.83 346.36 430.26 514.81 603.82 713.58 932.25 1225.64 1549.48 1422.64 1068.36 691.65 276.11 5.72 -56.19 -611.13 -3243.36 -5416.29 -5095.84 -5223.62 -4905.37 -4983.01 -4990.76 -4348.51 -3418.14 -2679.25 -1629.09 -1225.10 -1075.02 -1049.54 -1936.37 -2150.13 -2994.58 -3712.72 -3668.00 -3379.17 -3252.49 -3520.48 -3782.16 -4143.52 -4264.62 -4269.61 -4226.46 -4195.88 -4195.03 -4215.77 -4265.42 -4301.09 -4297.46 -4281.59 -4276.36 -4273.98 -4265.39 -4259.50 -4259.55
-5597.02 -5596.97 -5596.13 -5584.20 -5578.99 -5572.65 -5578.91 -5635.75 -5706.97 -5729.86 -5708.83 -5738.83 -5730.38 -5769.78 -5801.79 -5809.23 -5805.82 -5842.23 -5833.54 -5812.42 -5664.78 -5384.99 -4241.96 -3458.07 -2514.30 -2473.91 -2589.90 -2586.57 -2260.57 -2213.84 -2339.23 -1854.58 -1152.55 -351.45 -97.14 -13.08 -2.88 3.75 13.36 -6.48 -5.12 -14.69 -33.23 -16.68 -24.34 -54.45 -52.94 -101.62 -803.14 -2662.09 -2674.34 -2314.62 -2029.01 -3612.75 -3761.81 -3950.28 -4008.78 -4020.27 -3781.58 -3997.51 -3550.25 -4045.70 -3912.48 -4160.86 -3670.16 -3068.00 -2593.44 -2501.23 -2323.50 -2298.50 -1687.70 -853.99 -426.17 -362.26 42.03 63.51 85.54 100.15 111.15 151.43 157.57 172.10 196.39 240.27 279.79 293.54 323.78 354.99 389.61 426.67 482.20 534.75 660.93 909.73 1024.60 1337.75 1297.39 880.58 311.71 64.57 -4.11 -53.75 -385.36 -1687.24 -4228.77 -5006.08 -5180.94 -5121.62 -5231.57 -5235.01 -4570.64 -3630.13 -2864.35 -1875.67 -1312.10 -1127.73 -1217.47 -1398.58 -2107.84 -2968.19 -3388.01 -3364.20 -3278.86 -3579.66 -3837.00 -4077.32 -4214.34 -4231.76 -4213.17 -4168.98 -4155.38 -4180.99 -4233.92 -4274.69 -4273.28 -4260.42 -4255.41 -4245.33 -4242.29 -4241.22 -4241.27
-5585.71 -5587.51 -5589.06 -5587.76 -5587.00 -5588.31 -5598.86 -5674.15 -5729.51 -5780.00 -5781.95 -5799.62 -5811.99 -5825.47 -5858.00 -5906.39 -5928.99 -5941.53 -5950.02 -5903.03 -5794.57 -5640.38 -4925.72 -3978.34 -3916.79 -3466.06 -3702.73 -3628.18 -2911.46 -2778.28 -2604.85 -1249.97 -611.01 -116.47 -47.00 8.69 32.54 42.18 44.52 35.45 30.81 14.46 13.43 12.07 10.07 -6.27 -8.12 -45.37 -110.34 -967.31 -1163.92 -1468.19 -1220.99 -575.43 -1712.68 -2114.05 -2979.78 -2721.46 -2633.40 -2397.24 -2507.77 -2767.36 -2772.98 -3075.53 -2755.33 -2365.73 -2355.98 -2155.83 -2111.11 -1952.75 -829.29 13.47 -20.88 38.22 62.14 90.21 119.85 132.04 128.92 161.99 187.46 202.71 225.42 269.72 292.75 295.15 328.43 369.33 387.25 415.57 453.72 483.34 491.76 542.03 652.82 1241.47 1385.51 918.39 441.30 124.81 77.52 20.94 -237.33 -608.95 -2238.41 -4298.61 -5434.43 -5184.86 -5122.55 -5292.67 -5272.38 -5136.08 -3882.39 -3433.27 -2534.14 -1546.24 -1346.28 -1206.90 -1265.53 -2103.39 -2914.18 -3334.77 -3308.61 -3596.78 -3887.60 -4014.42 -4181.36 -4201.90 -4165.22 -4124.28 -4128.99 -4153.78 -4222.86 -4247.35 -4250.19 -4237.03 -4235.80 -4224.82 -4218.73 -4221.32 -4221.37
-5587.45 -5586.69 -5588.33 -5591.14 -5589.13 -5601.16 -5623.99 -5674.70 -5754.11 -5785.08 -5818.75 -5832.83 -5835.35 -5857.50 -5894.44 -5921.84 -5960.95 -5968.32 -5973.38 -5979.06 -5947.78 -5845.06 -5494.58 -5183.94 -5086.11 -5306.12 -5123.03 -4366.12 -3616.17 -3208.75 -2490.69 -1143.76 -296.16 -89.34 -19.79 4.04 34.73 81.42 97.03 53.76 39.44 27.12 25.97 23.24 25.37 27.07 21.21 5.59 -12.26 -36.69 -66.30 -84.69 -354.07 -173.06 -217.86 -253.39 -1208.64 -1666.23 -1631.60 -2071.19 -2169.28 -2196.51 -2458.21 -2532.77 -2475.64 -2282.61 -2203.74 -2125.70 -1619.04 -632.92 10.48 42.74 48.47 64.62 84.93 115.35 147.32 173.30 173.98 192.35 193.11 222.99 226.74 275.75 290.63 294.91 339.89 368.21 382.56 402.53 442.12 456.73 485.26 498.29 592.06 775.63 1092.30 1069.00 719.57 332.35 103.71 73.84 25.74 3.54 -984.23 -3897.94 -5393.15 -5176.08 -5016.28 -5137.23 -5238.80 -5352.90 -5229.63 -4797.35 -3724.40 -3073.31 -2587.01 -1589.43 -1480.44 -1737.54 -2189.08 -2479.72 -3266.22 -3766.75 -3999.11 -4105.52 -4147.67 -4151.23 -4108.66 -4091.81 -4084.68 -4119.35 -4194.48 -4232.11 -4231.49 -4221.31 -4210.87 -4207.08 -4204.30 -4202.42 -4199.82
-5604.15 -5602.09 -5603.15 -5602.85 -5607.28 -5612.03 -5633.85 -5693.15 -5794.29 -5824.98 -5848.79 -5853.91 -5864.10 -5878.68 -5904.18 -5950.02 -5973.20 -5981.03 -5981.63 -5992.61 -5989.39 -5977.03 -5924.17 -5827.26 -5809.63 -5792.34 -5626.04 -5486.73 -5021.31 -3787.52 -2404.57 -738.45 -75.46 -29.12 0.19 13.12 42.06 73.60 140.75 112.71 66.79 47.33 50.26 37.05 50.22 45.16 38.40 30.16 4.86 3.19 14.37 11.38 -48.79 -110.53 -137.97 -188.98 -235.82 -561.02 -926.69 -1434.55 -1484.05 -1698.57 -1913.54 -2030.83 -2124.27 -2148.87 -2109.36 -1806.75 -1105.70 -255.35 34.33 51.32 64.05 83.40 99.13 144.31 225.69 206.12 207.99 216.50 231.23 261.47 270.17 277.04 288.65 294.48 318.37 350.11 373.08 391.99 410.69 415.93 425.80 481.19 517.25 649.48 895.65 1149.77 1040.64 784.69 129.37 112.28 103.58 33.25 -1.44 -1692.99 -4826.35 -5308.38 -5091.97 -5008.05 -5020.16 -5207.28 -5345.29 -5326.99 -5012.74 -4403.36 -3897.74 -3206.35 -2296.11 -1553.53 -1407.55 -1609.62 -2862.59 -3753.69 -4153.75 -4208.46 -4132.67 -4113.69 -4075.17 -4058.75 -4059.03 -4111.56 -4180.72 -4205.07 -4201.86 -4195.69 -4190.94 -4187.23 -4179.18 -4179.16 -4176.93
-5638.46 -5638.37 -5653.82 -5646.11 -5628.19 -5648.96 -5667.76 -5710.11 -5806.32 -5847.55 -5856.21 -5867.78 -5873.27 -5884.39 -5919.78 -5958.84 -5979.55 -5984.41 -5991.30 -5987.96 -5987.99 -5992.90 -5971.32 -5959.37 -5933.53 -5897.91 -5887.61 -6038.26 -6213.71 -4717.58 -1330.32 -109.41 -31.85 -12.87 3.87 17.74 44.59 72.52 130.39 130.79 112.48 90.23 85.76 74.47 62.19 55.37 54.70 53.59 37.32 31.72 30.28 22.48 7.57 -21.43 -69.56 -123.15 -159.91 -167.98 -172.24 -361.07 -479.88 -504.89 -898.38 -1171.51 -1293.91 -1013.09 -1051.66 -698.09 10.15 26.29 49.32 53.92 76.83 101.55 138.97 222.50 293.28 262.24 243.10 261.40 255.61 267.10 278.31 281.54 280.22 287.59 298.30 321.54 340.08 392.87 409.15 415.67 418.14 465.99 489.94 506.77 696.45 981.67 1125.95 746.50 273.41 199.09 162.87 84.87 48.93 -726.89 -2996.72 -4909.33 -5199.62 -5086.04 -5077.29 -5202.24 -5330.42 -5469.15 -5544.57 -5386.83 -5237.70 -4753.40 -3616.79 -2324.33 -1598.91 -1356.43 -2422.55 -3803.71 -4320.36 -4306.90 -4228.57 -4114.60 -4046.56 -4013.81 -4031.08 -4084.06 -4146.77 -4172.12 -4175.80 -4166.25 -4160.42 -4157.00 -4148.95 -4151.24 -4151.29
-5729.10 -5718.13 -5718.34 -5727.12 -5758.16 -5706.99 -5760.31 -5769.98 -5818.62 -5853.53 -5863.23 -5869.78 -5877.41 -5888.01 -5907.93 -5936.49 -5938.70 -5961.38 -5968.56 -5964.53 -5961.54 -5981.76 -5976.03 -5938.53 -5913.43 -5922.78 -5982.75 -6238.34 -6868.51 -4819.07 -1098.25 -88.52 -21.59 -4.44 -0.39 19.67 47.69 94.42 133.12 174.76 136.09 120.19 111.06 109.76 94.39 71.81 58.55 58.91 57.17 59.04 47.47 40.00 20.10 12.33 1.58 -44.71 -69.14 -123.15 -123.50 -154.33 -169.47 -166.30 -171.90 -436.95 -109.65 -261.17 -209.89 1.20 17.05 35.97 51.26 63.14 84.30 120.28 176.82 239.40 346.06 329.32 281.03 280.73 287.97 280.61 281.89 280.94 279.74 281.34 291.78 308.82 328.77 383.31 405.13 412.04 413.93 443.56 459.79 489.44 523.82 585.29 846.18 967.06 1054.78 641.81 257.00 96.91 71.04 -427.41 -1699.28 -3133.16 -4834.96 -5125.92 -5117.74 -5085.49 -5195.44 -5382.17 -5558.29 -5623.65 -5549.64 -5256.94 -4489.91 -3297.48 -1669.06 -1216.42 -1822.02 -3083.29 -3864.23 -4621.94 -4378.55 -4190.94 -4077.06 -4061.91 -4049.75 -4090.15 -4120.92 -4129.91 -4134.73 -4133.92 -4137.39 -4133.19 -4130.36 -4126.90 -4123.86
-5880.34 -5880.15 -5893.32 -5860.25 -5840.39 -5850.09 -5846.89 -5850.27 -5857.92 -5859.58 -5859.69 -5863.30 -5864.23 -5872.84 -5877.44 -5885.40 -5898.42 -5894.09 -5907.99 -5897.74 -5903.29 -5882.58 -5853.21 -5824.42 -5810.70 -5855.70 -6191.48 -6559.47 -5298.05 -3359.98 -474.22 -65.76 -23.19 15.74 30.04 48.09 68.77 95.40 129.01 181.32 154.35 129.66 146.94 143.71 120.46 126.28 95.58 71.28 72.61 68.81 64.70 51.33 37.88 25.92 17.99 4.55 -6.34 -7.63 -43.88 -91.07 -93.11 -83.24 -111.60 -93.14 -37.80 -10.43 -2.90 19.46 30.72 46.34 51.73 86.52 129.02 137.62 255.74 329.73 417.21 379.04 316.33 299.18 293.52 286.67 283.49 282.03 286.40 288.18 286.56 298.45 327.78 366.94 372.57 391.72 405.37 414.28 446.58 453.20 468.68 551.82 743.30 1085.38 1211.68 736.04 291.46 162.25 79.89 35.42 -75.51 -2416.19 -3590.25 -4876.61 -4938.96 -4913.46 -5122.73 -5310.04 -5537.49 -5645.90 -5663.46 -5464.82 -4903.90 -3061.17 -1754.56 -1067.02 -1159.98 -1614.14 -2891.53 -3868.33 -4532.56 -4353.49 -4195.23 -4093.23 -4087.59 -4085.40 -4090.63 -4108.10 -4101.24 -4115.36 -4105.51 -4107.33 -4097.19 -4097.84 -4097.89
-6000.22 -6000.09 -5998.48 -5994.26 -6005.90 -5998.45 -5995.12 -5938.66 -5880.50 -5859.44 -5853.69 -5856.77 -5856.31 -5855.45 -5850.12 -5842.05 -5844.38 -5839.99 -5824.89 -5830.85 -5821.33 -5803.38 -5754.04 -5727.33 -5705.40 -5787.19 -6324.93 -6868.38 -4897.05 -1837.34 -234.55 -24.49 12.82 30.99 51.83 58.83 79.94 118.55 151.07 191.93 176.68 171.24 211.96 250.19 182.74 195.99 213.97 175.47 107.91 85.30 73.61 74.26 57.60 38.90 22.26 17.73 12.23 2.47 -8.72 -19.20 -17.18 -21.60 -15.26 -1.41 5.49 27.43 27.78 35.74 46.12 53.60 70.35 91.08 136.21 152.16 260.38 340.98 434.43 395.10 335.12 303.79 299.02 288.30 283.66 282.65 287.53 293.00 299.25 309.18 311.96 333.29 356.13 364.72 385.10 395.23 391.50 394.79 425.38 458.38 561.51 869.94 1232.87 1108.94 729.72 287.24 97.35 82.16 2.38 -1896.61 -3626.00 -4821.48 -4987.31 -4889.11 -5039.30 -5211.47 -5485.47 -5617.48 -5675.82 -5602.68 -4987.76 -3335.96 -1832.14 -736.03 -713.35 -868.99 -1774.35 -3177.26 -4559.91 -4464.19 -4283.20 -4171.78 -4091.42 -4075.22 -4057.41 -4064.83 -4075.92 -4081.31 -4088.47 -4078.32 -4074.35 -4072.77 -4072.82
-6047.10 -6047.02 -6051.56 -6050.95 -6046.09 -6042.97 -6029.26 -5980.46 -5897.24 -5872.52 -5858.38 -5859.51 -5863.55 -5859.42 -5849.52 -5832.04 -5821.44 -5819.64 -5818.04 -5812.54 -5802.96 -5774.43 -5739.01 -5695.50 -5696.61 -5859.82 -6377.94 -5253.95 -3190.36 -187.51 -69.45 5.65 21.14 42.84 70.32 78.46 92.09 129.38 179.14 214.38 217.82 203.95 269.40 312.16 262.91 243.49 334.65 298.92 171.94 134.89 96.03 81.98 71.32 65.86 48.56 34.69 18.75 8.71 -0.84 -6.01 -8.24 -8.08 -6.11 5.44 21.34 32.62 34.16 43.30 55.56 63.50 70.33 96.93 146.69 156.54 227.25 286.38 354.64 361.57 323.29 307.17 300.51 286.95 282.06 286.54 290.96 295.65 304.68 310.16 313.93 314.98 336.77 348.23 360.48 387.12 388.34 390.62 404.47 444.07 547.25 880.65 1206.26 1155.94 918.91 444.90 138.83 90.61 38.60 -9.07 -1894.77 -4564.37 -5125.04 -4943.02 -4963.33 -5195.69 -5341.38 -5576.23 -5662.17 -5591.42 -4995.08 -3833.40 -2190.10 -700.28 -606.86 -707.89 -1258.62 -1714.67 -3339.68 -4097.90 -4190.42 -4192.17 -4108.11 -4065.91 -4039.46 -4041.38 -4045.87 -4049.49 -4055.38 -4056.45 -4048.89 -4048.88 -4048.93
-6056.13 -6056.70 -6060.79 -6064.62 -6068.38 -6066.82 -6041.82 -5998.16 -5931.39 -5882.55 -5868.91 -5872.04 -5873.55 -5868.37 -5854.66 -5840.12 -5825.39 -5824.90 -5826.31 -5825.50 -5808.64 -5774.71 -5746.79 -5701.55 -5747.55 -6175.69 -6263.81 -2966.48 -409.03 -112.91 -8.90 2.71 24.20 34.89 76.14 90.52 112.50 149.63 177.22 226.46 253.54 288.47 333.08 438.12 460.30 392.30 466.01 526.45 336.73 183.14 142.00 115.73 86.52 71.95 64.20 45.73 34.25 21.79 12.44 2.72 5.27 4.28 9.32 16.26 34.59 43.73 42.92 46.37 63.48 70.76 79.36 100.43 128.12 159.53 191.22 248.76 280.41 304.28 298.78 297.14 294.24 283.78 282.83 285.73 294.94 298.78 307.05 313.61 316.27 317.88 340.30 351.73 362.71 381.69 383.80 387.24 401.83 417.63 462.10 637.81 1090.10 1193.98 1010.53 471.14 262.09 169.84 96.94 -7.60 -907.38 -4602.36 -5272.54 -4937.20 -4971.84 -5156.34 -5320.88 -5538.45 -5618.91 -5581.75 -5296.53 -3993.37 -1926.75 -622.87 -471.63 -565.82 -659.03 -1276.30 -1645.58 -2822.47 -3557.94 -4051.16 -4088.45 -4087.76 -4045.54 -4018.31 -4012.48 -4020.80 -4025.87 -4028.85 -4033.56 -4029.58 -4027.13
-6041.53 -6041.47 -6041.82 -6043.42 -6055.56 -6051.71 -6016.97 -5994.04 -5931.67 -5884.99 -5877.76 -5880.39 -5883.30 -5881.01 -5864.29 -5857.41 -5852.52 -5845.33 -5847.16 -5838.32 -5830.96 -5797.13 -5743.61 -5718.81 -5810.04 -6027.86 -5721.58 -2145.83 -325.86 -103.20 -8.47 13.20 35.03 49.20 68.35 91.14 112.00 150.86 187.88 228.33 272.68 299.00 347.03 464.93 556.66 571.02 688.22 609.32 374.72 249.01 162.82 142.35 112.72 95.41 78.99 60.20 46.90 33.89 29.22 25.53 25.26 20.95 28.03 33.74 38.57 46.54 52.50 68.21 71.42 76.79 92.06 113.62 132.52 162.46 196.74 226.92 254.45 274.46 276.90 283.15 279.96 279.35 279.64 286.97 298.40 303.19 309.25 314.84 321.68 325.18 337.45 351.46 362.91 374.42 375.45 370.36 376.08 404.49 476.75 509.35 938.32 1250.88 1303.88 759.21 340.62 189.86 121.46 64.16 -1210.30 -4982.87 -5480.97 -4999.53 -5022.52 -5182.68 -5327.52 -5500.80 -5594.01 -5548.26 -5148.87 -4669.14 -1885.62 -719.41 -366.91 -404.79 -460.31 -1099.76 -1571.08 -2450.95 -3250.01 -3459.30 -4005.05 -4049.00 -4043.46 -4018.23 -4003.28 -4000.71 -4006.30 -4014.74 -4011.05 -4007.48 -4007.53
-5964.99 -5964.98 -5946.91 -5981.21 -5981.40 -5995.63 -5958.94 -5956.18 -5919.94 -5869.90 -5870.02 -5877.13 -5880.89 -5883.34 -5882.62 -5878.49 -5873.39 -5882.97 -5886.08 -5874.77 -5863.10 -5802.35 -5636.31 -5649.54 -5614.75 -4919.73 -3132.45 -334.26 -219.62 -41.71 1.75 23.10 40.61 62.27 83.83 97.60 125.71 145.33 191.91 242.76 284.14 351.62 431.46 450.88 553.28 598.25 638.50 561.35 342.17 260.84 190.84 168.98 143.60 110.82 93.24 78.45 58.89 41.28 46.03 39.20 34.95 33.06 47.49 47.25 47.24 52.94 63.66 72.64 76.96 88.28 103.62 128.79 136.36 169.21 183.09 203.43 237.94 256.83 266.08 268.84 275.96 278.80 280.76 289.16 301.19 309.43 313.86 318.56 322.77 327.77 336.41 351.27 359.19 368.60 369.40 374.38 389.26 422.07 480.66 494.28 780.51 1210.80 1346.05 744.35 365.46 268.00 140.44 85.88 -521.30 -3696.35 -5398.14 -5137.07 -5007.79 -5074.72 -5333.28 -5462.50 -5562.66 -5522.48 -5320.04 -3771.04 -2098.64 -736.19 -359.42 -324.55 -498.48 -794.56 -1581.81 -1956.74 -2257.27 -3107.58 -3965.18 -3992.35 -4040.58 -4020.18 -3992.32 -3979.27 -3988.21 -3992.75 -3992.44 -3985.15 -3985.20
-5825.07 -5825.10 -5842.99 -5851.43 -5857.71 -5862.27 -5882.88 -5859.71 -5849.14 -5852.40 -5854.43 -5866.08 -5867.08 -5874.62 -5893.97 -5904.04 -5922.86 -5939.80 -5919.25 -5904.95 -5853.25 -5675.92 -5416.04 -5237.55 -4762.13 -4378.27 -1349.28 -251.20 -72.77 1.13 18.02 30.62 47.58 78.53 92.42 112.80 163.06 183.69 202.62 282.34 353.93 329.22 376.05 433.18 506.18 567.00 488.61 471.58 392.49 279.98 213.83 194.17 164.19 130.53 120.58 96.17 77.86 74.33 62.94 49.25 51.05 49.10 50.25 58.11 62.95 64.32 73.12 77.98 86.18 99.04 113.84 125.83 141.17 154.89 177.60 197.85 221.31 237.05 247.11 262.09 266.19 267.49 277.44 287.83 300.21 308.52 318.71 320.16 324.04 326.32 329.58 343.28 360.94 365.66 369.64 378.50 398.18 402.43 433.35 465.73 624.35 1070.01 1264.15 904.55 510.47 253.95 114.49 76.37 20.25 -2902.66 -4630.74 -5035.34 -4866.00 -4955.92 -5324.56 -5487.62 -5542.15 -5477.62 -5232.81 -3808.29 -2173.86 -601.54 -298.12 -280.69 -402.83 -781.80 -1189.95 -1497.44 -1853.90 -2632.37 -3695.99 -3853.47 -3976.86 -4000.03 -3993.12 -3969.18 -3962.45 -3970.57 -3969.50 -3969.72 -3969.78
-5721.59 -5730.27 -5738.94 -5771.43 -5770.91 -5774.54 -5768.54 -5805.20 -5816.26 -5834.20 -5839.15 -5849.59 -5857.47 -5869.51 -5899.45 -5929.53 -5944.67 -5951.24 -5944.03 -5827.05 -5710.86 -5373.22 -4526.03 -4051.92 -3793.57 -2605.57 -989.13 -182.91 -86.33 -11.68 13.58 35.42 58.36 83.07 96.95 155.25 183.77 200.40 222.33 292.36 409.48 444.80 414.37 454.86 524.02 547.29 487.56 443.10 357.89 287.67 215.87 209.23 181.25 152.90 135.01 120.80 95.12 86.20 86.70 69.00 56.41 65.37 69.65 74.12 77.03 74.55 79.72 87.62 98.89 104.34 110.84 123.80 136.30 153.72 171.12 192.56 198.89 211.71 227.45 242.54 259.44 263.28 270.11 284.75 294.79 304.13 316.10 321.64 327.40 328.73 327.40 326.84 350.45 361.15 370.01 388.48 397.86 401.43 432.33 475.35 533.45 1071.89 1269.28 977.58 638.67 257.32 118.89 49.82 -16.44 -557.57 -3868.32 -4872.75 -4780.53 -4875.89 -5121.46 -5516.78 -5527.59 -5493.12 -5180.70 -3802.99 -2031.80 -524.93 -280.79 -241.61 -364.47 -613.75 -790.89 -1128.67 -2015.68 -2527.20 -2746.64 -3241.20 -3777.87 -3954.60 -3989.49 -3973.06 -3961.23 -3957.64 -3958.04 -3953.43 -3953.49
-5690.16 -5690.10 -5700.63 -5709.73 -5712.94 -5729.84 -5735.47 -5763.99 -5804.05 -5831.00 -5841.68 -5849.04 -5857.49 -5872.71 -5906.98 -5930.13 -5942.34 -5933.03 -5730.78 -5547.68 -5093.62 -4544.66 -3890.81 -2748.53 -2212.33 -1684.58 -759.07 -234.29 -63.02 -10.37 17.36 45.01 58.48 96.34 134.59 160.15 194.90 201.86 240.24 312.61 426.01 471.85 503.06 487.54 516.27 470.54 444.19 420.35 305.00 288.47 236.98 215.79 186.23 165.47 153.16 139.72 120.69 118.15 118.59 129.26 110.84 95.40 86.58 86.45 85.82 87.47 89.13 100.24 106.40 108.67 114.90 128.36 134.91 145.61 161.35 174.88 193.17 205.05 219.80 244.96 248.82 262.37 270.69 276.50 288.55 296.88 308.15 325.40 332.37 333.14 331.85 329.44 334.91 343.44 351.22 373.86 391.53 399.69 422.73 470.24 515.43 799.52 1070.81 818.33 439.81 182.10 110.08 71.72 3.91 -1248.13 -3873.11 -4910.96 -4797.66 -4892.72 -5122.55 -5413.99 -5501.89 -5438.74 -5071.77 -3872.50 -1524.75 -733.10 -267.19 -213.93 -233.82 -494.41 -816.60 -994.17 -1487.62 -1930.02 -2475.79 -3071.86 -3723.62 -3937.93 -3981.45 -3971.49 -3960.96 -3957.53 -3951.98 -3947.03 -3947.10
-5689.63 -5689.56 -5698.51 -5704.89 -5711.01 -5723.69 -5734.60 -5772.77 -5803.71 -5834.81 -5846.16 -5854.52 -5864.73 -5875.71 -5888.87 -5898.44 -5784.44 -5652.33 -5256.53 -4485.43 -3664.24 -3530.57 -2946.07 -2193.81 -1722.26 -545.76 -258.48 -147.00 -18.10 -1.42 32.31 50.99 75.01 123.82 130.32 160.20 200.74 220.12 263.03 282.93 398.60 439.84 537.42 520.38 480.82 424.27 398.81 372.67 325.41 290.66 261.32 237.51 198.96 174.60 174.81 165.22 137.55 144.85 173.05 158.73 118.07 112.64 104.39 92.66 99.47 99.43 101.92 112.90 114.55 116.57 117.54 124.44 130.14 140.20 159.49 168.95 182.51 189.61 213.38 221.45 233.43 246.56 255.07 273.07 281.94 295.24 306.88 332.01 338.04 341.25 337.43 331.14 329.52 327.95 334.49 359.81 385.26 392.26 397.19 449.35 471.49 646.12 962.51 839.33 393.39 173.32 104.63 70.47 -6.08 -3201.13 -4877.97 -5041.15 -4894.18 -4990.26 -5177.18 -5399.23 -5505.55 -5419.53 -4877.21 -3843.14 -1419.82 -544.89 -217.84 -211.14 -236.33 -381.34 -616.39 -755.70 -1273.93 -2038.39 -2699.55 -2848.68 -3637.24 -3957.13 -3978.35 -3966.48 -3959.93 -3952.91 -3949.06 -3944.74 -3944.81
-5702.13 -5701.86 -5710.37 -5721.75 -5730.59 -5741.07 -5752.64 -5782.00 -5812.57 -5835.31 -5848.20 -5850.15 -5843.81 -5824.87 -5817.81 -5600.72 -5319.99 -4630.90 -4070.22 -3499.05 -3253.27 -2065.55 -1645.46 -1162.69 -754.44 -274.24 -214.42 -98.19 -13.15 3.24 27.22 52.00 73.17 152.70 183.67 175.78 198.27 253.44 275.19 313.15 342.55 425.78 534.74 566.51 486.78 427.75 403.38 372.21 339.91 302.87 267.31 253.51 227.70 199.28 192.40 176.59 173.34 196.33 219.86 200.49 168.86 145.19 125.06 109.15 112.58 112.66 119.03 118.78 121.00 123.44 121.37 129.08 133.14 144.25 153.74 166.07 172.78 183.91 199.18 208.00 223.01 238.07 248.12 264.25 278.34 294.54 310.88 344.21 347.02 346.42 341.55 336.65 331.72 328.68 329.25 349.84 367.39 378.30 392.63 415.14 455.69 434.10 635.30 778.45 452.48 162.53 93.06 28.39 -16.32 -2224.52 -4813.57 -5127.91 -4988.53 -5033.12 -5197.62 -5386.56 -5490.12 -5403.05 -4911.09 -3251.01 -1395.11 -452.22 -235.66 -216.36 -279.79 -369.10 -473.75 -757.89 -1227.76 -1946.64 -2341.13 -2948.19 -3713.76 -3945.82 -3977.23 -3969.66 -3961.03 -3955.48 -3951.35 -3948.62 -3948.70
-5744.26 -5744.15 -5759.09 -5755.12 -5759.83 -5774.33 -5788.41 -5801.93 -5815.78 -5828.46 -5824.84 -5804.94 -5764.85 -5589.90 -5225.78 -4816.48 -4156.13 -3711.41 -3091.57 -2591.03 -2123.64 -1671.01 -718.15 -335.80 -284.32 -254.14 -161.95 -85.45 -7.07 10.70 22.92 65.98 101.08 225.65 253.37 218.45 277.27 314.91 337.00 369.52 437.37 482.62 550.79 546.26 484.39 438.24 397.39 363.22 334.32 317.31 284.44 262.26 238.42 220.36 208.10 196.29 206.12 226.84 248.61 219.04 192.87 150.19 145.54 137.98 129.56 126.35 126.90 126.58 127.17 127.55 127.71 132.63 135.79 141.41 151.59 160.96 169.64 180.00 196.34 198.89 223.87 230.67 243.07 263.73 276.01 292.35 310.19 333.58 347.07 348.42 347.33 341.35 335.67 332.84 331.58 336.47 340.91 350.47 389.92 391.22 382.04 343.77 392.94 441.38 347.20 142.74 67.12 6.05 -34.07 -2096.61 -4059.42 -5345.21 -5073.01 -5027.88 -5208.03 -5328.93 -5399.50 -5213.56 -4859.73 -2884.54 -1717.07 -379.32 -212.32 -210.97 -278.00 -373.39 -531.50 -832.81 -1126.58 -1676.41 -2413.77 -2903.35 -3793.22 -3936.94 -3979.57 -3973.54 -3966.74 -3962.27 -3959.24 -3957.23 -3957.63
-5817.18 -5817.06 -5823.96 -5826.67 -5826.32 -5835.61 -5845.67 -5843.56 -5831.43 -5830.36 -5802.13 -5704.97 -5365.30 -5217.80 -4767.33 -4144.06 -3644.33 -2868.68 -2470.90 -2324.06 -2124.55 -1747.07 -743.75 -326.86 -271.02 -211.80 -140.81 -87.21 -10.09 15.74 37.97 78.40 171.84 252.47 350.09 283.10 334.56 417.79 406.65 382.13 414.56 500.68 563.25 507.49 466.43 423.22 382.16 367.17 339.65 319.40 298.30 265.81 257.82 238.30 222.82 224.62 234.93 243.89 230.51 203.62 191.95 167.86 160.10 154.82 150.62 141.61 144.10 137.97 137.57 135.66 133.20 133.32 138.53 143.99 148.34 157.08 168.21 176.91 190.73 200.28 216.09 227.86 243.44 260.99 272.41 289.86 298.10 327.35 346.14 348.03 348.30 343.85 338.39 336.71 335.82 334.60 338.43 345.88 360.33 369.79 350.82 325.19 271.41 235.47 212.13 123.55 86.21 2.82 -33.65 -2038.86 -4808.95 -5374.56 -5054.35 -5067.84 -5165.67 -5252.53 -5332.12 -5004.55 -4333.72 -2591.64 -796.70 -333.28 -213.96 -235.54 -314.52 -444.65 -602.47 -835.88 -1154.53 -1606.09 -2335.10 -3040.69 -3546.68 -3925.80 -3985.81 -3980.03 -3973.00 -3970.81 -3972.09 -3970.56 -3970.65
-5884.90 -5884.77 -5891.82 -5893.44 -5921.58 -5936.01 -5923.98 -5917.98 -5874.73 -5902.11 -5832.79 -5594.62 -5031.36 -4382.93 -3693.85 -3518.40 -3223.35 -2945.66 -2505.26 -2341.06 -2170.85 -1740.96 -765.95 -295.47 -232.79 -167.19 -83.47 -32.76 -1.12 22.20 77.60 121.35 138.11 234.55 345.72 351.61 457.71 485.76 471.24 423.41 448.46 550.05 571.68 502.54 438.28 415.18 387.81 365.07 347.70 319.41 300.81 280.55 269.83 254.30 238.86 235.84 241.46 268.89 236.97 213.18 203.74 180.57 175.37 166.19 159.36 153.91 154.85 147.42 143.52 141.43 136.14 137.71 138.69 143.49 147.33 155.47 161.90 171.36 182.11 192.67 210.96 222.76 243.65 253.31 278.96 289.16 303.07 326.04 339.65 345.74 346.16 345.92 343.31 344.36 342.67 345.19 344.55 346.52 347.43 350.49 350.57 318.95 293.82 221.89 158.87 132.54 90.69 14.93 -64.07 -1237.27 -3407.92 -4937.95 -5152.77 -5139.66 -5154.54 -5229.64 -5230.44 -4747.41 -3607.61 -1992.23 -668.35 -255.03 -208.42 -278.83 -373.28 -506.19 -659.05 -917.38 -1204.07 -1713.87 -2490.38 -2938.53 -3596.00 -3900.36 -3993.48 -3989.04 -3985.34 -3985.19 -3986.80 -3986.74 -3986.83
-5955.85 -5955.03 -5964.43 -5975.93 -5999.70 -6013.82 -6085.26 -6067.15 -6015.99 -6025.76 -5832.19 -5542.38 -4625.19 -3981.65 -3519.49 -3322.25 -3252.63 -3096.76 -2748.93 -2387.44 -2067.71 -1257.89 -554.64 -224.79 -184.52 -99.33 -39.21 -2.49 9.55 54.94 111.92 138.59 216.39 269.91 339.88 352.51 515.34 577.75 488.72 507.13 577.03 593.84 554.54 472.20 433.53 400.18 379.97 363.08 346.48 311.63 303.35 287.22 281.05 258.43 251.56 257.20 289.22 301.74 257.62 234.91 229.94 201.48 187.90 183.81 177.53 167.16 161.02 154.78 150.57 147.52 141.06 138.28 139.00 141.72 145.76 150.31 154.66 166.18 177.79 189.05 201.98 219.35 243.41 257.43 271.60 286.59 297.69 322.20 327.14 334.06 341.62 346.52 347.80 352.55 350.55 351.23 353.65 347.77 345.12 340.95 335.90 310.42 296.84 232.65 170.59 125.86 90.00 42.31 -14.75 -540.24 -2812.30 -4772.81 -4911.88 -5128.10 -5173.26 -5178.12 -4980.07 -4325.46 -2336.68 -910.82 -374.44 -251.88 -225.42 -289.11 -401.08 -597.94 -1024.53 -1269.54 -1427.54 -1843.16 -2730.91 -3380.89 -3810.69 -3957.03 -4005.07 -4005.21 -3996.08 -4002.27 -4011.38 -4012.69 -4012.79
-6095.57 -6095.37 -6107.10 -6107.29 -6117.11 -6141.31 -6158.06 -6123.63 -6078.40 -5796.90 -5448.24 -5008.27 -4412.19 -3684.93 -3462.82 -3359.31 -3407.11 -3290.81 -2829.47 -2238.38 -1598.40 -670.00 -303.09 -214.71 -157.86 -98.21 -49.24 -4.92 34.94 52.36 97.60 152.45 186.05 202.96 265.07 333.02 493.61 602.64 592.74 558.60 570.19 550.96 508.31 482.19 423.72 374.92 370.58 356.40 339.31 320.75 305.17 290.92 287.93 276.73 271.76 274.83 320.52 333.25 307.37 278.49 253.11 219.02 205.79 196.31 186.92 180.56 171.24 165.64 159.39 151.38 145.90 141.05 139.17 140.09 143.02 148.51 155.96 163.86 171.97 187.64 197.88 214.07 235.29 249.68 261.69 287.50 295.56 317.79 322.50 329.49 339.52 347.62 356.17 369.45 369.73 368.33 362.42 354.01 345.76 307.44 295.18 265.77 233.03 198.07 151.81 122.12 88.54 25.27 -169.01 -941.93 -2632.44 -4731.80 -4712.78 -5031.39 -5135.82 -5065.69 -4584.83 -3846.33 -1692.49 -505.83 -295.03 -206.23 -255.79 -330.95 -395.67 -714.12 -993.80 -1560.92 -1827.44 -2260.28 -3205.33 -3710.73 -3964.75 -4021.18 -4013.36 -4014.41 -4016.94 -4023.16 -4031.77 -4035.81 -4035.91
-6308.98 -6303.51 -6224.70 -6109.73 -6106.71 -6118.43 -6029.63 -5726.89 -5534.39 -5184.37 -4700.57 -4144.46 -4070.40 -3770.21 -3781.37 -3597.96 -3592.12 -3447.04 -2959.22 -1875.03 -1004.53 -336.97 -278.64 -198.21 -169.02 -90.98 -24.87 -1.34 32.18 42.86 82.72 139.73 163.60 190.62 224.57 306.10 400.37 498.31 567.29 520.42 521.07 531.77 475.49 439.81 414.27 363.86 350.79 338.81 331.38 312.33 304.30 294.48 290.67 294.32 305.05 316.12 350.40 371.96 348.56 326.21 271.57 237.63 228.47 204.64 198.07 188.94 188.23 174.81 163.53 153.39 148.65 142.98 139.97 140.04 141.71 146.00 152.44 158.05 171.95 184.61 197.39 208.28 221.29 241.11 254.40 275.56 287.84 297.52 317.62 327.78 340.37 352.47 363.74 380.69 384.44 379.27 369.39 356.02 334.48 296.40 279.88 238.39 204.30 144.60 116.03 81.86 45.35 10.68 -265.92 -1521.77 -2550.82 -4441.95 -4502.96 -4857.34 -5142.20 -5089.59 -3878.10 -2763.08 -951.94 -467.84 -230.76 -213.61 -233.38 -279.80 -461.50 -875.75 -1310.54 -1709.05 -2004.07 -2618.55 -3453.79 -3929.37 -4028.46 -4027.68 -4027.92 -4031.12 -4035.26 -4046.33 -4049.19 -4066.15 -4066.26
-6112.78 -6112.95 -5768.44 -5690.95 -5597.15 -5319.28 -5158.27 -4826.49 -4530.52 -4323.33 -4278.09 -4061.69 -3994.77 -4046.50 -4070.51 -4003.18 -3859.28 -3507.41 -2974.79 -1995.29 -583.31 -355.18 -282.01 -227.57 -175.29 -97.34 -33.22 -4.94 28.66 41.48 78.56 148.45 203.59 279.02 271.69 297.22 356.89 416.69 491.06 446.17 428.70 456.15 464.80 417.04 393.89 347.68 342.79 324.44 313.92 304.13 299.55 295.64 294.40 300.68 309.17 325.76 349.67 402.14 404.21 364.44 291.61 255.43 240.15 228.86 215.39 201.63 193.02 191.80 175.12 161.69 153.34 145.64 142.20 140.58 141.64 147.46 154.11 157.64 167.61 176.51 190.98 205.91 220.09 232.73 257.42 272.13 282.61 294.38 312.66 326.05 334.92 356.42 369.17 383.69 386.16 381.55 371.09 354.86 323.37 275.65 235.10 191.56 161.90 113.66 84.99 63.11 24.77 -219.13 -924.99 -2166.64 -3586.90 -4062.01 -4407.57 -4873.12 -5082.87 -5001.09 -3741.88 -1959.99 -691.95 -365.05 -214.51 -222.46 -235.02 -276.87 -429.49 -769.00 -1310.72 -1986.76 -2490.53 -3232.75 -3499.36 -3902.98 -4035.97 -4036.54 -4037.68 -4050.35 -4059.82 -4064.70 -4086.77 -4088.07 -4088.18
-4951.37 -4952.96 -4908.15 -4663.91 -4708.70 -4298.98 -4283.12 -4186.44 -4182.51 -4186.37 -4223.08 -4202.14 -4267.93 -4262.82 -4212.51 -4195.87 -4021.77 -3732.57 -2898.69 -1943.31 -670.22 -350.66 -298.50 -246.24 -203.85 -122.37 -49.90 -6.75 24.56 40.20 57.75 146.42 195.53 294.95 383.54 406.37 434.54 393.36 390.67 395.98 369.58 373.98 412.51 379.82 349.09 329.12 326.38 310.54 306.36 295.16 295.76 292.02 292.34 299.17 309.22 332.13 337.85 396.55 425.39 388.37 325.72 279.35 252.09 240.01 238.72 220.07 203.24 195.60 178.99 172.78 160.90 148.63 142.87 139.56 141.49 144.77 147.94 156.58 161.95 175.29 187.42 207.93 222.06 231.92 248.74 268.84 277.74 292.17 299.59 321.02 330.80 350.38 371.46 380.47 381.74 373.22 361.09 331.19 295.02 272.46 214.61 170.97 140.58 87.40 64.60 40.39 -2.92 -765.16 -1823.90 -2698.10 -3447.84 -4001.12 -4758.89 -5187.77 -5245.57 -4579.44 -3368.09 -1645.08 -595.06 -236.99 -210.00 -232.35 -243.13 -286.91 -391.22 -778.64 -1470.74 -2421.83 -2929.92 -3398.49 -3764.09 -3838.92 -4060.65 -4057.47 -4061.97 -4070.35 -4077.75 -4088.32 -4098.77 -4109.61 -4109.72
-4062.94 -4064.46 -4118.44 -4185.88 -4097.31 -4061.43 -4051.40 -4110.67 -4250.23 -4332.69 -4343.99 -4387.56 -4387.05 -4389.08 -4339.42 -4271.09 -4172.39 -3938.71 -3617.70 -1897.94 -587.61 -341.76 -305.52 -271.47 -215.62 -148.19 -77.85 -18.46 6.85 31.43 38.38 101.81 180.28 242.26 353.51 349.23 335.69 341.28 302.96 363.58 330.38 350.18 367.47 322.48 314.91 308.46 309.43 295.09 292.14 282.50 288.92 288.83 288.18 292.60 306.84 322.12 335.55 374.64 418.96 377.33 345.51 310.91 281.46 252.01 241.13 231.71 214.57 200.87 184.73 177.17 159.84 149.18 143.74 139.13 140.06 142.22 143.72 153.28 157.71 174.64 187.45 203.87 214.33 227.18 251.72 259.54 271.58 285.97 299.70 309.25 327.97 339.81 359.63 372.35 374.79 371.71 345.29 330.86 285.49 245.34 219.15 164.97 115.03 80.54 46.19 20.22 -194.76 -759.70 -1630.01 -2330.19 -3044.34 -4490.24 -5376.34 -5389.98 -5218.95 -4717.55 -2851.00 -1025.11 -327.11 -222.03 -213.57 -256.83 -277.64 -340.28 -408.06 -893.14 -1588.02 -2718.79 -3427.89 -3598.58 -3860.83 -3986.27 -4077.48 -4076.03 -4084.21 -4090.30 -4097.24 -4100.97 -4118.26 -4127.82 -4127.95
-4026.37 -4026.27 -4045.52 -4043.32 -4068.00 -4090.47 -4130.32 -4209.37 -4336.99 -4404.96 -4450.54 -4465.89 -4477.24 -4455.20 -4391.28 -4282.02 -4173.11 -4028.60 -3795.64 -1924.60 -1137.38 -392.99 -328.04 -292.68 -245.52 -187.55 -114.77 -41.45 -10.67 13.61 34.63 46.02 87.84 124.09 269.58 289.87 265.73 253.92 240.50 298.06 310.39 304.21 328.63 287.42 274.26 272.40 275.17 276.94 269.45 270.04 275.01 274.43 277.65 286.90 289.44 319.73 348.77 390.28 413.05 386.71 362.33 334.50 291.08 277.76 260.92 241.58 220.41 203.51 186.96 177.27 162.12 151.51 143.18 138.00 136.79 140.30 142.93 151.98 157.06 173.17 184.78 192.93 211.88 226.53 238.53 252.52 267.93 280.33 291.60 308.33 311.39 347.76 355.60 365.44 360.96 334.77 332.12 316.13 265.24 226.96 197.54 150.35 101.16 68.51 27.88 -14.28 -122.14 -596.09 -1668.65 -1969.07 -3534.77 -4603.87 -5300.69 -5488.24 -5293.02 -4164.90 -1845.82 -782.53 -285.06 -206.02 -227.77 -282.72 -286.58 -351.61 -531.16 -934.52 -1955.96 -2762.88 -3722.04 -3858.79 -4016.80 -4102.51 -4100.64 -4102.01 -4101.03 -4107.43 -4109.78 -4122.51 -4130.45 -4142.20 -4142.33
-4157.84 -4157.04 -4162.29 -4157.67 -4175.67 -4200.08 -4219.85 -4292.64 -4394.09 -4476.69 -4491.11 -4496.31 -4500.93 -4465.31 -4408.11 -4306.25 -4193.89 -4076.11 -3715.98 -2805.22 -773.77 -369.86 -332.57 -282.67 -249.53 -212.95 -152.68 -113.91 -44.94 -12.59 21.87 44.90 58.87 98.27 122.02 142.42 204.09 213.50 214.85 218.79 225.98 229.97 252.97 255.22 252.21 250.05 246.29 254.51 258.24 256.74 261.80 262.96 270.73 281.67 293.05 311.24 355.23 398.34 428.59 429.69 401.87 358.38 325.69 289.43 277.82 245.20 231.30 209.43 202.00 182.04 165.62 153.25 141.85 137.93 134.48 135.18 138.67 144.87 154.31 165.30 174.73 190.45 206.23 224.33 237.25 253.88 263.50 270.40 285.28 298.30 306.82 340.69 355.77 360.92 353.10 305.25 296.59 282.58 254.33 209.73 158.87 134.05 100.88 61.57 42.46 -5.99 -557.48 -1240.45 -1522.47 -1982.78 -3363.34 -4227.28 -5453.50 -5535.80 -5032.25 -3784.77 -2069.95 -666.99 -295.91 -204.12 -241.98 -263.66 -296.47 -366.84 -572.13 -928.76 -2069.73 -2732.45 -3494.86 -3994.01 -4088.58 -4119.06 -4114.13 -4116.64 -4116.38 -4120.86 -4126.37 -4137.99 -4146.50 -4157.64 -4157.81
-4239.05 -4239.24 -4237.52 -4250.79 -4244.24 -4249.11 -4275.98 -4385.71 -4437.03 -4516.39 -4538.63 -4529.10 -4523.24 -4508.20 -4409.87 -4330.00 -4217.24 -3920.32 -3591.80 -2788.80 -1168.44 -384.81 -343.07 -291.84 -276.76 -222.59 -198.22 -160.95 -76.03 -36.47 0.84 8.89 35.12 59.34 83.09 108.64 113.79 136.90 167.01 174.24 185.50 193.51 197.82 222.36 219.61 220.62 236.11 236.94 238.30 243.58 252.62 260.47 266.81 274.99 287.99 303.35 336.06 399.79 417.36 438.34 420.73 392.64 355.83 318.21 310.72 262.49 249.22 234.82 213.41 190.71 167.61 152.10 140.68 134.26 131.44 130.88 133.38 138.77 150.28 159.11 176.93 188.54 202.84 214.39 237.40 243.36 254.70 265.31 279.19 292.32 302.39 331.23 351.25 352.94 340.61 306.29 250.89 238.41 221.98 178.76 133.09 113.40 82.40 50.32 31.02 -509.42 -1553.62 -1653.05 -1706.79 -2044.92 -3316.37 -4711.62 -5309.23 -5509.47 -4995.93 -3369.32 -1742.00 -451.02 -250.02 -208.24 -246.78 -274.73 -343.80 -414.79 -674.68 -999.09 -1588.98 -2632.07 -3539.41 -3897.28 -4133.07 -4131.37 -4132.42 -4135.55 -4132.14 -4131.17 -4141.27 -4150.23 -4158.93 -4171.48 -4171.59
-4341.12 -4342.88 -4349.66 -4340.70 -4366.66 -4338.53 -4358.29 -4417.15 -4470.31 -4541.52 -4606.61 -4616.38 -4598.98 -4559.31 -4450.18 -4303.95 -4112.59 -3799.32 -3441.63 -2694.44 -562.44 -376.54 -335.45 -322.16 -304.10 -258.30 -218.10 -172.71 -144.39 -71.88 -12.26 -12.60 10.27 32.52 55.89 54.61 94.68 116.97 132.46 136.82 140.92 145.97 162.55 185.23 186.76 205.15 206.41 212.47 222.23 231.99 239.74 253.00 262.92 273.29 283.19 296.37 333.36 372.09 417.70 428.86 450.69 468.17 419.29 364.19 332.47 305.69 294.79 272.10 220.94 202.79 171.36 155.36 137.56 130.81 127.23 127.47 129.86 133.57 142.34 153.59 171.12 182.73 193.36 206.86 222.91 237.37 249.54 254.87 270.72 290.27 302.78 322.18 336.56 338.11 318.56 288.08 254.57 186.40 181.57 149.19 127.76 96.27 74.48 42.96 -378.26 -1227.20 -1629.04 -1597.34 -1597.66 -2133.39 -3302.28 -4902.53 -5410.51 -5461.43 -5246.69 -4170.24 -1176.30 -729.30 -293.05 -229.64 -253.37 -294.97 -364.12 -423.75 -653.43 -1086.52 -1523.15 -2558.43 -3427.66 -3690.80 -3938.29 -4144.45 -4144.75 -4146.15 -4144.66 -4143.74 -4152.91 -4167.29 -4173.09 -4184.68 -4184.71
-4471.07 -4471.20 -4459.32 -4455.40 -4464.49 -4477.08 -4513.10 -4556.74 -4652.99 -4687.82 -4674.70 -4661.56 -4639.17 -4629.38 -4530.50 -4279.30 -4065.75 -3680.25 -2942.36 -2044.80 -771.30 -420.53 -361.58 -340.02 -318.89 -281.94 -238.48 -198.70 -169.64 -84.34 -53.62 -45.81 -25.78 12.77 42.83 56.50 68.95 97.88 101.78 102.29 111.63 132.31 138.51 139.26 170.12 180.12 186.73 194.37 205.93 220.12 230.49 236.29 255.69 264.20 277.63 293.41 318.82 363.39 408.60 430.47 453.79 444.54 403.22 374.78 336.10 320.19 308.45 284.62 252.22 214.29 166.25 145.70 130.98 124.88 122.71 120.30 124.37 129.36 136.10 155.25 162.89 178.72 190.95 203.96 216.71 228.84 242.01 254.04 259.57 285.03 300.05 311.34 323.42 318.61 296.40 270.42 240.93 185.99 155.47 125.37 113.11 100.48 60.71 -103.37 -1056.61 -1678.70 -1582.82 -1503.70 -1573.57 -2338.32 -3213.21 -5256.24 -5413.46 -5574.92 -5403.31 -4220.02 -2365.33 -1257.19 -528.12 -306.07 -288.78 -301.54 -372.05 -461.92 -724.29 -1066.88 -1754.30 -2523.95 -3383.14 -3658.91 -4053.73 -4152.08 -4160.09 -4160.09 -4158.17 -4156.27 -4167.23 -4176.34 -4184.29 -4197.31 -4197.37
-4549.15 -4549.11 -4535.14 -4540.44 -4538.14 -4542.54 -4559.74 -4624.81 -4692.63 -4725.34 -4734.42 -4733.17 -4726.17 -4675.24 -4535.93 -4296.01 -4030.62 -3552.61 -2564.48 -2063.53 -1104.56 -671.94 -367.67 -355.39 -328.51 -296.02 -261.77 -227.07 -178.06 -119.37 -104.39 -77.17 -35.26 2.95 35.76 41.14 41.83 64.42 70.97 71.91 76.80 91.72 121.90 122.16 144.53 152.82 164.98 176.31 185.75 203.56 218.67 229.75 244.83 258.09 271.86 286.86 318.46 354.54 397.68 422.84 429.05 406.53 373.63 344.49 326.87 296.98 276.63 271.97 232.75 185.30 147.75 139.96 127.49 120.84 119.30 117.43 120.97 126.02 130.47 139.27 160.23 166.77 185.83 191.96 214.81 221.77 231.63 246.93 257.63 273.37 291.82 303.19 304.36 293.81 274.12 255.58 220.29 162.10 145.57 131.10 110.61 77.00 43.38 -431.49 -1109.47 -1570.83 -1483.36 -1456.79 -1655.16 -2604.85 -3801.06 -5142.33 -5538.09 -5583.05 -5480.39 -4762.93 -3503.98 -1991.13 -1458.04 -340.16 -348.93 -326.42 -362.07 -536.68 -728.47 -1251.93 -1996.35 -2859.21 -3400.76 -3834.51 -4100.43 -4180.44 -4176.51 -4173.72 -4171.63 -4175.86 -4182.41 -4190.15 -4199.85 -4210.22 -4210.29
-4573.83 -4573.76 -4570.75 -4573.86 -4571.69 -4568.46 -4606.75 -4651.66 -4702.33 -4754.44 -4764.62 -4762.89 -4744.39 -4678.20 -4601.80 -4315.44 -3980.88 -3638.32 -2724.27 -2138.98 -1375.16 -831.85 -543.87 -374.60 -346.07 -308.05 -294.62 -239.55 -227.75 -201.26 -158.04 -115.87 -43.01 -17.17 7.77 14.35 30.58 45.38 56.99 61.82 65.13 64.69 80.16 95.92 130.12 135.57 156.65 164.53 175.98 191.84 207.56 214.71 232.08 253.44 269.60 292.24 338.65 371.46 400.01 394.92 382.62 352.46 338.63 306.20 280.19 265.49 260.57 228.27 201.46 175.96 151.74 131.12 117.00 113.97 113.01 112.65 112.11 117.07 125.31 139.13 150.93 166.47 178.57 185.89 202.74 217.52 226.35 238.80 254.48 274.42 284.49 288.48 284.55 265.75 239.70 227.70 189.34 132.48 117.78 101.38 95.32 57.93 34.18 -519.45 -1208.12 -1539.85 -1437.87 -1441.48 -1614.87 -2793.94 -4136.72 -4966.36 -5553.42 -5602.35 -5603.51 -5387.15 -4804.65 -2973.22 -1938.08 -975.81 -388.51 -352.04 -424.77 -683.26 -1043.67 -1601.94 -2491.27 -3262.48 -3500.60 -3920.89 -4193.78 -4189.01 -4186.64 -4186.04 -4186.94 -4186.10 -4191.52 -4201.26 -4210.02 -4220.86 -4220.94
-4583.14 -4583.05 -4582.88 -4581.63 -4582.87 -4584.85 -4602.61 -4658.25 -4718.18 -4763.45 -4773.01 -4768.85 -4755.45 -4713.01 -4572.44 -4364.13 -4114.67 -3866.81 -3224.70 -2707.21 -1633.01 -1240.83 -977.59 -624.31 -465.23 -344.18 -298.16 -272.36 -246.20 -220.27 -186.26 -125.91 -69.29 -39.14 -21.53 -3.24 22.28 23.68 40.20 42.40 48.29 63.59 70.94 76.36 103.40 126.34 137.04 144.33 159.50 167.74 193.23 207.55 226.48 248.16 269.82 295.12 337.55 358.17 380.71 362.96 336.90 314.07 310.47 292.55 257.33 238.94 221.38 212.22 179.79 163.97 136.21 125.12 114.80 108.66 104.94 104.38 107.84 110.51 117.08 131.11 148.38 157.76 166.50 178.31 193.97 214.35 225.51 238.29 256.41 271.74 278.20 278.65 243.86 222.32 215.42 169.86 145.83 120.15 101.44 79.75 62.09 31.61 -179.40 -719.82 -1398.15 -1503.78 -1399.47 -1468.17 -1605.31 -2724.39 -4073.94 -5287.43 -5540.82 -5616.20 -5632.75 -5579.90 -5410.60 -4725.57 -3015.24 -1864.73 -606.71 -450.81 -497.39 -673.00 -1346.08 -2164.48 -2475.58 -3696.70 -3841.57 -3976.63 -4208.26 -4202.69 -4200.40 -4199.30 -4196.03 -4194.86 -4201.67 -4209.44 -4221.71 -4230.13 -4230.21
-4575.68 -4574.34 -4571.93 -4569.73 -4575.20 -4571.34 -4587.36 -4638.14 -4703.53 -4760.65 -4763.03 -4762.02 -4737.82 -4690.62 -4542.86 -4401.76 -4176.66 -3942.60 -3501.55 -3086.28 -2672.96 -2042.47 -1616.72 -961.34 -587.44 -549.65 -323.41 -294.76 -274.02 -246.95 -193.89 -167.92 -99.94 -86.10 -68.06 -30.70 5.44 11.40 18.15 31.64 32.64 39.31 53.92 66.67 76.73 93.47 131.37 130.18 142.76 157.03 172.57 203.55 212.08 250.91 265.38 312.28 357.98 362.85 354.21 336.66 301.92 296.64 277.82 262.55 243.88 215.62 203.17 182.28 175.69 161.81 134.58 125.17 111.16 103.31 99.03 99.24 103.51 108.42 116.77 123.57 136.90 150.98 164.26 179.97 188.61 199.50 234.40 248.87 264.55 270.08 267.73 251.79 219.55 209.70 177.65 135.81 122.38 93.25 66.13 37.00 26.62 21.02 -76.17 -732.48 -1293.25 -1444.19 -1412.22 -1501.07 -1750.96 -2844.72 -4430.19 -5222.55 -5555.89 -5615.22 -5643.67 -5650.50 -5491.18 -5150.49 -3673.45 -1919.18 -707.69 -483.33 -608.48 -883.27 -1319.24 -2030.29 -2678.68 -3588.34 -4079.30 -4221.32 -4215.64 -4212.52 -4208.04 -4206.51 -4205.05 -4209.64 -4215.34 -4219.32 -4228.44 -4237.34 -4237.41
-4521.69 -4521.54 -4520.74 -4527.78 -4518.28 -4525.71 -4529.55 -4608.67 -4662.05 -4681.30 -4684.41 -4692.15 -4699.75 -4667.54 -4567.71 -4499.94 -4403.27 -4280.12 -4018.76 -3798.13 -3145.22 -2443.82 -1998.38 -1520.37 -923.08 -654.99 -427.90 -321.14 -296.25 -269.40 -234.54 -202.50 -164.57 -121.90 -100.77 -83.94 -40.15 -3.19 3.72 14.18 18.36 23.11 30.96 53.01 71.99 75.57 103.61 117.60 124.63 142.56 162.52 186.47 201.61 237.33 266.06 310.56 362.90 364.04 338.12 305.01 293.49 278.25 261.01 229.77 220.88 207.04 192.17 163.49 156.11 147.29 132.21 123.31 106.61 97.53 94.85 93.64 97.74 103.58 110.06 119.67 130.72 141.05 153.45 178.00 189.25 202.80 245.73 263.93 271.30 271.56 262.88 235.61 197.71 160.27 150.02 120.96 101.95 76.26 46.10 20.81 -2.51 -235.95 -747.33 -1095.32 -1347.24 -1389.96 -1414.87 -1584.82 -2239.12 -3214.91 -4757.09 -5346.15 -5571.30 -5611.95 -5635.37 -5661.86 -5601.33 -5311.39 -3721.95 -2419.24 -795.99 -549.53 -688.71 -1111.10 -1553.49 -2351.69 -3158.51 -3612.78 -4191.48 -4228.50 -4225.33 -4223.55 -4221.34 -4218.84 -4217.15 -4217.58 -4219.98 -4227.36 -4234.00 -4246.00 -4246.08
-4439.91 -4437.92 -4450.33 -4458.11 -4465.69 -4470.49 -4480.43 -4508.67 -4573.65 -4623.34 -4626.08 -4621.25 -4609.64 -4597.83 -4574.61 -4549.73 -4495.34 -4453.99 -4338.25 -3932.80 -3742.12 -3045.23 -1963.79 -1587.93 -1212.35 -962.95 -679.68 -418.60 -334.76 -295.77 -259.02 -238.66 -174.93 -150.08 -140.72 -126.57 -80.00 -36.12 -30.34 -2.19 0.01 6.68 19.45 40.82 61.05 71.02 82.51 97.66 109.61 134.99 144.51 178.86 214.01 232.95 274.44 318.41 364.92 363.88 326.23 298.28 274.21 246.10 238.82 218.56 206.89 192.52 175.78 160.86 149.24 131.72 122.75 106.41 97.86 90.78 87.31 88.67 91.63 95.01 99.92 113.20 120.98 132.01 136.39 165.21 183.24 203.65 238.29 262.22 271.48 271.31 241.71 204.79 163.46 142.09 121.39 100.19 56.14 44.08 25.50 5.29 -205.05 -797.81 -1202.23 -1264.69 -1309.41 -1362.44 -1452.72 -1605.96 -2011.11 -3459.40 -5112.97 -5418.53 -5566.94 -5599.14 -5631.11 -5661.22 -5605.01 -5387.94 -3854.52 -2359.01 -962.74 -693.06 -810.88 -1148.70 -1819.34 -2591.29 -2831.11 -3575.69 -4108.96 -4228.56 -4236.42 -4233.56 -4229.19 -4225.47 -4225.40 -4224.75 -4226.40 -4237.89 -4244.38 -4253.77 -4253.84
-4399.35 -4399.27 -4409.97 -4410.40 -4402.93 -4404.79 -4433.00 -4462.80 -4535.55 -4573.75 -4583.78 -4578.12 -4567.76 -4574.29 -4584.02 -4606.97 -4615.60 -4611.85 -4548.43 -4348.40 -4080.24 -3236.36 -2327.62 -1711.10 -1195.81 -1084.30 -997.58 -864.71 -464.46 -481.47 -308.88 -289.14 -244.06 -214.24 -180.55 -164.42 -140.90 -98.41 -50.67 -10.30 -9.47 -9.48 -3.61 22.57 40.15 48.09 58.03 84.63 92.17 119.06 125.02 161.41 208.04 241.80 310.17 340.03 352.68 327.96 310.32 283.71 245.75 223.65 214.85 191.62 183.89 173.35 165.77 161.35 139.33 123.84 111.50 97.73 91.82 83.31 80.90 81.00 80.35 86.20 88.95 101.81 110.35 119.97 130.22 149.25 175.56 196.58 221.09 247.56 271.66 271.08 258.61 242.03 143.31 109.45 97.09 83.99 43.84 26.28 13.90 -410.84 -1065.78 -1195.67 -1294.86 -1332.82 -1352.03 -1367.69 -1453.23 -1519.32 -2494.54 -3729.26 -4957.23 -5567.88 -5575.72 -5589.38 -5617.24 -5642.55 -5590.41 -5221.67 -3436.84 -2056.12 -781.89 -633.65 -920.07 -1260.30 -1563.72 -2245.93 -3350.60 -3783.50 -4210.99 -4246.35 -4239.62 -4238.94 -4236.61 -4234.66 -4232.08 -4234.50 -4237.29 -4244.19 -4250.46 -4262.53 -4262.60
-4401.27 -4401.20 -4403.58 -4404.71 -4403.37 -4405.84 -4419.73 -4467.04 -4527.18 -4573.85 -4575.83 -4567.09 -4563.16 -4570.28 -4587.92 -4625.84 -4641.66 -4640.00 -4565.56 -4491.88 -4004.07 -3368.99 -2394.63 -1644.44 -1078.94 -997.67 -990.30 -1085.25 -1024.94 -1010.42 -791.82 -343.37 -320.19 -262.31 -222.12 -188.27 -184.18 -160.98 -126.73 -99.64 -50.39 -23.48 -14.39 -2.09 18.53 33.70 35.30 46.96 68.45 108.45 116.32 154.98 193.96 247.87 302.49 340.40 345.04 328.05 272.46 251.59 235.75 220.31 199.28 190.75 172.35 161.31 152.15 138.16 126.75 114.60 104.39 95.39 82.12 76.34 76.77 75.67 75.87 77.84 79.00 91.48 98.75 108.06 122.15 139.26 169.77 186.18 209.53 244.61 259.10 235.69 225.88 192.32 138.92 80.29 66.40 45.93 24.63 17.49 -229.70 -900.44 -1343.14 -1284.99 -1274.86 -1300.35 -1364.57 -1398.54 -1463.63 -1786.66 -2689.49 -3702.01 -4848.49 -5478.10 -5578.06 -5585.19 -5607.78 -5603.90 -5394.56 -4922.04 -2986.42 -1898.78 -587.63 -595.26 -876.69 -1442.12 -1858.98 -2289.61 -3215.95 -3885.56 -4241.12 -4254.57 -4250.40 -4245.88 -4243.66 -4239.99 -4241.14 -4240.96 -4244.75 -4254.31 -4260.98 -4268.58 -4269.23
-4419.54 -4419.49 -4418.58 -4424.63 -4427.26 -4428.87 -4441.69 -4486.16 -4548.87 -4581.11 -4587.24 -4582.18 -4577.82 -4580.26 -4616.34 -4652.65 -4667.87 -4653.62 -4588.43 -4446.04 -3867.13 -3451.26 -2414.46 -1626.11 -1236.01 -1258.39 -1460.95 -1329.09 -1364.38 -1524.51 -1301.05 -861.45 -377.09 -278.85 -275.46 -231.97 -220.23 -204.35 -187.16 -149.77 -83.48 -54.09 -36.08 -26.90 -21.04 -9.64 15.47 36.14 48.77 89.26 103.75 151.33 198.41 249.20 294.19 311.99 300.19 276.73 249.73 222.87 218.83 200.17 189.93 157.39 144.25 141.30 140.87 130.80 117.31 99.44 89.80 80.01 73.81 69.01 68.86 69.94 68.33 67.71 72.47 83.01 88.26 97.05 104.38 112.85 137.19 148.22 182.47 223.82 237.18 227.00 216.12 126.49 75.78 41.68 40.16 32.80 2.04 -200.26 -702.56 -1289.18 -1333.46 -1303.35 -1275.49 -1316.41 -1357.21 -1437.56 -1528.51 -1986.14 -3002.20 -4269.36 -4969.42 -5517.04 -5576.72 -5582.41 -5597.42 -5599.68 -5480.21 -4524.53 -2796.24 -1412.13 -666.55 -679.59 -1059.91 -1514.63 -2355.06 -3037.97 -3785.75 -4215.95 -4261.54 -4262.64 -4258.08 -4251.44 -4248.30 -4248.08 -4248.00 -4248.71 -4252.87 -4258.24 -4266.23 -4275.23 -4275.30
-4472.17 -4479.55 -4488.92 -4474.75 -4476.02 -4463.42 -4496.12 -4513.15 -4580.74 -4607.04 -4613.77 -4609.85 -4616.05 -4605.71 -4631.15 -4673.73 -4685.22 -4680.26 -4592.14 -4390.50 -3940.43 -3219.27 -2466.95 -1953.94 -1826.18 -1809.79 -1805.12 -1918.22 -2123.55 -2080.23 -2301.84 -2264.41 -797.14 -341.82 -298.86 -264.47 -253.19 -233.04 -209.50 -175.52 -116.66 -94.10 -67.12 -54.91 -31.72 -20.40 5.56 29.05 42.58 59.39 111.79 154.00 221.23 280.93 231.45 229.74 235.65 206.99 212.47 189.29 205.25 179.69 160.40 140.11 131.41 129.43 124.53 119.08 108.85 87.70 79.44 71.46 67.03 61.82 56.92 55.57 55.83 57.91 60.64 64.46 73.82 83.27 91.75 103.02 123.77 128.83 173.72 198.95 214.52 208.04 226.72 168.61 73.77 34.70 25.37 5.58 -180.82 -766.44 -1319.11 -1517.00 -1353.69 -1324.37 -1345.29 -1321.88 -1390.41 -1486.46 -1569.43 -2212.21 -2988.02 -4701.27 -5423.08 -5562.71 -5570.42 -5582.33 -5606.02 -5582.29 -5243.59 -4857.18 -2241.83 -787.19 -594.72 -813.92 -1046.37 -1595.72 -2505.44 -3550.78 -3929.79 -4256.87 -4269.46 -4267.12 -4261.98 -4260.73 -4257.98 -4253.96 -4254.57 -4255.38 -4257.74 -4262.65 -4270.89 -4278.97 -4279.04
-4607.05 -4607.09 -4586.68 -4570.71 -4594.26 -4660.82 -4613.57 -4602.48 -4644.56 -4656.58 -4660.03 -4654.63 -4656.39 -4652.08 -4669.97 -4704.68 -4717.83 -4693.56 -4658.26 -4466.45 -4125.88 -3393.91 -2841.35 -2530.28 -2396.58 -2509.64 -2603.02 -2724.84 -2757.07 -3064.23 -3148.09 -2885.34 -2088.72 -341.51 -316.41 -310.53 -287.57 -266.58 -251.41 -216.67 -215.39 -181.00 -137.10 -85.93 -60.29 -39.62 -5.36 19.99 31.46 62.02 107.23 153.14 228.39 233.43 214.83 166.69 176.87 173.13 154.95 146.61 147.77 174.41 155.96 123.94 111.70 113.28 105.12 108.94 87.50 75.32 69.78 59.72 54.16 53.37 52.36 50.05 48.52 49.51 53.96 57.19 61.19 65.42 75.11 81.42 89.87 116.25 145.69 155.87 182.80 194.74 170.43 103.43 66.36 8.25 -5.07 -12.89 -307.10 -939.89 -1613.91 -1506.54 -1374.26 -1356.21 -1393.27 -1398.03 -1492.58 -1643.35 -2065.34 -2879.97 -3854.52 -4976.04 -5498.60 -5536.56 -5569.02 -5589.82 -5603.41 -5509.66 -5212.63 -4007.15 -1812.76 -830.05 -596.26 -765.08 -1227.88 -1628.54 -2403.45 -3429.52 -3727.76 -4150.71 -4275.48 -4273.17 -4267.82 -4263.09 -4259.39 -4260.88 -4263.44 -4262.84 -4265.40 -4268.77 -4274.51 -4283.16 -4283.23
-4783.40 -4783.39 -4755.15 -4777.68 -4783.16 -4767.00 -4789.85 -4747.36 -4719.14 -4724.45 -4719.48 -4708.07 -4703.14 -4704.54 -4734.36 -4737.42 -4742.84 -4737.14 -4705.82 -4518.04 -4282.18 -3884.66 -3557.57 -3363.12 -3280.95 -3649.36 -3709.24 -3688.81 -3791.05 -3718.12 -3970.67 -4065.35 -3008.83 -1019.19 -341.60 -343.09 -316.07 -295.43 -283.65 -281.35 -263.21 -199.80 -162.53 -122.13 -100.99 -77.63 -39.22 -21.73 2.47 39.58 57.42 143.99 205.78 171.22 133.50 113.68 127.67 111.76 106.00 115.21 101.86 102.15 122.76 103.30 98.97 96.95 88.22 75.16 69.89 61.87 49.70 49.41 47.63 41.58 40.13 42.39 40.64 39.77 46.82 49.85 50.92 53.88 64.78 67.37 74.84 87.84 110.52 124.24 144.02 146.56 113.92 81.02 24.76 -14.31 -453.75 -210.04 -377.22 -1268.65 -1573.02 -1438.20 -1408.00 -1421.35 -1490.45 -1555.24 -1685.46 -2144.63 -2450.41 -3622.36 -4748.02 -5304.18 -5455.76 -5518.41 -5566.78 -5591.21 -5601.23 -5498.33 -5126.07 -3407.73 -1697.38 -787.17 -608.01 -738.51 -1230.20 -2115.16 -2641.88 -3325.61 -3888.10 -4153.64 -4278.37 -4279.77 -4276.53 -4274.19 -4265.65 -4264.81 -4267.57 -4270.01 -4270.36 -4274.56 -4278.23 -4287.09 -4287.16
-4880.64 -4880.58 -4861.54 -4872.60 -4862.89 -4879.29 -4865.09 -4803.18 -4788.22 -4760.13 -4751.13 -4741.88 -4742.77 -4748.43 -4753.69 -4769.66 -4766.89 -4766.53 -4733.73 -4692.35 -4605.63 -4258.60 -4091.89 -3954.85 -4002.91 -4064.13 -4145.21 -4113.75 -4255.26 -4245.75 -4335.87 -4437.36 -3849.22 -2935.15 -1660.16 -588.12 -355.15 -318.28 -318.65 -303.07 -286.15 -243.77 -196.42 -209.51 -156.50 -105.41 -71.68 -43.16 -19.55 13.97 57.89 117.11 130.74 86.23 74.37 70.42 88.28 71.58 82.64 74.37 79.57 81.80 85.68 87.29 79.10 72.34 70.30 65.57 57.04 47.42 44.75 43.87 39.74 29.88 33.34 34.39 31.81 32.15 30.94 36.73 39.40 38.89 44.64 44.45 53.96 62.93 78.95 90.95 90.80 93.81 80.42 29.75 2.67 -171.55 -824.98 -1268.03 -1273.98 -1457.45 -1492.02 -1443.49 -1499.88 -1712.25 -1741.54 -2213.46 -2500.57 -2763.55 -4076.96 -4540.01 -5146.95 -5420.76 -5511.72 -5530.94 -5573.55 -5592.20 -5597.58 -5467.36 -4588.10 -3796.18 -1867.28 -789.15 -727.00 -1087.52 -1473.73 -2336.18 -2857.85 -3463.02 -3882.48 -4154.57 -4283.31 -4284.57 -4280.42 -4276.28 -4269.92 -4270.35 -4274.54 -4273.28 -4276.65 -4279.16 -4281.35 -4290.14 -4290.21
-4902.45 -4902.39 -4902.43 -4905.61 -4904.60 -4909.95 -4902.93 -4846.53 -4818.22 -4778.40 -4772.66 -4769.57 -4764.47 -4770.08 -4781.15 -4798.12 -4799.82 -4798.77 -4793.20 -4749.96 -4725.03 -4644.46 -4453.09 -4407.54 -4398.10 -4429.99 -4424.27 -4465.91 -4438.89 -4439.51 -4465.79 -4505.96 -4352.29 -3912.66 -2169.85 -1454.07 -433.08 -394.54 -372.87 -344.95 -300.61 -279.75 -274.31 -272.43 -222.16 -174.41 -136.39 -83.55 -25.94 0.29 22.81 31.60 35.72 29.97 53.26 45.07 46.34 54.31 59.66 41.05 52.84 55.48 70.18 62.53 64.72 60.58 57.61 49.63 45.09 38.81 37.91 30.93 25.56 25.71 20.13 21.50 22.04 20.77 19.89 24.29 29.58 32.64 33.51 35.14 32.84 33.46 55.38 68.31 63.87 57.54 46.28 10.66 -12.03 -378.16 -1058.75 -1385.90 -1493.25 -1516.02 -1480.95 -1569.03 -1904.65 -2067.65 -2230.25 -2749.82 -3520.71 -4207.70 -4756.44 -5282.54 -5508.77 -5591.66 -5578.45 -5574.63 -5593.79 -5599.20 -5584.54 -5518.68 -4893.46 -2802.53 -1683.50 -678.69 -884.86 -1256.51 -1570.74 -2496.12 -3181.64 -3665.98 -4189.13 -4291.25 -4292.21 -4290.49 -4284.36 -4279.54 -4274.76 -4272.52 -4274.56 -4277.97 -4284.34 -4286.07 -4287.89 -4294.10 -4294.17
-4899.22 -4899.14 -4906.81 -4908.63 -4913.49 -4915.46 -4903.19 -4868.47 -4811.63 -4787.14 -4780.42 -4781.28 -4782.95 -4787.56 -4797.94 -4813.23 -4817.80 -4816.14 -4808.78 -4808.21 -4740.88 -4687.73 -4585.64 -4558.64 -4530.18 -4562.94 -4574.02 -4566.79 -4538.59 -4522.36 -4513.04 -4528.05 -4472.56 -4350.85 -3099.52 -2462.31 -1475.94 -919.50 -739.43 -444.26 -358.46 -338.75 -314.00 -303.61 -277.15 -223.94 -175.67 -144.06 -118.05 -75.07 -27.91 -6.98 4.74 13.25 18.99 19.61 27.79 22.19 26.83 29.18 31.02 33.89 49.87 50.34 46.64 46.42 37.18 37.94 30.10 28.68 21.64 17.72 17.26 12.83 12.21 9.25 15.58 16.03 10.82 11.25 15.54 21.34 24.45 20.94 23.29 24.20 25.35 42.60 34.97 25.75 -10.65 -60.17 -128.62 -401.37 -793.45 -1385.73 -1465.18 -1579.31 -1798.86 -2218.61 -3340.51 -3121.05 -3577.16 -4315.83 -4857.99 -5246.11 -5371.95 -5624.77 -5609.83 -5701.05 -5712.99 -5644.60 -5560.80 -5535.57 -5462.31 -5253.10 -4254.68 -2645.78 -1108.61 -720.13 -911.69 -1278.61 -1758.29 -2504.73 -3328.04 -3829.83 -4253.45 -4299.06 -4296.12 -4293.30 -4288.89 -4283.41 -4279.40 -4276.66 -4277.98 -4284.42 -4288.48 -4289.80 -4292.75 -4299.47 -4299.53
-4858.70 -4858.56 -4863.79 -4868.85 -4858.99 -4862.08 -4866.84 -4840.81 -4807.25 -4769.61 -4767.03 -4771.79 -4776.45 -4777.68 -4783.21 -4795.70 -4813.47 -4813.72 -4813.94 -4812.75 -4785.25 -4721.91 -4642.20 -4613.35 -4596.38 -4603.89 -4601.87 -4589.37 -4585.41 -4561.98 -4555.41 -4544.33 -4553.39 -4458.53 -4052.33 -3539.65 -2185.11 -1863.01 -1303.34 -505.26 -472.79 -380.76 -357.25 -337.80 -300.89 -274.87 -219.34 -200.05 -174.72 -129.16 -75.80 -45.82 -27.92 1.10 5.00 -8.15 4.25 7.36 16.45 14.88 18.38 19.25 25.51 30.79 29.56 27.99 24.97 24.06 24.45 16.42 13.18 9.41 7.55 0.12 -7.62 -1.14 5.42 2.53 -4.03 -0.69 7.33 10.36 9.48 10.89 11.17 11.15 16.94 -0.32 -2.39 -11.16 -114.35 -229.01 -321.68 -707.03 -1597.60 -1561.34 -1652.57 -2013.02 -2478.13 -3227.70 -4219.88 -4852.38 -5044.87 -5262.44 -5401.96 -5543.09 -5648.61 -5773.93 -5394.28 -5226.62 -5486.86 -5342.11 -5144.97 -4888.61 -4747.55 -4157.68 -3826.14 -2064.77 -925.29 -873.41 -1075.14 -1649.24 -2241.81 -2678.51 -3285.30 -3962.32 -4265.54 -4303.62 -4299.68 -4298.03 -4293.41 -4287.94 -4285.56 -4284.45 -4285.74 -4289.18 -4295.34 -4295.50 -4298.32 -4304.37 -4304.43
-4740.17 -4739.99 -4763.89 -4741.12 -4737.25 -4732.57 -4726.19 -4720.34 -4724.91 -4713.29 -4704.55 -4712.65 -4713.07 -4740.54 -4732.70 -4748.32 -4774.04 -4772.74 -4781.92 -4775.02 -4755.82 -4707.03 -4648.98 -4619.76 -4606.03 -4600.50 -4603.72 -4614.77 -4635.17 -4650.34 -4661.87 -4676.29 -4636.11 -4543.34 -4237.18 -3690.56 -2946.16 -1944.80 -1567.41 -1088.91 -978.08 -859.52 -507.06 -357.65 -338.06 -307.63 -260.82 -255.83 -214.64 -177.95 -161.36 -160.05 -97.22 -40.36 -53.52 -49.83 -42.33 -22.01 -4.33 -4.68 -0.41 -0.72 6.98 17.83 16.39 21.11 17.92 15.10 10.28 4.07 3.14 0.48 -3.16 -10.89 -13.63 -16.74 -16.81 -11.18 -8.99 -1.43 1.42 2.16 3.82 -0.73 -1.96 5.47 -35.51 -61.88 -85.14 -149.92 -238.67 -278.11 -323.19 -443.76 -965.28 -1790.32 -2241.67 -3147.00 -3802.16 -4980.92 -5221.48 -5384.94 -5590.34 -5678.81 -5783.61 -5875.03 -5869.63 -5945.34 -4621.27 -3309.10 -3176.75 -3622.26 -3512.53 -2342.29 -2378.57 -2340.81 -1769.10 -1120.25 -900.88 -906.39 -1231.31 -1876.86 -2340.46 -3028.40 -3540.37 -4103.37 -4255.44 -4289.43 -4300.20 -4300.88 -4299.45 -4296.67 -4294.94 -4291.02 -4293.20 -4295.42 -4301.43 -4303.73 -4303.95 -4310.10 -4310.16
-4592.00 -4585.47 -4599.09 -4621.22 -4642.24 -4627.36 -4632.95 -4640.66 -4628.69 -4622.94 -4643.50 -4639.12 -4651.81 -4639.51 -4668.85 -4686.13 -4713.70 -4705.92 -4715.24 -4714.23 -4698.96 -4674.65 -4632.18 -4609.57 -4600.25 -4596.95 -4600.22 -4620.72 -4677.66 -4744.01 -4740.04 -4757.57 -4734.00 -4676.77 -4454.85 -3879.33 -2991.77 -2209.94 -1528.98 -1286.29 -1185.19 -1040.62 -659.61 -457.24 -356.77 -325.06 -298.66 -297.26 -254.83 -234.83 -206.94 -220.96 -168.57 -122.34 -115.18 -141.95 -123.44 -74.62 -60.38 -23.54 -41.01 -20.35 -2.82 6.27 -5.32 -1.96 6.23 -0.16 1.03 -1.64 -14.07 -21.20 -22.21 -23.46 -25.84 -26.27 -25.82 -20.64 -18.28 -17.27 -13.67 -10.77 -11.65 -32.49 -46.17 -55.84 -103.88 -119.38 -174.16 -197.00 -223.83 -280.55 -400.22 -1034.33 -1781.77 -2646.75 -3418.43 -4061.69 -5013.28 -5172.45 -5673.88 -5708.59 -5846.21 -6037.31 -5280.76 -4688.07 -4777.68 -3134.89 -1803.26 -377.65 -334.43 -549.33 24.37 15.64 -377.59 -1263.16 -1069.86 -970.95 -944.64 -1092.75 -1454.83 -2232.20 -2742.42 -3288.72 -3665.51 -4040.11 -4226.82 -4286.99 -4304.81 -4305.53 -4307.86 -4303.23 -4300.58 -4300.14 -4304.27 -4303.62 -4304.94 -4309.09 -4311.88 -4315.97 -4316.21
-4523.08 -4523.01 -4542.91 -4544.47 -4539.34 -4555.78 -4556.32 -4565.23 -4578.19 -4590.31 -4600.74 -4602.16 -4604.37 -4613.89 -4641.33 -4669.63 -4689.42 -4695.59 -4696.75 -4697.87 -4683.92 -4670.22 -4639.65 -4616.06 -4609.57 -4601.77 -4609.32 -4636.21 -4708.27 -4792.78 -4806.16 -4811.07 -4816.57 -4764.38 -4518.96 -3940.02 -3383.12 -2362.82 -1539.00 -1170.81 -1079.01 -1047.51 -920.02 -498.53 -387.03 -363.19 -346.65 -332.37 -303.76 -299.79 -276.72 -245.94 -224.52 -196.09 -205.57 -204.14 -174.52 -125.72 -130.66 -154.54 -128.27 -90.91 -51.85 -30.29 -52.53 -85.25 -59.01 -15.69 -24.05 -33.56 -43.47 -42.73 -40.21 -42.67 -43.72 -44.96 -43.59 -42.49 -37.46 -37.07 -35.52 -46.53 -61.34 -78.73 -87.21 -108.52 -133.54 -140.29 -162.31 -188.85 -228.41 -274.54 -660.24 -1397.38 -2998.83 -3832.23 -4816.80 -5191.84 -5582.94 -5603.68 -5803.93 -6049.06 -6182.24 -5094.34 -2841.56 -1905.72 -2822.54 -1574.41 17.71 29.75 37.73 40.02 30.49 26.79 16.37 -221.49 -767.39 -1058.90 -1190.42 -1380.76 -1981.34 -2409.85 -3160.22 -3679.41 -3892.99 -4155.33 -4246.49 -4289.16 -4314.91 -4316.94 -4313.64 -4310.10 -4307.51 -4306.21 -4308.88 -4314.32 -4315.51 -4317.37 -4319.36 -4322.79 -4322.85
-4525.15 -4525.10 -4530.06 -4535.23 -4543.66 -4543.35 -4552.67 -4568.28 -4584.89 -4600.00 -4600.02 -4605.04 -4609.50 -4626.11 -4646.88 -4675.29 -4688.02 -4701.45 -4705.44 -4708.92 -4699.20 -4679.09 -4649.96 -4635.53 -4630.22 -4620.23 -4623.61 -4655.67 -4750.33 -4825.99 -4835.91 -4835.31 -4832.94 -4813.54 -4656.47 -4129.24 -3471.25 -2832.52 -1707.57 -1322.79 -1036.46 -1011.28 -907.45 -584.03 -409.72 -386.63 -376.89 -353.88 -347.45 -351.35 -330.03 -298.59 -278.62 -239.29 -242.52 -227.40 -208.00 -202.77 -173.02 -179.50 -172.56 -130.38 -123.44 -123.04 -118.82 -129.36 -94.75 -72.84 -77.48 -72.68 -86.33 -81.93 -79.28 -77.11 -70.40 -68.95 -63.50 -56.17 -68.97 -69.11 -68.43 -74.31 -90.89 -100.47 -116.96 -129.71 -131.94 -134.72 -152.28 -191.07 -215.63 -284.70 -724.07 -1599.34 -2585.69 -4686.28 -5660.10 -5565.49 -5268.28 -5301.09 -5483.03 -4787.03 -3462.31 -1559.55 -513.72 -91.80 6.11 15.73 26.47 42.05 49.06 46.71 37.60 30.29 22.73 8.81 -108.52 -943.56 -1410.07 -1819.64 -2186.17 -2779.18 -3251.03 -3782.73 -4068.57 -4227.91 -4299.37 -4323.93 -4325.15 -4321.20 -4322.29 -4320.97 -4320.22 -4319.15 -4321.19 -4324.27 -4324.57 -4324.41 -4325.22 -4329.91 -4329.97
-4553.43 -4553.40 -4550.97 -4562.79 -4558.31 -4579.69 -4573.18 -4594.90 -4598.75 -4610.32 -4616.22 -4622.04 -4630.10 -4644.79 -4663.13 -4691.55 -4710.68 -4720.56 -4723.39 -4729.54 -4718.59 -4704.43 -4681.23 -4661.33 -4654.94 -4655.11 -4655.03 -4684.18 -4748.57 -4798.40 -4856.85 -4858.66 -4858.49 -4856.22 -4651.56 -4480.92 -3687.26 -3022.39 -2032.31 -1379.96 -1155.76 -1008.33 -955.08 -657.03 -432.63 -415.60 -394.69 -391.97 -388.64 -380.01 -348.44 -338.54 -319.04 -284.20 -278.08 -262.01 -262.95 -249.81 -230.80 -236.02 -201.60 -179.18 -174.34 -156.77 -143.67 -138.49 -120.21 -115.61 -110.68 -109.87 -113.89 -112.33 -110.27 -108.60 -103.70 -108.05 -101.40 -94.68 -101.01 -98.75 -93.08 -98.45 -103.54 -114.84 -121.45 -124.96 -125.85 -126.78 -138.39 -158.38 -181.75 -229.69 -382.82 -682.74 -1048.75 -2304.25 -4216.72 -2809.81 -3115.37 -1723.02 -2291.58 -1533.29 -253.48 31.77 33.47 47.38 45.12 42.16 51.05 49.10 48.22 45.02 37.83 29.74 25.00 10.95 -351.27 -1102.55 -1748.37 -2086.64 -2605.13 -2880.15 -3405.40 -3999.00 -4165.88 -4226.43 -4289.02 -4322.92 -4330.57 -4332.73 -4333.97 -4328.61 -4329.84 -4332.31 -4333.43 -4338.90 -4335.82 -4335.98 -4338.47 -4337.72 -4337.77
-4624.07 -4635.26 -4637.38 -4631.86 -4641.72 -4635.66 -4634.33 -4627.69 -4632.18 -4625.27 -4628.21 -4632.86 -4639.35 -4648.65 -4673.74 -4690.47 -4713.06 -4723.14 -4727.47 -4730.89 -4735.99 -4729.97 -4721.39 -4734.07 -4731.78 -4720.63 -4715.37 -4751.99 -4787.66 -4863.96 -4872.11 -4872.15 -4871.19 -4870.67 -4811.63 -4551.47 -4167.24 -2986.22 -2640.33 -1994.25 -1392.13 -1101.15 -927.92 -842.27 -584.78 -537.81 -449.24 -428.08 -462.06 -400.72 -408.74 -383.68 -380.76 -346.07 -317.47 -290.07 -312.24 -302.44 -298.24 -277.27 -253.64 -230.90 -203.60 -191.76 -187.91 -173.54 -156.63 -143.47 -133.61 -125.65 -134.28 -138.27 -140.59 -131.34 -138.63 -134.96 -127.47 -115.92 -119.23 -115.58 -108.58 -118.42 -118.03 -118.56 -113.98 -111.75 -114.94 -104.85 -96.18 -108.61 -141.99 -194.40 -234.74 -262.87 -414.29 -402.55 -1952.59 -218.21 -115.88 -23.86 38.60 67.64 71.61 69.75 70.56 75.63 70.47 66.02 55.95 50.93 44.19 39.49 34.27 26.23 21.04 10.15 -369.13 -1552.46 -2286.14 -2643.03 -2932.44 -3146.61 -3496.30 -3937.04 -4231.09 -4263.79 -4306.37 -4329.05 -4338.64 -4340.05 -4342.98 -4343.38 -4345.57 -4348.56 -4343.42 -4352.46 -4350.62 -4343.42 -4343.69 -4345.59 -4345.65
-4771.85 -4771.93 -4826.75 -4772.97 -4824.88 -4793.03 -4802.22 -4723.72 -4680.63 -4639.82 -4632.86 -4633.65 -4643.17 -4649.72 -4665.04 -4687.07 -4693.46 -4701.23 -4712.54 -4719.61 -4732.33 -4776.40 -4801.32 -4809.21 -4776.74 -4792.29 -4793.66 -4824.80 -4854.80 -4890.01 -4899.77 -4897.01 -4897.13 -4879.16 -4823.08 -4557.13 -4321.56 -3767.22 -2807.97 -2317.20 -1817.77 -1454.15 -1186.54 -933.00 -1105.88 -729.06 -882.35 -884.26 -709.50 -710.40 -623.59 -633.00 -404.26 -384.94 -371.34 -390.26 -357.84 -334.81 -318.51 -287.04 -280.51 -259.94 -246.95 -237.36 -227.41 -208.68 -187.59 -173.71 -169.94 -168.35 -154.41 -167.94 -161.74 -161.54 -160.78 -158.31 -152.96 -149.44 -137.69 -140.41 -134.86 -124.71 -118.28 -113.33 -105.68 -98.78 -92.52 -66.89 -57.10 -65.29 -93.44 -86.49 -94.16 -126.39 -182.74 -176.41 -221.34 -83.88 -20.64 30.36 88.30 91.15 110.11 120.80 115.83 95.52 83.71 76.39 57.87 50.72 39.53 33.72 30.08 21.16 15.96 -13.60 -708.88 -2352.36 -2670.51 -3046.85 -3425.70 -3604.14 -3858.63 -4150.59 -4251.59 -4307.15 -4315.12 -4327.21 -4348.05 -4348.84 -4361.26 -4362.06 -4362.84 -4359.60 -4364.73 -4368.35 -4363.05 -4354.79 -4352.95 -4352.70 -4352.76
-4942.64 -4954.07 -4964.33 -4963.71 -4969.33 -4966.93 -4916.02 -4842.51 -4749.78 -4656.78 -4639.25 -4637.68 -4645.60 -4651.70 -4663.33 -4670.05 -4681.60 -4687.22 -4690.69 -4701.04 -4728.13 -4787.44 -4845.21 -4910.88 -4926.10 -4911.38 -4908.01 -4905.43 -4911.75 -4922.81 -4927.88 -4922.46 -4915.78 -4914.69 -4850.72 -4761.52 -4468.11 -3996.06 -3729.88 -2925.19 -2215.60 -1937.03 -1699.62 -1591.84 -1339.75 -1275.28 -1143.38 -1093.44 -1058.99 -976.51 -993.87 -996.76 -561.72 -443.61 -510.82 -484.92 -455.44 -375.00 -342.80 -302.83 -282.67 -263.31 -254.85 -240.13 -230.92 -225.34 -213.02 -200.86 -199.68 -195.41 -187.03 -177.97 -176.07 -167.64 -164.95 -163.94 -162.54 -156.74 -150.51 -145.48 -135.75 -125.89 -119.69 -100.10 -85.18 -65.06 -60.59 -22.80 -19.41 -30.51 -32.18 -41.51 -40.92 -67.09 -70.70 -66.83 -71.60 -14.85 48.48 93.89 175.13 152.02 174.38 164.88 137.67 122.05 100.06 84.78 65.80 48.86 28.84 23.45 18.38 13.05 -0.28 -30.56 -1242.28 -2608.85 -3129.37 -3480.66 -3527.44 -3773.95 -4051.21 -4162.24 -4270.08 -4305.63 -4329.70 -4337.84 -4362.64 -4375.03 -4378.45 -4374.00 -4376.90 -4374.64 -4372.70 -4378.91 -4374.57 -4365.69 -4361.01 -4358.32 -4358.38
-5042.60 -5048.02 -5046.94 -5056.32 -5062.43 -5069.07 -5037.71 -4897.92 -4792.60 -4671.50 -4654.67 -4658.42 -4657.79 -4667.70 -4666.46 -4677.42 -4686.75 -4693.37 -4695.75 -4704.70 -4737.11 -4840.34 -4913.13 -4972.20 -4987.24 -4991.01 -4968.17 -4964.51 -4949.44 -4958.71 -4956.29 -4948.98 -4946.86 -4931.01 -4901.88 -4759.17 -4621.61 -4268.67 -3985.02 -3662.42 -3060.17 -2981.13 -2533.16 -2263.95 -2107.97 -1538.34 -1440.48 -1281.50 -1165.58 -1049.36 -989.23 -998.73 -842.23 -975.50 -878.48 -608.42 -516.07 -415.36 -338.77 -311.00 -291.83 -268.76 -257.61 -239.24 -229.87 -223.24 -213.21 -206.63 -201.78 -196.94 -188.13 -181.64 -177.82 -173.56 -164.37 -160.33 -159.77 -156.69 -151.40 -145.44 -126.47 -118.67 -114.81 -81.67 -50.51 -46.40 -30.72 -19.96 -13.84 -12.68 -9.84 -6.20 -7.35 -17.70 -16.53 6.94 50.43 105.42 56.95 137.00 277.93 266.63 240.47 205.36 173.34 124.92 97.92 84.71 62.42 50.85 21.91 12.03 -0.52 -21.64 -29.13 -56.58 -279.36 -2364.89 -2950.75 -3386.27 -3679.57 -3918.46 -4017.58 -4206.33 -4268.41 -4320.97 -4352.22 -4374.80 -4389.56 -4388.76 -4395.13 -4393.19 -4397.59 -4392.36 -4386.38 -4390.09 -4380.78 -4369.69 -4368.07 -4362.68 -4362.74
-5085.78 -5085.74 -5093.34 -5092.63 -5097.93 -5098.73 -5067.01 -4954.77 -4831.24 -4704.59 -4691.68 -4691.31 -4707.49 -4702.51 -4718.55 -4713.20 -4713.81 -4716.04 -4731.69 -4735.83 -4770.84 -4863.07 -4940.61 -5016.26 -5023.75 -5008.94 -4991.13 -4988.78 -4978.64 -4983.52 -4968.65 -4960.65 -4948.19 -4941.77 -4913.46 -4835.80 -4749.54 -4632.05 -4407.12 -4216.63 -4144.29 -3552.01 -3451.98 -3301.21 -2664.52 -2184.64 -1778.49 -1542.48 -1230.87 -1153.25 -991.04 -975.20 -967.47 -980.45 -939.47 -684.41 -612.96 -452.09 -370.63 -332.22 -305.12 -276.53 -255.38 -238.74 -228.53 -221.87 -212.39 -208.17 -200.84 -194.24 -188.03 -183.59 -178.72 -174.50 -160.39 -155.87 -151.18 -153.29 -148.34 -138.11 -125.29 -100.54 -84.60 -63.84 -36.60 -26.97 -20.80 -13.78 -9.66 1.24 0.24 27.11 42.20 52.00 40.38 90.46 125.90 186.79 168.68 287.22 390.68 340.29 263.21 201.73 177.43 144.55 110.68 75.88 60.53 36.01 9.71 -10.01 -30.14 -34.52 -53.32 -694.91 -1410.75 -2358.79 -3232.29 -3488.25 -3853.90 -4079.14 -4183.75 -4218.45 -4285.02 -4330.18 -4359.86 -4390.68 -4400.72 -4410.56 -4408.08 -4408.24 -4410.33 -4409.91 -4405.79 -4396.20 -4387.85 -4376.78 -4373.59 -4364.40 -4364.46
-5111.22 -5111.17 -5117.12 -5123.50 -5134.25 -5134.90 -5083.33 -4980.44 -4842.35 -4746.37 -4735.97 -4742.02 -4726.49 -4731.09 -4756.37 -4754.99 -4755.66 -4767.08 -4763.88 -4784.22 -4821.67 -4920.55 -5007.83 -5040.58 -5054.52 -5022.39 -5014.51 -5012.67 -5000.88 -4993.84 -4987.43 -4976.49 -4971.31 -4965.00 -4952.58 -4838.57 -4782.09 -4708.44 -4608.69 -4530.51 -4326.54 -4250.28 -4161.81 -3893.42 -3482.07 -2802.64 -2205.53 -1991.04 -1614.83 -1391.56 -1088.64 -971.80 -969.32 -964.74 -972.42 -867.32 -722.06 -582.72 -412.81 -375.91 -300.66 -276.40 -250.21 -241.27 -228.30 -221.65 -212.94 -205.21 -200.57 -195.08 -190.46 -183.11 -178.22 -168.85 -160.48 -134.90 -131.40 -135.68 -133.23 -129.06 -102.46 -77.53 -51.43 -27.18 -23.00 -14.42 -16.23 19.15 25.47 27.69 31.00 46.93 61.79 71.08 78.05 146.28 200.18 368.84 323.71 413.30 433.18 299.60 243.47 209.69 184.24 128.40 102.96 87.68 62.74 36.73 14.32 -25.00 -51.12 -71.86 -254.07 -1031.77 -1973.66 -2503.07 -3291.85 -3574.36 -3876.19 -4159.46 -4237.46 -4274.15 -4312.37 -4334.88 -4376.79 -4404.23 -4417.60 -4424.54 -4427.12 -4422.80 -4421.08 -4421.61 -4413.51 -4405.36 -4391.72 -4381.75 -4370.91 -4362.92 -4361.82
-5096.13 -5096.01 -5079.98 -5077.78 -5110.30 -5119.57 -5070.56 -5020.53 -4919.88 -4826.87 -4794.32 -4799.57 -4814.40 -4848.16 -4864.16 -4861.03 -4886.00 -4865.13 -4881.36 -4862.10 -4894.29 -4946.29 -5023.72 -5061.44 -5070.70 -5055.06 -5049.98 -5056.69 -5032.88 -5019.02 -5015.39 -5008.36 -4992.94 -4986.53 -4974.47 -4910.59 -4869.99 -4812.30 -4801.00 -4762.50 -4733.73 -4703.25 -4667.66 -4437.65 -4308.30 -3551.39 -3072.71 -2558.90 -2071.86 -1700.45 -1333.70 -1029.14 -1111.44 -974.38 -988.68 -1031.93 -874.90 -732.47 -612.71 -421.05 -336.41 -278.67 -255.43 -240.15 -228.00 -218.63 -213.87 -205.13 -197.38 -194.41 -190.54 -181.40 -172.15 -157.50 -156.47 -127.44 -117.21 -115.97 -109.19 -95.92 -72.40 -39.03 -28.39 -14.84 -9.46 -8.67 16.99 36.40 50.71 59.87 80.03 102.06 131.43 118.17 126.77 199.86 274.06 480.18 569.47 460.30 329.85 246.46 211.78 174.56 141.51 125.40 109.56 83.45 57.71 30.20 -10.03 -51.34 -104.74 -308.38 -607.16 -1731.35 -2145.04 -2687.22 -2998.21 -3639.45 -3928.99 -4126.52 -4250.05 -4310.24 -4329.02 -4352.68 -4402.19 -4416.00 -4433.43 -4435.41 -4438.20 -4437.17 -4431.01 -4429.62 -4419.00 -4405.89 -4387.16 -4379.06 -4368.19 -4353.52 -4353.59
-5004.30 -4993.49 -5004.20 -5008.03 -5023.96 -5018.28 -5015.37 -4999.83 -4938.08 -4907.83 -4942.46 -4948.53 -4947.60 -4938.37 -4959.90 -4973.67 -5003.22 -4986.46 -4982.02 -5009.16 -5034.90 -5044.58 -5053.58 -5049.92 -5060.42 -5054.59 -5050.87 -5057.41 -5051.25 -5042.78 -5036.05 -5034.40 -5010.64 -5004.24 -4987.42 -4990.90 -4943.99 -4934.14 -4872.50 -4870.11 -4858.73 -4846.82 -4809.75 -4708.85 -4405.41 -4177.77 -3564.03 -3223.84 -2752.64 -2470.38 -2095.22 -2022.09 -1893.43 -1598.47 -1411.37 -1436.98 -1231.53 -1130.07 -767.50 -554.08 -363.78 -303.75 -269.07 -239.67 -226.15 -219.55 -213.65 -203.98 -199.69 -187.34 -179.58 -177.33 -163.26 -144.58 -140.71 -124.65 -96.16 -92.60 -76.07 -67.50 -53.30 -33.38 -19.21 -10.86 -6.52 15.35 32.54 39.58 77.87 81.50 112.77 139.03 160.52 164.99 172.90 324.27 356.32 556.62 608.95 415.74 258.10 219.41 181.25 120.05 116.49 114.78 96.34 75.95 35.30 20.97 -45.73 -110.00 -308.65 -575.45 -1024.73 -1900.66 -2507.98 -2946.33 -3087.58 -3618.28 -4038.36 -4205.83 -4287.89 -4318.04 -4341.28 -4377.68 -4412.39 -4430.12 -4439.81 -4444.73 -4446.97 -4445.59 -4440.77 -4426.22 -4417.41 -4403.37 -4384.47 -4370.83 -4359.44 -4340.06 -4340.14
-4896.26 -4883.97 -4924.35 -4930.70 -4930.88 -4930.67 -4941.31 -4960.88 -5012.27 -5027.50 -5036.97 -5033.08 -5052.05 -5047.60 -5084.31 -5145.11 -5175.69 -5166.09 -5168.42 -5198.38 -5125.62 -5135.01 -5076.86 -5050.88 -5044.49 -5032.80 -5031.84 -5044.61 -5074.69 -5078.92 -5079.85 -5060.99 -5053.01 -5025.39 -5000.91 -4995.06 -4966.51 -4951.97 -4934.34 -4920.68 -4895.24 -4868.36 -4846.93 -4769.46 -4702.27 -4489.68 -4370.81 -4072.98 -3627.30 -3422.21 -3075.42 -2798.32 -2609.84 -2753.96 -2003.28 -1968.17 -1545.99 -1475.86 -941.36 -614.89 -476.93 -351.67 -285.64 -246.16 -224.76 -218.34 -207.89 -203.13 -198.54 -186.33 -164.75 -159.76 -145.90 -121.57 -106.98 -92.22 -78.67 -72.06 -63.97 -54.22 -38.83 -25.12 -18.67 -6.28 24.36 43.69 60.52 97.72 125.20 145.29 146.57 185.33 175.41 249.86 269.14 384.69 523.09 621.98 476.13 310.53 240.38 208.23 165.81 119.44 111.12 107.63 77.72 50.24 38.06 -1.68 -51.76 -302.58 -610.97 -951.83 -1464.01 -2062.91 -2674.01 -2943.95 -3399.57 -3774.64 -4077.10 -4241.42 -4307.10 -4328.95 -4353.87 -4380.31 -4425.71 -4442.36 -4445.09 -4451.21 -4452.67 -4449.92 -4437.03 -4423.71 -4407.44 -4392.42 -4375.10 -4351.42 -4342.16 -4318.16 -4321.84
-4866.10 -4866.03 -4873.45 -4891.80 -4900.40 -4911.41 -4939.36 -4982.67 -5051.82 -5088.77 -5100.50 -5119.49 -5128.66 -5131.08 -5202.77 -5215.96 -5254.60 -5267.43 -5249.57 -5251.20 -5250.66 -5176.06 -5127.95 -5063.41 -5054.40 -5049.37 -5049.82 -5068.91 -5091.84 -5094.88 -5086.85 -5068.64 -5073.46 -5068.97 -5041.02 -5021.32 -4998.63 -4974.24 -4952.42 -4947.62 -4925.77 -4904.33 -4876.70 -4824.77 -4781.58 -4668.11 -4609.46 -4511.17 -4217.72 -4222.81 -4106.43 -3886.23 -3764.42 -3476.50 -2871.56 -2361.94 -1884.22 -1475.89 -1172.09 -870.90 -554.61 -411.82 -291.88 -246.63 -222.15 -216.58 -208.43 -201.97 -190.78 -179.49 -139.39 -130.41 -126.94 -112.20 -86.39 -73.56 -55.72 -55.46 -44.46 -34.35 -27.03 -19.47 -11.98 12.38 52.67 82.61 100.36 138.64 154.11 161.00 192.83 228.98 265.08 318.03 337.85 498.66 677.92 597.88 417.62 296.57 256.22 201.06 165.01 119.78 86.27 91.02 69.85 35.35 12.14 -43.08 -134.28 -372.19 -765.00 -1448.95 -1654.37 -2189.75 -2727.75 -2982.44 -3404.46 -3754.22 -3985.60 -4250.36 -4323.10 -4343.74 -4368.53 -4398.42 -4422.91 -4451.02 -4457.32 -4457.22 -4450.05 -4442.51 -4431.43 -4417.68 -4395.56 -4380.84 -4356.40 -4340.37 -4320.28 -4301.69 -4295.54
-4897.80 -4897.71 -4916.79 -4924.10 -4916.28 -4954.98 -4981.50 -5034.11 -5094.59 -5145.39 -5160.53 -5176.20 -5181.82 -5198.78 -5239.42 -5280.66 -5327.78 -5328.23 -5316.18 -5321.74 -5303.45 -5235.82 -5161.28 -5126.68 -5111.17 -5096.71 -5105.86 -5108.88 -5142.99 -5132.63 -5124.31 -5128.70 -5119.34 -5100.71 -5071.88 -5055.84 -5022.68 -5019.07 -5001.60 -4977.10 -4970.08 -4938.25 -4901.81 -4828.25 -4781.26 -4663.78 -4602.75 -4526.91 -4438.29 -4357.35 -4249.18 -4187.21 -4030.65 -3827.55 -2949.91 -2574.53 -2033.86 -1751.96 -1577.20 -1190.35 -624.77 -440.46 -348.95 -258.79 -221.75 -210.59 -196.55 -167.09 -149.80 -125.45 -96.30 -70.14 -84.94 -92.70 -66.60 -52.03 -46.05 -37.06 -33.30 -27.63 -21.83 -13.15 26.84 47.32 86.41 89.66 118.84 154.53 159.53 236.55 275.98 325.95 466.60 719.54 654.38 813.12 685.86 545.68 381.83 274.82 248.74 186.15 143.96 115.08 56.88 60.50 36.71 9.11 -3.22 -59.43 -164.44 -787.58 -1213.93 -1581.98 -1817.75 -2089.90 -3032.81 -3330.65 -3736.49 -3954.97 -4209.81 -4270.14 -4335.99 -4360.04 -4383.52 -4412.33 -4434.53 -4450.63 -4459.33 -4455.83 -4441.51 -4432.22 -4416.14 -4400.05 -4376.68 -4357.77 -4341.44 -4311.47 -4298.72 -4272.55 -4269.37
-4947.29 -4947.19 -4974.68 -4957.49 -4977.52 -5001.93 -5027.85 -5079.77 -5149.11 -5190.16 -5233.41 -5248.00 -5224.98 -5259.64 -5282.92 -5328.48 -5347.29 -5359.06 -5364.96 -5357.37 -5338.28 -5272.52 -5218.96 -5167.77 -5176.67 -5178.69 -5188.13 -5183.47 -5158.86 -5176.02 -5169.54 -5168.17 -5164.56 -5145.80 -5119.13 -5090.46 -5066.91 -5052.48 -5029.29 -5016.26 -4998.66 -4963.55 -4924.64 -4874.86 -4789.31 -4720.27 -4652.03 -4593.53 -4467.35 -4402.59 -4282.24 -4163.14 -4069.27 -3800.70 -3403.71 -2930.24 -2435.08 -2017.90 -1836.32 -1382.36 -690.70 -580.10 -391.81 -295.09 -238.04 -200.61 -175.32 -147.21 -66.86 -39.69 -47.80 -52.40 -41.91 -45.85 -32.47 -40.16 -34.46 -33.35 -27.45 -20.02 -15.37 -10.54 39.47 95.02 119.12 131.48 140.83 261.19 303.44 571.90 653.60 826.06 1035.85 1603.29 1618.99 1322.39 890.53 799.70 553.28 335.27 228.15 163.06 128.47 98.53 51.81 37.44 6.00 -7.33 -29.17 -133.49 -431.77 -1368.49 -1387.48 -1785.90 -2088.53 -2394.07 -3105.75 -3708.89 -3843.71 -4204.19 -4325.11 -4339.40 -4364.56 -4373.64 -4387.96 -4430.51 -4442.03 -4450.53 -4448.29 -4442.78 -4425.36 -4413.61 -4401.85 -4387.39 -4358.07 -4335.85 -4317.02 -4289.66 -4272.89 -4250.25 -4241.15
-5023.74 -5015.46 -5033.86 -5043.04 -5030.77 -5050.23 -5078.68 -5159.50 -5217.77 -5281.30 -5304.95 -5308.67 -5316.70 -5341.90 -5338.31 -5351.03 -5352.55 -5355.52 -5360.27 -5359.80 -5335.51 -5331.98 -5289.52 -5259.57 -5243.28 -5258.67 -5253.46 -5226.05 -5200.93 -5204.45 -5208.49 -5195.47 -5190.71 -5167.43 -5148.33 -5121.50 -5104.99 -5080.99 -5059.56 -5050.95 -5028.99 -4995.88 -4969.85 -4897.61 -4847.09 -4761.37 -4726.33 -4611.50 -4481.28 -4354.16 -4278.35 -4129.21 -3996.99 -3782.24 -3635.15 -3199.58 -2619.40 -2220.38 -2020.86 -1525.93 -1209.12 -860.82 -497.17 -320.49 -273.49 -219.61 -138.09 -82.92 -10.48 2.89 -1.75 -2.83 -11.75 -17.96 -16.99 -22.02 -24.84 -23.80 -15.22 -12.04 10.26 17.92 75.43 104.99 156.91 201.13 341.54 521.07 945.00 1231.35 1424.79 1925.08 1834.35 1962.06 1724.85 1103.50 1053.55 849.51 521.46 268.37 156.51 122.19 107.58 74.87 33.70 28.43 0.09 -159.75 -301.89 -519.36 -1336.50 -1827.58 -1940.65 -2343.68 -2432.40 -2879.53 -3345.75 -3795.72 -4031.34 -4193.90 -4342.90 -4362.49 -4376.73 -4385.03 -4403.93 -4426.15 -4442.26 -4445.39 -4436.80 -4426.31 -4412.86 -4399.60 -4379.78 -4362.07 -4336.98 -4314.61 -4286.06 -4264.84 -4251.92 -4212.36 -4212.40
-5130.29 -5119.64 -5134.76 -5149.00 -5160.52 -5162.93 -5224.17 -5286.87 -5358.86 -5418.31 -5402.70 -5426.32 -5439.48 -5413.96 -5385.53 -5319.42 -5311.84 -5297.97 -5292.74 -5295.50 -5301.76 -5340.10 -5352.02 -5306.42 -5300.59 -5305.49 -5280.36 -5259.30 -5262.74 -5234.84 -5235.17 -5237.51 -5223.19 -5208.14 -5173.08 -5153.69 -5135.00 -5109.47 -5087.29 -5068.31 -5052.26 -5039.30 -5005.32 -4955.87 -4924.25 -4860.60 -4747.87 -4663.19 -4548.32 -4437.08 -4300.64 -4115.19 -3939.96 -3782.74 -3576.89 -3232.91 -2728.51 -2408.45 -1965.70 -1770.19 -1458.00 -805.82 -467.67 -379.62 -340.31 -276.29 -170.90 -84.90 13.96 11.81 12.42 53.37 54.43 22.18 4.69 -12.66 -9.02 -9.94 20.82 34.17 62.12 65.70 165.02 159.31 158.23 204.72 757.86 1040.14 1724.53 2170.59 2263.39 2028.29 1671.97 1007.46 1127.71 884.29 888.30 461.51 290.18 202.36 134.35 98.96 41.82 -14.41 -16.14 -32.36 -157.28 -257.72 -1155.90 -1425.53 -1859.10 -2285.20 -2562.46 -2657.77 -3107.42 -3529.95 -3851.88 -4165.46 -4244.82 -4285.04 -4351.30 -4369.48 -4384.24 -4393.41 -4407.48 -4429.05 -4438.11 -4432.46 -4423.46 -4407.75 -4395.37 -4377.03 -4361.75 -4331.75 -4311.19 -4286.92 -4257.78 -4235.77 -4213.48 -4184.54 -4184.58
-5222.27 -5217.15 -5227.41 -5241.28 -5239.17 -5280.75 -5296.99 -5347.86 -5448.40 -5513.75 -5549.79 -5551.35 -5541.19 -5501.77 -5406.26 -5288.84 -5259.15 -5225.02 -5219.08 -5224.23 -5262.99 -5351.18 -5386.95 -5355.49 -5321.02 -5315.94 -5304.36 -5294.36 -5284.00 -5262.22 -5256.70 -5250.21 -5242.36 -5233.13 -5207.21 -5163.11 -5135.91 -5099.81 -5084.49 -5084.25 -5072.17 -5056.05 -5035.47 -4986.08 -4943.82 -4861.39 -4766.64 -4684.59 -4639.35 -4474.19 -4317.50 -4089.34 -3913.21 -3732.01 -3557.81 -3346.23 -3002.14 -2533.38 -2114.56 -1941.90 -1552.15 -1095.70 -921.99 -745.38 -547.64 -480.03 -214.58 -7.74 45.28 60.29 65.47 92.18 90.40 70.22 55.26 65.39 37.95 34.55 68.56 76.82 105.65 434.71 543.91 358.19 562.34 956.12 1430.41 1645.52 1996.23 2062.51 1704.34 1344.83 993.70 670.31 491.36 568.66 492.04 376.82 178.10 126.88 74.92 68.02 -0.37 -58.61 -74.71 -174.80 -328.01 -972.07 -2115.49 -2001.14 -2265.01 -2832.66 -3175.66 -3205.68 -3358.77 -3685.50 -3999.46 -4219.59 -4295.13 -4335.03 -4358.62 -4367.44 -4379.01 -4393.27 -4401.07 -4425.40 -4427.78 -4419.56 -4405.24 -4389.26 -4366.20 -4355.73 -4335.38 -4307.68 -4288.60 -4260.69 -4235.84 -4213.46 -4186.71 -4158.84 -4158.88
-5273.24 -5273.15 -5289.80 -5295.73 -5301.40 -5319.69 -5349.34 -5385.49 -5527.73 -5563.21 -5579.03 -5588.74 -5578.00 -5543.66 -5456.33 -5286.48 -5219.45 -5203.66 -5201.48 -5208.19 -5258.46 -5365.31 -5367.64 -5342.27 -5330.32 -5323.52 -5317.34 -5308.53 -5298.98 -5280.51 -5268.92 -5263.58 -5257.64 -5237.04 -5225.00 -5200.64 -5144.79 -5089.85 -5078.56 -5086.78 -5089.87 -5073.20 -5039.06 -5000.64 -4949.64 -4890.11 -4843.10 -4749.06 -4651.70 -4470.39 -4217.83 -4005.65 -3841.02 -3648.76 -3431.11 -3318.16 -3087.14 -2594.26 -2347.42 -2052.95 -1810.10 -1441.16 -1206.78 -1073.40 -741.52 -526.28 -171.82 31.47 78.70 103.56 103.61 113.86 118.19 110.03 182.72 164.51 135.82 185.24 332.62 404.22 642.31 1258.38 1495.76 1340.21 1196.42 1051.73 807.54 1149.29 1277.47 1226.52 721.27 666.66 603.31 525.80 385.62 207.09 230.99 204.45 129.70 87.65 30.75 -11.44 -53.89 -88.93 -243.33 -528.28 -1390.03 -2308.62 -2404.17 -2609.27 -2770.01 -2894.55 -3428.69 -3695.44 -3849.35 -3976.21 -4195.65 -4313.87 -4343.08 -4357.76 -4366.99 -4373.21 -4375.22 -4389.84 -4397.75 -4411.34 -4408.03 -4407.71 -4383.07 -4369.59 -4347.01 -4328.98 -4313.42 -4285.54 -4266.13 -4241.66 -4222.84 -4190.00 -4158.61 -4136.41 -4136.46
-5299.59 -5299.51 -5311.68 -5318.05 -5323.47 -5338.06 -5369.05 -5426.93 -5528.53 -5583.56 -5600.34 -5607.80 -5601.86 -5560.68 -5435.34 -5292.26 -5234.68 -5207.37 -5203.80 -5211.00 -5296.58 -5352.79 -5347.58 -5352.54 -5343.66 -5335.67 -5325.50 -5315.43 -5304.93 -5285.06 -5274.59 -5267.85 -5252.93 -5238.38 -5228.99 -5204.72 -5171.94 -5097.73 -5098.08 -5091.64 -5104.12 -5093.59 -5063.18 -5015.85 -4982.01 -4948.51 -4896.21 -4860.39 -4765.46 -4472.28 -4071.91 -3637.96 -3496.47 -3554.19 -3317.50 -3220.12 -3095.77 -2701.86 -2432.54 -2106.03 -1968.43 -1669.25 -1432.59 -1065.27 -664.19 -222.34 -32.41 43.60 107.84 139.54 151.68 268.02 431.76 582.00 509.97 611.93 492.17 752.67 1059.82 1085.60 1294.50 1475.13 1638.60 1315.33 711.54 693.57 562.87 605.49 704.20 833.31 709.39 518.27 380.07 402.45 353.71 234.15 113.60 90.70 110.53 46.86 -28.96 -49.37 -139.93 -375.55 -480.96 -1312.25 -2884.28 -3240.59 -3056.11 -3309.50 -3440.12 -3428.47 -3613.68 -3989.60 -4107.71 -4222.64 -4324.99 -4338.88 -4358.58 -4366.13 -4374.92 -4378.77 -4379.70 -4379.47 -4389.27 -4394.56 -4395.22 -4384.05 -4364.42 -4353.05 -4316.57 -4305.17 -4293.54 -4270.41 -4247.19 -4223.55 -4197.31 -4166.62 -4146.86 -4124.04 -4118.13
-5311.40 -5311.33 -5317.51 -5324.68 -5331.11 -5344.88 -5363.78 -5424.63 -5510.65 -5579.18 -5590.46 -5597.80 -5583.08 -5552.19 -5430.84 -5293.76 -5247.10 -5229.48 -5227.69 -5230.13 -5292.92 -5348.55 -5354.55 -5357.19 -5350.04 -5338.05 -5332.15 -5320.00 -5303.30 -5290.37 -5278.25 -5270.32 -5243.06 -5226.63 -5226.14 -5205.99 -5201.45 -5193.41 -5117.74 -5113.12 -5111.49 -5098.16 -5080.77 -5052.98 -5016.15 -4981.08 -4940.62 -4889.32 -4693.51 -3950.59 -3170.73 -2698.20 -2680.99 -2894.76 -3080.68 -3094.39 -2968.50 -2840.60 -2694.97 -2345.95 -2065.07 -1754.48 -1688.46 -1241.20 -211.27 -72.53 -11.63 70.90 144.12 215.46 224.24 567.75 1031.21 1474.50 1482.17 1745.32 2076.44 1900.72 2041.67 1795.94 1601.71 1417.99 1350.37 689.52 515.80 436.91 404.70 541.15 601.25 629.37 625.30 625.93 371.81 218.08 219.97 119.26 43.40 17.00 19.89 -45.11 -103.57 -218.81 -222.10 -813.79 -1336.30 -2214.50 -3367.63 -3707.56 -3666.84 -3799.74 -3777.25 -3830.37 -4043.73 -4202.00 -4291.59 -4325.12 -4355.65 -4358.64 -4365.17 -4368.68 -4375.06 -4383.93 -4385.46 -4385.97 -4381.98 -4379.40 -4375.04 -4362.95 -4355.57 -4334.04 -4321.90 -4301.77 -4280.65 -4256.82 -4233.60 -4205.16 -4185.82 -4144.96 -4129.50 -4104.15 -4104.20
-5293.28 -5297.40 -5303.45 -5308.67 -5313.16 -5322.51 -5340.52 -5395.63 -5462.63 -5502.26 -5526.27 -5511.24 -5522.21 -5483.30 -5402.76 -5342.51 -5274.08 -5265.52 -5287.77 -5287.34 -5344.40 -5389.46 -5375.42 -5361.24 -5350.65 -5340.17 -5329.96 -5319.85 -5304.94 -5292.16 -5279.76 -5267.80 -5251.75 -5242.36 -5244.48 -5227.25 -5205.90 -5201.60 -5159.80 -5136.47 -5116.04 -5106.29 -5090.46 -5063.57 -5028.60 -4996.07 -4947.19 -4911.95 -4273.75 -3476.42 -2574.20 -2164.26 -2073.08 -2178.17 -2462.45 -2885.90 -2976.82 -2939.75 -2714.80 -2571.96 -2223.68 -1888.26 -1579.69 -880.49 -205.82 -52.99 30.62 62.53 182.77 274.01 479.63 1068.67 1567.46 1802.42 1837.28 1809.31 1947.54 1781.65 1764.51 1528.08 974.47 831.96 480.10 478.76 487.99 472.21 382.74 572.02 466.88 459.24 462.94 385.56 140.67 152.43 151.41 88.71 51.93 -7.44 -23.87 -72.38 -179.15 -344.97 -624.69 -1656.12 -2938.54 -3531.51 -3909.93 -4004.31 -3958.09 -4066.37 -4134.02 -4176.45 -4281.47 -4302.75 -4339.71 -4344.31 -4359.89 -4366.73 -4371.89 -4375.80 -4380.32 -4384.08 -4385.84 -4382.24 -4376.31 -4372.09 -4364.03 -4353.05 -4341.94 -4331.27 -4318.00 -4290.27 -4264.88 -4247.11 -4220.13 -4194.43 -4175.90 -4141.88 -4121.86 -4095.17 -4095.23
