492.55320 522.20878 526.16931 504.30141 477.55265 466.01932 468.27993 497.59207 489.46337 459.07423 449.60100 418.64262 430.77472 470.28204 473.20558 458.81300 447.82516 437.20244 433.28533 402.01629 384.41124 337.45320 262.24283 194.60459 172.44205 115.82007 128.14285 86.60230 79.57650 56.13031 122.17079 172.28769 195.20849 232.18698 287.01052 315.25298 330.72663 288.60766 234.77470 187.04146 170.77110 113.81266 53.07300 40.20805 53.92277 33.05909 31.28752 11.17475 22.35774 18.79607 26.23341 55.74397 51.63414 34.89483 54.57041 56.80108 29.96305 0.01675 2.87092 8.03671 50.87409 93.71421 111.72583 127.00997 139.93799 176.10741 200.06853 195.88671 168.45853 147.97710 112.93537 104.72717 66.09376 53.99160 43.03469 35.56038 27.82525 27.20258 30.77814 26.00690 11.03049 0.63616 -11.48820 -13.23896 13.62070 24.45890 23.68901 20.53993 11.97917 41.11205 66.73811 76.14965 85.33453 88.43843 102.42919 120.61417 131.04763 124.96106 119.16955 93.50085 88.27924 75.85142 73.16576 101.81512 116.97587 150.86472 175.35510 181.70436 190.00041 167.54929 160.34153 200.93048 220.36701 230.63834 234.69238 206.29786 151.22405 147.44618 134.64640 126.00930 91.07416 87.89051 103.95082 119.26752 112.95771 104.27684 93.56644 94.91178 87.74952 82.42001 111.86285 128.45684 143.49726 135.67506 125.89448 112.45672 71.12794 59.95732 42.12830 32.13299 15.66389 12.87762 -0.07553 -5.55500 -2.04936 -6.22021 -11.99819 -13.60741 -21.45482 -22.77782 -16.59688 -4.64920 3.60077 14.16451 15.43575 18.31578 18.73140 12.87169 34.86928 34.19535 45.36034 89.76781 107.66795 155.23732 203.67213 253.76736 249.64202 227.39123 238.41015 261.85473 254.91315 194.50175 135.69063 77.19170 75.35684 48.30754 82.25517 93.20336 142.42878 149.14899 164.49590 213.99341 221.40050 311.60656 363.69771 448.09294 473.86881 517.66513 568.10440 560.94380 553.60562 519.29396 506.84664 495.81186 517.09595 520.32783 515.82540 524.38841 536.12302 560.32411 572.97966 574.55783 590.61409 584.34957 591.28768 555.06414 561.39557 569.89352 551.81469 541.76854 533.40710 546.92265 541.96176 538.32924 511.23079 516.58332 525.61858 514.71329 512.46484 500.37379 500.99338 492.33549 484.13924 484.95165 506.18329 529.73219 531.48785 519.64687 476.83249 444.89697 434.17650 390.01172 361.72393 374.39686 401.76746 430.78797 441.44659 464.90180 471.73203 453.40647 418.36859 414.63770 363.95787 445.00052 439.62834 437.74186 434.59718 453.18455 433.06756 427.75892 394.35112 365.79013 325.62623 255.28188 204.12990 154.95896 134.93567 101.41667 93.41816 78.48792 74.36233 90.38882 110.02349 122.27539 124.54325 119.78452 108.37777 101.78080 80.02920 77.70330 67.10076 65.95028 48.08078 43.78353 42.87165 44.48711 55.40757 51.76565 45.44569 27.62615 14.64823 2.95989 -1.39505 -8.15711 -13.17198 -19.55155 -21.21628 -25.99069 -26.14536 -31.32213 -34.22945
525.34429 525.27364 527.80500 488.99505 457.97751 450.37325 466.42137 475.19850 471.16351 452.55433 419.36068 406.99590 425.25464 466.62548 469.44594 453.74852 440.45351 418.63084 405.84977 388.98568 385.56470 333.89065 261.04254 260.58849 188.51221 164.11798 105.40992 67.99843 56.41662 40.65177 132.22779 188.04926 199.99310 203.94660 280.28840 302.15597 317.99592 301.06043 270.23828 227.14912 205.24453 140.20909 112.77637 94.76395 69.79749 53.67894 22.62541 12.35302 30.34333 44.37893 70.37722 99.42016 103.74314 96.59879 77.98854 80.28230 40.67997 14.53581 6.39435 9.85119 36.54973 66.65479 103.97251 98.51621 124.07816 135.34510 165.07978 165.73781 158.64515 109.87859 92.38267 78.96951 57.66254 41.25925 25.93138 16.94143 18.93672 11.33027 10.90887 4.56181 -0.89743 -13.40795 -10.41023 -4.16526 14.20218 17.43333 6.04106 12.87041 28.02550 35.74919 62.16523 74.88048 75.90526 105.29619 116.21845 124.32875 119.49136 117.47270 113.04394 94.59893 57.61518 59.22074 71.24003 90.06384 124.50281 159.69557 168.30303 177.34918 165.47395 142.59129 138.93679 164.57945 189.21731 222.89328 217.84585 202.79667 148.41397 116.28018 119.21256 102.64997 82.33832 69.85305 77.17150 86.91189 102.67273 88.66325 62.89242 63.84453 72.89098 74.27875 81.07995 114.32547 133.86645 125.74890 115.00086 103.76726 82.38275 73.06615 57.83295 38.08605 34.80095 21.36116 5.97913 -17.13254 -15.29754 -15.19370 -16.48805 -23.04045 -29.55013 -31.11895 -19.70221 -4.23514 5.76133 12.42348 28.90634 36.57025 43.18696 54.07465 54.73515 78.58746 69.86182 75.18142 120.91164 163.77459 200.19295 251.84878 265.72083 255.32091 271.71831 282.77597 263.11745 247.47129 184.35434 143.48418 111.25274 87.26754 66.18890 81.86156 84.20948 95.53548 131.30440 165.21227 204.03206 220.65904 316.10082 340.50638 426.74562 530.48489 535.69944 535.27062 533.88272 532.54534 531.95102 531.00156 524.66844 527.19720 526.84723 532.38565 551.74813 566.81981 579.94852 602.11656 615.43742 626.15791 606.68395 601.95290 585.29186 550.87924 525.08416 498.43558 457.36909 505.91244 503.45689 503.17947 488.27258 492.62376 502.59399 512.98913 499.03766 486.92923 445.75104 433.98223 448.46511 450.88413 498.95085 521.31204 524.84415 516.56647 487.17304 450.85740 439.72107 425.97547 423.72629 417.80625 439.82228 444.13230 464.61983 463.75246 424.11461 359.98220 324.88669 335.64821 311.70211 340.59023 352.68911 400.88859 411.34560 409.39720 388.07181 379.12014 374.07924 346.10536 332.03518 322.33830 259.72422 199.82603 182.56702 145.41350 107.50814 104.83752 100.62369 115.91204 121.18426 122.87073 118.50211 113.58182 108.66643 82.18609 67.18682 52.26784 47.84299 43.37733 32.22426 12.51120 12.36749 31.22319 25.43038 35.40319 32.58581 21.77365 8.33544 -3.61729 -1.21666 -4.64267 -8.17412 -15.46353 -20.51902 -20.78553 -23.71945 -27.13078 -28.00480
520.74816 509.71437 503.12913 476.12407 441.25215 425.89006 439.47445 460.99706 471.91634 442.94403 418.75999 370.12403 415.16160 438.44920 445.47022 430.94175 401.71952 384.20164 363.20857 373.68010 368.41401 338.30298 318.24675 270.34880 248.69381 162.26670 134.88540 101.89509 38.74734 45.49179 78.31095 164.35899 144.09375 159.97545 202.67993 270.73715 295.65020 302.23946 289.48651 276.51030 220.67328 198.84761 131.21199 112.58054 114.19425 93.51217 61.52352 54.48362 57.66136 84.15067 117.05154 124.83271 127.32612 122.95053 117.50353 94.25552 22.32440 -0.45052 16.42912 19.45076 15.72034 54.23326 67.50172 98.16657 120.65855 136.48076 149.26402 152.42534 125.33330 99.69531 71.08355 70.86007 51.54202 45.78870 27.63609 16.05894 5.53776 3.64750 -2.65482 0.35501 -12.26938 -9.15790 -9.50854 3.98573 22.02392 26.38485 15.96874 4.64189 14.42070 27.20003 58.96669 68.64818 76.71833 105.18148 120.33695 120.82784 106.63684 96.18588 99.02428 66.34083 53.36243 53.96997 79.33604 96.35323 127.55475 137.42824 148.03055 149.64358 140.88906 139.12221 131.85107 164.98010 187.98242 204.78815 206.03122 191.23588 149.44022 119.92305 114.18259 89.28827 59.39974 45.05508 47.37516 67.89664 76.40356 56.43113 45.00566 38.44275 33.91985 44.66963 62.61928 73.42507 100.94187 99.70549 88.34513 91.72520 68.54073 60.34464 56.38200 48.23537 33.02146 15.92053 10.84666 -5.10955 -17.98561 -22.73100 -26.63807 -32.26839 -29.98434 -30.43333 -18.68248 -6.61744 9.38705 27.70617 44.30986 42.04650 65.34142 94.06844 98.39936 108.59959 122.53871 115.07695 131.95984 190.14452 193.94893 247.60756 287.38103 298.38363 303.23626 312.32671 270.95831 247.01705 216.37842 193.54636 174.75164 142.76697 120.91495 47.21858 64.85265 80.72723 122.77548 154.79459 172.06673 213.44688 286.72076 336.54972 437.51433 459.39102 517.99610 533.88080 530.74216 530.62208 523.82204 522.05006 523.27330 496.18845 508.31526 520.96163 548.97541 555.26795 564.55738 595.69918 628.34986 638.01362 630.20442 613.33745 564.95597 530.48864 443.30632 435.23623 424.79912 429.22355 421.89138 434.79109 438.90297 475.00938 460.15082 424.79024 410.99602 411.16944 379.39648 375.67235 408.43397 448.08326 492.97676 501.22220 502.78405 503.50434 498.12626 464.99718 439.26162 432.11328 480.95413 491.86402 467.24200 492.37145 471.28737 458.49090 392.08206 332.39882 277.80179 251.25345 239.00150 295.15915 322.64802 351.13431 360.91551 364.42300 367.84233 329.39282 323.36354 313.68554 342.45627 303.69813 285.95489 257.50272 254.69718 196.25717 153.39701 149.51043 139.77817 137.65079 131.16061 107.79058 114.83273 111.76598 108.34876 86.75533 58.22214 43.33791 47.21139 42.93671 27.43672 17.13067 -1.95050 0.42475 11.20906 13.54222 8.84485 4.54928 -1.87447 -8.61198 -10.46646 -9.69572 -8.56566 -17.23098 -16.55560 -21.56561 -23.45650 -26.10042 -26.63156
513.07372 484.11159 470.02573 455.58269 419.02912 400.75974 416.78694 446.66873 464.06024 439.17380 413.17241 369.83256 401.56301 408.44050 421.64113 406.60283 387.06358 337.03240 323.12437 318.88024 358.51572 332.37819 332.13181 302.06573 218.80526 169.89658 164.66650 127.92475 73.83814 32.62234 46.19794 102.41530 101.52829 126.03622 172.00890 234.39514 274.29955 301.20470 301.33610 281.01466 265.63500 208.99787 144.08140 161.67175 158.24845 134.53032 98.55420 64.10662 102.66536 131.49132 140.41876 162.85154 161.27830 141.56401 105.07063 61.05972 39.82110 2.67849 4.92655 20.82020 36.50227 51.91327 105.36142 111.54914 133.52593 147.28915 146.57352 129.48502 119.61861 70.28904 44.45274 38.92309 41.32593 51.71914 35.25700 26.85101 9.78834 3.76663 -4.95137 -13.23226 -16.29346 -19.65452 -3.54759 13.14134 20.36768 22.94142 8.86754 -3.69516 2.69656 15.89157 57.03209 60.81095 76.82173 107.55884 114.13741 107.22110 87.89496 67.99270 59.04868 43.51186 37.19750 49.45300 82.17504 102.97568 110.49922 125.90065 120.88226 118.54875 106.72966 100.46854 80.76142 107.72158 141.86639 177.82796 198.44994 192.46431 178.48695 146.96313 118.85599 85.93150 40.33615 26.89211 31.78285 40.31296 45.79585 54.65107 43.07241 30.29091 26.39857 24.73319 36.07722 42.01185 63.33728 65.37238 60.23747 52.15597 46.61243 51.92080 47.29474 26.00414 14.51191 10.61813 4.06254 -3.18740 -13.74364 -22.67997 -32.09888 -33.32211 -31.90855 -27.26603 -19.86901 -9.37217 13.40338 25.78262 57.10007 51.74392 72.52972 102.21509 120.08616 122.86077 140.33042 185.58231 207.69779 218.70381 213.21489 251.57566 289.17099 291.27552 322.26736 352.14256 317.88820 296.87352 243.35362 204.17058 206.19980 179.59428 122.91783 91.49528 94.55743 78.02722 108.93367 139.24709 188.36757 274.12652 312.33168 405.53124 436.38815 481.93539 516.41340 529.01203 525.43124 526.46223 505.33193 513.80624 496.86214 477.91487 469.36743 493.24508 525.80426 526.26422 547.01252 565.41326 602.03229 622.57369 631.50433 617.95195 573.75223 521.25430 445.32943 375.19463 347.89260 367.29048 352.10416 392.31154 411.98500 414.02990 402.94344 393.12608 361.10857 347.76587 300.66943 324.21756 390.51724 428.39986 478.00108 478.32731 486.54091 458.83577 449.59637 425.03676 426.25912 423.64704 490.78755 524.00531 518.90512 508.09132 455.74687 434.59927 382.50786 288.29940 234.90478 204.84840 223.53695 258.21916 301.76444 307.11392 333.78338 310.90031 300.06095 305.94111 276.23472 276.23125 286.48925 290.30854 272.29826 266.92873 233.55590 209.86431 173.84443 161.69106 143.56853 137.63749 117.48386 103.34103 92.41056 100.27238 104.22388 92.50389 68.03971 37.41149 33.29068 37.59255 29.89270 11.17204 -2.74373 -12.40170 -13.08192 -1.70253 -5.01438 -13.74404 -22.83474 -19.44206 -20.11685 -13.57813 -15.10786 -18.96324 -21.85498 -27.47058 -27.02592 -28.40762 -27.20332
492.69866 459.48006 443.41811 416.91718 380.71237 383.99176 421.73027 432.37471 451.81651 434.57548 418.19306 373.11870 348.12682 365.33187 376.42388 392.08330 376.88554 314.58053 287.60124 282.05784 276.15563 309.38843 295.83001 268.54710 202.05686 177.30441 134.22093 131.95942 93.18250 40.99932 36.20330 33.05838 62.53944 109.96232 162.54111 228.35469 255.33217 293.66669 286.85628 283.22184 256.19550 219.10510 198.87927 211.99760 210.73129 202.88018 127.52766 131.74734 142.20041 141.05012 144.61535 158.42534 156.06190 141.66323 99.61197 77.61011 15.89136 -3.81157 2.18100 19.48006 47.01605 73.65188 110.89076 127.08745 146.30523 147.77313 146.42226 124.53322 88.46681 63.98832 46.21488 27.19801 34.04493 33.41130 41.85395 35.99758 26.11891 8.37637 2.93691 -11.41540 -21.51354 -15.23402 -0.34611 4.07774 8.85250 0.71441 -6.75586 -4.81336 1.24378 29.24469 53.29714 55.98502 68.32034 93.48417 105.54038 91.17949 82.94757 51.40692 29.07290 26.16224 30.69582 56.13727 82.27278 104.72997 102.36591 103.38547 90.48231 77.33326 61.04077 60.24285 75.43769 87.23071 124.22739 158.04174 191.32142 199.16273 186.25384 153.31571 116.95865 64.02848 48.89604 29.64914 24.28705 15.23702 23.35931 36.91428 36.75475 31.91951 17.59141 17.82873 19.34733 40.59819 45.84873 57.28570 24.00697 20.88730 36.90071 36.52446 33.75675 17.70512 0.08032 -5.73419 -3.40748 -3.79854 -18.56474 -25.42495 -33.47861 -33.00891 -31.98246 -26.84613 -18.94490 -11.89454 1.97676 30.49851 41.67765 63.42129 96.47288 112.24450 133.25479 155.61392 173.02945 196.47776 210.02727 213.72428 235.47583 266.58046 274.85703 299.53635 343.21691 361.39681 377.57890 331.33500 308.28490 258.61617 225.37375 177.46599 171.70555 129.71908 119.78031 116.30643 89.91294 140.52483 206.69041 289.85272 332.56482 423.84037 443.05080 476.16706 491.08887 513.08959 522.07525 505.46708 490.26865 486.37835 472.63932 449.82388 460.59148 472.73774 505.64802 525.60922 548.42532 558.52402 584.47163 611.76477 630.41187 626.28483 584.38700 541.98850 452.14630 345.86318 325.19462 330.10383 331.44332 325.19205 362.08548 391.03188 378.84572 350.86883 326.04742 286.34920 282.99916 327.96037 364.56669 432.64145 451.55381 453.39594 438.76368 419.84477 406.72346 354.05493 392.53959 447.95773 491.78812 571.45162 529.47099 503.75115 454.87883 428.50880 349.05505 302.04652 221.11399 169.49578 166.30606 228.29324 256.10967 298.26465 312.81083 285.65163 251.44436 220.67542 181.15714 214.60030 205.11014 248.43669 229.98562 249.51157 228.75886 221.25500 162.70120 130.09979 124.68093 109.87980 106.14453 65.20929 67.37988 82.90196 88.22137 74.14761 45.12989 30.63548 16.44278 21.66606 24.96121 12.77420 -6.91096 -15.85169 -18.49122 -15.84940 -14.66159 -16.38634 -28.82360 -30.30224 -27.97169 -22.05377 -20.10034 -27.35696 -34.56580 -31.26709 -38.11435 -35.22130 -35.51046
441.96010 425.45268 383.44298 356.76623 352.54005 387.52005 435.40261 449.91494 453.72557 422.28442 389.10563 369.50552 319.52980 305.88376 325.86976 343.86439 367.54216 306.18145 245.66109 203.63684 211.11194 256.25433 275.58790 271.29861 212.29588 165.90651 118.44548 110.84063 80.84343 5.13414 6.67495 22.35144 71.45075 118.77943 159.25350 211.04922 240.75749 261.10781 266.83491 271.34475 264.18067 259.65899 227.60092 245.25006 239.51106 228.94985 200.37703 187.55301 163.44421 130.26745 125.28421 117.72251 134.04306 130.91790 87.17565 54.80216 16.15386 -0.87391 0.49803 25.67838 51.72067 65.48365 112.92351 124.85451 139.66875 147.00525 138.47231 119.17771 105.35550 67.43098 39.42011 20.07492 12.00296 15.61533 24.12451 27.63311 24.74542 16.46016 1.49281 -11.46740 -19.38795 -14.10614 -4.65213 -2.58109 -11.39086 -13.35944 -6.22446 -0.45000 23.69136 38.99786 52.92843 62.10571 83.49667 97.47512 97.66603 91.21670 71.20958 43.16890 20.16875 24.01074 36.00244 61.96261 87.44925 96.21960 86.98303 66.88712 56.05192 49.03260 51.49394 49.15424 73.00570 88.76511 124.26443 141.23623 193.54904 208.40585 168.74331 142.57251 96.83502 72.59982 66.16462 43.45225 24.99199 14.46182 13.27958 25.49098 29.87372 27.84303 18.16371 1.64236 -0.60865 22.93113 30.87110 24.16472 13.51262 14.35016 20.17116 18.10585 14.50057 8.23307 -10.11730 -16.20232 -19.88192 -19.75704 -26.26237 -28.80032 -34.46386 -32.74209 -25.14196 -24.45930 -21.33030 -12.33553 13.33311 38.28388 55.48369 59.91253 98.16555 150.20965 153.41747 181.30138 189.79816 209.86269 196.77088 199.68103 221.41306 253.35633 263.26664 321.40852 344.06004 367.58882 374.95330 365.60616 333.34225 305.15104 221.99010 160.63838 139.32939 160.91103 176.10541 111.06521 82.91301 145.24435 208.96699 292.56347 337.90464 398.31546 411.32747 448.50194 456.48273 484.58516 498.95344 474.43771 457.05103 444.52686 437.60257 438.35755 473.05583 476.62899 513.92693 534.12661 562.37254 560.31554 587.47297 617.23045 635.21731 606.60188 590.73903 568.62917 514.90760 318.93432 298.86556 277.58271 273.01558 269.00127 264.68727 295.22669 275.52677 277.42175 257.31022 275.73689 281.54074 330.91664 412.48015 439.34224 437.42570 433.77693 424.87478 403.16567 334.74666 342.83806 369.22323 410.77382 484.28562 511.65421 510.49876 460.25690 454.05286 391.58655 299.69357 259.83089 192.60388 160.66041 154.81891 204.37288 233.68268 250.61049 252.38875 234.68000 172.38195 154.49051 164.19543 166.80118 159.56298 167.17127 180.12743 199.30784 211.41833 185.77844 171.20615 130.11758 99.61221 96.17971 58.21882 42.32511 50.73567 60.15434 78.45063 54.86023 35.15742 10.18512 7.06098 7.11283 10.89508 5.96510 -3.56363 -23.40684 -32.67402 -34.67856 -30.52907 -31.83743 -34.27553 -43.57166 -35.20271 -32.89457 -29.61616 -37.74170 -42.05593 -46.73962 -47.52693 -46.43485 -46.62398
431.93843 380.67092 325.92820 313.52466 320.42515 379.05769 425.33382 433.52879 446.21055 421.75277 409.06095 343.54939 320.76990 295.75336 291.34279 319.17752 339.47696 305.77348 271.17847 195.67841 191.64728 179.78636 204.96712 219.62442 189.48017 125.77705 94.65063 65.15938 49.85306 17.42493 15.57028 32.42645 87.82331 133.76088 180.17310 189.08202 239.75677 246.11129 251.18663 250.97880 255.45239 255.87403 256.73032 249.62208 243.30159 242.72126 212.08611 190.40375 151.81919 121.12822 79.21522 76.99619 81.66986 82.01008 78.85566 26.66780 0.17759 -16.52316 17.32829 36.62865 63.30130 90.19317 118.02398 126.28533 123.91299 135.52981 135.38738 122.31768 83.54918 61.54207 27.96270 19.61137 8.87807 7.27155 22.42839 31.21349 25.30817 10.87444 -8.53295 -15.70087 -22.17544 -16.75799 -14.12700 -12.21704 -14.51670 -1.89253 2.23855 17.38393 46.05686 53.13933 58.42817 73.43885 83.40891 88.23366 90.49917 78.01959 72.49069 45.79250 18.16696 19.79876 32.85903 61.35097 65.37158 63.86210 58.38752 42.58674 30.30035 24.70112 33.94329 62.53193 83.27895 106.47931 123.69739 176.93623 195.67147 206.30000 199.38104 139.03616 98.74827 78.99540 77.79894 64.60424 43.23310 18.20559 6.98761 6.44371 11.60657 18.19432 20.68916 4.97232 -0.93406 5.30123 13.85029 8.58734 -6.94059 -4.48535 6.21942 3.41549 6.93798 -5.59200 -16.08994 -24.19807 -30.64157 -26.14469 -32.33091 -28.71316 -26.99876 -20.79483 -18.54596 -17.03908 -9.37053 -6.48158 17.85603 52.18353 68.62287 78.53196 108.42803 149.24927 173.63255 193.59421 206.48964 194.03299 185.41403 176.23015 199.14351 228.13298 263.09204 323.95857 330.83762 356.96933 382.49534 366.29540 355.72304 310.31118 207.02355 170.13713 165.13811 178.72843 154.30863 121.39978 105.09120 134.61927 226.16264 305.69710 319.40649 346.23816 392.77146 399.64055 398.98012 434.10129 449.60036 450.53262 417.02486 400.60136 397.66912 434.48673 479.92302 503.35292 516.50349 562.71279 565.19169 568.04885 604.72547 616.63011 625.21180 603.13699 564.10569 559.11480 499.64166 393.79448 302.64295 286.12378 255.15444 250.09060 249.30314 229.01457 242.99038 207.76593 240.67059 282.94936 304.43998 344.96296 409.98434 438.40718 438.56338 410.12571 391.49138 344.94562 316.57059 308.50435 321.49678 398.30761 445.94261 460.72883 464.77987 453.75061 402.30992 364.92719 276.75321 219.17982 177.04855 152.99021 132.72226 143.82297 186.53734 216.76792 200.06290 181.53703 138.94125 122.03704 115.23289 117.02827 111.06334 110.80629 124.75625 156.05048 170.33546 156.03256 155.77246 136.87526 96.31857 74.06983 52.99679 24.96330 40.64154 51.97308 50.81462 37.76599 24.99396 7.17575 2.54151 5.50143 -3.55179 -2.16643 -19.50540 -28.71183 -34.72776 -37.79353 -40.78088 -44.52832 -47.25152 -49.20372 -43.20771 -45.60721 -35.25076 -42.37619 -46.24626 -60.89808 -55.55397 -50.91265 -49.32789
428.13718 342.42899 320.53103 292.72591 324.74651 371.52059 410.20175 435.82208 428.55369 419.20789 370.99121 328.45896 282.51867 251.47068 254.57471 297.13263 323.93986 311.14385 258.49298 183.00226 157.37580 138.54998 127.18529 139.38554 135.37833 85.01699 79.01705 53.38711 18.69277 1.19325 22.52254 39.19042 100.09930 154.04593 188.42272 198.72255 210.85387 215.29317 213.95953 220.36789 231.14075 231.20722 232.28334 239.53253 246.93730 233.43606 207.82958 200.73177 165.44420 114.95363 74.26900 59.93345 41.42249 61.22409 46.69022 6.07337 -9.90626 -10.94945 20.60685 46.04467 76.98969 105.08761 111.72779 109.66319 117.73467 112.24319 108.48260 105.41338 95.54977 82.97659 24.87584 15.78731 12.71566 13.29042 18.84912 19.63432 14.54959 -2.14625 -10.42021 -18.60782 -15.44033 -14.47028 -18.70765 -12.74807 -4.54710 12.24517 38.97213 38.98486 54.77578 64.34677 62.62476 67.31257 70.28154 86.69775 89.40608 76.96731 65.07094 41.25294 19.01210 8.75739 31.29910 47.40226 43.72373 45.83085 34.48657 31.08135 23.50664 23.83369 28.51754 54.79424 87.23673 96.83726 161.06760 203.91339 210.14833 226.58429 195.21944 154.11407 101.29362 73.12269 64.20962 60.00503 46.17715 22.52213 13.21862 -4.12874 3.54995 9.15787 14.10880 7.08230 -9.02223 -0.31292 9.99905 -0.82241 -9.21659 -18.90571 -18.45339 -18.54918 -20.70383 -28.53900 -29.51221 -30.22450 -15.86086 -11.76237 -14.92986 -11.94892 -5.81494 -4.44697 -2.69070 7.19075 7.73715 3.51389 15.69907 40.35617 66.60483 96.41075 129.03522 146.15189 190.00495 199.98077 200.81386 169.87821 157.21328 162.73997 202.52430 217.34537 244.41312 268.37784 308.53456 359.53720 383.64220 375.25868 386.70367 377.79374 276.18333 191.22175 189.32019 225.41578 205.69446 173.87849 117.47126 140.20199 180.92234 259.84444 299.96498 291.84856 341.55963 370.72456 390.33752 390.21416 388.80603 388.29334 395.11690 384.46465 410.67842 442.92371 494.45357 502.81012 547.31306 561.16463 570.65402 580.37509 602.44118 619.92767 623.02563 605.35407 566.47159 517.36192 510.31004 425.07685 337.46220 294.74212 245.88977 223.33918 221.49836 206.85213 200.13581 183.85698 234.51233 266.14524 315.09096 368.57422 418.96381 417.62538 433.31660 409.40355 364.07065 298.77699 288.26113 277.60748 321.47372 400.21657 433.73033 455.93292 442.72737 428.41770 392.85887 329.27634 265.72314 207.88205 156.93308 126.03160 111.20827 112.07715 120.92093 153.18034 157.86286 164.63696 133.82648 111.90141 80.54767 91.34341 97.09652 90.90262 97.02085 142.76259 143.40884 140.77699 150.51835 140.05969 95.60285 70.83873 31.00394 21.87953 26.26604 44.39733 41.56648 38.83670 19.81262 6.23601 -1.39156 -5.20573 -11.32127 -18.87095 -23.50806 -22.29173 -30.19275 -39.94666 -46.06709 -41.96726 -43.23251 -48.12482 -46.48620 -46.23664 -47.13187 -43.02511 -49.59629 -51.39291 -54.49740 -49.55080 -48.81996
397.70974 355.82643 304.33880 279.48437 292.56037 327.86257 364.22340 382.04174 396.93727 396.09741 359.92526 311.27958 264.34068 243.55525 249.48729 270.93941 322.47820 309.69907 246.31615 213.50686 131.29233 121.20340 76.94564 75.96295 82.19824 65.90759 40.47428 27.78632 9.39732 15.19956 26.22829 44.72010 108.19176 141.70123 162.27069 164.23517 174.97726 200.18014 191.64931 199.77846 201.74578 187.47714 203.19426 205.40923 232.61738 211.32584 200.76133 183.28325 157.07160 120.94799 79.27809 52.74963 29.24632 32.70240 34.43959 17.87564 -1.26038 -2.01474 23.14064 59.38140 89.55090 102.52118 96.39666 94.91813 62.45697 81.27339 78.46507 102.80617 109.90886 77.87002 47.40029 18.59603 10.76114 -2.39727 9.10318 17.87461 4.36313 -11.36451 -20.78206 -17.50860 -8.18268 -5.95667 -4.32976 2.68638 11.30934 26.90714 41.10059 52.45779 60.83178 61.97522 54.93601 54.47764 66.62029 73.41851 75.46005 66.21368 47.17408 27.67744 20.21308 6.92729 17.58949 36.31960 30.48495 28.87364 19.66943 13.82294 12.84181 26.92445 33.77897 64.92749 84.09265 127.50920 149.64158 214.33468 223.57111 225.98391 187.80426 163.21110 99.23201 78.95195 66.64705 42.52590 25.92039 21.79063 13.79442 -3.42986 -4.98754 -5.26924 5.92348 4.31551 -7.18067 -1.02178 -4.02259 -11.07496 -19.54890 -26.27908 -27.42304 -24.01640 -25.24898 -35.31727 -28.97118 -20.90599 -6.73988 -0.04071 -5.39619 5.73986 9.27977 16.25683 18.82809 28.76009 24.77999 9.08545 17.21714 32.45346 63.55251 91.11629 107.40143 140.61250 185.82355 187.68603 167.23836 151.45224 135.10344 158.37934 186.58298 207.64511 226.81940 242.15859 262.77602 339.69821 367.13166 396.93683 400.35343 362.41974 299.99756 270.74588 245.80896 256.50338 255.36606 229.15528 176.99670 159.46514 183.97475 213.93343 243.34508 279.42285 293.54310 318.89471 353.71025 373.77281 350.79434 356.51512 346.32623 383.81781 424.66405 431.84205 432.49455 462.65115 467.28503 494.81220 528.00151 565.25158 589.76138 615.50326 618.48149 603.81668 536.09162 506.86228 455.01194 425.07227 376.01606 295.62468 228.43167 208.88207 204.05576 201.94794 175.01985 189.70743 204.68657 271.29863 303.91252 353.85645 357.20507 403.41462 388.81314 349.18026 331.36282 279.57232 277.07115 272.89300 312.24771 339.55573 381.61001 386.66233 420.94018 396.59127 400.63816 359.33864 297.03402 210.62098 173.97167 144.40091 133.47983 103.74485 92.12759 90.59911 100.70694 128.82819 116.18393 101.81217 69.51142 52.56167 52.38066 54.22922 67.08652 82.45105 116.30110 122.39364 145.01374 122.62002 107.45821 60.43785 41.77131 6.06084 1.61060 7.52784 21.04234 28.03481 23.31052 0.04681 -3.72325 -11.59439 -12.78248 -13.16043 -12.80799 -17.32148 -28.42281 -38.61960 -37.84723 -31.76749 -33.19494 -32.59411 -31.51477 -38.48357 -48.27040 -43.67418 -39.50485 -46.44678 -51.07166 -47.98775 -46.01140
394.15692 335.98982 303.03809 263.37960 261.54451 304.27189 321.17435 328.72561 355.39355 356.76189 340.15407 317.51442 269.50704 238.93452 223.02617 271.49130 304.58170 294.68681 276.12401 227.35260 205.89511 151.25133 142.52290 72.25916 83.82366 31.30501 48.64391 37.48369 9.73723 15.58483 37.91177 50.31602 85.21710 98.80813 94.66307 100.02317 140.71530 167.71653 159.00532 150.97176 158.30432 165.40473 159.30943 185.08604 191.70006 180.05993 182.23594 173.72164 126.33353 114.76802 75.77683 40.31661 15.12372 21.71847 20.26475 13.30265 -9.25269 8.66951 25.80744 62.34407 84.87191 95.54591 74.93383 64.74634 55.17336 58.09245 70.24693 97.68596 99.00403 78.01030 58.11535 21.52801 6.49342 -5.92827 -1.01128 4.26016 -1.71617 -17.02835 -20.15432 -2.22761 3.38018 10.12015 11.95695 9.04177 27.41949 32.04352 51.10151 59.90919 51.00543 50.53295 49.02421 50.49984 57.11525 63.15236 52.12298 37.06016 26.52776 23.77407 7.20987 5.28147 16.51321 29.15552 25.67459 18.50542 9.80740 11.74630 16.66113 31.66466 45.15799 85.20013 97.96735 126.41762 174.52118 226.58156 226.36017 226.50173 178.83433 160.61726 109.92775 78.28693 56.21083 43.94316 21.08794 19.91773 11.20420 -1.44986 -3.58830 -12.08146 -11.19900 -8.47602 -7.52916 -15.01649 -18.57976 -19.25473 -29.65902 -28.65140 -28.46986 -29.58812 -32.45401 -29.05526 -21.14274 -14.34354 -3.38281 0.91397 2.27436 5.91207 16.85740 29.36975 34.83296 45.36824 28.76986 25.48530 25.67921 42.28369 56.42493 88.87458 124.33116 133.68292 179.48465 161.08178 132.13355 116.67306 108.92560 150.15608 169.42544 192.75766 196.81260 246.56436 267.47012 292.22369 380.20480 400.62523 434.12065 403.36284 378.25171 299.57935 268.97104 282.38208 293.37355 295.00541 248.30159 168.23767 164.18356 183.44480 209.26472 218.09654 249.89044 260.99726 309.84247 317.12610 323.72015 319.54553 344.46557 360.61278 401.90553 420.30355 422.67202 427.64732 441.39853 396.08317 465.05412 499.79050 503.44997 523.76454 540.44423 569.75529 542.54915 471.45919 421.98404 351.79603 325.32434 288.97622 240.52331 217.21781 209.48418 186.72626 179.13424 163.53390 199.69698 223.12972 277.92979 300.37779 323.52331 300.36880 335.45936 332.07714 273.95541 258.08751 279.77008 267.99795 255.67472 291.63177 288.95567 295.81363 321.92410 373.00015 382.15023 381.60998 303.33471 249.48148 197.15009 186.21297 173.02827 115.61829 96.32345 75.90902 84.13995 96.92706 97.27097 81.89770 66.49943 34.16682 38.14640 42.45016 36.77535 64.85756 70.13137 80.77420 114.64836 112.58801 91.66250 59.88987 25.27353 6.82777 4.26683 -5.09152 4.18740 11.40861 8.80243 6.03071 0.10824 -5.15944 -3.89528 -3.19592 -8.00398 -17.21139 -32.93125 -44.33515 -34.51009 -14.04185 -8.71112 -15.85756 -24.76221 -30.25845 -43.33355 -31.29170 -29.63533 -34.89161 -44.51775 -42.76464 -42.28890
377.38737 329.61596 286.93565 236.52743 225.68445 243.66502 280.52589 303.66580 307.60045 330.40384 334.04186 302.46025 284.05869 231.85027 213.18502 210.38169 260.29039 274.53817 267.30081 252.24816 225.21298 211.12150 182.88870 153.50341 125.53671 78.02743 74.35256 33.50541 10.55369 6.99258 19.30025 41.78706 47.42070 49.54924 68.69162 79.63409 117.30422 128.15766 134.41508 131.75818 120.33549 108.65838 142.00043 147.35914 151.95359 166.95361 181.02982 172.86738 102.49860 82.43970 60.34701 19.94480 3.52570 7.16110 7.24249 -4.83663 -6.25132 5.41182 12.15817 39.66898 70.55514 80.60821 75.01854 60.98627 37.07184 42.95553 75.55743 99.45416 88.40985 68.46822 41.16924 29.01768 -3.11223 -11.93404 -6.55143 7.83006 -3.13353 -20.96437 -21.46917 -1.72235 13.55781 19.79298 13.31148 19.63261 26.34127 36.90714 55.78803 52.56363 42.10869 40.78992 38.65379 34.29100 43.49405 46.51737 44.54556 26.24507 24.21388 14.70842 2.92418 -2.12652 6.96439 13.17649 9.47162 0.11524 9.70097 6.32240 28.91023 40.64510 74.54717 108.44580 133.62706 150.46007 186.24243 226.76894 219.97348 217.52773 181.28279 134.86202 104.19682 86.03347 83.14583 49.80588 39.43635 28.27754 18.74946 10.90070 -3.42562 -12.74829 -17.67483 -9.01732 -12.13697 -25.58438 -24.14943 -32.03074 -31.43523 -33.03614 -33.52360 -33.17184 -28.81542 -28.20981 -22.11629 -13.64346 -13.05964 -6.39175 1.15955 13.33453 21.59500 35.67842 47.80809 49.72025 63.23731 50.51751 45.03363 75.69930 84.99692 103.36986 129.72898 155.96029 165.01956 144.52075 127.33925 107.79530 117.10163 140.11134 162.68013 172.70693 216.61440 264.29724 264.61630 301.85040 398.88954 484.53713 458.26887 443.76205 386.28192 335.68342 304.67194 311.79404 315.77740 314.52362 269.94913 190.21879 185.38720 186.53875 211.02728 210.81246 238.85396 251.62391 266.86422 280.77432 301.47724 313.34816 302.41045 301.68322 332.17176 376.14219 374.80944 349.58655 344.87447 407.57061 425.67333 457.02288 460.90807 429.39752 498.84166 542.17830 556.09980 466.81102 441.34490 358.72657 291.69593 254.96736 248.72842 242.93600 218.89666 205.67559 184.82275 174.87002 201.09371 218.38290 256.03975 272.03924 262.32726 279.34746 288.97015 275.11075 252.51394 233.64774 254.28851 262.63617 239.40605 243.12701 258.78472 288.27324 301.60518 347.50023 378.77936 391.78069 337.18322 298.50432 260.11203 241.04243 181.20675 173.39307 142.71038 77.46261 67.50180 72.90198 62.82485 70.07223 49.68658 34.71380 24.35979 29.05845 31.29144 29.80637 48.59679 47.26170 70.41848 84.67192 77.51685 54.91389 32.46614 27.76082 12.25327 -6.73207 -20.42600 -12.16035 -8.76937 0.63419 -1.96305 -0.05714 -7.42781 -7.59205 -21.03765 -22.35364 -34.41236 -31.17888 -22.02969 -7.21673 -6.17632 -8.37543 -18.53640 -28.35664 -36.10662 -29.16502 -24.80274 -24.98963 -37.10657 -39.41566 -38.54959
359.69152 331.75407 295.38405 236.63017 209.28371 199.78398 219.04332 273.95691 274.47588 307.90163 300.38325 297.44213 261.10044 229.44252 191.55581 186.95320 199.66599 226.50720 253.88669 230.53711 221.82328 217.61888 235.65759 209.17484 160.79481 129.81496 88.39552 41.98541 22.80705 0.78551 -6.97056 9.47358 5.84137 33.65253 61.97197 65.26425 79.07350 112.33812 131.55692 124.97250 101.58341 93.02316 106.18100 127.99541 144.37019 145.39396 149.10090 138.72467 99.66609 78.73088 48.36823 20.04751 0.22965 -0.52451 -4.73682 -9.45381 -13.19716 -8.74243 5.33073 26.08683 64.04860 79.90527 65.61588 52.44625 27.12936 39.68188 77.74655 93.13378 89.13921 70.62799 44.13604 25.35952 -12.32600 -16.05425 -10.84860 -6.33918 -12.17335 -21.37226 -17.93162 -3.07577 16.90878 22.14518 25.20548 35.74883 44.48489 49.41263 52.83481 41.74377 28.69399 24.72141 22.80981 17.29268 25.14298 33.99588 33.97959 22.51585 11.36411 6.85877 -0.38077 -7.49126 -0.64768 -2.11621 0.49666 14.73125 18.92816 24.98925 35.37540 57.24661 82.39392 119.74588 146.12536 170.00844 196.22824 210.10757 203.56311 200.31307 174.44423 138.25967 110.50205 107.51599 88.60491 73.61617 49.34900 50.75403 32.14031 19.23352 9.18179 -4.88115 -9.63713 -14.57529 -14.25877 -14.04454 -19.03652 -20.55948 -24.01437 -23.57808 -28.09567 -34.64747 -31.45441 -26.65646 -19.63870 -19.51165 -18.56833 -8.20258 1.35564 13.80850 22.78984 39.82999 48.38710 54.56762 75.46191 69.80130 80.36652 91.64241 106.92264 104.75032 134.37913 145.62298 140.56398 123.68664 91.73914 111.16568 133.03700 154.15115 168.01010 177.66014 226.59583 283.84129 288.46920 357.29975 454.53045 501.36608 475.09614 448.67319 401.17607 359.19639 345.12825 337.28763 345.18862 343.37648 315.31660 238.89020 253.52728 259.50740 249.30926 230.02962 249.78450 253.14952 269.45388 279.21915 286.41732 293.20772 289.16025 257.05617 255.23981 296.35593 280.80206 249.99522 270.38149 317.83925 401.08837 366.49398 343.27984 350.28278 442.47013 486.22364 514.19747 462.73342 403.62137 342.53032 267.88892 244.73085 243.49716 228.50558 214.03446 193.09352 199.30872 168.95780 172.14661 188.57530 207.38609 213.85246 253.96043 258.91481 276.65903 243.58076 219.76658 221.51942 243.11003 246.84737 231.54905 222.46188 231.72550 252.73245 289.38627 339.98257 378.85332 395.34538 364.64389 341.84588 298.78807 269.75373 226.32734 220.31563 165.63006 130.46071 71.39173 65.41267 51.58343 48.20844 33.61722 15.59855 22.11264 16.61638 19.10551 22.35990 22.64496 37.39537 38.20607 28.56606 37.32629 32.67005 38.22395 34.37746 14.22166 -9.42663 -23.04861 -21.99693 -20.27054 -17.65583 -7.65972 -13.15489 -13.66248 -27.89926 -28.96476 -37.20113 -24.04449 -15.83103 -8.78281 -4.87824 -0.39287 -10.46023 -14.28659 -25.10578 -29.04253 -20.92515 -17.48886 -20.37909 -27.50799 -32.00505 -33.29263
391.77289 352.45935 339.00019 274.87729 231.25606 203.27447 193.28647 215.94131 249.25567 290.84532 290.65105 289.62274 306.58541 261.98436 233.95487 191.55299 189.04226 174.65758 194.56998 195.47995 187.56648 190.44286 240.44614 236.01309 191.00963 160.17195 100.86143 48.70611 14.97155 2.51837 1.55867 -8.83811 -9.36138 3.57984 36.30938 43.29633 74.94872 67.33891 114.22368 100.88282 90.21871 69.79965 98.41975 114.16433 115.82517 115.08060 127.43802 136.28058 117.61788 78.73928 45.73123 19.76224 12.59310 -4.10763 -9.27242 -7.01799 -12.09517 -15.98473 -4.16716 9.80947 48.98759 70.83949 62.90040 29.63179 19.26423 15.08205 76.21798 89.19904 91.19419 74.77939 36.39843 7.78658 -7.69346 -13.44712 -18.41229 -14.29412 -17.62799 -21.89447 -16.90650 -0.93635 13.16836 32.93480 40.81636 45.94592 58.60627 63.36157 54.30013 39.73074 26.49551 20.04318 10.51554 8.15293 19.08391 28.71095 31.18104 16.77870 2.24935 -5.03273 -5.99280 -2.95047 0.16239 2.28573 3.84096 19.44144 38.05005 32.61709 40.29960 56.27965 67.91740 93.83340 134.01849 164.60467 181.95938 196.65213 197.35356 177.99540 153.74646 142.12152 126.75462 116.93176 93.27914 76.72602 63.40237 53.25027 46.22929 28.33313 14.89683 2.67113 -1.50422 -3.82829 -5.77556 -7.54191 -2.84576 -6.60144 0.36561 -7.45848 -23.24045 -24.12409 -35.25807 -28.38236 -23.34627 -20.30554 -15.54792 -11.63437 -0.74901 12.48025 35.72291 41.64899 63.31572 67.32474 81.31565 85.13527 108.18867 116.16144 120.92706 113.69615 116.32340 131.70258 132.63031 104.64551 89.98756 96.52535 133.29976 156.71935 181.18535 195.77920 243.03021 272.50559 334.09427 381.59443 470.95299 486.36203 461.96502 451.51660 386.50663 363.59192 332.81978 311.83211 332.64048 316.05011 302.86759 280.24175 280.19442 288.13441 296.63194 282.05653 294.03600 284.43448 281.51058 280.17660 265.79889 255.01193 240.03468 231.91619 253.69001 259.98965 219.86322 198.80607 217.22798 281.00714 321.51010 285.57907 250.16821 247.72422 356.34421 460.97838 476.04761 466.41457 385.43563 335.06332 279.55959 249.42744 212.18537 208.91941 190.34004 176.55753 174.29744 152.84015 158.85497 170.82019 165.83948 196.85271 214.55153 237.98328 243.93725 233.07056 196.64197 202.77428 220.87750 221.25961 223.25510 218.58272 217.85922 262.04745 285.30850 347.78160 378.84666 388.77451 376.60175 365.95875 356.09820 303.52041 227.70466 187.64887 171.89079 137.81419 89.28508 67.92872 31.02740 37.43179 31.02210 41.42047 48.12464 29.94964 12.73946 12.61761 -1.82902 5.61087 1.07040 11.12136 -1.27063 18.19373 27.26297 24.42492 -3.86438 -17.56535 -15.35836 -14.41419 -18.29821 -22.67641 -11.93536 -21.65103 -25.39432 -36.20442 -31.83801 -23.09859 -16.72858 -11.92783 -5.86566 -2.24140 10.60934 -2.85652 -11.45582 -10.65686 -7.38242 -6.71588 -13.30433 -19.60810 -30.78781 -32.41623 -32.67458
368.50829 364.78882 349.70241 336.80572 274.43824 230.67717 195.18851 196.62479 223.47843 253.85288 279.10736 293.92873 301.46576 303.70548 260.93603 223.83062 214.45363 200.06975 145.91627 151.47784 143.87758 180.39713 232.10917 245.63898 218.17069 202.73248 153.62793 59.74474 56.65981 39.29166 24.17780 -3.28956 -6.57130 -3.12069 14.00982 20.60692 24.83025 24.84036 66.02324 89.99008 78.33587 82.42484 76.59733 77.81019 86.69449 89.10219 128.47230 133.74227 116.32428 88.05974 44.43722 35.06631 22.26072 10.26250 7.16055 2.99863 -9.86009 -16.19902 -4.79704 27.94646 55.79052 69.23722 58.78891 24.10149 7.30031 14.57008 41.69508 64.10920 71.81791 60.66930 30.35629 16.23825 -6.62846 -12.03205 -17.40973 -24.77707 -26.57500 -24.98472 -10.94667 -3.62655 11.84566 31.07317 49.08947 54.52643 62.23881 60.79841 57.92378 42.58109 30.50000 19.45089 5.33919 5.67422 14.47058 24.16617 25.63475 15.57003 0.36547 -2.77977 -0.69491 1.95087 14.27147 15.37056 13.48834 27.10081 35.99999 39.56093 43.64551 54.88696 75.86669 89.49992 137.76227 171.38938 176.28048 175.84121 174.84312 150.00064 128.67551 118.32567 114.29553 96.04164 89.56059 76.63786 73.38191 63.81876 50.34527 35.44660 32.52458 22.84191 14.48153 13.58157 10.97709 3.02344 5.30818 3.41559 2.87315 -1.94562 -12.70745 -27.04922 -34.65445 -29.64686 -25.17521 -20.47940 -8.41785 -3.06294 9.59860 16.35936 46.75439 51.15151 79.76661 86.38880 95.86249 110.01437 117.81924 131.80038 123.66042 112.83444 113.61244 104.04686 105.99866 90.28173 92.66560 98.79157 136.99091 156.98829 177.74328 175.11818 204.33299 242.77474 288.93761 362.61776 408.60407 421.38202 448.45141 408.15429 384.88260 353.04337 289.01904 262.42880 270.70596 279.60103 290.66263 252.04429 277.38345 275.60109 287.09948 296.37629 311.68986 282.29480 253.55308 222.46753 212.86316 219.23476 201.28646 223.49908 246.11922 220.93392 194.42261 180.65322 172.47725 259.84923 266.98345 264.83209 194.52065 214.33710 349.67752 456.46665 425.75698 419.19639 372.68945 327.48441 283.77453 258.36220 228.89564 208.99559 200.83289 202.36074 162.50804 143.97637 133.96272 132.66914 155.27282 165.91491 203.67838 214.44197 211.28045 211.15909 191.31107 191.37200 185.54049 184.05242 210.06932 214.35061 230.65432 235.45015 343.26318 354.92362 379.66153 366.88297 357.26088 351.15740 325.66697 281.16751 234.96431 192.25812 165.16074 120.89476 79.76536 65.95683 34.59443 44.09112 58.76204 81.37609 60.50590 44.80385 43.76865 18.73211 10.26226 2.94353 -3.99620 -5.04527 -9.19327 -1.21951 8.49788 7.34866 -9.19110 -12.68060 -3.49566 0.60765 -10.42832 -2.17694 -4.15994 -5.09938 -28.36310 -27.92388 -24.58763 -16.00495 1.45344 6.31711 25.38334 30.35503 16.58635 6.88081 -5.28622 -4.54880 -1.49582 -3.88881 -7.32406 -17.18528 -25.92787 -34.92364 -39.14286
342.27873 346.39535 350.23150 338.19147 299.19988 265.03883 233.03123 162.45339 169.32943 229.17230 262.98090 289.30805 290.52579 310.90986 289.68911 271.21954 239.95470 216.74954 192.13070 150.54452 137.01160 116.96854 179.55639 207.49321 212.02230 187.06690 148.85340 81.78858 68.48243 68.59068 31.16743 9.53653 4.09647 -8.20737 -1.58959 2.68538 -5.60549 -0.19150 17.29591 56.35297 74.14878 57.99593 50.25600 55.55275 53.53226 63.07768 100.50806 135.31737 118.94858 103.52584 66.22281 48.57684 28.74908 23.97643 4.11691 -2.76579 -10.35320 -21.84486 8.28893 38.97080 47.69990 70.07830 63.98880 29.25815 1.04948 5.75892 17.07508 53.18816 44.08779 41.50677 34.95649 5.80761 2.13834 -8.13284 -17.79258 -26.29238 -26.66616 -19.26136 -7.55595 10.74499 18.89359 29.78725 42.17345 53.21901 56.84522 57.82818 54.22253 41.38395 24.88496 18.51914 4.78390 1.51014 10.26738 19.94701 19.11523 13.76524 0.74314 -7.93920 -1.11545 12.69449 24.47019 28.01928 30.13058 32.50108 40.95655 49.58657 57.35422 66.51142 88.86063 116.21936 138.05136 168.73507 160.40667 155.79559 134.29677 101.79214 85.71315 93.19041 88.73548 71.93749 76.20351 71.91777 66.23226 56.84694 54.57976 50.11129 48.43022 41.74058 35.96345 25.67480 15.69695 5.64898 7.01398 7.30145 3.71187 -1.50493 -9.23672 -26.35820 -31.92561 -28.78817 -19.07145 -12.92504 -0.79281 15.60467 21.44772 40.88797 73.65412 86.95183 107.55376 136.78643 131.40792 140.70704 142.86223 126.81519 113.73112 106.37737 103.10071 90.77209 84.12913 74.88503 76.13928 106.70166 125.72724 153.65938 154.90163 153.48161 160.85063 201.88169 249.22011 266.20521 329.07984 392.45102 357.93352 356.45919 327.97615 303.26850 268.12759 202.42416 228.87652 250.67108 248.14538 227.05108 225.75515 242.64312 262.33292 300.75194 299.73375 278.04907 232.02720 179.94881 157.58511 156.52258 179.40336 199.01869 201.80492 187.44945 135.95118 138.16523 160.56639 189.33604 204.73170 183.25947 150.33695 205.96555 335.12581 416.12113 414.09794 405.42351 350.88495 324.87064 286.62609 264.87005 249.28186 247.15324 237.74621 232.07962 188.27071 146.57477 143.12825 135.81794 124.18718 142.06089 197.43527 205.34337 201.83467 190.16076 161.32392 150.64550 153.26891 162.44761 194.59693 230.60601 244.68138 298.58027 353.27179 384.45631 375.44071 355.11958 325.63883 296.01912 257.61559 251.75279 215.22485 165.16880 125.95915 84.89704 67.38188 52.97204 48.37531 61.74479 100.94721 112.23297 109.66558 59.98187 63.44966 34.19995 22.74257 11.18000 6.06626 -2.95131 -8.15282 -8.57684 -3.95306 -5.55762 -13.17896 4.11400 18.08631 30.24023 36.87813 23.79839 22.84731 3.39429 -10.27042 -24.49379 -12.34689 -10.49164 4.93490 19.13195 32.80242 35.87693 30.75580 17.88297 2.64572 -1.73842 -4.34549 -5.84300 -12.28176 -14.98022 -35.02590 -37.63331 -44.64309
308.52300 318.51637 347.28989 341.87809 327.32667 284.76271 230.13524 164.89620 152.23112 168.87061 244.69798 252.73944 274.36005 307.95629 294.59498 280.93001 281.05914 254.90785 205.06526 171.82750 153.78895 111.39342 143.98414 162.14314 191.79018 182.98311 165.08372 139.19571 80.54738 74.62844 50.05204 28.71283 29.79470 6.34768 13.76134 14.84316 10.04463 -6.43503 3.85393 44.67896 68.47260 55.28642 34.69936 30.19405 35.27307 40.63063 74.21900 108.52295 122.75662 119.02159 91.82948 63.64718 49.24053 14.93601 3.48519 -6.46638 -18.56687 -21.13171 9.85716 36.30777 45.55813 57.90797 42.87666 22.16679 4.38787 -5.84048 11.30817 27.95160 35.82713 23.93425 15.35128 8.13489 -1.37380 -14.50719 -20.02448 -25.49121 -20.46538 -14.72534 5.86390 12.38679 26.55319 31.52224 42.60376 43.80720 48.66266 50.85824 50.07597 22.15417 20.86070 13.81198 5.95198 -0.42692 8.41707 11.45316 17.46957 10.47729 -0.55732 -10.81843 -3.38659 14.23257 39.29079 44.71640 44.56764 48.80413 69.54025 75.30460 81.13580 101.46805 122.71115 131.12341 155.15484 157.22112 145.68545 123.61176 95.16947 84.90868 81.46211 72.25068 71.03867 66.08528 55.91875 56.94667 48.94457 45.70328 50.49772 53.96201 55.41617 54.23800 40.46573 37.10273 19.43469 12.45166 1.38422 -2.83383 -5.52080 -5.31651 -23.21830 -22.48877 -28.34301 -25.97268 -9.14643 3.11993 7.46914 27.60169 43.52354 61.48435 80.61142 109.92284 126.67424 148.75130 157.91062 160.27133 159.94212 138.41802 104.18218 84.20467 77.76377 67.66848 49.72712 66.21326 73.44511 104.55421 139.20050 151.03136 146.79424 127.90110 137.70859 175.89678 203.05587 225.67185 273.59619 263.34027 308.21520 263.89028 272.74879 261.93521 210.47067 182.95874 190.25823 238.51812 219.66045 185.39523 183.16838 213.48816 249.94646 280.02265 314.35352 292.25906 234.30728 175.35616 149.29667 146.85510 152.10326 172.22022 189.92355 152.92958 133.19872 121.64065 157.41951 160.43299 171.55402 151.83284 151.00282 200.38772 287.43054 376.54450 369.55171 366.49506 328.45483 309.65938 277.23097 277.45082 275.80447 264.30094 260.62329 248.09227 229.75036 174.55286 151.31025 121.71057 116.24887 134.76674 188.41162 164.39484 164.28188 150.13558 132.85988 138.43712 147.25132 160.34370 192.14827 229.30839 244.19445 288.22762 351.85026 373.42502 391.13061 372.33113 332.93207 260.64884 227.22015 210.71062 185.89289 111.85405 94.82185 87.20684 95.21264 93.09198 80.57037 89.19209 121.16661 157.95718 135.64432 95.19608 69.40312 50.62339 44.56474 30.31842 15.82499 11.26527 9.10082 -11.68665 -11.73895 -18.30610 -6.39992 5.21357 27.13814 42.45226 47.66148 39.94206 28.72239 4.00332 -17.22942 -10.22777 -1.13227 20.11013 32.53741 39.12120 37.40368 38.73986 30.85516 13.42006 10.25986 -1.89930 -13.88379 -15.12388 -15.36143 -22.55696 -34.32251 -39.98145 -47.11654
257.04404 288.99598 299.95897 322.51530 325.61719 284.27168 243.84116 178.16962 118.11913 120.12431 151.79087 206.92172 261.43764 286.24305 301.32215 296.03745 292.28491 264.64365 213.35523 170.54133 146.42224 109.21954 110.14435 151.85807 191.04133 202.97545 185.61865 160.17936 111.76628 84.13034 60.73259 51.10987 35.96955 30.99057 41.51276 53.75460 37.10406 -1.27044 -12.74105 10.80629 49.08932 62.33512 43.54137 27.31523 29.13045 40.35340 65.47808 87.93707 118.89406 112.83807 105.79100 90.17537 51.71664 10.02291 8.37699 -8.28218 -20.22502 -21.41106 -2.71545 39.43115 42.82326 50.30183 44.86201 12.99357 -0.93837 -8.45445 1.74591 15.73323 17.72795 12.85027 10.73547 -1.91956 -12.74163 -17.42623 -19.23698 -24.92457 -18.65720 -12.18840 0.84235 8.21972 22.67346 33.20569 34.98418 40.56300 34.19601 32.76505 26.07605 15.15171 9.40084 8.25380 1.77070 -1.12201 1.53688 1.73508 9.33278 2.70042 -10.26064 -9.36827 -1.66996 1.41335 45.41216 46.72854 61.43820 64.20368 79.89549 86.48806 108.77139 125.62399 135.78297 142.57323 145.95535 149.69730 121.67812 102.67894 72.61246 54.50415 55.58285 69.70254 62.31032 56.85638 45.74096 38.66225 35.52763 31.67807 38.49170 46.92947 50.92929 52.61200 38.51773 21.63971 18.22155 3.91668 -0.78479 -10.53420 -17.42499 -23.86326 -23.91079 -27.60073 -17.16877 -12.62357 -2.07909 8.69263 14.41870 39.96216 57.33178 81.09931 106.34732 134.35945 145.70914 169.93092 177.50598 175.60599 151.67645 120.97123 94.39731 77.29306 61.69682 48.77844 54.45642 66.31411 90.48346 102.29164 115.33755 115.44655 107.58938 100.86948 124.91248 149.75973 158.36742 211.14276 258.91702 256.07528 237.08748 222.49278 239.05302 222.02704 168.45591 149.07895 188.23408 228.42946 192.36097 174.86157 150.78735 165.96073 237.08271 256.38806 271.07419 253.50588 205.26408 175.12510 133.83491 129.38084 142.35753 169.80203 173.15295 148.47037 113.78295 116.86178 138.17654 144.28976 121.95578 106.44846 100.32829 114.82577 272.95196 280.74029 293.45163 286.95741 286.35317 261.76780 271.31050 275.30531 274.13735 273.42677 264.95563 261.24803 238.50469 202.57338 154.21115 111.44077 117.30721 155.52379 157.48533 147.25734 131.46666 128.41666 123.92902 142.62402 156.45932 166.92785 182.32374 214.13408 259.08663 320.72253 355.12509 395.85710 397.93965 361.90498 326.48085 264.38186 221.71561 183.45706 122.16289 106.55050 99.50470 123.03113 138.71833 108.23531 105.29878 129.02866 156.65795 168.42504 147.23994 108.58555 82.96663 66.67003 67.20173 51.72735 30.18158 33.80382 21.89011 9.42605 -7.25691 -7.09491 -2.45960 30.69390 51.36300 56.56765 58.85384 39.76848 26.89141 -5.17947 -7.37337 0.73724 20.02804 39.36952 53.34434 54.21066 44.53354 33.62758 25.95630 17.05480 -11.88857 -14.47083 -28.00911 -24.75562 -23.19738 -38.10618 -41.43331 -45.12965 -52.14224
216.60777 226.02651 256.44720 303.82422 318.44360 298.70822 258.90479 185.66853 119.85296 106.10952 133.82678 149.83720 210.93139 252.89169 290.39593 292.42576 289.95072 271.44828 217.02574 162.51873 143.72834 122.62362 121.53825 160.99548 188.73907 191.23884 186.23883 177.96512 149.08344 100.72343 97.84217 85.68016 75.90350 83.08755 81.78978 62.86622 48.41864 10.24887 -5.30862 -6.64889 28.55450 54.69778 47.12013 31.27359 27.52811 43.78648 69.94706 80.20157 99.75375 110.97619 106.09530 98.74981 65.55864 28.10172 9.10799 -9.30459 -21.97336 -15.98878 9.94209 31.35234 34.79276 33.26033 33.05957 12.66224 -8.93103 -9.66997 -1.64514 4.87976 -0.32001 -2.49125 -8.14039 -19.26830 -16.69623 -23.12389 -24.86360 -25.73764 -18.98452 -12.71286 -9.89590 1.97132 15.47499 29.61532 29.00521 27.42894 27.67075 26.23170 17.85331 15.53989 8.63311 4.09811 -5.72172 -5.50532 -8.14132 -3.55709 -1.44249 -7.17634 -11.04011 -3.68900 2.75795 24.56246 46.16511 56.22126 54.72544 60.04233 82.47528 84.90469 105.35287 129.94532 130.28385 134.66075 142.38381 141.78142 102.51692 76.40851 50.42949 39.84982 39.12690 49.39139 58.85034 53.13151 51.34880 37.06200 18.37105 14.20451 23.22128 39.00873 48.68206 41.58052 31.43525 15.08767 7.75999 6.92641 -4.65365 -21.11319 -29.84992 -34.21438 -36.92557 -28.54728 -23.01439 -7.99310 -6.04773 5.87078 28.48867 42.30307 75.32892 98.47109 123.91525 138.99908 161.32166 172.82513 185.91380 176.30911 144.49483 115.31989 68.47678 68.43255 58.94529 42.28721 36.83236 58.56674 72.52732 68.91389 73.52816 86.56207 81.03755 95.33382 110.13432 132.68945 143.85651 190.52204 241.82084 227.32729 219.60661 216.06109 190.74342 154.78269 131.36236 137.64058 178.87932 197.87626 184.60905 138.69670 124.26245 138.65920 188.45601 249.89980 261.45882 242.12310 221.10170 175.13471 131.51681 126.18819 139.09443 153.23481 166.79111 150.37930 123.69247 106.61084 125.35643 126.46994 108.06805 93.46680 87.92649 142.54881 172.72677 256.57493 230.93181 220.33954 218.47280 218.95611 232.30960 258.32712 264.91807 272.91069 262.93943 243.66298 231.17558 197.26867 154.26113 114.44130 124.99612 145.10307 145.90916 124.51972 109.25255 120.61596 158.00844 149.89011 182.52204 173.97058 202.57591 232.83700 285.38356 305.82773 366.74795 414.69446 415.67079 410.34362 281.29784 257.64005 216.33614 167.03283 154.96285 123.84310 118.07765 142.01413 148.57821 137.83433 129.55601 149.82379 177.25373 167.82710 156.76331 116.46452 112.25597 105.77530 89.15737 58.61664 48.68081 48.20519 40.57156 17.27881 2.89181 2.91313 17.80088 36.09956 55.13251 60.57764 61.90966 42.11042 14.31227 7.59273 6.55236 6.07459 24.66377 46.99970 57.53363 60.46622 48.82115 39.14654 9.47427 1.83574 -18.05716 -26.28833 -37.98727 -39.35208 -40.94453 -45.51320 -52.33191 -54.44119 -55.87742
196.35792 212.50075 207.97368 294.86277 306.00951 287.03069 241.77027 186.54565 134.22914 87.54802 92.40432 146.30851 182.43645 237.93968 276.18746 267.80485 267.06506 224.76082 167.33249 154.47161 125.10493 116.28235 97.23674 143.82434 183.33564 181.68519 178.73542 189.57209 166.42643 149.84418 145.77343 135.71858 126.00376 124.90375 93.21745 55.05917 27.73394 6.43445 -7.28316 -5.40390 25.78390 43.43019 48.87785 28.84256 18.55206 40.54919 61.17344 72.82341 94.26782 98.03091 102.64531 99.42779 67.68408 36.75643 14.98171 -9.35183 -17.37821 -11.16076 14.43791 31.77940 30.02981 34.66829 25.50530 0.89205 -9.05310 -18.18807 -11.95825 -7.42637 -11.04836 -13.07129 -21.80539 -25.73120 -27.74527 -26.32563 -25.31778 -23.36518 -21.56873 -16.95466 -10.76670 -0.77122 11.03381 29.55018 29.89376 28.02910 23.71581 21.72946 17.49801 14.18427 10.98516 0.30720 -7.45110 -11.08234 -9.71969 -4.30378 -5.33260 -9.77713 -12.64005 -8.83890 6.06036 15.87839 32.71311 40.30126 44.64933 48.87024 58.04503 72.53948 94.66624 129.37215 149.14881 149.25669 140.78712 129.65308 103.84736 67.20894 42.65948 31.38570 35.85171 43.67973 47.85956 47.05444 46.06676 31.10619 10.08375 12.03841 15.29716 31.80026 38.82232 26.44653 14.23908 8.38477 5.50638 -3.47456 -9.99899 -22.62545 -34.08370 -32.36628 -30.52487 -30.32123 -24.81619 -20.16783 -9.82887 10.73988 20.00792 41.68888 75.28862 107.75723 122.80589 140.03641 152.60995 163.59964 166.51752 140.01057 114.87312 95.84757 71.73278 60.26562 54.93786 38.41996 31.66140 45.89766 56.88466 57.19158 65.59494 80.99923 96.73188 100.18494 118.59997 131.54604 164.12641 194.87336 209.91262 201.69126 187.67159 190.83670 172.09130 148.82063 90.45165 122.99117 144.96116 163.19910 161.61185 131.11246 98.85131 125.81971 147.65593 203.74315 235.57377 237.01986 212.80379 169.00838 138.50520 111.99403 118.83453 143.85995 150.16699 136.50460 108.06590 99.84716 104.80118 110.08585 102.18679 71.97038 71.27380 114.41360 161.86755 178.84353 189.73038 206.29317 166.68644 179.22834 218.97189 249.77501 250.90033 261.80046 241.87321 237.76717 213.66131 191.08879 145.45572 110.21896 105.73011 133.06796 122.45700 108.34629 115.43294 156.76399 176.79533 203.52085 208.39837 208.90780 224.19418 254.35744 305.03829 346.64449 393.86575 413.11921 429.02463 426.07463 345.90759 256.05014 213.98036 187.76707 192.46207 192.41689 193.47494 192.91826 181.98920 164.36121 189.20729 176.32769 163.02637 150.83886 137.51074 129.09444 157.05465 121.42143 65.30442 57.57650 51.04136 51.58847 42.56595 21.28535 28.68569 20.50680 23.11466 45.22995 54.46403 59.85641 60.07581 39.41993 22.46816 12.17401 15.70091 23.22156 38.26144 52.95988 57.49042 57.54298 50.31439 24.68250 11.79782 -16.19122 -27.65644 -34.33774 -39.32379 -42.03895 -49.66503 -51.90295 -52.84535 -53.60470 -60.52521
188.53048 206.03604 198.29711 252.44067 300.71843 271.22891 249.16699 211.26550 125.99281 94.71737 89.51956 114.25908 177.42319 194.19156 217.16143 260.41734 248.07422 212.32124 155.67186 135.92451 80.73048 58.78309 49.86786 120.35306 146.49483 176.48413 191.63349 196.33371 195.74907 184.69300 160.86475 153.97780 126.60558 103.61200 89.97951 57.54915 28.51659 4.19319 -8.51543 15.86746 20.47707 37.56158 42.48287 30.87780 12.00934 28.32263 42.04472 66.63648 77.74219 91.77667 88.57666 81.05883 70.33027 34.28414 -1.42753 -8.32797 -21.47976 -11.55391 1.88446 30.38648 40.42782 42.33629 27.40298 0.02423 -14.25493 -17.44352 -22.15323 -13.62815 -14.12816 -16.01791 -26.56816 -25.82424 -24.08577 -23.23238 -25.90825 -23.32978 -20.71582 -15.82856 -3.73626 14.26706 17.73734 29.65928 34.92559 28.88346 20.90339 15.49937 11.95158 8.79260 8.97199 -2.18201 -7.20984 -13.66902 -11.54955 -6.10726 -11.79874 -17.05269 -16.52987 -12.52952 3.92837 8.06317 23.42452 24.00127 17.33707 30.05213 40.34718 67.42326 91.83388 141.25360 163.56216 148.97138 132.95748 103.11720 61.48018 46.90708 40.09885 33.37343 26.94440 35.37781 31.53690 28.13302 29.70100 23.41490 4.18730 -1.29989 5.43351 17.87965 24.30568 19.02519 16.59163 -2.51816 -11.77284 -10.25264 -14.09682 -29.02007 -34.77612 -29.40808 -22.38038 -27.50177 -28.82806 -13.93408 6.92020 17.16097 25.40503 43.11114 74.18860 86.38964 103.59935 115.09126 118.73065 149.11537 148.70761 133.63947 104.45371 91.03154 61.31323 55.49923 47.48775 28.06168 30.74791 48.44708 52.61547 57.81350 80.25331 90.24205 108.62889 125.04170 133.20035 145.76580 163.46402 163.24837 191.08386 171.02853 184.74627 171.49714 169.66545 116.47771 97.33381 103.15678 132.30224 161.03753 147.74526 129.95609 88.51914 98.29239 134.17057 198.22405 233.29678 233.17765 202.99149 180.01456 143.10338 116.83228 95.99875 98.34784 119.54096 114.13126 98.26398 72.81722 74.29095 77.53032 77.45349 60.97040 54.00742 97.82757 105.80484 96.48557 109.48728 105.58961 152.60037 157.08757 201.59826 227.47965 242.27408 232.89297 226.78559 208.57500 205.15110 163.48565 128.57232 89.86533 84.55887 100.78845 96.21486 114.43827 121.48597 156.46570 208.70631 231.04889 222.57255 226.09051 227.53116 289.88785 336.30127 351.25187 405.62323 418.82372 431.70451 417.75291 369.05203 320.06839 260.30040 247.36815 229.30626 256.87507 248.71630 242.39413 220.66013 208.38090 215.21303 208.36566 162.94413 160.65931 146.16884 156.55964 155.14963 147.14432 98.85376 62.35339 58.94944 62.56652 71.42573 67.77662 42.65208 51.29499 48.42675 51.45123 71.58597 55.38900 61.28878 47.37145 46.43088 43.94203 36.56674 44.03389 48.52909 48.22578 46.37591 52.04506 44.72132 20.55789 -3.59999 -24.14088 -26.40181 -33.96909 -37.09431 -46.44201 -51.45981 -51.54227 -53.68282 -57.06205 -58.02709
153.38857 164.32398 192.23844 234.20056 279.08817 272.28664 236.19733 222.76416 145.56014 74.93518 65.71553 78.44485 118.23787 167.97184 174.66052 171.76356 189.56583 159.52648 141.61548 88.12870 63.33074 49.81182 38.47810 89.15324 135.31236 183.82289 193.40040 208.09727 205.86298 199.17781 191.55152 152.77287 110.28625 82.63358 50.72009 24.99446 6.59062 -5.18832 -2.37087 25.66176 33.02646 34.92724 33.58079 23.90511 -2.86651 5.56986 37.19402 43.90044 53.76298 60.62756 60.19509 52.90741 51.93136 29.62931 -1.67622 -12.48251 -19.29294 -17.60693 0.14724 32.65672 41.14218 42.17989 28.22292 9.74886 -6.25956 -6.75527 -13.30361 -21.97416 -20.64505 -24.79592 -27.64707 -17.72316 -12.25052 -12.70710 -15.20562 -16.31415 -15.04734 -8.52167 25.97942 23.31815 26.18096 24.69821 25.38357 23.70049 19.40833 11.64353 4.85481 -2.12338 -1.16844 -0.77726 -5.32372 -12.88017 -13.86839 -13.40848 -15.36881 -15.77351 -16.60621 -15.14164 -7.12653 5.03755 5.47835 5.06155 13.96965 20.28855 57.19565 72.35994 97.02106 132.12927 150.93515 136.56605 108.58171 93.88632 60.24537 44.18392 26.74453 18.60886 20.80983 21.24575 13.95319 21.61425 25.34642 11.23183 1.57992 -1.98688 3.95548 11.92926 13.79870 13.00884 3.11560 -6.99744 -27.73426 -25.41177 -24.84919 -31.75684 -32.81310 -19.76495 -14.95926 -22.61410 -25.85090 -10.22612 18.77033 33.90967 41.59227 48.33614 65.42085 72.40458 67.53008 83.34297 109.07576 119.67528 120.03416 113.49792 107.00227 54.93140 47.09795 30.46255 25.69736 30.04439 46.78717 59.43940 71.76584 78.28786 90.62105 104.69419 131.08173 140.51589 155.41647 168.83061 153.53112 158.99382 151.61448 142.31169 147.73106 153.93836 152.02612 110.60153 72.76468 78.64486 114.40032 142.56989 118.12080 103.43193 81.75590 102.78378 112.98682 191.75696 234.21026 219.16447 204.18519 166.07740 140.09631 111.81233 94.83081 91.80727 93.18002 85.50260 64.17810 53.87852 55.58813 49.52260 43.99914 34.44982 42.93776 86.28666 90.53805 83.25697 60.71715 100.82395 121.94559 153.83028 195.71966 219.52252 225.54760 211.94312 200.51379 188.97924 170.52603 152.40182 117.23789 101.10636 68.71485 69.30526 85.81617 117.28366 140.11294 188.99626 219.16656 246.68649 244.12620 257.22711 301.17222 335.06383 371.57072 399.40488 411.91954 424.62068 426.20686 409.38524 393.17085 345.68653 320.47783 286.94668 268.89338 274.49185 277.91661 261.04493 284.69617 289.58958 281.80221 249.58032 223.96701 173.54309 167.58375 185.85785 162.36177 117.12816 100.39725 94.62045 92.86135 93.81938 99.30094 90.21504 76.86559 69.67876 73.63648 83.65835 87.45442 83.07113 77.27988 65.50523 66.24802 59.52398 52.69499 49.13283 51.94418 46.73598 43.33417 36.20361 32.61737 16.11128 -21.64964 -21.55909 -23.01897 -31.62830 -34.78089 -42.06302 -52.56793 -51.90108 -55.54570 -56.56151 -60.43044
119.35283 165.82723 207.19515 223.31670 250.00024 252.90740 234.56810 217.14655 149.17644 121.23028 73.92899 56.44694 72.36009 102.93592 111.05484 116.24304 135.92279 136.45943 89.16371 78.31993 40.79518 44.69141 60.37614 104.05945 131.48932 181.68382 184.43598 197.07302 206.55147 204.50844 180.47911 128.70216 109.13503 56.45272 29.12912 13.97932 1.73216 -14.87224 12.18966 22.10572 34.82608 37.99094 32.11716 8.11691 0.51464 -8.20942 14.80988 24.30413 35.33737 38.15304 43.12700 40.09754 31.61453 8.88626 -8.94051 -14.97502 -19.94098 -16.93238 2.47866 26.39057 31.99579 36.94722 29.84141 17.24934 13.02191 1.05636 -5.08741 -22.21270 -20.97346 -28.15935 -23.21514 -13.20751 -7.61210 -6.78425 -6.50074 -11.85140 -4.95250 9.66464 16.97005 34.68107 37.97938 27.06505 19.92290 13.38093 12.60072 6.94416 -4.51556 -4.91778 -5.01146 -4.09877 -4.77572 -9.85286 -15.70748 -18.57589 -18.73917 -14.40604 -9.48056 -7.19985 -9.48087 -3.95513 -2.40740 -0.08767 12.96759 27.16003 48.05998 65.75001 94.81065 116.12510 134.92227 121.59175 94.14283 68.58927 47.15694 38.24456 28.87853 13.01434 11.72518 0.36947 8.31367 0.80738 10.12144 2.42497 -4.17337 -5.82440 2.74766 11.44132 13.97212 5.78720 2.45947 -26.47354 -29.35003 -36.06346 -38.42711 -35.52763 -27.51269 -13.78679 -12.89685 -16.78885 -18.40916 -5.71984 22.49837 31.35670 33.08421 43.75705 40.62450 45.52850 59.30042 77.99054 100.56881 102.55950 101.92626 95.88101 77.47181 33.06444 19.29733 21.30096 23.54617 39.86272 52.38380 81.74871 95.95682 97.82338 108.98652 118.82281 148.14001 164.66792 169.59587 160.29679 144.03264 133.05885 115.27525 111.42242 126.65918 148.49502 141.10487 100.25331 66.86877 58.12561 77.17274 118.88820 115.75919 98.35688 67.12885 106.11962 124.73215 172.41559 218.85971 225.74261 178.36396 140.04236 132.42879 110.03883 96.50830 80.27745 79.18738 70.24750 64.37247 46.10358 45.13989 46.30540 28.51657 27.55493 39.23553 49.24606 59.27415 54.18995 59.68194 94.52070 124.19793 154.56762 181.49913 184.87925 212.34254 206.02410 199.11298 191.21962 176.56248 148.99814 135.24281 103.35240 75.29526 65.68130 83.32534 132.16624 157.80305 197.33989 235.43902 259.00606 273.75957 286.97783 320.48732 354.90116 368.39527 393.66682 410.32361 411.01542 410.35384 405.73682 388.74282 353.01331 330.77012 297.91657 290.85331 312.79953 316.53032 329.63838 348.07984 340.84076 309.49775 250.76233 223.41714 226.43791 213.79100 196.47599 180.72085 132.97361 129.50817 126.67854 135.92596 130.99002 112.59461 115.89693 100.50583 94.11044 86.06435 97.11530 104.88085 97.42128 88.24391 72.15436 77.95390 72.77755 69.03897 61.04446 53.18687 29.85197 22.37110 15.96678 12.97562 -4.22044 -12.71115 -22.33778 -23.02474 -30.28296 -37.57788 -43.22258 -55.84805 -56.54869 -60.19388 -62.67877 -66.04127
100.94372 199.02216 215.52846 231.04024 231.17979 228.40980 226.50231 200.83616 158.47690 152.54255 114.96496 79.54952 56.95160 58.10286 91.04489 106.13683 126.96506 122.83284 100.26753 68.70588 37.77751 39.33065 67.71244 106.76150 137.66398 168.67942 164.53423 172.84376 185.11559 191.19893 163.91652 109.49719 63.62125 53.86021 17.08886 -6.32415 -12.49858 -6.83968 16.76162 24.92238 34.99232 39.83602 30.32081 13.40795 -11.12322 -8.40410 2.40897 15.00893 24.04328 36.62494 36.44576 40.98641 20.72207 1.50881 -13.62731 -18.18572 -16.69176 -7.39830 12.19783 13.76458 23.15687 29.99032 34.09349 32.56046 29.05169 20.27669 -1.15596 -10.22926 -24.42942 -28.07132 -21.97360 -10.78213 -8.34364 -6.24901 -2.52791 -2.13382 -1.46121 7.94922 21.64477 38.13031 40.92435 36.05301 24.25475 11.52638 8.12316 -0.33821 -5.73288 -8.75376 -9.38674 -11.14516 -9.33896 -11.39888 -15.63806 -19.29987 -13.90764 -3.97172 0.93940 -1.46441 -2.15361 -0.47659 1.09606 4.05495 12.87279 29.27503 32.60333 55.33198 84.61191 115.95701 122.12678 105.04723 84.77183 54.11812 41.43389 33.16663 24.06491 17.84142 5.74962 0.67408 -6.34959 -4.38136 -0.20035 -4.90583 -11.42120 -13.04494 -1.08235 8.45185 13.45601 4.02745 -9.96985 -24.55978 -33.56767 -38.79201 -33.49662 -24.92322 -17.13948 -3.96908 -7.06200 -17.40689 -18.43567 -10.36243 0.11065 16.53568 21.56298 15.62386 23.43473 34.69557 58.48236 66.76111 78.94590 99.09551 93.21634 72.46951 41.26157 22.66067 15.75938 18.42622 28.64501 47.70425 51.80128 88.25030 114.00436 120.90629 125.54501 132.87668 157.38485 157.06999 151.52602 145.01713 135.65031 111.17690 103.03933 107.81113 136.08304 148.08076 138.27447 97.94810 65.11587 54.55403 77.46284 93.97734 87.71127 68.47089 69.05027 120.57914 146.03312 180.79797 196.88806 196.07005 171.58773 150.85072 131.42591 119.90940 104.18352 104.18256 80.12050 54.30180 56.26479 57.67785 58.59946 54.93002 47.83206 38.76901 18.87061 18.76697 21.02655 45.30642 64.84075 100.32349 118.01741 143.77787 142.24722 134.33310 157.87740 175.43390 193.13168 191.48947 190.89684 158.84471 124.64575 108.96062 80.55700 87.70118 118.35564 153.83224 185.52408 215.00277 230.77740 253.54873 282.17291 306.09893 323.89323 346.53786 353.63277 366.73926 369.80144 395.41568 399.95480 380.84774 349.84584 332.82437 309.76434 287.31635 282.82016 308.59959 308.13985 330.94344 369.89967 372.88438 313.19932 281.49655 280.77860 278.91955 283.35248 260.79352 211.82556 165.18002 147.91957 145.70771 155.92721 158.65734 143.74076 123.49089 105.06345 100.05945 95.87398 98.03939 103.22577 97.57742 93.59357 88.49750 84.01565 77.41801 72.36668 59.53948 33.93972 17.94832 4.01879 5.27187 -7.72831 -11.98517 -16.57548 -22.86923 -25.58922 -33.48928 -38.13025 -47.10264 -55.72175 -57.84652 -62.78853 -67.12976 -68.76274
108.50823 191.40046 201.55238 216.85020 203.33708 191.89619 211.02030 199.93262 190.71296 161.72146 127.99468 100.55389 70.83669 47.34486 91.21377 141.10065 144.99649 118.17111 97.61968 61.15297 31.06359 25.20258 63.54707 94.21926 121.30295 124.20979 119.04160 124.04168 143.46894 150.99845 126.11674 107.45218 62.11424 31.66259 -3.49965 -10.15652 -21.13877 4.96307 16.61491 31.89495 37.60525 38.87861 30.54267 4.64134 -12.51406 -10.85126 -7.52209 8.08828 33.60333 43.64576 39.67413 38.56743 17.80470 -0.81973 -10.20390 -24.46951 -19.12154 -5.27732 6.10100 8.21455 18.40037 30.23081 34.56562 34.27800 31.41532 18.90151 -0.27278 -15.05361 -24.28919 -28.90196 -18.57801 -13.07578 -5.36356 -1.34713 4.79911 6.25927 14.15545 14.92836 22.05358 36.37001 40.01066 34.41451 26.95218 15.15004 8.40353 -1.06772 -5.14177 -6.14070 -10.09589 -12.81733 -13.46381 -14.54158 -16.41451 -16.44705 -11.42381 -2.42471 5.71532 9.60782 7.50796 10.54698 10.11238 17.88733 16.66834 20.76989 27.68054 54.80915 92.06457 107.87577 121.28148 98.30703 71.10096 45.76531 32.87569 24.29879 24.97980 24.51626 15.48732 5.57775 -2.68418 -4.79783 -11.77800 -13.92692 -13.94438 -14.21994 -4.71554 1.61664 5.14186 -0.08945 -8.83778 -21.99222 -35.89143 -41.63772 -28.43785 -17.65353 -2.03360 0.42491 6.93859 1.17492 -10.27100 -15.59535 -9.32230 -6.23098 2.59788 8.69308 9.03941 21.47931 42.86147 59.29446 73.17750 87.16482 81.59593 62.47650 25.86871 17.11987 18.52942 24.09629 39.46548 46.83413 74.03953 95.56062 121.76981 125.53212 134.96223 147.40161 151.22134 154.12138 146.65659 116.51213 98.65278 83.71516 79.10828 108.66785 132.93953 139.00925 114.06215 62.56437 50.47798 45.89059 69.12759 76.50577 73.25231 53.02573 81.92106 115.90106 136.45141 157.78627 189.12565 185.79716 136.68244 127.44748 115.17644 110.82172 110.95555 112.76288 101.92175 91.94087 81.98162 70.15711 75.21145 71.84751 68.67450 43.63352 29.36043 16.65935 20.09703 35.33679 62.88838 91.69898 100.54230 117.88704 127.43920 96.80260 124.37895 147.38181 182.08747 189.65323 179.05463 169.56426 143.06435 113.17496 75.80346 92.10314 118.00007 144.37620 186.20072 205.08377 230.38640 250.73036 276.83649 287.21284 306.22088 313.07356 329.18102 325.32218 333.03747 354.85747 341.81129 325.20412 314.54997 288.73440 264.91468 249.74339 238.73833 264.21100 287.20942 334.60714 375.78857 375.59518 356.16051 348.53783 360.65529 362.67427 334.83820 302.57812 252.74621 223.48873 184.20308 164.51684 164.25232 162.64885 147.22039 139.78141 120.33006 110.49430 98.89679 98.50304 98.01471 95.79294 91.13809 88.28502 85.61538 82.56556 65.14771 54.32390 32.51004 11.87941 -1.90580 -14.92387 -19.86513 -23.78853 -34.86118 -35.28172 -36.57747 -39.79879 -44.16763 -52.08663 -56.97424 -59.08536 -63.94662 -67.68560 -70.05746
117.06463 167.17899 195.80126 177.85142 153.24387 173.62437 194.85431 206.26385 186.84561 160.75321 158.56743 134.98556 78.68470 94.58033 110.44009 136.49984 144.68197 133.07479 94.62105 48.67606 27.96165 31.63447 57.88649 88.68519 92.88773 87.08927 85.74686 93.41599 101.05639 116.04477 119.61917 86.30672 60.01751 32.44387 -11.64860 -16.95698 -14.64247 -6.88517 21.66611 25.21208 35.21902 40.10968 34.28569 0.65293 -14.48927 -12.53511 -10.52330 3.30475 24.77814 37.36258 37.79449 36.66527 16.31173 11.35075 -2.63723 -15.89145 -24.19792 -11.93503 -6.29451 8.52734 20.96567 29.01408 27.28489 24.77188 22.34229 20.18930 -5.29245 -15.64683 -20.18557 -31.62166 -24.65027 -17.48260 -5.68456 -0.35324 6.14207 9.36344 12.14668 13.41975 13.93402 12.99145 24.03802 29.64454 28.35308 24.57588 15.57684 6.31656 3.99781 -2.73479 -7.88854 -8.43084 -17.18244 -19.39441 -19.99954 -15.53431 -8.10753 -0.68477 5.84866 8.15699 14.53939 18.57204 24.68261 25.90015 29.20072 37.31622 30.47293 61.14894 101.49763 115.64836 110.81699 89.95058 66.65758 50.22995 35.62435 21.11001 18.67327 17.07913 15.98756 8.03559 5.59523 -10.41675 -20.68813 -20.36865 -25.13764 -18.58770 -14.09662 -5.23342 0.67367 -9.01253 -12.96587 -21.69599 -35.79134 -37.41429 -22.87046 -7.77641 -4.67854 5.17039 11.05661 11.81354 10.65917 1.84838 -3.05397 -2.49319 -0.38456 -2.17867 10.09477 25.38544 44.46396 56.08971 65.92407 72.25865 42.84178 18.66955 10.35687 3.22469 19.83933 31.19411 51.29597 56.29940 75.42922 103.32510 112.74887 121.33766 135.70576 149.20569 150.57413 140.49211 116.01103 85.15672 80.12304 74.65563 84.44543 101.94393 126.11740 128.80763 96.62097 57.50080 38.34639 32.20112 43.16129 55.30178 47.99224 41.33262 89.42273 108.05207 131.23156 153.83087 166.42162 157.98614 131.02068 113.09410 90.25617 85.64029 100.13785 109.69180 121.21751 108.51305 117.64752 108.95850 95.91851 97.03349 93.57249 52.16646 21.97855 18.68799 15.35479 15.80887 39.61590 75.16075 71.48388 74.09169 80.65254 101.47444 113.10551 148.23173 159.38660 170.39475 163.47426 151.49666 136.42214 110.34148 87.40992 90.59550 108.63769 144.43876 176.26203 211.16165 231.77706 239.68374 242.03329 238.97179 272.88428 263.34346 296.94607 298.43983 314.64303 330.52798 287.62323 285.89108 277.30100 272.88864 245.52086 234.93465 209.71002 258.19114 280.90736 342.95052 392.55876 398.59300 394.94153 376.48258 378.19969 389.66160 371.06318 344.25445 284.73428 227.18275 176.95009 177.72614 174.07151 166.26318 159.88314 139.35647 127.13331 111.11669 106.14567 97.37860 93.03755 90.87980 87.25775 84.93756 82.02113 80.38209 69.12227 54.08720 38.01642 35.04855 7.53239 -11.24507 -20.42440 -32.15447 -34.01789 -45.73378 -50.21541 -43.57309 -53.41808 -57.61235 -60.84664 -59.91945 -63.30375 -64.77048 -67.60773
128.27124 149.55132 162.39540 137.81301 134.27504 149.90301 171.09095 193.98431 185.84873 146.92330 147.72264 127.04039 66.85118 72.33626 91.46955 121.41996 129.84448 106.42243 102.34289 54.55044 18.11943 19.82333 39.53247 60.03917 68.97301 56.71161 52.18613 69.26086 97.87329 123.99795 123.58494 108.50571 56.94577 26.60952 -6.86001 -12.16595 -17.99463 -4.16480 10.89492 26.21435 26.96664 30.42434 16.22018 7.13430 -11.69259 -15.96333 -6.72056 7.10901 16.67226 28.02199 28.01301 28.02627 20.35781 12.99430 8.13461 -14.09218 -21.87025 -15.55946 -1.66733 10.91396 21.86615 24.69864 20.60540 17.87691 16.67188 6.99217 -6.77957 -10.86831 -22.37410 -29.31321 -29.10355 -17.47214 -5.89888 -4.23143 -1.58855 5.37460 9.63877 9.81162 7.46944 6.53463 18.10323 23.26209 24.01555 24.16327 19.98289 16.14291 10.43786 3.09259 -1.78130 -6.21693 -14.93076 -16.40637 -20.72476 -16.90250 -9.10225 -1.15896 2.81608 10.16855 9.01551 15.53572 21.80394 24.71612 35.94807 46.19891 53.60884 109.97917 114.42349 111.76233 101.17995 89.34911 62.39613 46.04813 34.78855 22.95867 15.54823 12.91842 12.26886 11.68471 3.37893 -5.17206 -23.10461 -27.37927 -25.56151 -23.81226 -14.17495 -10.37449 -7.32141 -12.29473 -16.89417 -27.20405 -35.38442 -34.54922 -24.17747 -18.08250 -5.10108 -0.15350 9.18255 9.88640 16.09583 24.39968 19.21142 14.94289 4.05782 3.00431 12.93244 24.89603 44.13396 62.47469 71.83311 64.10012 45.25220 28.60172 9.57758 8.31033 13.01188 37.80107 56.06840 64.13606 94.76465 118.69942 134.11576 140.81467 147.23451 152.56354 141.02636 130.72588 96.79192 72.10758 70.03508 60.52243 70.41811 94.63881 109.25565 98.72390 91.36535 57.00552 38.85460 25.43602 28.62684 38.29046 38.56873 35.41038 70.74741 113.43390 127.35828 148.17135 153.66780 140.19859 101.96394 68.01890 67.23614 64.27124 75.69577 100.88463 110.80361 120.19764 126.97282 124.12169 119.95158 109.56359 108.08845 74.06128 37.25502 24.47970 16.65016 17.24136 28.54223 42.64313 33.95729 46.42490 54.08758 103.56363 116.36672 145.41159 150.85937 147.87110 154.59599 142.00074 136.84060 108.82550 62.86816 59.52731 101.53340 129.51930 175.01377 191.35127 220.44415 229.93977 217.01465 216.90182 198.69551 213.59148 228.01699 271.11823 276.84729 283.37367 268.81856 247.36188 245.16050 260.22689 239.93905 185.82168 188.33200 257.73235 306.08528 345.54694 375.33082 377.89653 387.17587 372.55720 374.68185 368.55002 364.80057 357.71242 290.23822 249.14428 203.08229 170.40290 169.43566 156.64784 155.81206 141.16730 131.54975 116.92651 108.50283 100.68116 93.35633 93.04926 84.65271 79.20346 72.90590 78.36840 75.58739 63.06413 59.23353 38.07068 12.03706 -5.30176 -13.91367 -21.52295 -29.75317 -44.52614 -47.61727 -47.22173 -53.47922 -61.04305 -61.31219 -59.84492 -61.91088 -63.69752 -67.58156
88.09555 133.57825 130.45075 109.85528 106.72669 118.48744 162.98968 164.87416 178.75488 141.81506 123.50302 69.72450 43.89988 29.61486 76.60465 96.85784 97.42558 86.70551 86.62178 65.88894 49.55684 20.98806 16.90840 32.25535 30.70607 37.77085 39.19109 52.56184 92.52579 126.25344 137.55027 110.21730 92.44628 22.50730 -6.42577 -8.13886 -16.70195 -11.91993 4.54351 16.37005 20.48445 13.56692 14.57426 -0.13874 -8.82471 -16.10760 -13.50078 4.96952 13.76202 22.52287 20.30311 25.37224 21.04360 19.77705 13.17329 -15.48584 -21.37111 -16.41728 3.93864 14.55044 18.55073 20.88327 14.57681 10.61697 4.82941 0.40176 -7.59311 -19.24444 -24.46796 -26.38663 -27.73674 -24.20025 -20.25656 -11.05448 -4.01170 -0.97556 -2.02427 -7.24219 -4.03097 4.21785 12.98612 19.26509 19.71592 21.65669 19.83161 15.60686 12.89024 6.66114 3.45571 -3.40017 -6.42313 -14.86902 -18.96846 -17.14103 -12.23756 -5.81387 -1.30819 -0.26231 0.69005 2.02182 14.98430 22.27423 32.11458 58.52567 75.48335 102.78696 112.99662 109.28961 89.76533 71.55063 54.80780 33.86776 31.60061 13.51242 9.01297 5.90204 9.55861 9.75826 2.60274 -1.97473 -22.54617 -24.87897 -28.61540 -25.30226 -20.12113 -10.69446 -12.46003 -15.76607 -24.84021 -28.87458 -34.93161 -31.88174 -28.97974 -24.83378 -23.56058 -9.14096 -2.89837 6.90212 17.71334 26.91466 37.67084 32.39617 12.50603 10.89779 16.40326 29.62905 52.59723 62.40260 66.90130 62.57162 48.01033 31.26811 14.06082 6.65642 3.63492 33.22788 72.36617 87.45565 103.71543 135.08803 144.72985 158.57271 160.72809 155.77329 131.39158 100.91901 78.95076 65.67017 53.71437 59.01729 70.94227 76.90597 83.98317 98.00425 68.59037 57.11321 32.59660 16.70391 12.86398 16.05751 25.09379 36.82742 68.99801 82.65121 116.84344 129.09459 129.52804 106.03237 85.69645 61.18716 58.66322 58.24479 62.69873 85.10445 102.57484 122.12683 128.89218 143.47016 133.35086 124.02024 117.28683 82.32393 56.89886 36.66939 31.45904 17.04073 19.50394 22.00543 25.22428 20.75979 44.77011 64.17255 100.85072 123.64068 119.85521 122.20725 150.96224 144.98946 136.31712 95.01670 67.02248 59.13562 73.26687 139.89117 149.72816 174.20636 188.43874 185.94237 167.62724 155.68232 168.77159 182.29825 227.55802 251.45644 245.53085 238.67230 217.81472 207.01530 230.95498 225.60907 184.71115 181.82675 186.01126 240.76274 288.54436 323.31985 332.68220 359.29556 367.24520 361.15133 347.66598 351.46584 367.91135 365.56412 319.08751 251.86420 195.78084 163.02091 146.93446 140.94096 138.12307 137.52313 120.46483 105.84977 104.06290 100.19678 94.68670 85.65054 79.60448 73.44413 71.64966 72.32669 78.80614 76.98068 70.84308 44.36756 34.35440 -0.79482 -5.18719 -14.99052 -27.42009 -33.43748 -43.71024 -46.07298 -49.04457 -56.23803 -60.46266 -61.36631 -63.12115 -68.20092 -70.03505
76.88233 103.53460 84.59778 81.69792 90.44531 107.29105 119.39782 126.62440 154.80654 142.18464 113.56641 66.62735 41.01780 37.42799 32.31048 52.57553 61.60503 68.47858 90.55993 80.75774 68.88397 39.21956 18.10225 -1.40457 0.28735 11.85135 36.34874 59.62938 99.22527 119.50093 128.98507 104.68616 69.14089 30.71574 19.96447 1.21786 -15.42786 -21.30147 -17.47447 1.93529 2.78632 3.31676 5.79051 5.32582 -5.50061 -15.90125 -18.23211 -12.29217 4.28399 11.35231 16.07283 16.22519 17.03476 13.34633 10.36810 -6.70256 -22.21226 -20.17949 -1.54687 9.78447 11.91652 14.66543 12.15110 4.60828 -5.38377 -4.33530 -4.45070 -20.79619 -25.04114 -25.42024 -27.50124 -24.85847 -20.92387 -18.01217 -8.01857 -7.59331 -9.13741 -13.28895 -5.98517 -1.06335 3.80736 7.73241 16.63613 19.75717 16.14963 15.05227 13.25090 7.95944 0.32862 -1.81957 -5.26869 -12.66624 -17.70531 -18.26374 -15.36746 -14.56287 -12.86250 -8.28493 -7.79314 -3.27782 5.39723 19.68208 34.93889 61.86649 77.85903 101.29585 104.95541 105.51640 74.01467 45.66489 30.87717 15.70392 10.98874 5.34706 1.85025 6.41368 10.98887 10.74059 8.98674 6.41732 -7.35403 -20.29704 -24.73415 -30.17408 -23.14714 -21.80476 -23.29565 -29.46321 -29.50881 -30.20826 -30.17866 -28.66087 -27.10676 -26.20883 -20.83853 -8.11639 3.83278 18.76380 23.17796 47.39704 47.21579 47.14599 25.86916 14.12512 29.83350 35.49211 53.38437 68.26741 63.31674 48.33826 35.51381 27.96211 9.58312 -1.86530 13.03153 35.69615 75.75782 80.79314 103.27334 125.04406 147.17763 161.23827 160.51695 154.24352 133.75857 102.93644 77.58373 58.21018 50.69905 51.27863 66.16219 74.01379 72.41349 69.05855 62.47372 32.21802 19.81251 15.26611 10.91147 11.80045 27.50092 50.46904 61.32706 85.65653 95.61328 117.40805 104.32396 94.47839 64.51328 57.64166 46.91343 46.08041 57.36017 78.27055 93.92227 107.54129 128.15942 134.82722 133.51698 121.67004 116.28144 94.61490 72.64406 67.10968 47.61858 37.39024 15.10299 6.81834 7.58105 21.31865 44.77688 63.64635 68.94223 88.91353 97.76880 113.90334 130.01497 147.99298 133.23823 90.27526 63.82384 51.44325 75.34062 120.50879 145.97773 156.10414 137.79109 118.25937 102.24409 124.82301 122.41800 157.14464 206.09961 223.76791 218.38596 189.66844 173.12877 161.71523 192.25576 180.27499 166.30566 129.11287 181.93693 219.18768 256.79132 280.31595 312.56805 281.20029 293.84183 290.50700 310.75600 349.16263 365.34750 368.16523 345.35159 271.03700 202.57507 154.31352 126.13362 118.64254 118.81585 123.68420 116.66937 99.92915 92.20122 93.77186 90.18277 89.48698 80.27825 77.36339 70.71458 68.45031 75.38720 81.85040 71.27312 61.95710 26.38452 14.43256 -9.22454 -15.06056 -27.40175 -33.59142 -40.51310 -42.45470 -49.92863 -54.77026 -57.97110 -64.33344 -66.95866 -69.43690 -72.85330
41.72712 55.76663 51.62941 63.19096 84.91002 101.17449 110.28004 106.43152 124.26391 145.76868 141.45211 110.46933 60.46106 50.65208 30.51880 10.68254 35.74336 77.65468 80.66919 85.11348 92.85320 68.14945 28.29077 -6.28284 0.57262 12.63055 48.96822 82.43984 106.11930 108.02271 117.85640 105.14244 86.70567 68.50032 38.73951 11.29405 1.19793 -18.46647 -19.32821 -15.76787 -7.95488 -5.96936 0.15042 2.03306 -7.92907 -17.65640 -18.94691 -15.79998 -5.39954 2.82722 2.37047 3.85638 6.17772 2.20739 -0.44941 -14.42106 -28.94578 -26.78147 -14.53073 2.00319 3.16373 8.58446 8.74499 5.38983 -5.67862 -10.51260 -14.49310 -21.15442 -21.76972 -24.09884 -27.31892 -27.07708 -25.79006 -19.30357 -13.39105 -9.92824 -13.34767 -15.24904 -16.77495 -8.15397 -6.19658 1.19520 6.54905 12.99455 12.55026 10.38075 11.49942 6.52313 1.67000 -6.75925 -8.74130 -14.08805 -19.82445 -21.99014 -20.95693 -17.24638 -16.27611 -13.74596 -9.39698 -7.21463 3.61129 18.90685 36.70098 45.26537 69.84176 86.64235 97.47242 84.29523 67.04690 37.77415 19.89670 14.02305 1.66026 -2.78031 -3.34413 6.08050 10.61292 9.09345 9.48193 8.73428 3.43384 -8.11466 -18.56819 -33.21768 -31.81324 -23.50644 -28.68986 -29.72172 -30.63242 -30.58632 -28.94550 -26.06207 -21.44106 -19.73034 -18.55126 -3.17829 22.31428 32.62087 47.89790 60.98603 61.02607 46.86718 36.85518 29.83374 35.86144 48.75348 62.68528 65.24494 57.38621 41.46548 25.07521 20.31196 11.04046 3.51991 20.73803 25.79048 69.18582 81.75258 94.55956 120.18769 140.35343 154.44242 158.86351 145.30723 129.71455 104.16351 78.32151 66.37345 44.74234 41.29439 50.62218 69.74169 61.92225 63.56938 43.25481 23.67709 21.28177 8.03039 7.16728 18.89472 36.66115 54.04129 69.63104 75.60534 85.33007 83.06159 81.71310 66.09421 63.24849 41.12654 48.40107 51.97629 58.14292 74.35408 93.08576 100.11701 116.35571 132.20539 129.03889 121.54583 114.46066 111.97728 103.05364 89.53926 63.16158 53.34246 31.68693 12.96033 8.72338 19.83107 33.42282 53.20421 61.67550 63.60851 78.16267 83.18684 140.67813 142.60810 136.86806 93.70423 62.67689 51.94943 64.31338 94.71080 126.89674 136.53692 118.78960 80.49274 87.14135 94.23152 97.86505 112.31299 132.45438 180.17976 171.20099 151.68581 141.21418 147.80187 142.15799 154.25490 131.08926 130.67426 185.30590 230.22919 241.81736 263.09878 270.47568 256.32934 232.43771 235.36852 281.60434 337.41569 344.51607 348.79040 321.75515 261.30166 238.13599 169.09029 140.42374 114.66716 104.68540 115.61158 113.54691 91.82952 81.27025 80.29756 75.92925 76.18742 75.45683 68.42898 64.94663 62.21066 71.79881 76.71277 70.81850 58.60151 34.45965 21.32387 0.47129 -15.72686 -27.22735 -32.34299 -34.65676 -49.95615 -52.13505 -57.16938 -62.05056 -66.24903 -69.90000 -70.92357 -73.43828
33.67606 22.41906 38.31981 43.29966 52.85448 78.25552 100.08690 106.41846 109.64495 135.09051 136.68516 126.80449 112.30246 86.22421 33.16075 12.67416 12.69841 33.28795 80.40378 90.02685 90.05579 83.73046 47.53732 7.87352 4.73853 18.67065 55.01071 93.05508 101.97614 105.75128 99.85591 93.49175 94.88961 84.64197 64.26746 33.75569 19.56453 -12.20400 -17.51540 -23.79922 -19.79495 -15.30226 -7.17874 -3.00320 -5.94870 -15.09467 -21.06364 -17.82642 -14.10066 -8.40140 -5.44608 -4.02211 -4.39376 -7.63619 -9.39466 -16.08762 -26.39931 -26.45354 -20.14923 -10.72249 -0.51369 1.76067 3.47244 -0.98885 -9.54471 -13.95592 -15.72197 -16.87154 -18.40931 -25.90249 -28.74152 -28.81191 -25.26212 -18.78904 -16.11239 -15.49822 -16.53841 -19.04221 -17.58016 -14.04777 -8.60464 -7.24873 1.76333 7.56561 6.29555 8.68264 7.04052 6.28168 -0.89609 -7.10970 -10.63491 -16.02985 -17.76342 -20.44154 -20.86867 -19.23402 -16.55334 -13.63757 -9.73909 -3.53358 0.16892 11.45168 28.20573 48.12944 70.97211 87.14344 95.34147 91.13518 73.02782 50.59291 18.29604 10.45432 -0.81487 -7.26272 -7.11366 0.72040 6.59423 7.52563 8.29993 8.03678 0.12937 -4.93422 -15.61441 -26.46024 -30.29709 -27.38268 -28.00370 -29.17908 -29.03905 -25.34850 -20.96007 -19.80479 -17.77281 -14.58469 -3.76269 14.99307 25.47300 40.75515 63.75151 77.81203 65.79325 55.88641 38.56685 36.28543 59.23332 63.59122 64.52394 65.26257 55.06729 38.20193 23.87233 12.13441 -0.71465 11.34906 20.74757 44.44249 48.17866 70.00861 94.81093 121.63514 138.53940 149.55428 145.17985 134.08911 120.76794 91.07357 82.65777 67.54464 42.57655 33.90455 38.39117 41.70196 51.52826 44.14754 41.24391 28.71069 16.12809 9.18586 5.72802 18.71940 39.03965 52.97630 65.50736 77.44840 84.59836 84.94146 60.09011 47.43756 38.60048 33.92692 35.77913 51.90858 58.86671 59.97820 83.93537 102.14687 108.34491 112.61071 116.16587 118.73768 114.22161 116.41899 109.32958 97.34794 67.36697 57.01275 51.15244 27.20044 7.97717 21.02963 33.35327 49.97190 49.55676 56.17428 78.12183 93.65032 122.94896 139.88297 135.56505 115.13892 89.47988 59.11262 44.57922 82.97212 117.09167 109.12332 97.21421 66.12083 61.43647 63.68208 84.52074 96.72188 130.93950 127.22019 119.94821 137.00923 134.77918 117.52274 118.41181 103.14999 100.74889 117.56725 155.00300 217.51693 246.27713 265.74015 257.39193 187.02057 163.72176 190.97598 252.31514 316.91820 315.36232 324.62713 307.36607 286.07370 198.45991 174.01278 134.33371 127.15974 112.98672 100.96831 99.65865 87.47423 76.85247 67.22633 67.57522 62.00235 59.75808 59.27424 54.20909 59.17507 62.87870 72.09861 70.23056 52.07963 42.00581 28.15457 4.75450 -16.95284 -24.87663 -28.36900 -37.13250 -45.62269 -53.42047 -60.24422 -63.20774 -67.60465 -71.08794 -71.67049 -74.46763
39.23203 20.83773 14.56589 16.91194 34.52710 40.36170 75.45929 80.12197 92.85160 120.32081 133.91405 122.08007 93.09110 83.92891 39.01895 1.37981 4.39823 40.73129 75.52510 96.38616 98.17352 76.06349 46.67820 5.16921 2.68101 30.37402 55.83503 83.83138 100.23353 94.34536 84.56225 78.43059 86.11097 85.16059 74.24149 53.12084 23.95765 7.22291 -9.51500 -16.68012 -20.53695 -21.37783 -14.35253 -6.47762 -10.20192 -12.59511 -23.01145 -22.29806 -19.40237 -12.16051 -6.99334 -5.31773 -9.39533 -14.76773 -17.90626 -18.73343 -26.70859 -25.64831 -17.70603 -10.18243 -6.59951 -1.79951 -4.10380 -4.90411 -9.42768 -12.11691 -14.14476 -14.76004 -20.00083 -24.49202 -27.23289 -29.67546 -25.94141 -20.52144 -20.55670 -19.18817 -21.72582 -22.33141 -17.35920 -14.58533 -9.60616 -6.18207 -3.74180 -2.88845 -1.69515 4.00454 7.79366 5.28479 0.30494 -6.74583 -11.13309 -13.09519 -16.79025 -19.71402 -21.04292 -19.51538 -17.02423 -11.94463 -8.41895 -6.65230 3.25151 14.83343 29.55795 55.36488 79.86628 88.06692 89.06707 78.06073 64.40906 57.53835 11.89716 6.32725 -2.90964 -8.75159 -11.59780 -8.49820 1.38184 1.66557 5.97315 4.11065 -6.87539 -8.22072 -14.01579 -26.27604 -26.24196 -27.48354 -27.63924 -28.88938 -23.04894 -20.05556 -13.46209 -12.34124 -3.69162 -2.33518 8.60408 16.08715 25.81606 46.72908 68.60293 80.90937 66.72507 56.85126 51.03728 60.23824 65.90134 72.04047 67.57835 66.26858 58.89951 32.04429 11.59388 2.59582 -0.98301 10.07658 27.10806 46.11268 56.32123 79.90803 109.77188 127.72138 139.50070 140.96992 136.35569 116.82235 102.56605 96.14405 87.39265 86.10552 52.42226 30.79620 30.04470 23.80402 29.59942 35.57823 26.10039 22.89818 12.70359 4.60149 12.19240 24.06133 44.97742 51.20448 60.69911 71.46860 73.39147 65.53468 46.76189 33.33599 27.92653 16.43436 30.81482 42.92823 48.80598 61.90946 81.53451 96.78303 95.41238 98.08665 106.63635 102.60354 101.18986 106.28011 121.76624 115.09678 88.49867 69.17400 54.07421 36.82845 14.63451 12.33165 32.41819 49.18643 47.34490 46.90523 70.25988 99.53914 114.84582 127.52648 140.05859 123.00807 90.99268 59.20376 47.05261 53.48945 74.72122 62.67753 55.04781 37.85289 41.23632 52.07796 60.23323 85.59534 101.26982 102.93943 86.16437 97.72015 134.71761 133.92238 88.28801 78.04290 82.90096 110.17279 134.01745 225.98689 238.09426 253.67161 227.10837 148.77082 123.68754 132.52459 212.46580 286.36888 304.30313 272.63372 250.74343 242.96335 183.39995 138.77286 135.31727 118.61607 107.48990 95.98232 88.30595 83.66529 79.94585 67.59413 65.00185 56.74550 54.77800 50.70516 49.64018 51.52391 58.15305 62.50143 63.23111 50.60527 34.81012 32.40699 8.89754 -12.68375 -24.86247 -28.96504 -40.20272 -47.72629 -54.83957 -63.04000 -64.17287 -67.59996 -70.49746 -71.89103 -73.71430
46.95839 35.22450 10.88444 7.42293 6.81099 11.75302 42.93199 70.78073 88.77516 109.91421 123.69558 119.82220 103.69719 74.53541 29.49278 5.37877 5.04721 39.63090 70.87324 86.98405 84.79896 70.94485 22.70090 5.34054 2.56786 29.61652 56.35406 83.80718 99.99866 77.63494 63.85679 46.11188 57.23045 71.83751 81.03327 61.62366 45.41332 18.22200 9.83348 -4.89736 -11.20389 -19.07655 -21.46033 -13.86882 -15.44580 -17.70516 -23.32352 -23.63503 -19.48023 -13.58381 -10.52018 -8.59120 -12.70658 -18.46884 -18.27186 -23.21054 -24.62663 -22.86096 -17.56058 -14.29802 -11.54170 -10.72398 -9.96588 -9.29212 -10.26297 -11.84982 -13.84880 -14.87318 -17.13086 -23.85167 -26.37201 -27.75675 -27.75640 -23.72814 -24.99556 -24.32433 -25.72144 -24.14255 -19.64193 -17.88939 -14.86935 -9.65945 -8.10545 -8.84756 -6.51797 -1.04778 1.32180 1.99811 -3.28955 -4.49660 -10.24645 -13.23316 -16.81224 -19.61433 -21.01861 -20.12069 -16.93052 -11.38158 -5.55689 -3.08395 5.74356 14.92897 31.11962 49.18048 81.73634 89.53683 83.58837 63.67482 67.16879 46.96266 5.49862 -0.51470 -2.63739 -9.47905 -13.27031 -16.42480 -10.43216 -3.66183 -3.78038 -3.69873 -8.90798 -5.40174 -13.08753 -26.56146 -30.20904 -28.18205 -29.68820 -28.63957 -21.76674 -14.69491 -10.32413 0.60769 6.89764 17.72836 16.19671 26.62514 38.79679 52.44601 76.82538 82.24430 79.16500 65.67234 61.69221 65.99824 78.07897 76.57514 74.89996 59.46893 51.09803 11.43317 4.88646 -6.66646 -1.93828 25.57550 32.13474 54.85394 73.03624 87.26571 115.82195 126.55086 126.30255 127.21467 114.47829 97.30494 94.63754 94.24228 90.16817 83.23642 76.53862 46.58381 37.19249 30.01011 25.98680 21.45491 21.20556 16.17347 5.42604 0.32007 11.76002 23.82796 39.81201 42.55209 52.54390 64.38619 72.08103 63.08018 45.34495 30.85644 27.59946 23.16812 29.82642 34.59240 46.29943 58.35599 80.15645 91.99958 87.24419 87.03204 91.64606 94.26130 92.76022 95.49500 108.34880 109.16164 94.33326 63.05360 54.93110 34.48637 12.58170 4.17711 25.89846 38.97394 38.40883 35.44080 65.16509 74.48054 95.69362 123.10838 145.87604 132.43518 115.80955 87.10428 44.44898 35.83078 43.61937 39.34193 30.84527 20.81194 26.14057 42.69938 68.21409 68.65344 77.58530 57.35633 46.15386 92.69093 115.51719 116.78511 92.32755 72.50754 86.08761 88.72969 121.47540 168.34456 207.65424 201.60251 139.05914 119.87688 94.36174 153.95503 181.67560 234.15542 269.49940 227.30731 185.90242 138.42055 131.53379 124.51914 123.44011 120.31291 108.60107 98.47040 93.90948 93.17786 88.99752 84.11929 71.87118 67.42469 56.22070 51.23659 47.82528 49.16578 50.21529 59.51010 55.04067 49.62458 39.22039 28.67730 9.19234 -9.61865 -26.39177 -37.54413 -39.66295 -48.39610 -56.11546 -60.52971 -62.52630 -63.28587 -68.02587 -72.60160 -74.85909
