-18.79328 -19.84054 -20.60357 -21.51496 -19.36834 -10.01592 -7.80564 -4.48666 -1.88384 3.52076 -0.14241 -2.58789 -13.94253 -23.18807 -25.05839 -36.98387 -46.47820 -46.72033 -45.83264 -32.66171 -21.81169 -18.84153 -12.38053 -11.99227 -15.14502 -17.75406 -22.49450 -24.64194 -32.06929 -38.60634 -43.93016 -49.57231 -48.59983 -45.36726 -38.88567 -37.71855 -43.32175 -44.89470 -44.34914 -33.59490 -26.91344 -24.82724 -28.55079 -32.56812 -49.35561 -53.01487 -52.72459 -54.65938 -49.68898 -49.68226 -50.55991 -50.48296 -50.93284 -48.92568 -51.42020 -53.35810 -57.98079 -58.84609 -59.20091 -59.21920 -57.39015 -55.00767 -54.77471 -59.00056 -59.09855 -54.83830 -55.31894 -55.95800 -60.59793 -68.04470 -70.08742 -76.52383 -79.95769 -80.73056 -76.64142 -72.69930 -68.33262 -64.57356 -61.53693 -61.25783 -63.71008 -69.29617 -74.78031 -75.94636 -77.64936 -76.13531 -73.80698 -72.32468 -71.03525 -69.38480 -73.76068 -76.50080 -77.58614 -73.80328 -71.86480 -66.57018 -60.51132 -61.24574 -65.78997 -70.46786 -71.68398 -79.38457 -84.72583 -85.66493 -87.45845 -84.94338 -86.68341 -85.41801 -85.59192 -86.50725 -89.92940 -91.59541 -86.69698 -80.33022 -71.11054 -65.58378 -59.12030 -57.31630 -57.59195 -59.13591 -61.49036 -63.50560 -65.62343 -69.31693 -73.34945 -80.72770 -84.28108 -90.26392 -92.81391 -97.14231 -97.84690 -103.16847 -104.26484 -100.79285 -98.81776 -92.60706 -89.50779 -89.34640 -83.29542 -79.00008 -76.88594 -78.71849 -76.41803 -72.83107 -64.05683 -59.81185 -54.52560 -52.71321 -50.76054 -52.66376 -55.31490 -56.63696 -57.22054 -62.92502 -63.77244 -66.20413 -71.06609 -74.67692 -78.30380 -77.00862 -73.77630 -67.13979 -68.50838 -67.33084 -66.22078 -65.66193 -66.27411 -66.06327 -64.05603 -62.32097 -56.76668 -53.97440 -51.52383 -48.84009 -46.30305 -45.28573 -47.53286 -51.32567 -57.69764 -63.03312 -71.73643 -72.32793 -76.15048 -80.74140 -83.19124 -92.09537 -93.97377 -96.31432 -92.93363 -87.12350 -81.58700 -81.93558 -78.62120 -77.61671 -79.46692 -83.42311 -83.21601 -82.96917 -82.66508 -84.38829 -81.68045 -83.39231 -83.12141 -85.46284 -87.61734 -88.12911 -86.81757 -86.58752 -86.80671 -85.81350 -83.81111 -80.34206 -77.00168 -72.30497 -66.13763 -64.31225 -63.55009 -64.93238 -66.25049 -65.53242 -64.75413 -71.02513 -69.09790 -63.81269 -59.28324 -57.83889 -61.13945 -64.27282 -67.09927 -65.55303 -65.31769 -67.36398 -66.58172 -65.87871 -64.42906 -65.22598 -62.11274 -57.31656 -47.55384 -41.22737 -40.37818 -39.99162 -40.45540 -42.24693 -43.04166 -48.43409 -51.74575 -51.67934 -52.27197 -51.70045 -50.61401 -49.35595 -48.70518 -49.61001 -49.64877 -48.23073 -50.45125 -53.75348 -51.16112 -44.02726 -39.69266 -39.28736 -38.79148 -39.27903 -33.25631 -31.63408 -28.55659 -26.99980 -24.68740 -24.87038 -24.43546 -24.07881 -23.32183 -23.31072 -20.62580 -19.51461 -15.99040 -15.44545 -17.10477 -21.65797 -29.68359 -36.34144 -38.16621 -40.07029 -38.71739 -34.43477 -35.77916
-28.26143 -32.32798 -27.61598 -27.29169 -18.82444 -10.88991 -10.28696 -7.52966 -3.84611 -0.68176 -2.29266 -4.26663 -10.42418 -19.63319 -23.56514 -31.15953 -42.42805 -49.49519 -47.22154 -33.98313 -23.51211 -21.21799 -12.86814 -12.56748 -16.28791 -18.45583 -24.10655 -24.96280 -29.14407 -31.50711 -43.66750 -47.35273 -49.07475 -48.58047 -42.98559 -42.17712 -45.73172 -47.95400 -38.48959 -32.49357 -23.86117 -24.40203 -27.09378 -36.18647 -47.99425 -50.57401 -55.97771 -56.94278 -54.95656 -54.75800 -51.72131 -53.89694 -53.93667 -51.99033 -50.63839 -54.43400 -59.47259 -61.71555 -65.49962 -61.06680 -58.75296 -59.63702 -61.32058 -64.48170 -65.91485 -63.20117 -58.61931 -61.28735 -60.98352 -72.20043 -74.32371 -76.80450 -80.32130 -79.39349 -77.28517 -69.86891 -67.12481 -61.97527 -60.12346 -59.92503 -61.97917 -68.56341 -71.85098 -75.04572 -75.76918 -76.15807 -74.95046 -74.57949 -74.25824 -73.80952 -76.21436 -81.33164 -80.81532 -78.37564 -71.24154 -64.74610 -62.16130 -62.40800 -67.77856 -72.75917 -73.22879 -77.67681 -76.66374 -76.80284 -78.49173 -82.04755 -81.62207 -85.38581 -85.19202 -86.44585 -89.21365 -90.81286 -90.76186 -77.75846 -69.52810 -64.08238 -61.85151 -58.49610 -60.67084 -62.31343 -63.14463 -65.66751 -65.95552 -69.19139 -72.61348 -76.11104 -78.46289 -83.98146 -88.26195 -95.61689 -97.69528 -104.69401 -103.38351 -103.23193 -101.10517 -95.20342 -92.33714 -85.30786 -79.83968 -71.81470 -71.20119 -77.04545 -75.21847 -68.86549 -65.06825 -57.38799 -53.96927 -50.43997 -49.11214 -52.32254 -54.44365 -57.39907 -62.09685 -65.15093 -65.32356 -65.12908 -71.50160 -74.82829 -79.07904 -77.35872 -74.49708 -70.06828 -67.70591 -67.34145 -66.93587 -66.09818 -66.52366 -67.14818 -65.87399 -63.05367 -57.54345 -56.00144 -49.78156 -48.71535 -47.49076 -45.97226 -46.51551 -52.71043 -54.26032 -64.24576 -68.79620 -75.94928 -79.15296 -83.03414 -88.30658 -90.20244 -94.12092 -97.20441 -93.64846 -89.42843 -87.14049 -83.82461 -86.22337 -85.40789 -90.31048 -88.78450 -90.14920 -90.19958 -88.64796 -86.81066 -87.90846 -85.71553 -86.32042 -87.56734 -85.92396 -84.62766 -82.57554 -82.62655 -84.96648 -85.82457 -84.82389 -81.57378 -79.46485 -73.86020 -69.19645 -69.07086 -67.23001 -67.38587 -68.35436 -67.94681 -68.62333 -71.20526 -71.46386 -65.50528 -61.63768 -60.12576 -61.27419 -68.16160 -70.07397 -69.61586 -66.71306 -66.60324 -65.47129 -64.00217 -63.76477 -62.29660 -61.36317 -59.88880 -47.21458 -41.31131 -40.08508 -40.37866 -40.90468 -43.54438 -44.93892 -47.65139 -50.54670 -51.62117 -52.16586 -51.82770 -51.71229 -50.35070 -51.94547 -52.45158 -50.59500 -50.74485 -51.98867 -53.44214 -50.59411 -43.56161 -39.72414 -37.83734 -38.81876 -37.08999 -35.82092 -30.93417 -30.54006 -28.98560 -28.45963 -27.05151 -26.84752 -24.79354 -25.05133 -25.85391 -24.29412 -19.81734 -17.06802 -14.90236 -16.64313 -21.48594 -26.39147 -34.19881 -36.30881 -39.11267 -40.98002 -40.95319 -39.37273
-37.30111 -37.72254 -26.95826 -25.11632 -17.90084 -11.78349 -10.41259 -9.79397 -7.91731 -7.17264 -8.31085 -12.00834 -13.33929 -14.37058 -20.78721 -30.02522 -43.66546 -48.61675 -48.22869 -39.25359 -27.16400 -25.27798 -15.79372 -16.22416 -19.23643 -22.64655 -24.73656 -22.99740 -26.51684 -32.99746 -38.33082 -48.12626 -51.42197 -51.14601 -43.42940 -46.37394 -49.31214 -46.72880 -37.60772 -31.57631 -26.19052 -26.73080 -28.27928 -36.76786 -45.36772 -50.84501 -54.76948 -60.38464 -60.88633 -60.78150 -57.97533 -56.85349 -55.28840 -54.29764 -53.77269 -55.18486 -57.92551 -64.62589 -67.03477 -67.54722 -65.94973 -61.65297 -64.18593 -68.00328 -69.30164 -68.98346 -65.55105 -64.46631 -65.49915 -73.49571 -75.71254 -78.58528 -79.33338 -80.05150 -75.32473 -73.10988 -68.14222 -63.42822 -59.83471 -59.43633 -59.57394 -64.57669 -66.44033 -68.47579 -69.14490 -71.64835 -76.42602 -76.81895 -73.31656 -73.25860 -78.63840 -80.98066 -85.15318 -81.06201 -72.71621 -65.56554 -61.81021 -63.59521 -68.94035 -72.00838 -73.04748 -72.14692 -71.53481 -70.74915 -74.63894 -76.55823 -80.15900 -83.79587 -85.71815 -86.23867 -87.86004 -88.73249 -89.20920 -79.86953 -73.81940 -67.22469 -63.38321 -61.75875 -61.51180 -64.08854 -67.26214 -68.77045 -68.58318 -67.95533 -71.01385 -73.27847 -78.85847 -81.04529 -83.28800 -90.88762 -95.29464 -102.15141 -102.50720 -102.50867 -99.60433 -95.45599 -86.73632 -83.88024 -78.34423 -69.61492 -68.39461 -70.01611 -69.38593 -70.43512 -63.88970 -55.85598 -54.35593 -49.68852 -48.51661 -50.26359 -53.11844 -54.60934 -63.52897 -65.83552 -66.58348 -69.57118 -71.32387 -75.47141 -77.77273 -77.23195 -74.20153 -70.35627 -67.14536 -66.06016 -64.44158 -64.55310 -65.69221 -63.66799 -63.46839 -62.07220 -58.64421 -55.47621 -53.36952 -50.45611 -46.65422 -48.37536 -49.40608 -51.61708 -55.77161 -62.09535 -69.08980 -74.28812 -76.87793 -77.73819 -84.38156 -92.63853 -93.37075 -96.40332 -97.83038 -97.93156 -89.65010 -87.05264 -88.07578 -89.93028 -92.35791 -94.77598 -93.72616 -90.33258 -89.18361 -85.90614 -83.14193 -86.30781 -87.02985 -85.19595 -81.76666 -79.40715 -76.73341 -81.25602 -82.38712 -85.06839 -85.88866 -80.15837 -76.25694 -75.09942 -72.66621 -70.27380 -72.24688 -73.73344 -73.16222 -70.99807 -68.87074 -70.81299 -70.97121 -68.69447 -65.94532 -64.02290 -66.31117 -68.42638 -73.00815 -71.65983 -70.44487 -69.11153 -63.31700 -62.68091 -61.24803 -60.33858 -56.83039 -54.25802 -49.12607 -45.07219 -41.16140 -41.06015 -42.48924 -43.41855 -45.34803 -45.26912 -45.90455 -47.25116 -50.14128 -50.25273 -51.83423 -53.75478 -55.04645 -54.25036 -52.52484 -53.60319 -52.67713 -54.97668 -55.95037 -48.21398 -40.48229 -40.07878 -40.12112 -39.99669 -35.96865 -33.20208 -32.96373 -33.78557 -34.05540 -34.18419 -30.67997 -29.07720 -25.72983 -26.84006 -26.06623 -22.05775 -17.65635 -14.65071 -15.01986 -19.28881 -27.06162 -33.40738 -34.45920 -38.28569 -41.38348 -43.67520 -44.26389
-42.21450 -37.76888 -27.73635 -21.48164 -14.59213 -12.21828 -11.00675 -13.33116 -14.83928 -13.17577 -11.44842 -11.75148 -12.61790 -15.81111 -20.39816 -27.58582 -41.35517 -52.15222 -54.06722 -50.61477 -41.94722 -33.05638 -26.12595 -22.17300 -22.80470 -26.64545 -26.96852 -25.25132 -27.43361 -30.67570 -44.17109 -47.48432 -53.34289 -51.28419 -46.18019 -45.41570 -48.37114 -49.26557 -42.45031 -34.29989 -33.57157 -34.03186 -34.75137 -37.48939 -44.25654 -46.47853 -53.96393 -61.41710 -64.80591 -62.72265 -59.55696 -60.07963 -59.85825 -58.36576 -57.97967 -60.88170 -60.50793 -64.27875 -69.78849 -72.65195 -71.81823 -70.20345 -68.64150 -68.69728 -71.86237 -70.43789 -70.76540 -70.82951 -69.53691 -75.09849 -76.36750 -79.58816 -80.45353 -80.48024 -77.11818 -70.20080 -67.45747 -65.08640 -59.61170 -59.17857 -59.51074 -62.77424 -63.25265 -61.87339 -63.56026 -69.77932 -76.63420 -75.66581 -75.36517 -74.39334 -72.79927 -80.65660 -88.68134 -86.14899 -74.17951 -65.02388 -63.02765 -63.21662 -67.83525 -68.90026 -70.73927 -69.36172 -68.46456 -65.60519 -72.02074 -74.42541 -81.10513 -87.44447 -86.18231 -85.50814 -85.64635 -86.36122 -83.27587 -79.90321 -71.23301 -69.91339 -67.85234 -68.00503 -66.03492 -68.36291 -69.63663 -73.13040 -73.05030 -71.49092 -71.80003 -77.72194 -80.53658 -81.46672 -80.62980 -86.10561 -89.06608 -101.77695 -100.92109 -99.38843 -97.56665 -93.32722 -86.94171 -80.20297 -73.59662 -64.26662 -61.82109 -63.28949 -64.11644 -65.18459 -60.37099 -59.28658 -54.72569 -48.60599 -49.31804 -50.90121 -54.03200 -54.99778 -63.16267 -64.48135 -64.86354 -69.36393 -73.71181 -76.81326 -76.98690 -76.60751 -74.86738 -71.66932 -67.46412 -65.75477 -64.57077 -63.97230 -62.06692 -61.04801 -59.85176 -60.86740 -59.76261 -56.64270 -55.64109 -51.95866 -51.50378 -50.52794 -50.41026 -54.43955 -57.06080 -63.66792 -67.81524 -70.82218 -72.01263 -76.58624 -82.98586 -90.52872 -92.21564 -95.93771 -96.45904 -96.01267 -94.51398 -91.65436 -89.24732 -91.70281 -91.26886 -91.48037 -92.12930 -93.25190 -85.31962 -80.96554 -81.10338 -84.29598 -82.81152 -81.61396 -80.93985 -75.71019 -75.40111 -75.81586 -78.51451 -80.08340 -84.01295 -79.34574 -72.29778 -73.49312 -73.19764 -73.82764 -73.63066 -75.74366 -76.22570 -76.76665 -73.66776 -73.57268 -72.19781 -71.60478 -72.26566 -70.67173 -70.80063 -72.28087 -76.48782 -74.26396 -73.22762 -67.95704 -64.95812 -62.09184 -59.34328 -54.93614 -55.91911 -53.24237 -50.99465 -43.60288 -41.02537 -42.36498 -42.14995 -44.56722 -44.99507 -43.98920 -42.49499 -45.68766 -47.78646 -48.71170 -49.90697 -53.90706 -56.17455 -57.42326 -56.18251 -55.17994 -56.13553 -57.00212 -55.88262 -52.68069 -45.57182 -44.87131 -42.43789 -40.62633 -37.59404 -35.27173 -33.72570 -34.37530 -37.67490 -36.75472 -36.87745 -32.23292 -30.64887 -29.56019 -26.59522 -23.63254 -17.53658 -13.76159 -13.55922 -11.30943 -18.06103 -25.64638 -27.72866 -31.61366 -38.99270 -47.07236 -46.51464
-45.67714 -34.16442 -25.48269 -20.61759 -16.35933 -14.79638 -15.53226 -18.59156 -20.54864 -18.28377 -15.54806 -16.67078 -17.68652 -20.10674 -22.81112 -32.77515 -39.51617 -49.37411 -52.00682 -47.64886 -44.48329 -33.39115 -28.23821 -24.05451 -26.34028 -30.63558 -30.78621 -29.17706 -26.51741 -36.02917 -46.16724 -48.08597 -52.82298 -49.90285 -46.53373 -47.11332 -51.27740 -49.66682 -43.69958 -39.17117 -36.45713 -39.73809 -42.59809 -43.63127 -47.02452 -50.54558 -54.85135 -59.13258 -64.98589 -63.35458 -62.48046 -59.69108 -60.24877 -61.05318 -62.80190 -61.91398 -61.71652 -67.07236 -69.70134 -73.69687 -74.61324 -72.27152 -71.92393 -72.50345 -72.06252 -75.08064 -75.83998 -75.03748 -78.20478 -78.88743 -79.94968 -81.54223 -80.60846 -80.70648 -71.96323 -65.23502 -64.30365 -64.45770 -60.33667 -60.02782 -59.85265 -61.03703 -61.52077 -62.10272 -62.35849 -67.78672 -75.10771 -76.32925 -72.89466 -71.92833 -79.74486 -84.16982 -87.76252 -85.63430 -78.65326 -68.17750 -63.04256 -64.51826 -67.01067 -68.08526 -66.71909 -65.53562 -67.24278 -68.36554 -73.75472 -78.08062 -84.85824 -88.23015 -89.97625 -89.38434 -88.28573 -86.89542 -81.80438 -78.02833 -73.60756 -71.02401 -70.25509 -69.15082 -68.65405 -70.62062 -72.04294 -76.28411 -76.66051 -75.54014 -77.92286 -80.68291 -83.02994 -84.24356 -86.91856 -88.45219 -91.87244 -97.78383 -98.52244 -95.85244 -94.69646 -90.01804 -86.27552 -82.03189 -74.51972 -64.97682 -58.72957 -58.09595 -57.55197 -57.89806 -59.30179 -57.31969 -53.55320 -48.79278 -48.26488 -52.89779 -56.39982 -57.02218 -60.91445 -63.50778 -63.89816 -66.17977 -72.21422 -75.76608 -76.78229 -76.85032 -74.88365 -73.03855 -68.68625 -67.86091 -65.77924 -64.21108 -60.44801 -58.79771 -57.29509 -59.19237 -59.88590 -58.12992 -55.77199 -54.83764 -53.83595 -54.30616 -55.36234 -56.77865 -60.62698 -62.04643 -66.10504 -68.34258 -69.70075 -75.39538 -78.24510 -86.23787 -90.02669 -92.37172 -95.34689 -97.94319 -98.47886 -93.81949 -91.59370 -86.55286 -84.91378 -86.71103 -90.50023 -89.61703 -84.97145 -80.26879 -77.50248 -78.46630 -76.33915 -76.84657 -75.24948 -74.30887 -69.78573 -70.06546 -70.22284 -73.18212 -77.09058 -76.64271 -71.70927 -71.92126 -73.27119 -76.55113 -78.30168 -79.86203 -80.45089 -80.98211 -79.72611 -75.53898 -73.57161 -73.06837 -75.08833 -75.23595 -76.57406 -77.13141 -77.58933 -76.99073 -72.12559 -68.89308 -63.35958 -57.72749 -53.06308 -51.98083 -48.91760 -50.50577 -46.31176 -39.46307 -39.38478 -38.20763 -41.38414 -43.30812 -44.97095 -43.41429 -42.61998 -42.59759 -44.63171 -48.16738 -49.90174 -54.97795 -57.06041 -60.17347 -60.16076 -59.34151 -58.03665 -58.14275 -58.47434 -54.31371 -50.30117 -45.91505 -44.82990 -41.44424 -38.77474 -36.91679 -38.77645 -36.65319 -38.42313 -38.48382 -37.42150 -34.36081 -29.50474 -25.79801 -24.64196 -18.07304 -14.92962 -10.28481 -9.79598 -9.71259 -10.66301 -16.60576 -22.46392 -30.82826 -34.06293 -44.74928 -49.08073
-49.56301 -37.82637 -28.09388 -25.61057 -20.85049 -18.52512 -19.22066 -20.43386 -20.67280 -18.90131 -22.49671 -22.22668 -23.33345 -21.42812 -33.16461 -35.34255 -39.14015 -45.43280 -54.57157 -46.15578 -39.09589 -35.41016 -27.29963 -25.26481 -28.12462 -31.14880 -34.13969 -31.00089 -30.02790 -34.60402 -42.78568 -50.31159 -54.47437 -52.82223 -45.86937 -51.40995 -55.44441 -54.71727 -50.09879 -40.33053 -40.68504 -40.82158 -44.55163 -47.75704 -53.62981 -53.63748 -54.67337 -58.87023 -64.58152 -65.54133 -63.55546 -62.63569 -62.46734 -64.40383 -63.73226 -63.55208 -62.99954 -66.21965 -70.42677 -73.77944 -75.26318 -76.01474 -73.64133 -73.41681 -71.72528 -78.12243 -82.11404 -84.71959 -87.83689 -87.09453 -83.72358 -81.86412 -80.42490 -77.59085 -69.37797 -64.28924 -62.24843 -61.71392 -61.40258 -60.80138 -61.22967 -61.52747 -63.22316 -64.63393 -66.39798 -72.28031 -74.10130 -73.10974 -71.97648 -71.68862 -78.64852 -82.12720 -91.29254 -84.79918 -80.20657 -72.13555 -66.61450 -67.01408 -67.76847 -67.67706 -65.40275 -66.02250 -65.51426 -69.70074 -75.23326 -81.67368 -85.30036 -92.99097 -94.70827 -94.19679 -91.34414 -85.75834 -80.68505 -78.52646 -75.32733 -74.17153 -74.06617 -74.12623 -71.99113 -71.24336 -73.05714 -74.66049 -77.09429 -77.85860 -81.57301 -83.20340 -88.27629 -90.68300 -89.80600 -93.16615 -96.61450 -97.08870 -94.13232 -93.65121 -90.01671 -86.93532 -84.20314 -80.70731 -73.89821 -66.82428 -58.11615 -57.73868 -55.42291 -52.85827 -53.31211 -54.04018 -51.53633 -49.42358 -48.96336 -51.44464 -56.10726 -57.35828 -60.85160 -62.20389 -62.60630 -65.52296 -71.26027 -75.05198 -77.14936 -76.86605 -73.38096 -70.50266 -69.71469 -69.00827 -68.26174 -65.44578 -62.58543 -59.54886 -58.94877 -59.99818 -60.43409 -58.42242 -55.84686 -53.82415 -52.77959 -54.57323 -53.86579 -57.80221 -58.91444 -60.69814 -61.58779 -62.46737 -68.37489 -74.04074 -75.39454 -76.80926 -83.25099 -89.93383 -94.52135 -96.36981 -94.97911 -94.98099 -86.63472 -80.30125 -80.48622 -83.63694 -86.16342 -86.70430 -83.86856 -77.48760 -74.87377 -73.45512 -73.10421 -70.82392 -70.20365 -66.72058 -67.04004 -67.41947 -68.81014 -72.86423 -74.92112 -73.40199 -72.75744 -72.68697 -74.16194 -78.51704 -81.15096 -83.09165 -82.33954 -81.45067 -80.25971 -75.78342 -71.20778 -72.40313 -74.14555 -77.10306 -78.46004 -80.69111 -79.14602 -76.81264 -71.32596 -69.93222 -60.46975 -51.88814 -49.65056 -46.50328 -46.45841 -44.62810 -37.84272 -37.65135 -36.73209 -36.19934 -39.47638 -41.07881 -43.19688 -44.76686 -42.25557 -42.59662 -45.05342 -48.69288 -52.53714 -55.87508 -59.07469 -61.33619 -59.85877 -56.21327 -54.81579 -56.20568 -56.43584 -55.00120 -50.33567 -45.31404 -42.02903 -39.58160 -38.43995 -40.07429 -41.52318 -40.89770 -38.94414 -37.91359 -34.66539 -29.95433 -25.91313 -20.53444 -16.73935 -14.20798 -10.92249 -9.09080 -6.93139 -5.64068 -9.33791 -12.86602 -17.58582 -24.54391 -31.15410 -43.48926 -48.44288
-47.74231 -38.67087 -33.19195 -29.30319 -27.70793 -25.00281 -23.10169 -19.35484 -18.03627 -17.00528 -20.17291 -26.43837 -27.19745 -34.03680 -39.44525 -41.90788 -41.62058 -46.41778 -52.03279 -50.39857 -45.45075 -36.53701 -31.65505 -29.14257 -28.11393 -33.09861 -35.87334 -36.54999 -32.09492 -37.26697 -40.59204 -49.25081 -54.27850 -54.89684 -51.74157 -52.53748 -56.44557 -59.69399 -50.28369 -42.10878 -42.61824 -42.49082 -45.30488 -52.70914 -57.87282 -59.41685 -58.77830 -61.27898 -64.18992 -67.22584 -65.26657 -64.43996 -64.63364 -66.15748 -65.45780 -64.35402 -65.74515 -67.53098 -72.20289 -73.59492 -76.91218 -77.16105 -77.05759 -74.13053 -77.04439 -79.24813 -86.72464 -87.16963 -91.74047 -89.06369 -86.84177 -80.77438 -77.66615 -74.73103 -67.88352 -64.65137 -62.88692 -63.11420 -63.18779 -61.75912 -64.48547 -64.69436 -63.93782 -64.44292 -67.63319 -72.01724 -74.29219 -72.11890 -70.58612 -74.72750 -75.86084 -83.62141 -87.05882 -86.09637 -81.62329 -77.39874 -71.29690 -68.37198 -69.40981 -68.08562 -66.44237 -66.40274 -68.62986 -71.85782 -76.25210 -80.73784 -85.80678 -93.25475 -95.60528 -95.48363 -87.21277 -84.40730 -78.08361 -78.08881 -79.18718 -79.68362 -79.85384 -77.95999 -73.99993 -70.93969 -73.29447 -75.98188 -78.25546 -78.50801 -81.77802 -84.53746 -88.60909 -92.05165 -95.48797 -93.89816 -96.23534 -94.18294 -91.60850 -89.90779 -88.41757 -82.57976 -79.56499 -78.59774 -73.88176 -66.56304 -58.63380 -54.71923 -51.41276 -50.98732 -49.97722 -50.32419 -51.08487 -50.33075 -49.64907 -51.36907 -53.15471 -57.98391 -61.31717 -61.60918 -61.64163 -63.84842 -70.98250 -73.99976 -78.05433 -75.75943 -71.48691 -69.90229 -68.45004 -68.03589 -68.68618 -66.40985 -62.07519 -59.66741 -60.65754 -61.64441 -60.14133 -59.25983 -57.29992 -55.47384 -55.10937 -54.75109 -55.21396 -55.51041 -56.16311 -56.52109 -58.09606 -59.48144 -63.83774 -67.47945 -71.98929 -73.57337 -79.74455 -88.32496 -96.29163 -97.90906 -94.54861 -92.30369 -83.37027 -82.26513 -78.74333 -79.55255 -82.31978 -81.99300 -81.35293 -76.16081 -74.05637 -71.78145 -67.40364 -66.93355 -66.26081 -66.75950 -68.91265 -70.60651 -71.09080 -72.73474 -71.62984 -72.71050 -72.58976 -73.59906 -76.02929 -78.66900 -83.02646 -84.62953 -83.61902 -82.68411 -80.13947 -75.02898 -73.71943 -72.66708 -73.97476 -73.98120 -74.30052 -75.47223 -76.37862 -74.79867 -70.69343 -65.00397 -59.08462 -49.13918 -44.07399 -42.16729 -40.12051 -40.67388 -37.71619 -36.05473 -34.57036 -35.95986 -38.17798 -41.55135 -42.76525 -43.50744 -44.58166 -45.50057 -47.79567 -49.26712 -56.46450 -58.28178 -61.22846 -60.54409 -59.88769 -55.27386 -52.84106 -53.95783 -55.65921 -55.98740 -51.08320 -45.88870 -41.32454 -41.16061 -39.72751 -42.25776 -45.91762 -43.74542 -37.50507 -33.65596 -31.96603 -28.88480 -22.72004 -20.00508 -15.58627 -14.49868 -10.23658 -7.48965 -5.22191 -5.95863 -7.96433 -14.08933 -17.72828 -20.17457 -27.08030 -43.96089 -48.99289
-44.08985 -34.16200 -31.65052 -31.16253 -29.94093 -25.82485 -21.97499 -18.18329 -15.08649 -14.81685 -18.52933 -23.54430 -27.06877 -32.83989 -41.59106 -45.58470 -45.71356 -50.51776 -57.58025 -54.53082 -48.74582 -41.25133 -37.28996 -31.80445 -34.27500 -35.48706 -39.58764 -41.17677 -39.64092 -40.15292 -40.77758 -49.66377 -56.81350 -57.42860 -53.96443 -56.88482 -59.66041 -58.64951 -51.76655 -44.62881 -45.60009 -46.50208 -52.56952 -59.23929 -61.38022 -62.25688 -61.22536 -60.97688 -65.95748 -67.32485 -68.15460 -66.81263 -66.96412 -66.86181 -66.80184 -66.09819 -67.03631 -71.13916 -73.76198 -74.79705 -77.27686 -79.53990 -78.73325 -77.79843 -78.05608 -80.13664 -85.63909 -91.27285 -92.65057 -93.92891 -85.45513 -77.25964 -75.48407 -70.28707 -66.97674 -66.94329 -65.82773 -66.45031 -68.03974 -69.51491 -69.32004 -66.46656 -63.99762 -65.58796 -67.50947 -72.34601 -77.27782 -77.64114 -75.06797 -76.17713 -79.45414 -81.61947 -85.18083 -80.91696 -78.47110 -77.47564 -75.34834 -71.83756 -72.71009 -69.96282 -68.81189 -68.59457 -69.22946 -71.40840 -76.29159 -78.43364 -86.11318 -91.97604 -94.30093 -88.85149 -81.49637 -79.13894 -73.96248 -74.78154 -81.12140 -84.85615 -85.55543 -83.99160 -77.83370 -76.88274 -76.37849 -76.93189 -80.51981 -80.27170 -83.22096 -86.47146 -92.68818 -94.79627 -97.21139 -97.11060 -93.32077 -90.95892 -89.71433 -90.44156 -89.08114 -82.23900 -79.50157 -74.65566 -72.14496 -65.62636 -59.37758 -52.83170 -47.96532 -47.79513 -48.99259 -49.35416 -50.12296 -50.84556 -50.96862 -51.39668 -52.49197 -55.62149 -59.32264 -60.94972 -61.13143 -60.74120 -63.92852 -75.21664 -75.97827 -74.04811 -70.43002 -70.24766 -68.86013 -68.52683 -68.81093 -67.73370 -63.32725 -60.92575 -61.55880 -62.22685 -62.05072 -60.06404 -59.40700 -58.88431 -57.12622 -55.12309 -52.61443 -52.93572 -52.80006 -52.93991 -54.99064 -58.39034 -62.56314 -65.21955 -73.73205 -74.88851 -79.90760 -88.06208 -97.57608 -98.46239 -98.74444 -92.72386 -88.28166 -84.57630 -80.74587 -80.52875 -76.37560 -78.26292 -74.47755 -73.82935 -73.07755 -70.75821 -68.19407 -68.19772 -67.51116 -71.15460 -73.42453 -75.72146 -73.03913 -71.33999 -70.36864 -71.09436 -71.73098 -73.63764 -74.02183 -80.25462 -82.11082 -84.48609 -84.00409 -83.23290 -80.35361 -76.07851 -73.86666 -71.63172 -72.93293 -68.65961 -68.13185 -70.87064 -71.73594 -67.15558 -63.82384 -63.24165 -58.81742 -49.73461 -43.17174 -38.85161 -37.02465 -36.47438 -35.92704 -33.67625 -34.27006 -34.90978 -37.72026 -39.91896 -45.58188 -47.03579 -47.76172 -46.59186 -47.79058 -50.52986 -56.42246 -57.55509 -60.22316 -62.59579 -61.54254 -58.63350 -54.47686 -53.90322 -54.67721 -54.31180 -49.64144 -44.42499 -43.91616 -44.40692 -44.13761 -44.57307 -46.20042 -45.06478 -37.44230 -33.14122 -30.90445 -30.24100 -25.07329 -17.92801 -15.34781 -13.60640 -11.84501 -9.69419 -8.05740 -7.46373 -10.98478 -11.52481 -17.10625 -21.01278 -28.52518 -32.92196 -41.76098
-39.74058 -34.08192 -30.42094 -29.48105 -31.32400 -28.39721 -20.55917 -16.69001 -15.72447 -15.20155 -15.62859 -19.38164 -24.22472 -31.51211 -41.78185 -47.28373 -50.10717 -48.06498 -53.64880 -59.22603 -55.70833 -50.73467 -45.34905 -42.31128 -36.83416 -38.70930 -41.34774 -43.62528 -46.63234 -46.34755 -45.24687 -49.59324 -59.29878 -60.78639 -58.70409 -58.37952 -60.59107 -59.78633 -51.96021 -48.63912 -45.11008 -48.85266 -57.49967 -63.83182 -66.47087 -64.86400 -62.23855 -60.25132 -64.11695 -68.46055 -70.12005 -69.50252 -68.52562 -68.82011 -67.36396 -66.68212 -67.26057 -71.93346 -73.67469 -75.99496 -77.55092 -79.57419 -78.99266 -78.21276 -76.50342 -78.01004 -82.88474 -88.55464 -90.47853 -88.40611 -81.72967 -76.54158 -69.96130 -68.95246 -66.87089 -67.63501 -68.92716 -70.06495 -70.33590 -74.13585 -72.56051 -68.72759 -67.30608 -67.69715 -72.20913 -75.31931 -81.50527 -86.54583 -85.00364 -83.21015 -81.35288 -84.49212 -82.75857 -79.83109 -76.10773 -73.98804 -72.85286 -71.22440 -69.92162 -68.65480 -68.66601 -68.81547 -68.72838 -69.90838 -75.11599 -80.54942 -85.56323 -90.60780 -88.98955 -84.75056 -77.41893 -74.08030 -72.58618 -76.07631 -81.45284 -87.79050 -87.08199 -87.53077 -84.58858 -81.30610 -81.31057 -83.26608 -84.92939 -82.69569 -84.17647 -89.34851 -96.52357 -99.46596 -97.89683 -99.40117 -97.00295 -91.00267 -91.04635 -90.07971 -89.04446 -84.88863 -81.37945 -78.82269 -73.20277 -57.57944 -55.31709 -48.79215 -47.24046 -46.11752 -46.87129 -49.24676 -52.32574 -52.84017 -54.36322 -51.91358 -52.94463 -55.19763 -57.11896 -61.46149 -60.50143 -59.96935 -63.71459 -70.87962 -72.87185 -73.45836 -70.69774 -70.30969 -69.65795 -70.21764 -70.09242 -67.22655 -65.57020 -63.09811 -63.52667 -63.48085 -61.59156 -60.81568 -59.22974 -58.15166 -55.57969 -54.08519 -52.22471 -51.68779 -51.99228 -52.63023 -54.78142 -58.75965 -63.03102 -65.23371 -73.51807 -79.46650 -80.58668 -92.66128 -98.62317 -98.74489 -98.62377 -96.53510 -96.39042 -90.06057 -82.68529 -79.88259 -77.21606 -72.96253 -71.62306 -70.11979 -70.61144 -70.87765 -70.92129 -70.75583 -73.71279 -78.10535 -76.83406 -76.42554 -75.06250 -69.66641 -70.86727 -69.42788 -71.62847 -72.58114 -77.74125 -80.23058 -87.06656 -86.07282 -85.62978 -83.55744 -81.43912 -77.47135 -74.69853 -70.07283 -67.83621 -65.04892 -63.75813 -65.43911 -66.64050 -62.03000 -60.11615 -58.05696 -55.63179 -50.38627 -43.06717 -36.64597 -35.01016 -32.37918 -31.11562 -32.29901 -32.60549 -35.77319 -38.47518 -45.93494 -48.73228 -49.46380 -48.66090 -47.24193 -48.41280 -50.16428 -52.73223 -56.01909 -60.41308 -65.26529 -67.44013 -63.60157 -60.94489 -55.65532 -54.72089 -53.20105 -47.86784 -45.65245 -44.58945 -45.52005 -46.43746 -46.83314 -48.48988 -43.69019 -38.56940 -33.20841 -30.92041 -30.22728 -26.92615 -21.31725 -17.33617 -16.16789 -14.47503 -13.02841 -14.14556 -13.81176 -12.98971 -13.16497 -20.99719 -26.29597 -30.28060 -33.74051 -40.47256
-38.84567 -31.60445 -27.95585 -29.57856 -32.27745 -30.51018 -27.80153 -21.32687 -17.42798 -15.20519 -15.26451 -17.96067 -23.07639 -29.26103 -38.39158 -46.02371 -47.80078 -49.77020 -52.40288 -60.43356 -58.87619 -55.91748 -47.76157 -45.32054 -41.75608 -40.57919 -41.10298 -44.30730 -48.79853 -47.73362 -47.08226 -45.95196 -58.59154 -62.92102 -62.08319 -60.84256 -61.26827 -59.54674 -54.28071 -50.46307 -52.62118 -61.61683 -63.39018 -67.94911 -72.07351 -72.41155 -65.46018 -62.22602 -64.26324 -70.30782 -70.90050 -72.89403 -72.09671 -71.78203 -70.78482 -68.56886 -70.04378 -72.35375 -75.48023 -76.85977 -77.51655 -82.99642 -79.80157 -75.19421 -73.75930 -74.37888 -78.39979 -85.16453 -86.58307 -82.09645 -80.66517 -73.99664 -64.64933 -64.12738 -66.09514 -67.00562 -70.42264 -71.02799 -75.25728 -76.83014 -75.86198 -72.26367 -68.77971 -68.36838 -73.94221 -80.47518 -84.87427 -91.87345 -90.31261 -87.83118 -87.43517 -85.24717 -82.28569 -78.63190 -75.69386 -71.77416 -69.81586 -69.98918 -68.72304 -65.79939 -67.98228 -66.55330 -67.64528 -69.88019 -74.36787 -80.06637 -81.81006 -86.53805 -86.61590 -83.86184 -76.61857 -72.29221 -71.81012 -73.29404 -79.88083 -83.25384 -88.81204 -89.65732 -88.45744 -85.63692 -84.95164 -86.23697 -86.04181 -87.05190 -90.23225 -98.07204 -101.25046 -100.82368 -101.13082 -102.21325 -99.70637 -96.80979 -95.85295 -94.11070 -91.52844 -91.50822 -83.64870 -80.53854 -73.32463 -63.56669 -52.84883 -48.71411 -46.57459 -44.67693 -48.31591 -52.63749 -55.44141 -58.26443 -58.21775 -58.26340 -55.62059 -54.58549 -57.43783 -60.77976 -60.56256 -60.31948 -62.76339 -67.91932 -70.23670 -70.32433 -69.89756 -69.39832 -70.84750 -71.32738 -70.80051 -69.58267 -66.37574 -65.76162 -64.41875 -63.34798 -60.89652 -59.87154 -58.13567 -57.09841 -55.31585 -54.76513 -54.04138 -53.27163 -52.99035 -52.51095 -53.82233 -55.78067 -61.52358 -65.23754 -74.11719 -79.88213 -84.39227 -90.16731 -95.32480 -95.74945 -94.98705 -96.50312 -96.51816 -92.12370 -83.79832 -79.91285 -73.73154 -70.72236 -69.66348 -67.64413 -69.55016 -69.11275 -71.04956 -72.06859 -75.85131 -78.49088 -78.18574 -80.62248 -77.06489 -72.92507 -73.77873 -75.87816 -75.46900 -73.10843 -78.15751 -83.12709 -89.17311 -88.50658 -88.56952 -87.04667 -81.02065 -74.16126 -71.33952 -69.33615 -65.61613 -61.85716 -58.43707 -57.02961 -57.86139 -56.93830 -55.62014 -56.02139 -53.52883 -46.17676 -42.00063 -36.99386 -33.08690 -30.45710 -30.09971 -30.49541 -33.88933 -36.42165 -41.18466 -45.97865 -48.74383 -49.62098 -48.30678 -48.07077 -48.37371 -51.15178 -53.87918 -56.40802 -59.14959 -65.95273 -66.74728 -63.09505 -58.80384 -56.86958 -55.18286 -51.75304 -48.69834 -46.85881 -43.77556 -44.60022 -43.94287 -45.60734 -44.14569 -42.07126 -36.68894 -34.12832 -32.14972 -28.93648 -27.40810 -24.50285 -22.08936 -21.87235 -19.30246 -17.10483 -17.86961 -15.91221 -17.09981 -21.79860 -26.14713 -34.43031 -36.05477 -40.10498 -44.09970
-39.39337 -30.18183 -28.31017 -29.71722 -33.49018 -36.12117 -29.77882 -26.69816 -20.92574 -17.31753 -14.71395 -18.24313 -22.30214 -27.75581 -34.56944 -40.32098 -45.94211 -49.98717 -53.78923 -58.40494 -66.97401 -60.79523 -55.48493 -48.02658 -45.26468 -47.07946 -47.61915 -49.84136 -48.05200 -46.20343 -46.09066 -50.26490 -53.28323 -57.75379 -61.90015 -65.77980 -63.74492 -59.59315 -58.33276 -58.27974 -58.75573 -63.11283 -68.29869 -73.23792 -74.17688 -74.00500 -72.90456 -63.35991 -65.05583 -69.02634 -71.32232 -74.67317 -74.73740 -72.59392 -71.21386 -70.30944 -70.82832 -75.92935 -77.18745 -83.04057 -85.84244 -86.04928 -80.95221 -78.29292 -72.12951 -73.06048 -74.37936 -80.28187 -81.46099 -79.86450 -74.89531 -71.66589 -65.25626 -63.47882 -66.50953 -68.88450 -71.29059 -74.39840 -78.45495 -85.21129 -82.73586 -77.38442 -76.87510 -73.95242 -81.87469 -82.35603 -89.52823 -93.02299 -92.39683 -91.46456 -88.74787 -86.66853 -79.90408 -77.08941 -72.15103 -70.83587 -68.78632 -69.10074 -68.80054 -68.72340 -69.46818 -68.62907 -69.10600 -71.58403 -72.24846 -79.21028 -81.24456 -83.15430 -84.90992 -82.78216 -77.20819 -73.33859 -73.12516 -74.85749 -79.11663 -83.64278 -88.69977 -91.34148 -89.96531 -86.24605 -85.41767 -89.06963 -90.58093 -90.38996 -97.56274 -99.83821 -101.83152 -102.18262 -104.31793 -105.31175 -104.13508 -99.42065 -96.94885 -91.88969 -89.76659 -86.50958 -81.74574 -73.62644 -66.70487 -57.64153 -53.15303 -48.18421 -45.36092 -45.72650 -48.12832 -52.94931 -57.37665 -58.90415 -61.15775 -61.53449 -59.61884 -59.19465 -60.51301 -62.45698 -63.75076 -62.72774 -63.37078 -66.85835 -68.67672 -68.47124 -68.03450 -68.77207 -69.35431 -70.61905 -69.71413 -68.83829 -66.13530 -67.16990 -66.21572 -63.65817 -62.02259 -57.72634 -54.88399 -54.53311 -56.16906 -56.61745 -56.07542 -56.37202 -53.87614 -54.31636 -52.94816 -54.50287 -58.26712 -63.05502 -74.71935 -80.00774 -80.74316 -85.19676 -89.85257 -89.85539 -88.88377 -89.03419 -88.76328 -83.81772 -77.84955 -75.12791 -71.29479 -70.78374 -69.99285 -67.65281 -67.99425 -66.93202 -69.11580 -72.27375 -75.44097 -75.80622 -77.53766 -79.30779 -81.12431 -79.94713 -81.36941 -80.86526 -81.33449 -78.98848 -81.13888 -86.68541 -91.52958 -92.08961 -92.18444 -85.97402 -74.67739 -69.92609 -67.17803 -67.34779 -62.69632 -61.03984 -56.43191 -54.50733 -48.22693 -48.22266 -49.62164 -51.13093 -52.39713 -42.36996 -36.17605 -34.98824 -32.84165 -28.58724 -28.85321 -28.98885 -31.84464 -36.93010 -40.57110 -45.18419 -48.03338 -48.07922 -47.51968 -48.85249 -51.18333 -53.12388 -55.58604 -59.34057 -63.72501 -67.70938 -65.91035 -61.84663 -58.74467 -56.76208 -56.40199 -51.56390 -48.54546 -45.77178 -43.94969 -42.20905 -43.04073 -42.41079 -41.46026 -40.11564 -37.95494 -35.86465 -34.57868 -32.04347 -28.43506 -27.00307 -26.74962 -25.63361 -22.62498 -20.77991 -18.11771 -17.48323 -19.94727 -22.70061 -28.50373 -32.72760 -39.35534 -42.58522 -48.25200
-38.44802 -31.03440 -27.76255 -30.13368 -36.22165 -37.20348 -35.51318 -29.77289 -23.26394 -20.34739 -18.71308 -20.83992 -22.27435 -28.38823 -33.36077 -38.22304 -39.01781 -48.32852 -51.12708 -59.03643 -62.02087 -61.25024 -60.27069 -55.10672 -55.24045 -54.41732 -55.14029 -50.46224 -46.27618 -44.12373 -45.37332 -46.66273 -51.85536 -53.37351 -59.04111 -63.17258 -65.13466 -63.44159 -65.16100 -65.73416 -64.93822 -66.77036 -69.66448 -73.84700 -74.56637 -78.46181 -75.87231 -69.64334 -67.51793 -69.62901 -73.70292 -76.37951 -75.82492 -77.90758 -75.09781 -74.43104 -73.91588 -75.95587 -79.79445 -84.51679 -87.38711 -92.57660 -89.09448 -80.04325 -76.28837 -76.08664 -77.22524 -80.12123 -85.67462 -82.63517 -75.72427 -71.69128 -63.99017 -65.07307 -67.48025 -70.00183 -75.40890 -80.50669 -82.57334 -88.98846 -88.53054 -84.84909 -79.24016 -83.30573 -86.11585 -91.02233 -94.20970 -97.28802 -97.63721 -91.02987 -86.72341 -85.46970 -78.87457 -75.31419 -71.05781 -68.07503 -67.55559 -69.34420 -75.61722 -74.84513 -73.88626 -73.28848 -72.03691 -75.89337 -75.28520 -77.52317 -78.45829 -78.11954 -81.07193 -81.15454 -77.33131 -81.03022 -80.59417 -78.80541 -82.85241 -84.82242 -89.94221 -91.17898 -90.18951 -88.79012 -90.06198 -91.33134 -94.72418 -97.14897 -102.52771 -102.98403 -104.36674 -104.82498 -104.25909 -104.36402 -102.02714 -101.12027 -96.35721 -90.43081 -83.11199 -80.61632 -75.46113 -62.46158 -63.49371 -57.33050 -52.40708 -46.89142 -44.13530 -45.54154 -49.50116 -54.17204 -57.26497 -60.95381 -61.29045 -61.83604 -61.93089 -61.45891 -64.31691 -66.21179 -65.22173 -63.79569 -64.27022 -67.61390 -68.66775 -68.38297 -66.13714 -65.89361 -67.37706 -68.28081 -68.45358 -66.98092 -66.98986 -66.52981 -66.04749 -65.77914 -60.67334 -57.04312 -52.95423 -53.89266 -55.61153 -57.10667 -57.32881 -57.42688 -57.41511 -56.16266 -55.12129 -57.02815 -58.31208 -65.27459 -69.24164 -75.24267 -80.41145 -85.26823 -87.15671 -86.17228 -82.75747 -81.97844 -81.46420 -78.68929 -75.63064 -71.62825 -71.86965 -73.39428 -70.69584 -67.42094 -66.58358 -66.02514 -66.16855 -68.07513 -71.52252 -71.56970 -72.73127 -77.04954 -78.48013 -83.74721 -87.02621 -87.93893 -83.28402 -82.72229 -83.96145 -89.98006 -92.92918 -92.53450 -88.34505 -79.28624 -75.49898 -67.26940 -65.87976 -63.95241 -61.58383 -58.25740 -56.19804 -52.38158 -47.57415 -42.80068 -43.37161 -46.97461 -42.82324 -38.25723 -31.85132 -29.74882 -28.91579 -26.71579 -27.14766 -27.65917 -29.99128 -35.11312 -39.90136 -41.44704 -44.68036 -45.79512 -46.13223 -48.81313 -50.99102 -53.84067 -58.66649 -64.72870 -65.13554 -66.30133 -64.74677 -61.14448 -58.88802 -57.55018 -55.34104 -53.26864 -50.21192 -46.64195 -44.58485 -41.53711 -42.15635 -43.13122 -42.49168 -41.17271 -39.73815 -38.00873 -36.62958 -33.39896 -31.18641 -28.93418 -27.71583 -25.33331 -23.06590 -19.82429 -18.30168 -16.85089 -17.54491 -22.98910 -24.32021 -27.85767 -33.56975 -41.06911 -44.97463
-40.43385 -33.85901 -31.46662 -30.96446 -36.28686 -40.10718 -37.31160 -30.17857 -27.94615 -21.73893 -20.80298 -23.57211 -24.86718 -26.58922 -32.53030 -34.75575 -36.78178 -42.64504 -50.59443 -54.67187 -60.30940 -62.61226 -61.43403 -62.41171 -59.62028 -58.49614 -55.62237 -49.47308 -47.14757 -43.87359 -43.96490 -44.51791 -46.63830 -48.49750 -54.66678 -61.72771 -66.75519 -66.52913 -66.93962 -68.48881 -69.27020 -68.79751 -70.39376 -73.38391 -76.93391 -79.91736 -83.30720 -78.30723 -76.27130 -74.71693 -76.30153 -80.37972 -80.23971 -80.10638 -79.87565 -77.32306 -75.24359 -77.13323 -79.44623 -81.10417 -85.36186 -89.08918 -89.78129 -86.87361 -83.04478 -78.71816 -80.62060 -82.50741 -84.36704 -84.02054 -79.34086 -75.27765 -70.21233 -68.30495 -69.96852 -70.67651 -77.89600 -83.26372 -88.07441 -90.46513 -89.41963 -87.44965 -86.23348 -87.44893 -89.76742 -94.85891 -98.71654 -100.63189 -95.30496 -85.72369 -81.89101 -78.05846 -73.06095 -69.72792 -69.37659 -68.07185 -68.73122 -73.28863 -75.90316 -80.53705 -80.10958 -77.82702 -77.02939 -77.19045 -76.77788 -74.34563 -74.48687 -73.86986 -76.00720 -77.05748 -86.29072 -87.84984 -90.29668 -87.97414 -87.10205 -89.89467 -90.72523 -93.00235 -92.83132 -90.69891 -91.05626 -91.61042 -92.56155 -97.57673 -98.94885 -101.64268 -102.62395 -102.01293 -101.49747 -100.24989 -101.95181 -100.05623 -97.73599 -90.76700 -82.85768 -78.94801 -69.42140 -61.99999 -55.47504 -51.89984 -48.02798 -45.52134 -44.49127 -47.07888 -51.56404 -54.80131 -58.49586 -61.01137 -61.96419 -62.96819 -62.51331 -63.86095 -64.33210 -64.51515 -66.45936 -66.01669 -66.34251 -68.66703 -69.91820 -68.76307 -66.40783 -66.31955 -66.00176 -67.32365 -66.66941 -65.87823 -66.05721 -65.22905 -65.65396 -63.34819 -58.85784 -54.87715 -51.28773 -52.89449 -55.42530 -56.77594 -56.74122 -56.75481 -59.50152 -60.11234 -60.64421 -63.33522 -64.97281 -66.34366 -71.86363 -75.23854 -80.66986 -83.53597 -82.73357 -82.06843 -80.21638 -76.64441 -76.71300 -75.25428 -75.37221 -75.39341 -75.00102 -72.28722 -69.82983 -68.88929 -67.23939 -67.97634 -64.92526 -66.66823 -67.73642 -72.07872 -73.34559 -76.39530 -80.36090 -84.38478 -89.19872 -88.95782 -86.95446 -85.89165 -86.83975 -89.00190 -91.60832 -91.88326 -84.55944 -79.79764 -74.13696 -66.85965 -65.66585 -63.83912 -63.76480 -59.79213 -55.23430 -53.38600 -48.75654 -43.53596 -42.70521 -44.17970 -40.70889 -34.28980 -31.49032 -29.05540 -26.37075 -25.82169 -25.64093 -28.11405 -30.68028 -33.25337 -37.05327 -41.09988 -42.89530 -44.53077 -45.58501 -46.61141 -50.41180 -51.45079 -58.14797 -65.17420 -68.15214 -68.06869 -65.67506 -60.41393 -55.80931 -55.44429 -54.69257 -53.80804 -50.73883 -46.95134 -44.93378 -43.54852 -41.88522 -43.09519 -43.21834 -42.36323 -40.14281 -36.61145 -35.85481 -32.44997 -30.65840 -30.79577 -27.39008 -25.74253 -22.82524 -19.24615 -16.85895 -16.50079 -17.63388 -20.71512 -24.02261 -25.87486 -32.15459 -35.88216 -37.97515
-45.37284 -39.49961 -34.26069 -33.11023 -35.77016 -41.85776 -41.62254 -34.58715 -28.50229 -25.27117 -22.22622 -23.05850 -23.53403 -27.89186 -34.01039 -38.03558 -38.63860 -40.57533 -46.77577 -53.79768 -60.83432 -63.58374 -63.22680 -62.36113 -62.31671 -61.11780 -59.35641 -51.73241 -45.83845 -45.60504 -43.44016 -43.66411 -43.49362 -46.76268 -49.81933 -58.74962 -63.27744 -63.45588 -68.11563 -66.64058 -66.21556 -66.07036 -70.35024 -71.82645 -76.54815 -79.69908 -82.49379 -82.76835 -79.86011 -78.54229 -79.02348 -80.51732 -83.89792 -84.31767 -84.46782 -81.46133 -78.96396 -76.20335 -78.42890 -80.61222 -81.24294 -86.10092 -88.91049 -90.45447 -90.01320 -85.56294 -85.17254 -85.73610 -88.59325 -88.87522 -86.70096 -78.48707 -70.88155 -72.54866 -72.94061 -74.66747 -82.64534 -88.21717 -90.31348 -91.94634 -94.02868 -94.61365 -91.80156 -93.67112 -95.39226 -94.95884 -96.46134 -94.79951 -91.73265 -83.76371 -77.36987 -75.61761 -71.83685 -69.69122 -68.59695 -67.32056 -69.01930 -72.95264 -77.20291 -81.27389 -82.37207 -82.41378 -79.61258 -77.82785 -76.77022 -75.29234 -73.00504 -72.93118 -75.05721 -79.44138 -88.07337 -96.33550 -95.76564 -93.42557 -91.62412 -91.91073 -91.92096 -92.86841 -93.39494 -90.91598 -89.81486 -89.53855 -88.12506 -88.51882 -91.82621 -97.95410 -96.58361 -98.45701 -94.32709 -91.62273 -89.16560 -91.67813 -90.64922 -88.90227 -86.13146 -80.04264 -69.05456 -66.41836 -56.93948 -52.52198 -48.49132 -46.36667 -45.40964 -47.44425 -53.79036 -55.92737 -59.74809 -61.93407 -62.80307 -64.19833 -64.41871 -64.11420 -63.68590 -63.24301 -64.96966 -66.69551 -67.72796 -69.27908 -71.32619 -70.54467 -68.18262 -66.90814 -66.98107 -66.85496 -66.14901 -65.13379 -64.19038 -64.55513 -63.90308 -61.49620 -57.30593 -53.16365 -54.34384 -55.74009 -57.04664 -57.22977 -56.46853 -55.29431 -58.60670 -62.04181 -67.67514 -69.45414 -70.20191 -70.99319 -72.62574 -78.81294 -82.28112 -81.83428 -80.25750 -76.35035 -71.96219 -72.71145 -75.09794 -76.33925 -78.49942 -80.42506 -81.41874 -76.71142 -69.33042 -68.79593 -70.49458 -70.97393 -70.15328 -68.75501 -71.92431 -74.35540 -76.07092 -82.62010 -82.34202 -86.27589 -87.59921 -88.44697 -86.90787 -87.62542 -87.71215 -88.63047 -86.79695 -84.73937 -83.10553 -84.14716 -82.95106 -72.01957 -69.64087 -67.34235 -65.84175 -61.85507 -54.94714 -53.81794 -47.83980 -43.50953 -39.52907 -38.39404 -36.29781 -34.78496 -32.21345 -28.31021 -25.88758 -25.76609 -26.81966 -28.49401 -32.05043 -32.87276 -36.78045 -41.17607 -42.11283 -44.12034 -45.71795 -47.14083 -50.89256 -51.95378 -58.05390 -64.62854 -69.09279 -68.58797 -65.53531 -60.35558 -55.18418 -53.34070 -54.27711 -54.40808 -51.25738 -49.13541 -45.66586 -42.84468 -42.17310 -43.46601 -43.74958 -43.65504 -42.08410 -35.92443 -34.44942 -29.96250 -30.24020 -30.67258 -28.01098 -25.03449 -22.54352 -18.42917 -16.11845 -15.78015 -17.97902 -21.03556 -23.56168 -25.44873 -32.52143 -37.59509 -38.94462
-47.52223 -41.09758 -34.06696 -34.24191 -41.62286 -44.77351 -43.36262 -38.30886 -31.83274 -25.15598 -22.27154 -21.62257 -22.64196 -28.32336 -34.59037 -41.72006 -44.03604 -45.06675 -48.89561 -53.26009 -59.70871 -63.88261 -63.45310 -62.19962 -61.64056 -61.04405 -59.70947 -52.79825 -50.38600 -46.68263 -45.29256 -44.60636 -44.54403 -47.12060 -49.32358 -55.68245 -57.97590 -61.35104 -63.37946 -61.92002 -61.37567 -64.81198 -66.75272 -70.75389 -71.25250 -75.57502 -83.22585 -84.21850 -80.92691 -77.23839 -77.81776 -79.93608 -85.70027 -87.42636 -87.97567 -88.53964 -83.02142 -80.78659 -80.18280 -81.10040 -82.34700 -85.21886 -86.55893 -91.16684 -90.99419 -88.30129 -88.01106 -91.96661 -92.39843 -92.85205 -87.88822 -83.56507 -76.45399 -76.69692 -74.01404 -78.00805 -83.60444 -86.86423 -91.76219 -95.15318 -94.01441 -95.32422 -97.21486 -98.99787 -97.48910 -93.06526 -92.57535 -86.06973 -82.24597 -81.27348 -77.48440 -72.18044 -69.37025 -68.53091 -68.27547 -69.74921 -72.68394 -74.58999 -78.71714 -83.23293 -85.28831 -84.51729 -80.92833 -78.49650 -78.01129 -79.31471 -79.12928 -76.28308 -79.20304 -82.84352 -88.16817 -94.74329 -95.63752 -94.76201 -92.75310 -94.69549 -95.31309 -91.08277 -91.55335 -89.91294 -84.92388 -83.74613 -83.03093 -85.95221 -91.32148 -97.92815 -100.05529 -96.09625 -89.68782 -86.86398 -85.58559 -84.52489 -83.44694 -86.85448 -86.95062 -84.28947 -73.62624 -66.38140 -60.45280 -51.95145 -47.75499 -45.24150 -47.04511 -48.91019 -53.61191 -55.99733 -61.07810 -64.84207 -65.67169 -66.32915 -66.65774 -66.12464 -62.60975 -61.43218 -63.93331 -66.07102 -69.67716 -70.43030 -71.60820 -70.30744 -69.71810 -68.62611 -67.52195 -67.41135 -66.15897 -63.48883 -62.97161 -64.10076 -62.65325 -60.35192 -56.47343 -56.48682 -57.43242 -60.44217 -60.33887 -58.69975 -56.43559 -58.99159 -63.39818 -64.97375 -70.92317 -73.65923 -72.85777 -72.85915 -76.75963 -80.77199 -83.20935 -81.19177 -76.57760 -73.75996 -71.02437 -72.42539 -77.33849 -79.91440 -83.06622 -85.38543 -86.73039 -81.80869 -75.53452 -72.66719 -76.09928 -76.92135 -77.74714 -75.33326 -75.90738 -76.09512 -81.50007 -84.54935 -88.84822 -88.53350 -84.54556 -84.96172 -84.82796 -88.11015 -87.29163 -84.29790 -82.55594 -82.63749 -83.88760 -86.41719 -84.30229 -80.06905 -73.73221 -71.68926 -68.62547 -63.58877 -57.45572 -49.69128 -47.72770 -43.22006 -39.19611 -37.52035 -34.73687 -33.93040 -31.79600 -29.13285 -28.06171 -28.05077 -28.81797 -29.59310 -31.62026 -34.20498 -35.24567 -39.59270 -42.78204 -45.12168 -46.87193 -48.70893 -53.52884 -58.30173 -60.34546 -66.66171 -69.14084 -65.22647 -60.19441 -57.18960 -55.28532 -51.15858 -51.28714 -52.22180 -50.61768 -49.06235 -44.70090 -40.54947 -41.73412 -43.09338 -45.81914 -45.19882 -43.21101 -38.20459 -33.74335 -32.69604 -31.16709 -32.10703 -26.91290 -25.44286 -21.89428 -18.53458 -16.75262 -16.83255 -18.16998 -22.18068 -23.34845 -26.88204 -34.01446 -35.86706 -42.14983
-49.74450 -45.54626 -40.83771 -40.09663 -42.50160 -49.14845 -44.12507 -38.94215 -33.97343 -26.69454 -21.99885 -22.50438 -22.92662 -26.10433 -34.94150 -42.34381 -45.44336 -48.75018 -53.21437 -54.01389 -59.81187 -62.13050 -63.84342 -64.06471 -64.43875 -61.91611 -63.45301 -58.11054 -51.31979 -50.52745 -50.34444 -48.25800 -46.96221 -47.92197 -49.36257 -51.64715 -54.85447 -56.86680 -59.92990 -59.06172 -60.29094 -62.36999 -65.93050 -69.12519 -69.98228 -74.90052 -79.15113 -81.41750 -80.16911 -77.49879 -78.06305 -78.77628 -85.76097 -91.38715 -92.95186 -89.76662 -89.23018 -87.29801 -86.33522 -85.55498 -85.78814 -85.59299 -89.04908 -92.22422 -93.18588 -89.55855 -87.46011 -91.34558 -93.96894 -94.84272 -90.23507 -85.02905 -81.61823 -81.02855 -78.45181 -80.39031 -88.48825 -94.03044 -94.69252 -93.39676 -91.58724 -91.91289 -94.07707 -98.48916 -94.87989 -90.10231 -86.65985 -80.81981 -77.21169 -76.96594 -75.43281 -73.42688 -70.47239 -69.84657 -69.21625 -69.87730 -74.56120 -79.42944 -82.99585 -84.57272 -87.26387 -85.58549 -82.87857 -81.13468 -79.80410 -81.04012 -82.86299 -83.63790 -85.60286 -87.34562 -89.14070 -90.43568 -95.05820 -96.89663 -97.87796 -97.58742 -97.58110 -89.23394 -85.64571 -85.06977 -81.78964 -83.10314 -84.97984 -87.84890 -94.49788 -99.68595 -100.66094 -95.01760 -88.45630 -85.90906 -81.14134 -79.47544 -81.28412 -83.57189 -83.94150 -77.81057 -78.53890 -68.98548 -63.62382 -51.79620 -46.51438 -46.48557 -48.19167 -50.89360 -54.99580 -58.00180 -61.48382 -67.58991 -68.94881 -69.66068 -69.70578 -66.70142 -64.30724 -63.11229 -64.07910 -66.56069 -69.48465 -70.79741 -71.17178 -71.02394 -70.28055 -69.62789 -68.17684 -67.86340 -65.04087 -63.62661 -63.26097 -64.24300 -63.44994 -62.04345 -62.04328 -59.15344 -62.91332 -64.73694 -60.49469 -56.92742 -58.47567 -60.61633 -65.06094 -71.04550 -74.31522 -76.89634 -79.11600 -77.66416 -79.95650 -80.99471 -82.81896 -79.33646 -74.74899 -73.43214 -69.61957 -73.78421 -76.65266 -82.83131 -86.64713 -89.06939 -91.26261 -86.95476 -82.89466 -73.51441 -76.83778 -77.60383 -78.24241 -77.27554 -77.92191 -81.07408 -85.79443 -87.49904 -86.66390 -81.82393 -77.68457 -77.74952 -82.45111 -83.63658 -85.01516 -83.04538 -80.70589 -79.05924 -81.04606 -84.16323 -85.57712 -81.99684 -80.39235 -74.64194 -72.16483 -63.82173 -58.56315 -49.78581 -45.59281 -41.95528 -40.84868 -35.15673 -33.49552 -32.52404 -29.05969 -28.76522 -28.86102 -30.69169 -30.31759 -31.36050 -33.16138 -33.87897 -37.01890 -38.91664 -39.89472 -43.64782 -47.10408 -52.04227 -57.35014 -58.19003 -63.76418 -67.41865 -68.54989 -63.04280 -59.46539 -54.18581 -51.41750 -49.37863 -48.99920 -50.41239 -50.88335 -47.02281 -45.88238 -42.66189 -43.32138 -44.41148 -47.07906 -48.54937 -43.59757 -39.50115 -37.15639 -35.04247 -36.99251 -34.25504 -30.89060 -24.31176 -22.93689 -19.13793 -17.21910 -17.52939 -19.19623 -20.13962 -25.07987 -27.78322 -31.15612 -33.13927 -37.32253
-50.53005 -50.90713 -44.69128 -42.96092 -46.95421 -49.22980 -45.68429 -38.65144 -33.42617 -27.62397 -23.04774 -22.96431 -24.92683 -27.37269 -33.62651 -40.09002 -46.64072 -51.22364 -54.23287 -55.00244 -59.46307 -62.98624 -64.99487 -65.52202 -65.92375 -64.58105 -65.74838 -67.68340 -60.44132 -57.36176 -54.12414 -53.41492 -50.94447 -48.14873 -48.01876 -50.27504 -53.15133 -54.82593 -56.97419 -58.66223 -59.24817 -63.11240 -64.17585 -66.63928 -68.05266 -70.08239 -73.58512 -77.79232 -78.22274 -79.15181 -78.47042 -79.11144 -82.45133 -89.27873 -91.60875 -91.22048 -87.72377 -87.82531 -88.56538 -89.35208 -88.00278 -86.61824 -88.71191 -90.41239 -91.75397 -88.50988 -84.69878 -89.58667 -94.03910 -94.18855 -91.56561 -89.32235 -86.75445 -83.03724 -83.97208 -86.34226 -89.70525 -94.09953 -95.21540 -95.89878 -91.23966 -90.16188 -93.06703 -95.84373 -96.02775 -87.44221 -78.55405 -77.06358 -73.72118 -74.90373 -73.21661 -72.65105 -71.44117 -71.90674 -72.08501 -73.64712 -77.03775 -79.88879 -83.18751 -86.28717 -87.84436 -88.49770 -85.70635 -83.26072 -81.44116 -82.11241 -85.77649 -89.20514 -91.17591 -89.91640 -87.44171 -88.23428 -94.49485 -101.08044 -102.46056 -102.39791 -96.27055 -92.08994 -84.80248 -82.38197 -81.89640 -83.81184 -87.24568 -93.13761 -96.60912 -100.05745 -98.13764 -91.80743 -87.84541 -85.90275 -80.53930 -79.87388 -79.64722 -80.46862 -79.27758 -76.19432 -70.62806 -68.45489 -60.52773 -51.50941 -47.84436 -46.50132 -48.22190 -53.24509 -55.20551 -57.70656 -61.98646 -67.34034 -69.84246 -71.29163 -70.16020 -69.26621 -65.08879 -64.44654 -65.54743 -69.09152 -70.73609 -71.02193 -70.59725 -69.48600 -68.34612 -67.92354 -67.64995 -66.71136 -64.06322 -62.02098 -62.33353 -62.91526 -64.11855 -65.71688 -66.06348 -66.30982 -66.19930 -63.31791 -59.40581 -56.66221 -55.95979 -61.33670 -63.25744 -70.43060 -76.05741 -81.71093 -80.72283 -79.54922 -82.42494 -82.35417 -84.53198 -81.91779 -78.26168 -74.59761 -75.70903 -77.67729 -79.09108 -82.72324 -86.84819 -93.52131 -93.26913 -93.94436 -88.90020 -82.05107 -78.12416 -79.15556 -78.19470 -77.10400 -78.87355 -81.02034 -83.67774 -85.66430 -83.32888 -76.51891 -74.22176 -74.37303 -76.15218 -78.55580 -80.36540 -81.36073 -80.39615 -78.95642 -78.70905 -79.08319 -82.06279 -84.20793 -81.78478 -76.50764 -72.13478 -63.82386 -55.43112 -52.13317 -44.73505 -44.39497 -42.17067 -37.53780 -33.18549 -30.44768 -28.91669 -28.40924 -30.40712 -31.40923 -30.81154 -31.26941 -32.54548 -35.63972 -37.05381 -36.87920 -38.49426 -42.19642 -45.00842 -52.82237 -59.78909 -63.06849 -64.74129 -69.13552 -67.85216 -63.44808 -58.77369 -53.29068 -49.78372 -48.70369 -47.37078 -49.84819 -50.71567 -50.15886 -46.47779 -46.04026 -44.32207 -47.40485 -48.05910 -51.03031 -51.94035 -45.01857 -42.92599 -41.71899 -41.30860 -37.82565 -31.61176 -25.28281 -24.40975 -22.48350 -18.58189 -18.87354 -20.26775 -20.54279 -24.58813 -26.37691 -26.48405 -28.19851 -34.50894
-51.72695 -52.81290 -51.51751 -48.81934 -50.95015 -49.57929 -43.33630 -35.55268 -32.43373 -27.35979 -25.32262 -24.51981 -27.03331 -29.19267 -34.35763 -37.69616 -44.27023 -50.87375 -54.14206 -57.06980 -57.05130 -60.61720 -60.97554 -64.68242 -68.37168 -68.42200 -69.71106 -73.38959 -66.35927 -59.86804 -54.68312 -52.93606 -49.96884 -47.90224 -46.94254 -47.14633 -48.15858 -50.46462 -54.84091 -53.55281 -57.63208 -59.31932 -63.29206 -66.45054 -67.29171 -70.06580 -73.86934 -77.03752 -77.96121 -79.07889 -79.50613 -79.64955 -82.08341 -88.18607 -89.49777 -87.35460 -83.11889 -85.36019 -87.28456 -88.81171 -87.97088 -86.86242 -86.69667 -91.90536 -95.17370 -89.75900 -86.75323 -88.49411 -93.34769 -92.74983 -92.40490 -90.22892 -89.03583 -87.51106 -87.16199 -88.13626 -88.88073 -93.95388 -94.83103 -94.43813 -91.79668 -90.98718 -93.22801 -93.41115 -91.19939 -86.00769 -83.93701 -78.12087 -75.20631 -74.40070 -73.91525 -74.16394 -73.95186 -74.34613 -73.42197 -73.77407 -74.24217 -80.03368 -84.42553 -86.99070 -87.14487 -86.11226 -85.50259 -84.37636 -82.67764 -82.87873 -84.71385 -89.64663 -91.07066 -90.48382 -89.61860 -90.66376 -95.75416 -102.60841 -101.78123 -101.21102 -95.21300 -86.85344 -82.70313 -82.20073 -82.06958 -84.13022 -89.88656 -94.42520 -95.95665 -95.56694 -93.30760 -88.99195 -87.33204 -86.53737 -83.69792 -79.78891 -79.69555 -78.46999 -74.80531 -72.44402 -68.58939 -67.11510 -59.00763 -51.88830 -47.63718 -44.36912 -46.88672 -51.38289 -54.99190 -57.68888 -61.50049 -65.22898 -69.62648 -72.47169 -71.60194 -69.17834 -67.04915 -66.60126 -67.55378 -70.21151 -71.26324 -71.17422 -70.55488 -67.70064 -65.38291 -66.96927 -66.19373 -65.25321 -63.47569 -61.59253 -61.58111 -61.80709 -63.93081 -64.95661 -66.02750 -65.28452 -63.61636 -61.92353 -58.26940 -56.61186 -55.73473 -58.92692 -64.67085 -72.40066 -75.89949 -78.95210 -79.26196 -77.95458 -79.19127 -82.44718 -82.83649 -81.24968 -79.98178 -80.85619 -79.44713 -81.07334 -84.36177 -86.22784 -92.10145 -94.03503 -95.47596 -96.17763 -96.23657 -90.80637 -82.74646 -81.28471 -78.15194 -76.65089 -77.13539 -82.71760 -85.80741 -83.07541 -76.52521 -75.49900 -73.73361 -73.63776 -74.58988 -76.94580 -78.27091 -80.16502 -80.19993 -79.91737 -79.60440 -79.58528 -80.47654 -80.45402 -77.65054 -72.34132 -67.08086 -66.24259 -58.33943 -51.58419 -48.72237 -44.08378 -42.43979 -37.70650 -33.30318 -30.14991 -29.31055 -30.16050 -32.17341 -33.52700 -32.09866 -31.28243 -33.47125 -36.25867 -37.45438 -36.76893 -36.99119 -41.28316 -44.86868 -50.29258 -58.63531 -66.40853 -69.57592 -68.96494 -67.25698 -62.85123 -60.87579 -55.39063 -51.95317 -48.85063 -48.20285 -50.60895 -51.25838 -50.91333 -50.65638 -48.21919 -51.09357 -50.45552 -50.86847 -53.09060 -53.57473 -51.18916 -47.95326 -42.55738 -41.27136 -36.38145 -31.85825 -27.50088 -24.80717 -22.54640 -21.68283 -21.05880 -20.99975 -21.84275 -23.62360 -23.58738 -27.09019 -28.52552 -33.07166
-53.63857 -54.45340 -55.38107 -54.80166 -52.53685 -52.07101 -44.32822 -37.23485 -34.92023 -28.81091 -25.96805 -25.75848 -26.50537 -29.03283 -30.58437 -37.70373 -43.27958 -44.27336 -44.13305 -47.50759 -48.15702 -50.89202 -52.73131 -58.20275 -63.94877 -66.41765 -72.39084 -72.77973 -67.67359 -59.63193 -56.48142 -51.33860 -49.68743 -48.36851 -46.80137 -47.43797 -47.39399 -47.56216 -49.07252 -50.67004 -51.37221 -56.61689 -59.07757 -63.00365 -66.30807 -69.94219 -71.51822 -71.85273 -75.12286 -76.58228 -77.88997 -78.71322 -81.09142 -83.29104 -87.04872 -83.76670 -81.75409 -82.22473 -86.24201 -88.07644 -87.31042 -90.14970 -90.32495 -95.43991 -96.26593 -92.40708 -87.24593 -91.12750 -92.87677 -92.21382 -91.17622 -89.20464 -87.21694 -87.08588 -87.01674 -88.20319 -91.77035 -95.32005 -95.25863 -90.98635 -89.18467 -89.43158 -91.68147 -92.71431 -91.07665 -87.05487 -84.74329 -81.66513 -78.61872 -75.62685 -75.97110 -74.59971 -74.34792 -74.75126 -75.24873 -73.60014 -72.81970 -76.17726 -81.69640 -84.04599 -83.64524 -83.16566 -83.50103 -83.51778 -85.83586 -87.76138 -88.99586 -91.45359 -94.28907 -91.31756 -91.37431 -91.83961 -98.24923 -104.32177 -101.43343 -97.92097 -92.55682 -91.03199 -85.10406 -82.55351 -83.17695 -86.41553 -90.07623 -93.94103 -95.11349 -94.20089 -90.12331 -88.48555 -86.63442 -85.62048 -84.82789 -83.76565 -80.13530 -76.61252 -73.56900 -72.06154 -62.37771 -58.93201 -56.24162 -49.72238 -44.99717 -44.92099 -47.46126 -49.85057 -54.18805 -57.49578 -62.64542 -66.73972 -68.50488 -72.21207 -72.32281 -70.43789 -67.20290 -67.46386 -68.05441 -70.31888 -71.57481 -72.36874 -70.50845 -68.20537 -67.92917 -68.47409 -64.97347 -63.32607 -62.08562 -61.17618 -60.72539 -61.58160 -65.80425 -67.61625 -68.31745 -65.71462 -64.16119 -60.41766 -59.21077 -56.97074 -56.80048 -58.64985 -65.48541 -71.17249 -75.56398 -74.39871 -75.17831 -74.29318 -77.32293 -78.53905 -81.04902 -80.88944 -79.05239 -80.42874 -82.73868 -86.35861 -86.36225 -87.81536 -89.61986 -91.74827 -95.41838 -96.72971 -95.24826 -91.57648 -85.08147 -82.24651 -77.94121 -77.18738 -79.10061 -83.10425 -85.29462 -84.47637 -78.21249 -74.96380 -73.79872 -75.12831 -75.69135 -75.47189 -76.53830 -78.00410 -78.38559 -78.81605 -79.71870 -79.82648 -80.34068 -78.54643 -75.96612 -68.43944 -66.98175 -62.34161 -58.11912 -56.81337 -51.59572 -43.05587 -41.58843 -37.35552 -35.24036 -32.63384 -30.32943 -30.75339 -34.92660 -35.65461 -33.88659 -32.06302 -35.39921 -38.58009 -39.02246 -36.84017 -39.50443 -44.48241 -45.77116 -52.29269 -59.71181 -67.03620 -69.11230 -68.61254 -68.05845 -65.61500 -62.82838 -59.96665 -53.82048 -51.93258 -50.29006 -51.72735 -52.68129 -52.32918 -52.40038 -52.58707 -52.46268 -51.07250 -52.15188 -54.32775 -55.02512 -50.78296 -44.55941 -38.51098 -36.61359 -33.55837 -28.84907 -25.89425 -23.48236 -22.53865 -21.71168 -22.42192 -23.38658 -23.62836 -23.73777 -26.53871 -28.30736 -31.71167 -35.68715
-59.29375 -58.47171 -56.42744 -56.57413 -53.73549 -48.24055 -46.06736 -41.21789 -36.52546 -30.13616 -27.67124 -26.37414 -23.82782 -26.69608 -29.47806 -33.47025 -37.63600 -35.85254 -39.87100 -38.55369 -42.33099 -46.36356 -49.73482 -55.32002 -57.42579 -68.00859 -72.24210 -72.44236 -69.86159 -63.55593 -57.35227 -51.95748 -50.20781 -49.77914 -48.91614 -48.61317 -47.80161 -47.82179 -47.58719 -48.66517 -49.88259 -51.87004 -56.32862 -60.63374 -62.53123 -64.07548 -67.94343 -69.61616 -71.45592 -73.24254 -72.28714 -75.54150 -76.46303 -80.30033 -85.64604 -82.63793 -80.41199 -82.11852 -85.35491 -85.86244 -90.48833 -92.56798 -97.20592 -97.80048 -101.28225 -96.46334 -93.91180 -93.60656 -93.84933 -93.49997 -90.06281 -89.46427 -87.05890 -86.48559 -86.24939 -86.54441 -92.20878 -96.36128 -93.05528 -89.40530 -86.15172 -87.77434 -88.61822 -87.88535 -86.64763 -85.09528 -82.38916 -81.89817 -79.46463 -78.07252 -77.89261 -76.52694 -75.66464 -76.50238 -76.54942 -73.15739 -71.14838 -73.09805 -76.19937 -80.81209 -80.42260 -79.13607 -81.54937 -83.47651 -88.08805 -91.61167 -95.91846 -97.12289 -96.94756 -95.70255 -95.99440 -97.24297 -103.40016 -105.39458 -100.44672 -99.09847 -92.85367 -85.49041 -83.33943 -84.06902 -84.74047 -87.92196 -94.45260 -95.99127 -94.97678 -93.62006 -92.27367 -88.52003 -86.77756 -91.64294 -87.15963 -87.16196 -80.50674 -74.99535 -69.79883 -67.82218 -59.06666 -52.72135 -47.06367 -46.27099 -45.76873 -45.79110 -49.33740 -52.27599 -56.73107 -62.50568 -67.21448 -67.90672 -70.65354 -72.22659 -72.89830 -71.37247 -68.88991 -68.73745 -68.93066 -70.41628 -72.04764 -71.94996 -71.18441 -70.99559 -69.80469 -71.09259 -67.72750 -64.97881 -61.59020 -61.51160 -60.92105 -63.31319 -70.08364 -71.03738 -71.09731 -69.11882 -66.71089 -63.23295 -60.61071 -57.65823 -59.81641 -59.28222 -65.29077 -69.39618 -75.61035 -74.05093 -72.25236 -74.33591 -75.76473 -76.68959 -79.43260 -79.26706 -78.51082 -77.64430 -80.45853 -83.00892 -86.39906 -85.81273 -88.57234 -88.79098 -88.34317 -92.59049 -91.95201 -92.13410 -88.34579 -84.62707 -79.66277 -79.51542 -80.53980 -84.64494 -83.17147 -82.43808 -81.44571 -77.56515 -77.29617 -76.68758 -76.20892 -75.01341 -75.38698 -75.31252 -76.68511 -77.71866 -78.30617 -79.85250 -80.25539 -77.14578 -73.14357 -68.05357 -64.23732 -60.19250 -57.52579 -56.79077 -52.71674 -49.64578 -42.83258 -40.66740 -35.17779 -32.83284 -32.13362 -33.74686 -35.70931 -38.41998 -35.93907 -34.38636 -36.90534 -40.22317 -40.11238 -39.83409 -42.42902 -45.64057 -49.07494 -54.92022 -60.61355 -67.82360 -68.55902 -68.49530 -67.62569 -66.32352 -62.30639 -58.78816 -56.74731 -49.27942 -49.83845 -52.00211 -52.92628 -52.82710 -52.63919 -52.75737 -52.71915 -52.29734 -53.79335 -55.43228 -53.21875 -49.01266 -40.62901 -37.26537 -32.94713 -30.74633 -26.75815 -23.17938 -22.11900 -20.83572 -21.65993 -23.74081 -24.88787 -25.06431 -26.63017 -28.32877 -29.42542 -36.34981 -40.51161
-63.26523 -61.74768 -59.60170 -56.24248 -53.63495 -48.58433 -44.09625 -40.33145 -37.78870 -32.59248 -30.37728 -27.26314 -24.29893 -25.41909 -28.21719 -29.43498 -30.48653 -33.00586 -34.56070 -38.64091 -42.11690 -45.55804 -49.72100 -53.50277 -61.88995 -66.59909 -72.90844 -74.11539 -71.44244 -66.86022 -59.10919 -55.38711 -54.27195 -53.25490 -49.94321 -50.19094 -49.00351 -49.56702 -49.96226 -50.70869 -51.44743 -52.16828 -54.00330 -55.57146 -59.46051 -62.06890 -62.61824 -65.44412 -68.71829 -70.62109 -71.12410 -73.20158 -74.23571 -78.80366 -83.72456 -83.78391 -80.94041 -80.97101 -82.42560 -87.77251 -94.56518 -96.32634 -99.29632 -99.48026 -99.14622 -98.69924 -94.04539 -96.10488 -97.32149 -94.16376 -91.83636 -91.08333 -87.59218 -87.30585 -88.20911 -91.03431 -93.00440 -96.03911 -91.35633 -87.73327 -84.62878 -86.39506 -87.92118 -85.20945 -82.34734 -81.45827 -81.81447 -81.05500 -81.26838 -80.69601 -80.73920 -79.26046 -78.67975 -78.21134 -79.70994 -75.20207 -70.64900 -71.64378 -75.32798 -76.98649 -79.00208 -78.62783 -81.75291 -84.04580 -86.87800 -88.38355 -93.39402 -95.98511 -100.84381 -101.21866 -100.67881 -102.37091 -105.17876 -106.95801 -104.63899 -101.31267 -93.71090 -86.63116 -83.85458 -84.19829 -86.31424 -89.75306 -94.64719 -96.96843 -98.45118 -96.33115 -93.04110 -92.32721 -94.88912 -95.82876 -92.86217 -86.47824 -83.42139 -73.97698 -71.40592 -61.19188 -53.12809 -49.95796 -47.32704 -46.97531 -48.97242 -50.67548 -54.96350 -54.22043 -62.23255 -67.55783 -70.35448 -70.93610 -71.90990 -72.30546 -72.98141 -72.03805 -69.75652 -68.96785 -70.97182 -70.24666 -71.62146 -72.49177 -72.39757 -72.12450 -72.79244 -75.02581 -69.84075 -66.22808 -61.98520 -62.24596 -62.86359 -67.13401 -69.72155 -74.71524 -74.98957 -73.34769 -68.08367 -65.88051 -62.76519 -61.60496 -61.29783 -61.96305 -66.04965 -71.83707 -75.50302 -72.61610 -72.11202 -71.74505 -75.24195 -77.33564 -78.28461 -79.37651 -78.28906 -77.36366 -80.16263 -80.04620 -83.55825 -83.08612 -83.29116 -81.65974 -85.60135 -86.75723 -85.87851 -86.42381 -85.67867 -83.56039 -80.88866 -80.18835 -83.02670 -83.73528 -81.85780 -83.08612 -83.93615 -83.46243 -79.65544 -80.03517 -78.03624 -76.83774 -76.10183 -74.63321 -74.57091 -76.55156 -79.07410 -76.32156 -76.62961 -74.49257 -66.95319 -64.79491 -59.85081 -57.36938 -51.27634 -51.88994 -49.36551 -46.59845 -45.27192 -40.79946 -37.54410 -36.36821 -32.84307 -35.12069 -35.87580 -40.63060 -39.92067 -36.58017 -38.75806 -40.10728 -41.70229 -42.50241 -45.48501 -47.59522 -48.38098 -53.61147 -61.33010 -63.47022 -67.66485 -67.79776 -66.17933 -65.27367 -60.35127 -58.14024 -52.89823 -50.90467 -50.41934 -52.47823 -53.43140 -52.22279 -52.28410 -52.88777 -53.69911 -55.88648 -57.37191 -56.90458 -53.21927 -48.00032 -42.33283 -38.66720 -32.65322 -31.16828 -26.51702 -22.87279 -21.05940 -21.01677 -21.53642 -24.17949 -27.04478 -28.95095 -29.45950 -28.81844 -33.80919 -37.75096 -43.57821
-67.30490 -62.71342 -62.06961 -57.18038 -48.88446 -45.10484 -43.80141 -40.15968 -36.50590 -34.86319 -30.73139 -27.64995 -24.65327 -26.70346 -28.25519 -29.05191 -30.58407 -33.86324 -36.62476 -40.74340 -43.15939 -46.52955 -51.21473 -56.66249 -59.54918 -73.26227 -74.80107 -76.87148 -73.63501 -67.94135 -65.77725 -60.46391 -56.03732 -52.16325 -51.52208 -50.18895 -51.20552 -52.54305 -52.62038 -52.15067 -51.84301 -52.47592 -52.99088 -55.17298 -58.05430 -60.41567 -61.86708 -65.68715 -68.84515 -70.87822 -70.96426 -72.71160 -75.37191 -80.10796 -87.49646 -87.22220 -84.05318 -80.88480 -84.97346 -89.07283 -95.72829 -96.82409 -97.00123 -96.60894 -96.55501 -100.03051 -100.06928 -100.31863 -97.92506 -96.92833 -96.14753 -95.80448 -93.25918 -92.22854 -93.25167 -90.51546 -92.79330 -93.57974 -90.73173 -87.42456 -86.60832 -85.67008 -86.44819 -84.87995 -81.79978 -80.90351 -80.99887 -81.64584 -82.64661 -82.89332 -83.59266 -82.73434 -82.89953 -81.61222 -80.66746 -79.17993 -74.32131 -70.75984 -72.30319 -74.35329 -75.16485 -78.89008 -81.81069 -81.93622 -81.92724 -81.74013 -89.85444 -92.21659 -98.69355 -99.99596 -103.47080 -104.73760 -107.27323 -107.91243 -104.67194 -97.65540 -90.19032 -82.98936 -81.85726 -83.93951 -85.58096 -89.86920 -93.32665 -102.16451 -102.19444 -101.72481 -98.61653 -98.62186 -97.59296 -97.90304 -93.42237 -84.79162 -84.57363 -75.35405 -63.37899 -60.66625 -53.94895 -50.47579 -47.73195 -53.08700 -56.21662 -56.18422 -57.51222 -63.81382 -67.99467 -71.25044 -70.69385 -71.83568 -73.16394 -73.68456 -74.44512 -74.22544 -73.13267 -72.72994 -73.27610 -72.64452 -71.59148 -73.09043 -73.76214 -75.12580 -75.35507 -74.94704 -71.40526 -66.76313 -65.17909 -62.94102 -66.67686 -68.05505 -72.55192 -76.35086 -78.92304 -75.16785 -69.53167 -67.12299 -67.43996 -63.51465 -63.94963 -64.57360 -67.87257 -73.64647 -75.13214 -72.54665 -69.07908 -70.84169 -73.71882 -76.64251 -79.35003 -80.11683 -78.85136 -79.88120 -81.43259 -82.49361 -80.21965 -79.50778 -78.15251 -76.70753 -79.70817 -80.13592 -79.93219 -79.99076 -82.04340 -82.69837 -81.77388 -82.55830 -83.55045 -83.41152 -80.60732 -83.89449 -86.70399 -85.10711 -84.13648 -80.33559 -78.80001 -77.49358 -78.49078 -77.01522 -75.67650 -76.50771 -74.04197 -72.79079 -70.18056 -67.12235 -66.31810 -63.53892 -58.60258 -52.76476 -48.74356 -47.97885 -46.24505 -46.81261 -45.35567 -43.57633 -40.63198 -37.64376 -37.57379 -36.91200 -39.28702 -42.37968 -42.29401 -42.63012 -40.75600 -41.88458 -44.69840 -46.81903 -46.23309 -46.22144 -48.18607 -50.76867 -60.34620 -64.04571 -67.26774 -67.57627 -66.64065 -64.05436 -59.96750 -55.87724 -53.42493 -49.25939 -52.32972 -53.26780 -52.79549 -51.65309 -51.20271 -52.35895 -55.63854 -58.28204 -60.62831 -58.57769 -53.67330 -48.42235 -43.47197 -38.54842 -36.22374 -32.10420 -26.98789 -24.89553 -22.37170 -21.90084 -22.50548 -25.50313 -29.42240 -30.09043 -30.42302 -31.63233 -35.20222 -38.44371 -48.21134
-70.89289 -66.89741 -63.53642 -53.35230 -44.57362 -42.17233 -40.61250 -40.55512 -38.65560 -34.34910 -29.65638 -28.13074 -27.31106 -27.56287 -28.03210 -33.41411 -39.02438 -39.80594 -40.38338 -43.96262 -45.19086 -48.55764 -53.63843 -59.04276 -62.07531 -67.20355 -72.19149 -77.05165 -75.35059 -72.96914 -69.03413 -61.60447 -57.05976 -54.09179 -52.90995 -52.67619 -52.64358 -54.27829 -56.43655 -55.11028 -54.70086 -53.49115 -53.51775 -58.32689 -60.78975 -62.52166 -63.89350 -69.78856 -70.48352 -71.72948 -72.25518 -72.86894 -75.58232 -80.43484 -87.16089 -90.14536 -89.92934 -88.79947 -89.75580 -92.12817 -96.86606 -96.25018 -95.65959 -95.18519 -97.78504 -100.31875 -102.68989 -101.20148 -99.59693 -100.15980 -100.68801 -101.78111 -99.47538 -96.27163 -95.37033 -93.08048 -89.85522 -89.67016 -89.28896 -88.35935 -87.09574 -86.57112 -84.50558 -82.79980 -81.48090 -80.81977 -82.97900 -85.70312 -87.23554 -88.28820 -84.71619 -85.54196 -87.64195 -83.53012 -83.09285 -80.81631 -74.77912 -71.74696 -71.97519 -71.41258 -73.60531 -75.90263 -81.11736 -80.42373 -79.11661 -79.65621 -82.73414 -90.57935 -94.58230 -96.60963 -102.74258 -106.98853 -107.92222 -106.02937 -103.50968 -96.26918 -88.56679 -84.10477 -83.18716 -82.52819 -84.27792 -86.11801 -94.08912 -96.89336 -102.87648 -104.48338 -104.30373 -103.10366 -97.06870 -95.64826 -92.40566 -83.20478 -80.27718 -73.65534 -65.42880 -56.93811 -54.56532 -49.75024 -52.19338 -57.70223 -62.83530 -62.23155 -62.23003 -65.78684 -70.90969 -75.43312 -76.43760 -77.00782 -75.53212 -72.94023 -74.01016 -74.84380 -76.45059 -75.98978 -76.58876 -73.75891 -72.83456 -72.97837 -74.50559 -76.60009 -75.69011 -74.43336 -70.97587 -67.67535 -67.32002 -66.78503 -69.72318 -69.76781 -72.59403 -75.93858 -83.15331 -82.80744 -75.51549 -69.53984 -67.98861 -65.48242 -70.53302 -72.74793 -76.69419 -77.35379 -73.61603 -70.41695 -68.30685 -69.30744 -72.35348 -75.37750 -78.61424 -79.87467 -79.41186 -80.99628 -83.32654 -83.68835 -83.53949 -78.61827 -74.41983 -74.03564 -73.74932 -73.50613 -74.81484 -77.25356 -82.15455 -82.71598 -83.55564 -83.29304 -85.20764 -84.33442 -83.28339 -85.02163 -86.01892 -84.03334 -82.35720 -78.63302 -78.67282 -78.44003 -78.97606 -77.58243 -75.69675 -71.67166 -70.42986 -63.52003 -63.97735 -63.73871 -62.98933 -61.59157 -56.35292 -52.51116 -49.24976 -48.07859 -47.28270 -49.18104 -48.09321 -43.59184 -38.54621 -38.61278 -38.39511 -38.04139 -40.29580 -43.54534 -46.96028 -46.95437 -46.22444 -46.22465 -48.37327 -49.62511 -50.64634 -49.83132 -50.54109 -56.17312 -61.48867 -64.64209 -64.88755 -64.17291 -64.25959 -62.54146 -60.23174 -55.08649 -50.03944 -48.87469 -51.28677 -53.66633 -52.06817 -50.18208 -50.81192 -51.26669 -55.03653 -62.19353 -63.61581 -58.41497 -52.71579 -46.62849 -42.45021 -39.13104 -36.33741 -33.61091 -31.10570 -25.37525 -23.54600 -24.04857 -24.40231 -26.84256 -29.47289 -31.24045 -33.08609 -32.99252 -33.52648 -41.98912 -44.21738
-76.43979 -68.15870 -63.51880 -51.83242 -44.07934 -42.47190 -40.71724 -40.04224 -39.25413 -34.88096 -33.57787 -31.02937 -28.97423 -29.66091 -30.33571 -37.01291 -43.51591 -48.47364 -48.31008 -48.68272 -50.44343 -55.86829 -55.87005 -59.60437 -64.58756 -66.10537 -70.01177 -73.23572 -74.77172 -72.59118 -72.37108 -62.23010 -58.66446 -57.54114 -54.70451 -55.52003 -56.37434 -57.76061 -57.92562 -58.66788 -60.42521 -57.66326 -57.86355 -59.42460 -65.62536 -68.35460 -70.01692 -73.06458 -77.75514 -76.08532 -73.84501 -76.45383 -77.20543 -81.38425 -85.34193 -89.06040 -94.18172 -91.59875 -92.92306 -96.91223 -97.42470 -96.88188 -96.98966 -94.59964 -97.85631 -101.33319 -103.90964 -101.65720 -100.66838 -102.08302 -103.27482 -103.50149 -102.96755 -102.55749 -96.75732 -92.04676 -87.98541 -86.73446 -87.49580 -87.31383 -88.09513 -85.78992 -84.48666 -81.99629 -81.39443 -83.52708 -85.20409 -90.59005 -93.05422 -94.23175 -89.84446 -92.16051 -89.90805 -89.37367 -81.43722 -79.35124 -76.82595 -74.04938 -68.59438 -68.02299 -69.14344 -72.85924 -76.67497 -76.77647 -77.33358 -78.35421 -82.67244 -86.91605 -90.53510 -94.92419 -101.86751 -104.34855 -105.98600 -104.62851 -100.68930 -95.66539 -90.79101 -86.88829 -85.79575 -83.60388 -86.78255 -90.41354 -94.70189 -98.46914 -101.11330 -102.95090 -102.65577 -99.11697 -95.99590 -91.09161 -85.49638 -79.73608 -73.89560 -67.84843 -64.38755 -56.49818 -51.90078 -49.62758 -54.50943 -57.93731 -62.79416 -66.09928 -65.04583 -70.99717 -74.03174 -79.06526 -81.82532 -80.29786 -76.97586 -73.37417 -73.43653 -74.65062 -75.62168 -75.79051 -76.38692 -75.54876 -72.58015 -72.47403 -73.96095 -75.22118 -74.78835 -73.34282 -70.40764 -68.75620 -67.95564 -68.78111 -69.81816 -69.47448 -70.25874 -75.00815 -81.47443 -84.60135 -79.15012 -74.59413 -69.71606 -68.78254 -75.07097 -80.21175 -80.86531 -76.91846 -71.56722 -70.17709 -67.13120 -68.40613 -72.47328 -74.29380 -77.79633 -78.95772 -79.09107 -79.83345 -82.68106 -84.39743 -84.24462 -78.56745 -73.87724 -73.44833 -70.83358 -71.65829 -68.89859 -72.77216 -78.76864 -78.56947 -81.60309 -84.81589 -85.85244 -85.98448 -82.93468 -83.94128 -81.12998 -81.67630 -77.88797 -76.45556 -73.72560 -75.54740 -76.62261 -76.79482 -74.74422 -71.40237 -65.03950 -63.33608 -61.11165 -60.31520 -61.10432 -58.05419 -57.95803 -54.32223 -51.81609 -51.75566 -51.23490 -50.75956 -49.02750 -43.96938 -39.93169 -38.84534 -38.18995 -39.55848 -44.10621 -48.28005 -47.27883 -47.19879 -47.81955 -49.62007 -51.01033 -52.22508 -52.38864 -54.05278 -57.27142 -58.48374 -65.58700 -65.27625 -63.88281 -63.68318 -62.93248 -59.66766 -57.71681 -52.83626 -49.95862 -47.23315 -52.83708 -56.09314 -55.82533 -55.54174 -53.87765 -56.50611 -59.78106 -62.89734 -63.41920 -55.82754 -48.54951 -43.80291 -39.21712 -38.10355 -34.72054 -34.76642 -31.91796 -28.72439 -25.04456 -25.38057 -29.24397 -29.24497 -30.47480 -34.42557 -35.99729 -35.86182 -37.77768 -41.36493 -45.84803
-78.38709 -70.32868 -60.86533 -51.92292 -46.61847 -43.41971 -40.80800 -39.56829 -38.79279 -37.22315 -35.48781 -32.37460 -32.06804 -32.09074 -36.35608 -40.18519 -51.44516 -52.38227 -53.00234 -57.98556 -58.91379 -59.58635 -61.97819 -62.62473 -64.07485 -65.97653 -67.18724 -70.93032 -72.38893 -72.90485 -69.64808 -64.23335 -60.92887 -58.95065 -58.75619 -58.53751 -58.25067 -58.52476 -59.18432 -60.51266 -60.79251 -60.66180 -61.46640 -65.08426 -66.75524 -72.38588 -77.02496 -81.75675 -81.40901 -79.21510 -81.31091 -79.54663 -83.94888 -83.22099 -83.74904 -88.77795 -92.76367 -94.13197 -95.30296 -96.69439 -97.74107 -98.80338 -98.86682 -98.73087 -99.52825 -101.21070 -102.45209 -101.30908 -98.20526 -98.73768 -99.52540 -99.91511 -102.10621 -99.19271 -95.47570 -90.22465 -87.49022 -86.12591 -85.92703 -87.42438 -87.92321 -86.81493 -85.19147 -82.62258 -83.64558 -87.90415 -90.09620 -95.40225 -96.72357 -97.42877 -98.42861 -93.01241 -94.86425 -89.56384 -84.97433 -78.72632 -77.84573 -72.05662 -68.02672 -67.99081 -68.43404 -71.70701 -73.97411 -75.91970 -77.80511 -78.71931 -81.84232 -87.44208 -90.78246 -93.24446 -100.24239 -103.75807 -106.81434 -105.54880 -102.89332 -95.90624 -92.26000 -91.66442 -88.07857 -90.25574 -90.77223 -94.93262 -95.10462 -98.03787 -98.55384 -100.26048 -100.88168 -98.74794 -94.80629 -90.70789 -85.18069 -82.87577 -75.30925 -69.21029 -63.62238 -58.56905 -51.60416 -51.28498 -53.39280 -56.37274 -64.80581 -68.54727 -71.32583 -72.73374 -78.67513 -80.61324 -85.48398 -86.17384 -81.18905 -79.97717 -77.59718 -76.66014 -74.06700 -74.56019 -75.99700 -75.48303 -72.47996 -71.42581 -73.29283 -74.33654 -74.12278 -71.89865 -71.19716 -68.61718 -69.37128 -70.11818 -70.41495 -73.07949 -74.82830 -74.75277 -79.57317 -86.63751 -85.95989 -76.49369 -72.40747 -75.43232 -79.84901 -83.70610 -82.08980 -78.95115 -73.20674 -71.72218 -68.60513 -71.57292 -72.63736 -73.26890 -76.26202 -77.20068 -78.08169 -79.22897 -82.46780 -87.39045 -86.70071 -81.95875 -77.87724 -75.43146 -75.75390 -73.88206 -74.21156 -73.66031 -73.24474 -76.84559 -80.48351 -83.49770 -86.38784 -86.79405 -84.79805 -81.74628 -79.02535 -78.35309 -76.42005 -75.21054 -74.22979 -74.02599 -72.86196 -73.49133 -73.08813 -72.25918 -67.89498 -64.29956 -63.51097 -61.29339 -59.83867 -59.45564 -57.48389 -54.27117 -53.22659 -52.79140 -53.54010 -53.81449 -49.50952 -44.32792 -40.95061 -39.52917 -40.50075 -44.21421 -45.83735 -49.04431 -48.22352 -47.98080 -48.51344 -49.87343 -50.92015 -51.15351 -53.17952 -53.86163 -57.65072 -61.60277 -63.90127 -62.57857 -62.12527 -61.99385 -61.10212 -58.11518 -56.44630 -53.65680 -50.38234 -49.61054 -52.49135 -57.63783 -59.30367 -57.50743 -58.35931 -57.11191 -61.37916 -66.66508 -60.83478 -54.72097 -47.98224 -41.28909 -39.24911 -37.16954 -35.04314 -35.63553 -36.08665 -30.54970 -28.82583 -28.12396 -29.48492 -30.32301 -33.65009 -37.62545 -38.51069 -39.56790 -40.81298 -42.06754 -48.29055
-79.20821 -72.14277 -61.85774 -53.92762 -53.54454 -47.92048 -43.35817 -39.49143 -39.27913 -37.88462 -36.56900 -35.33549 -35.99667 -34.61745 -37.78665 -44.82998 -50.43148 -53.03993 -54.69927 -63.28055 -66.63590 -66.86574 -64.77769 -65.23427 -67.54933 -69.20868 -68.35259 -70.35255 -72.27458 -73.04509 -71.11488 -64.52843 -62.36497 -56.39105 -56.75242 -57.09086 -58.28262 -58.38996 -59.39823 -60.79012 -61.49188 -62.24679 -63.75965 -66.18137 -71.73079 -77.08253 -81.37031 -82.37253 -84.91018 -84.65714 -84.17065 -85.32594 -85.34601 -84.69956 -84.64249 -87.34863 -90.25243 -94.15338 -96.30105 -96.90271 -98.20828 -100.71807 -104.15568 -102.73739 -101.01762 -102.84411 -101.74853 -97.47182 -95.14323 -93.33592 -93.95963 -97.71231 -96.41591 -95.47867 -95.01709 -92.33758 -89.19498 -87.59660 -84.56127 -88.66468 -89.83429 -88.07799 -87.60362 -87.97732 -88.06895 -91.24208 -93.43239 -96.30644 -98.41445 -99.29188 -96.32800 -95.02772 -92.08104 -88.46334 -85.97420 -78.24277 -73.00753 -70.36672 -66.36977 -66.15569 -68.56682 -72.55501 -73.54862 -77.67011 -78.41561 -80.00797 -85.17781 -89.47522 -90.36719 -93.89130 -96.96532 -103.26219 -106.94282 -107.21989 -104.38784 -101.66421 -96.04700 -95.46120 -93.70940 -97.09916 -99.11197 -100.20477 -99.30255 -98.20616 -99.18494 -99.53109 -99.67014 -97.33185 -95.94415 -91.20229 -85.74597 -81.93967 -77.82704 -69.37138 -64.60913 -58.37046 -51.88671 -53.51790 -54.68904 -57.47418 -66.72833 -72.67948 -76.36288 -80.61215 -79.93294 -81.80528 -85.55504 -87.31361 -87.08444 -83.28747 -77.57765 -74.66147 -70.64833 -72.15539 -74.21177 -73.79073 -72.35072 -71.35810 -71.88279 -72.63640 -72.84037 -72.93228 -71.30419 -71.09221 -71.65314 -71.37438 -74.31478 -76.25228 -78.60875 -76.89396 -82.56627 -87.98100 -90.04759 -82.45090 -77.20857 -78.57588 -82.74390 -83.54579 -83.54547 -80.83972 -79.44811 -79.02822 -78.48290 -76.40114 -76.39050 -75.47897 -79.83271 -83.04123 -81.75461 -83.88069 -89.93913 -89.07601 -86.06179 -81.07049 -80.37456 -80.56397 -81.84346 -80.88337 -77.56690 -77.08122 -76.56762 -76.90206 -83.33708 -85.90554 -89.11951 -88.18931 -85.54654 -83.06003 -79.63684 -80.31037 -79.96667 -79.45439 -76.80356 -75.75214 -74.29366 -72.70567 -71.11029 -70.00215 -69.13768 -67.72883 -66.09789 -63.91151 -62.69015 -58.86092 -58.49005 -56.94330 -55.40721 -55.49171 -56.63565 -52.69106 -48.78361 -47.05119 -43.46278 -43.50638 -43.76425 -47.73840 -50.03892 -50.90372 -48.17173 -48.29754 -47.36251 -47.98292 -48.96299 -50.50621 -51.52484 -52.06339 -55.79857 -62.11137 -63.86202 -61.11333 -59.35042 -59.07534 -57.84086 -55.75810 -54.83217 -54.40022 -52.96747 -50.74367 -54.49018 -58.30530 -59.75853 -59.36094 -59.14812 -61.21893 -62.53219 -63.37334 -60.06772 -55.07498 -53.39266 -48.83967 -41.93058 -41.80254 -40.25120 -36.93825 -37.06492 -34.39805 -32.27803 -31.45328 -31.22437 -31.64212 -36.60369 -39.13128 -41.63284 -42.13362 -43.96738 -45.64599 -48.06856
-80.07362 -73.92263 -65.59342 -54.83772 -53.48017 -47.80506 -44.18269 -40.34744 -41.49519 -40.70418 -39.26275 -39.30560 -38.39981 -40.53038 -43.42287 -46.77502 -50.65028 -53.16127 -59.14288 -65.67167 -70.62684 -71.80081 -69.55751 -71.31145 -71.96694 -72.44117 -76.39988 -75.80793 -76.23570 -72.66725 -71.06123 -65.20477 -57.55667 -54.72657 -55.33463 -56.32744 -60.19860 -60.88315 -59.28629 -59.51395 -59.85810 -60.34433 -63.03756 -66.87915 -68.81751 -75.24884 -79.26375 -82.30606 -82.64508 -82.96136 -84.53227 -85.91934 -87.64787 -86.22210 -87.49634 -90.75796 -93.02274 -94.87319 -96.54493 -97.77993 -101.56456 -104.90097 -108.35358 -108.09059 -106.89360 -105.00852 -100.01888 -99.27351 -92.37094 -91.36161 -92.14755 -94.09794 -96.15450 -94.88817 -94.16719 -94.29313 -93.37914 -91.14277 -88.66555 -90.12056 -90.89368 -91.41836 -89.95660 -88.53645 -92.69945 -91.71131 -93.32112 -95.54958 -100.86804 -99.62979 -95.31740 -91.22546 -89.50899 -86.40260 -83.42306 -77.49654 -68.99616 -66.34916 -65.34476 -66.14927 -67.67975 -73.00620 -74.14708 -77.28144 -78.07889 -83.54372 -87.78076 -90.32300 -89.76761 -92.46416 -96.34318 -103.47358 -104.19131 -107.89850 -104.32994 -101.86847 -97.24390 -96.93254 -97.64698 -98.41499 -100.26021 -99.37984 -98.98368 -98.25390 -99.07951 -99.87629 -100.25876 -97.46194 -94.03727 -90.77746 -82.91922 -78.41648 -73.03527 -67.46120 -63.20742 -55.36850 -53.47749 -54.22485 -55.57593 -57.65449 -67.91398 -78.39012 -78.44349 -79.12595 -81.93939 -82.49268 -85.90628 -89.19118 -88.06899 -81.07686 -74.69640 -69.15607 -68.11112 -68.46114 -70.83085 -71.97349 -70.35125 -70.95753 -71.86715 -72.55129 -72.60953 -72.75092 -71.78395 -72.79251 -73.32424 -73.21649 -75.79710 -79.01517 -80.87244 -83.07359 -90.40631 -93.15951 -91.82585 -87.76866 -81.83425 -81.86101 -82.06164 -82.03365 -82.94838 -81.73989 -83.44473 -82.47465 -84.14953 -83.46663 -82.23636 -82.92609 -86.04549 -84.98863 -85.03715 -89.45735 -93.24934 -90.92698 -85.33088 -82.58372 -83.23609 -82.88665 -85.03698 -84.89687 -81.51218 -80.46722 -80.81672 -83.04404 -86.19200 -92.80288 -91.22468 -90.47169 -87.37147 -86.14952 -84.62295 -84.51754 -81.89901 -81.10354 -78.25414 -75.95459 -74.27855 -72.01300 -70.17623 -68.03336 -67.27001 -67.07302 -66.60767 -65.34733 -64.39811 -61.98777 -59.98524 -58.09807 -59.14278 -59.35198 -57.56753 -51.34966 -48.24518 -46.93546 -47.32269 -49.72809 -50.11967 -51.68020 -54.16409 -53.95349 -51.38572 -47.33619 -46.77706 -46.73760 -48.31040 -50.92391 -52.39089 -52.26810 -58.39180 -62.33065 -63.78886 -59.83206 -58.69757 -56.70220 -56.02494 -56.06412 -54.99260 -54.30613 -53.01177 -55.96133 -58.51926 -58.89197 -60.79409 -58.62831 -59.34901 -59.83838 -60.13096 -60.11243 -60.98023 -57.20606 -56.58511 -54.46612 -49.77934 -49.20405 -43.46369 -37.60647 -37.26119 -36.35666 -33.74517 -32.99841 -32.31515 -35.23377 -38.58791 -39.59144 -39.89188 -42.21208 -43.99002 -45.20701 -49.59213
-77.33542 -77.67857 -68.12709 -60.11669 -57.74756 -50.70826 -48.72351 -45.09069 -42.69176 -42.33111 -41.72818 -42.02755 -41.41827 -42.15998 -44.12350 -50.70988 -52.30583 -57.26580 -61.04151 -68.23834 -71.30476 -73.32074 -72.64254 -72.24116 -73.95272 -79.57445 -83.20684 -82.01801 -79.10198 -74.96866 -69.00773 -63.89749 -57.40723 -54.78891 -57.95934 -61.47940 -64.13293 -62.65697 -58.68781 -59.08075 -57.96896 -59.19970 -59.50542 -65.91334 -70.02453 -75.90141 -78.41126 -80.83435 -82.43481 -80.67298 -86.55467 -88.17096 -88.35562 -90.52307 -91.74806 -93.75237 -96.36560 -97.70565 -97.75069 -100.00854 -102.28671 -106.63468 -109.66504 -110.69665 -110.46263 -105.44977 -102.44611 -95.56389 -88.78975 -87.33319 -85.90122 -86.85765 -91.00086 -92.09594 -92.61498 -92.87740 -94.14497 -92.80452 -92.27956 -92.56740 -93.20157 -91.38350 -89.41836 -92.19391 -94.93250 -96.58106 -96.60994 -100.27073 -100.45468 -101.13604 -95.33262 -86.46889 -83.08756 -83.24219 -78.71639 -71.48293 -64.21127 -64.10811 -63.40802 -63.49451 -66.13496 -71.26075 -75.01768 -75.96811 -80.33141 -84.17933 -89.09365 -88.98470 -87.72607 -89.48098 -94.99110 -96.01361 -101.68333 -101.65149 -102.73785 -98.68268 -99.61047 -99.84520 -99.64015 -98.50895 -97.79954 -97.68574 -97.17564 -100.32477 -101.84194 -102.07667 -100.97436 -97.20383 -92.84561 -87.33636 -84.26515 -79.03894 -71.22666 -65.08373 -61.96003 -58.24652 -54.08099 -55.88300 -57.68658 -63.04912 -66.06771 -72.27293 -76.78144 -78.14082 -80.49520 -83.46425 -86.32165 -87.55205 -86.64838 -79.17792 -74.26176 -69.54430 -68.13271 -68.46255 -67.42912 -67.80018 -67.85906 -68.92112 -71.70339 -71.21554 -70.52526 -70.87533 -72.44689 -74.81756 -76.03150 -75.18607 -76.55409 -79.20952 -84.18374 -86.14126 -91.63022 -93.92382 -90.75515 -87.50087 -82.00961 -83.09437 -82.52444 -83.07620 -83.75041 -81.70137 -84.86976 -87.05151 -88.31871 -88.34320 -87.78875 -86.65227 -86.50185 -89.13856 -89.18319 -93.30475 -95.20273 -90.49986 -85.80644 -83.11666 -84.13661 -85.88554 -86.99441 -87.11949 -86.57818 -84.49411 -86.05187 -88.68494 -92.24465 -95.06190 -91.04446 -89.41676 -88.56649 -87.90116 -87.36967 -84.85860 -83.35105 -81.04024 -77.57898 -74.82347 -71.07630 -68.44725 -67.34317 -66.23092 -66.67318 -66.22228 -64.95675 -64.47003 -63.63264 -63.40618 -63.16901 -61.20410 -62.69111 -63.13450 -56.64908 -53.98091 -51.06483 -50.54457 -50.66373 -52.05295 -54.57454 -56.08753 -54.91984 -53.53944 -50.58953 -48.94112 -46.43966 -46.77999 -48.18598 -52.52774 -54.59312 -57.93108 -60.21381 -66.58716 -63.77567 -62.31786 -58.86275 -56.43665 -55.74360 -55.72353 -53.04475 -53.20085 -54.73996 -57.47539 -62.44447 -62.55339 -59.88023 -59.26614 -59.10897 -59.18466 -59.04220 -59.48202 -58.77961 -58.17961 -57.98544 -55.83219 -51.51753 -46.87307 -44.74674 -40.43444 -37.92223 -39.00478 -37.65752 -35.46497 -35.18439 -38.59269 -39.74464 -40.55933 -39.42464 -39.81054 -41.36938 -46.85422 -52.06695
-75.41076 -76.23947 -74.31756 -66.89168 -59.85422 -54.73485 -53.34101 -47.89991 -47.14536 -44.05811 -43.03541 -42.05677 -46.49587 -51.35973 -53.57721 -56.28121 -56.06863 -57.42293 -62.60866 -68.13945 -70.43487 -76.47337 -77.57337 -80.43853 -82.06355 -82.63196 -84.41082 -80.55473 -78.71445 -76.24843 -65.46007 -64.93614 -60.87480 -63.69491 -60.65015 -63.07425 -69.84928 -68.23724 -67.02095 -60.78298 -58.88445 -58.27738 -58.93040 -63.88567 -68.17203 -76.14187 -79.39847 -83.73995 -83.63072 -85.85884 -87.84533 -88.60605 -91.19380 -92.52102 -93.04390 -95.36776 -97.42266 -99.06421 -100.47212 -100.46422 -102.81596 -106.01136 -109.19640 -110.61917 -113.81634 -109.48080 -102.97945 -94.61904 -91.74091 -85.60072 -81.66465 -83.05388 -84.67697 -89.09421 -90.38496 -92.70427 -93.73129 -95.59503 -94.16967 -93.63912 -92.12115 -91.00773 -88.43544 -91.87470 -96.99828 -101.96512 -103.41091 -103.67927 -102.18747 -98.37885 -94.60502 -87.27204 -82.45357 -79.58344 -80.61882 -69.20346 -62.44338 -63.04656 -58.63809 -59.13000 -63.99994 -64.84726 -68.95439 -71.39121 -71.04804 -79.85277 -82.24780 -82.20754 -85.73940 -88.37722 -90.04143 -94.28620 -98.13353 -99.21400 -100.05917 -97.57305 -99.22327 -99.10672 -98.32120 -94.97640 -94.79436 -94.41469 -97.74775 -102.49252 -105.08790 -103.12881 -100.65258 -96.71020 -92.36482 -90.60553 -87.07239 -81.82289 -74.80799 -70.88270 -63.50758 -59.33955 -56.03558 -55.88983 -58.50378 -59.91566 -63.40697 -70.06919 -72.04589 -78.28738 -84.57213 -87.56184 -87.73095 -87.89782 -86.73235 -80.55431 -77.83923 -74.41343 -70.68457 -69.31138 -68.18711 -66.90471 -65.41818 -67.78886 -69.41847 -70.91699 -69.52357 -69.25634 -71.83833 -74.78647 -75.42424 -77.05016 -78.04898 -80.56122 -82.56216 -85.37683 -91.86207 -93.89452 -93.70926 -89.08414 -86.15232 -85.27431 -85.19230 -85.09253 -86.92841 -89.56582 -88.35635 -90.29636 -89.99692 -91.61823 -89.72354 -88.50096 -91.63245 -94.61837 -94.22996 -93.69577 -93.32926 -92.85955 -89.25670 -86.56031 -88.29456 -89.63453 -91.24020 -90.15355 -87.56110 -84.94671 -88.32750 -93.33003 -93.18597 -93.24707 -89.20825 -85.68129 -84.91298 -85.66565 -84.31162 -82.54825 -78.30552 -76.42275 -74.15816 -68.85243 -70.90911 -65.96924 -63.96958 -65.76441 -67.25869 -67.03016 -66.56511 -65.05268 -65.65209 -66.27945 -64.85767 -63.25855 -62.45772 -61.04636 -56.68884 -52.89084 -53.92652 -53.19863 -54.57835 -55.35936 -56.92024 -56.64615 -55.10126 -52.00107 -49.92514 -48.28622 -46.50803 -47.28017 -48.57460 -51.52059 -57.30744 -61.71710 -64.20356 -65.85085 -65.04690 -62.93635 -60.42820 -57.38474 -55.94380 -53.49967 -51.31635 -50.65172 -54.60447 -60.31133 -62.48079 -62.07362 -60.40116 -58.83401 -59.17776 -59.21957 -59.05762 -58.85469 -57.31761 -56.31507 -56.23834 -53.30663 -49.96351 -45.55121 -42.88613 -41.53442 -42.42139 -41.34713 -40.17260 -39.92469 -37.91176 -39.64445 -39.06691 -39.21175 -37.98084 -37.18883 -41.97268 -45.44081 -50.41062
-74.28665 -74.92516 -70.83096 -66.30656 -64.01157 -58.06658 -54.07653 -49.28262 -47.11269 -45.89131 -45.63862 -44.13197 -44.89788 -51.97583 -62.37965 -63.13111 -61.55747 -61.35269 -62.88720 -65.22383 -72.96662 -77.63891 -82.65287 -85.23309 -89.08998 -87.16151 -82.50907 -78.48391 -75.51138 -72.66971 -66.45052 -65.07220 -65.52734 -67.17835 -68.70980 -71.23147 -75.00496 -74.09364 -71.26424 -66.81116 -63.13096 -61.32286 -59.70469 -63.92157 -65.53328 -69.78995 -79.22997 -81.08501 -85.16921 -86.83214 -87.69978 -93.35642 -95.06597 -95.39064 -95.17622 -95.71035 -99.24270 -100.63299 -101.37416 -100.49014 -102.90851 -104.42657 -106.77528 -109.36280 -112.61760 -111.10024 -107.48815 -99.61850 -89.81855 -87.58708 -84.23778 -82.83119 -83.39026 -87.92264 -91.01109 -92.40149 -93.17601 -92.98100 -91.75851 -91.04696 -89.87011 -86.97148 -86.95209 -88.56011 -95.90548 -100.49425 -105.74958 -103.98331 -98.35374 -92.91255 -93.31742 -90.38081 -83.18915 -80.71108 -74.17736 -65.25050 -58.21875 -56.22049 -55.08408 -57.75644 -60.09380 -62.88480 -61.78473 -63.29787 -67.30674 -68.54696 -76.06089 -76.10112 -80.98005 -81.71544 -88.94417 -89.07053 -91.65539 -93.09484 -97.13906 -96.83540 -97.14737 -94.69307 -93.56542 -92.19984 -92.48090 -94.94755 -99.65970 -104.37078 -106.00204 -105.82244 -101.48116 -95.43877 -92.38573 -90.41607 -86.93391 -81.90721 -77.00159 -73.06653 -66.29069 -61.08175 -57.35596 -58.07166 -58.77795 -59.67792 -66.75696 -69.29557 -76.03244 -79.19649 -85.56061 -88.85994 -90.53883 -88.51637 -86.48067 -82.16893 -76.31136 -74.60530 -72.04600 -70.23812 -68.04003 -67.18513 -65.40080 -66.19144 -67.29434 -67.95095 -67.04316 -67.66574 -72.05072 -75.12176 -75.65376 -75.91114 -77.78784 -78.58233 -82.09536 -83.55416 -85.83927 -92.49772 -92.41901 -91.71239 -89.66579 -88.99458 -88.27534 -87.72227 -89.70698 -90.90436 -91.11425 -91.14990 -92.46569 -91.53869 -88.91243 -90.34172 -92.61495 -96.58676 -93.51620 -90.83649 -91.19085 -92.19986 -92.83204 -90.67567 -91.13348 -92.84881 -91.68831 -90.35177 -86.76100 -87.69580 -92.28050 -94.32026 -94.12285 -90.01975 -86.22770 -85.28222 -82.68307 -81.41405 -81.15769 -74.73250 -72.85996 -69.37484 -66.24872 -64.08536 -64.28548 -60.76995 -62.67432 -63.19477 -67.50779 -68.56503 -67.47732 -68.61607 -69.58170 -69.96510 -68.45314 -65.37711 -62.32646 -59.96851 -56.21362 -55.88232 -53.97504 -58.24272 -57.79174 -59.33167 -60.11486 -55.32429 -54.23787 -52.12471 -49.36505 -46.78513 -46.26686 -48.24454 -49.25074 -52.62168 -55.75518 -61.80350 -65.44867 -65.71202 -65.69638 -63.03564 -60.54042 -60.05401 -56.17839 -54.04619 -49.73171 -49.74345 -50.10405 -60.38383 -61.36267 -61.89918 -59.94332 -59.02796 -59.79823 -60.04313 -59.97660 -59.30551 -57.68791 -56.30191 -56.10243 -52.27107 -48.84888 -46.78727 -43.70436 -43.41028 -43.91398 -45.22208 -43.98394 -41.64482 -37.85548 -37.64189 -37.39939 -33.38893 -33.76719 -35.32543 -38.78555 -43.81868 -47.39122
-73.21363 -72.09940 -69.06640 -63.59536 -62.78289 -58.68611 -53.61095 -48.44798 -47.03440 -46.97266 -47.30814 -47.81253 -48.77174 -56.70003 -63.53739 -67.86751 -67.21873 -65.94514 -70.92732 -69.39461 -72.60559 -77.12107 -84.55613 -87.71998 -88.19806 -84.49188 -81.03851 -79.39169 -73.73337 -68.68105 -67.46072 -69.19635 -69.17790 -69.42910 -72.42020 -80.93341 -79.28080 -78.28061 -74.77475 -73.98402 -67.83884 -64.90894 -62.65500 -63.23768 -65.97821 -68.76625 -76.18398 -80.07273 -83.53129 -82.47818 -88.17088 -92.79195 -97.72563 -97.08603 -96.73294 -96.99747 -99.21275 -101.30358 -104.37941 -102.75766 -103.61420 -105.31694 -107.34906 -109.72098 -113.17435 -115.69236 -110.66950 -100.78826 -97.62620 -89.98160 -89.80806 -83.65615 -85.48451 -86.62999 -90.64485 -91.30623 -92.12347 -91.14459 -90.16798 -88.76591 -87.84365 -84.65852 -84.92488 -87.71862 -95.71101 -97.26685 -103.41348 -103.60109 -95.07228 -87.25166 -85.86814 -81.47275 -79.38588 -76.86724 -70.55479 -64.28843 -56.90079 -52.67629 -51.10913 -53.37495 -57.83970 -58.25530 -57.11800 -56.40810 -59.93837 -63.58454 -67.46937 -71.65904 -74.07286 -77.67531 -80.02753 -83.19225 -85.52868 -86.74988 -90.19465 -95.38395 -93.69590 -93.10040 -91.04369 -91.29990 -96.10698 -100.74579 -104.97494 -105.94720 -105.61333 -103.85097 -99.97902 -95.09630 -93.69277 -88.52473 -84.92422 -77.56692 -73.97487 -72.97813 -67.18124 -63.09109 -59.89100 -58.58701 -59.03497 -64.96541 -71.14985 -72.13555 -75.96618 -80.12296 -89.23309 -91.22785 -92.41408 -87.88535 -83.98018 -78.22913 -74.82606 -72.60244 -71.76829 -70.97331 -69.19036 -66.88880 -65.83338 -64.86976 -64.63206 -64.73913 -64.83930 -67.65376 -72.50018 -75.99557 -75.91276 -75.20307 -74.65162 -77.10790 -77.78130 -79.75045 -82.82025 -87.62547 -89.38250 -90.55030 -89.61283 -90.79729 -91.36835 -91.34535 -91.85628 -92.65512 -92.82475 -91.49345 -93.65516 -90.62354 -88.93383 -89.49199 -93.49489 -93.89610 -90.66516 -88.87606 -91.19414 -92.76814 -92.66168 -92.49117 -92.58943 -93.77744 -93.89343 -89.83415 -88.31795 -90.34593 -92.69278 -93.29441 -93.16267 -90.94776 -87.10680 -85.68502 -81.54348 -78.45415 -77.56148 -74.37609 -67.89819 -66.62113 -60.43662 -60.53369 -57.60260 -59.29660 -60.34713 -63.48094 -66.12098 -68.05961 -70.41049 -71.68128 -72.25074 -72.31277 -69.00229 -68.07986 -61.71603 -61.29528 -59.44342 -58.53494 -60.22727 -60.99850 -59.42780 -58.65383 -57.09673 -52.13074 -51.49905 -51.41688 -48.78994 -46.70615 -47.16010 -49.33112 -50.21078 -54.03753 -59.65744 -63.61948 -65.05008 -67.65935 -67.25831 -65.01215 -60.43889 -60.16889 -58.28127 -51.53382 -48.80002 -49.48032 -50.75254 -55.61164 -59.32241 -59.53463 -59.90862 -59.26453 -59.74368 -60.49127 -61.30800 -60.43572 -58.95350 -56.68717 -56.02224 -53.84825 -51.47476 -48.17304 -47.43101 -44.91572 -46.51313 -44.66001 -42.10164 -39.62941 -37.78346 -36.23248 -33.25189 -33.02733 -32.76097 -34.80079 -37.08485 -41.27330 -45.71467
