-2339.83376 -2295.41739 -2266.59559 -2193.44567 -2086.31099 -1928.74750 -1836.36318 -1560.80313 -1333.27662 -1053.81502 -982.94442 -848.66978 -819.07048 -774.51818 -676.97076 -622.74833 -591.95076 -450.48209 -436.03797 -400.77260 -361.67190 -335.34369 -307.70971 -278.83427 -261.46401 -236.21973 -252.41715 -255.94871 -238.68020 -243.89552 -219.63200 -211.20248 -174.94939 -168.07592 -162.70506 -157.52967 -153.17509 -149.70770 -145.00109 -143.78987 -146.58677 -148.65494 -143.17449 -140.77741 -137.97202 -143.66083 -148.16124 -149.40198 -150.93086 -152.67849 -155.35628 -152.57217 -142.64038 -140.03874 -137.35161 -133.45942 -132.81992 -125.95015 -118.53461 -109.96849 -101.26113 -96.42640 -95.08313 -96.09934 -96.08412 -98.89168 -101.68812 -101.79971 -99.87987 -99.35226 -101.74341 -103.02397 -101.00900 -96.79150 -93.64965 -93.19824 -90.30223 -91.33458 -91.33819 -89.28142 -85.75414 -82.01481 -79.25447 -79.80945 -79.01561 -79.56631 -77.16002 -72.32334 -70.61052 -67.93816 -66.33122 -62.15541 -62.31261 -58.99870 -54.55302 -45.85602 -42.43211 -41.51518 -42.20583 -37.78827 -34.15055 -23.08868 -11.50010 15.00062 26.08709 29.13785 42.50538 22.61903 -10.41121 -11.19781 -4.03032 -6.70689 -24.42102 -28.14819 -28.38298 4.87634 32.99768 51.12437 49.14621 44.31661 20.62929 5.29924 -9.56637 -24.07646 -26.18573 -7.64268 -5.16183 15.67896 33.00496 64.66676 111.58099 127.62024 154.82965 189.62866 227.38051 235.26899 256.37187 244.85675 202.30121 163.11768 116.64572 99.81447 93.99438 111.48522 120.74041 170.69003 218.29963 293.28486 335.47120 320.31506 287.44070 295.90438 326.29588 368.35600 389.39612 416.56255 394.24865 355.79494 336.76234 329.00568 294.81961 270.50328 242.71322 253.15503 304.80586 320.11370 264.59830 227.37481 196.45975 200.83682 253.23656 290.81603 338.85965 353.81995 368.56397 364.64905 338.59593 283.79793 252.94427 216.47464 219.81260 185.86537 155.80888 154.04761 162.50492 199.66549 224.37447 228.05946 250.01393 272.20016 291.83145 291.97570 296.15967 339.21603 370.13859 388.81735 446.64405 513.93184 577.89730 638.74960 665.00560 686.78524 662.11663 622.87483 609.43178 613.63422 610.26910 637.38413 690.23529 718.34126 745.37020 781.58957 751.60731 729.31889 707.32357 752.72240 740.60339 750.63445 729.37327 708.94959 749.39737 812.36684 829.31959 839.53676 839.45647 885.33736 882.44717 876.57604 862.78392 810.18016 734.48178 683.67271 669.07487 631.72227 636.76356 563.67100 453.25294 459.78315 457.33090 535.85988 548.60982 607.40250 660.25382 744.28050 758.10939 807.13140 825.09545 865.94103 868.34385 878.18919 874.75428 806.31719 814.47942 807.67088 809.55840 776.70575 786.97289 703.53737 628.51659 539.48790 546.32609 480.92231 456.92551 394.76966 251.74341 228.93308 291.13456 417.05780 460.78505 493.02856 444.64868 447.99298 521.17552 544.07294 431.98362 376.79791 393.24165 454.18006 538.49818 582.02179 685.37322 716.97579 858.36199 913.64949 954.46004 920.46455 891.85584 845.28725 745.92872 634.99827
-2309.43455 -2283.38791 -2238.49348 -2139.67781 -1977.82456 -1772.42332 -1677.02743 -1581.57735 -1064.64358 -992.07937 -904.79302 -815.02960 -748.29636 -653.81455 -609.19814 -567.58226 -473.60000 -434.77758 -387.62151 -381.60226 -326.44964 -317.96945 -267.47330 -198.53223 -202.49114 -213.72702 -216.82571 -213.55301 -224.62731 -219.11299 -196.18775 -185.33298 -172.51477 -166.54976 -160.24912 -155.26225 -151.97979 -145.29831 -137.04056 -135.16980 -139.07875 -144.48405 -140.12872 -136.44090 -131.83931 -135.92814 -139.91173 -142.24131 -140.32045 -148.67833 -157.05300 -156.17373 -151.78035 -144.72858 -143.97704 -139.47686 -137.69295 -125.08835 -119.24466 -109.57965 -100.37815 -94.60402 -93.81185 -95.37650 -100.02509 -103.63037 -104.69194 -102.96352 -99.42728 -100.11150 -102.41807 -104.41502 -102.17916 -96.86071 -92.23956 -90.65805 -88.52620 -88.15299 -90.77519 -89.15129 -83.50217 -79.70959 -78.64889 -77.37150 -77.29189 -77.00525 -75.37594 -73.00964 -71.84209 -68.44418 -66.72166 -62.63270 -60.54643 -60.46934 -56.61782 -49.01351 -44.19084 -35.87093 -37.11448 -36.65500 -16.79146 -11.52569 -3.12090 30.61666 43.39885 73.50397 84.54324 56.90024 37.55898 3.56557 -2.49635 2.05907 -1.72451 -5.39799 -5.86607 11.65494 49.83758 51.55793 45.52436 42.90101 25.08051 -3.12088 -15.82767 -19.09527 -5.34899 -0.23871 3.74794 8.99797 22.23441 72.80130 87.74225 137.61944 167.45675 181.67688 237.53483 274.59512 263.52313 263.00643 221.73831 180.80324 132.84522 103.32687 107.63865 126.37333 163.44974 189.08461 261.41026 288.18184 307.54798 285.30167 226.74457 244.02448 312.41922 360.05482 381.69529 398.38558 392.93701 354.81997 298.66423 262.76482 226.19245 216.64642 194.32000 199.36218 232.44250 254.78908 240.32352 198.73788 169.63875 189.43492 223.72206 280.11728 301.80650 351.05049 341.55707 318.97391 317.64153 262.48100 215.85804 189.13718 176.89371 167.58085 180.23487 179.47521 187.87766 226.02971 252.51989 306.72447 299.11735 303.38653 276.66588 284.26882 334.69918 399.74454 389.20595 399.06830 438.52919 487.45945 551.47645 623.01280 680.86626 682.34600 659.70405 599.32281 580.26101 579.92926 646.72267 662.95819 712.83620 720.80059 733.39796 730.40947 707.97253 688.14642 665.44471 693.38491 728.25412 715.71113 671.71240 640.64339 687.14488 683.43487 748.96589 780.21128 818.35365 866.84841 883.76847 879.63240 845.06475 812.56611 730.38846 678.01212 653.07724 640.49236 611.82015 550.66246 539.66554 563.88852 623.17095 584.77342 629.86234 645.85121 732.00941 770.94052 842.59246 851.10272 886.67895 879.88254 874.79994 822.16780 769.31928 777.29766 768.28473 717.24794 687.73383 742.68985 701.04950 634.56781 482.43317 475.50320 456.92151 352.27304 393.73474 290.77357 302.11364 301.39187 337.22168 477.76156 529.03821 562.58787 495.02577 573.49420 595.78491 611.46110 517.51579 458.13362 451.05140 467.69344 557.37982 638.01567 668.19929 752.35896 856.44908 882.71726 899.00110 864.51888 882.12040 868.81028 792.18906 736.60380
-2314.99065 -2271.55821 -2190.31804 -2002.18870 -1904.57123 -1760.91208 -1596.28596 -1247.50921 -1063.56552 -961.60300 -869.91033 -785.08558 -694.43688 -654.02882 -605.54927 -526.90871 -464.30010 -436.56395 -373.74059 -323.70525 -296.84845 -272.15762 -219.82528 -201.19678 -183.07258 -181.68211 -180.10275 -179.36461 -190.02436 -190.29571 -183.88353 -175.25732 -168.80914 -163.70052 -157.24917 -152.30497 -147.42708 -141.01865 -133.03455 -133.92930 -135.27959 -136.51777 -134.49379 -130.57548 -128.48876 -125.86825 -130.17115 -133.70237 -137.67056 -140.62387 -147.45508 -149.41233 -151.16906 -150.02617 -149.36568 -143.93821 -135.92893 -123.89217 -113.84372 -105.91040 -99.21092 -93.35752 -94.23098 -96.12217 -100.56242 -105.72981 -108.92216 -108.21335 -104.52008 -103.53142 -103.92745 -104.69015 -102.15299 -99.24306 -92.40773 -88.65440 -85.11447 -86.49966 -86.57428 -86.22158 -83.41900 -79.35752 -76.85892 -76.32522 -75.18849 -74.40961 -73.97999 -74.44090 -72.72903 -71.90579 -66.95292 -63.00327 -59.61682 -59.73325 -59.90121 -57.76157 -49.95498 -37.04465 -34.07613 -13.44813 -5.84151 8.65372 32.27652 34.31750 64.24809 108.47922 119.16658 109.18469 45.96894 25.39739 4.22359 17.05273 24.64500 30.44337 19.20826 33.16142 50.46213 60.01420 53.36677 35.38474 13.30627 -11.07544 -13.93283 1.36722 8.98047 18.15542 14.09953 10.29434 38.51647 57.73872 92.83458 127.24951 159.61539 213.29475 229.34872 240.15101 295.39520 289.41890 258.30769 189.31778 142.05978 124.88423 138.23039 164.13357 209.76591 235.57366 273.29854 267.95503 284.12897 266.09365 221.01839 203.24786 260.28556 304.30705 344.79406 348.95353 318.13398 303.67443 281.99753 211.25562 181.85852 130.01049 136.37640 147.91904 181.26814 215.46679 187.93701 155.57329 143.64417 157.06221 210.60848 260.09717 311.30328 342.92806 323.42125 296.15259 256.00789 264.28425 211.58856 151.68894 145.66835 177.23359 208.92632 212.52725 235.44243 280.63359 298.56909 335.46905 368.90495 335.19954 313.25149 340.95186 408.54073 418.55888 412.22789 427.88110 444.67615 482.64258 582.09982 642.97035 653.79945 660.02878 614.97941 578.91602 567.42009 607.31649 672.57515 686.55509 720.24984 718.41456 689.23675 636.29804 678.90699 639.22635 659.79597 661.80368 642.80045 599.48426 552.78348 630.49130 626.67656 642.27447 640.73784 702.54727 783.92671 867.97032 873.65548 888.89533 876.92521 768.47842 689.01880 678.72335 632.32607 597.39860 558.53600 559.27508 543.61832 620.88274 675.65359 691.69460 670.96092 705.23854 756.97770 840.72530 877.98745 909.08268 905.50078 869.42996 809.28337 781.09444 692.75073 681.94148 690.24549 657.92033 620.29225 602.31531 587.78766 579.80166 457.23848 392.91734 318.17870 289.25435 268.61948 255.17649 315.01337 335.27657 427.25132 560.42299 621.00143 583.01779 561.72091 593.99982 622.70613 595.53530 529.31174 496.82310 499.82746 531.84788 589.45520 647.48276 724.97025 801.50473 781.58148 813.00274 772.87258 755.81736 765.13822 816.66674 824.91071 759.91484
-2291.12327 -2218.80089 -2177.65257 -1918.78662 -1779.34324 -1630.41269 -1370.86413 -1075.05993 -1020.12284 -887.33971 -841.53294 -736.99459 -645.38799 -605.46231 -565.38760 -479.02893 -445.32685 -415.59928 -364.02279 -309.65772 -274.33681 -253.42161 -206.71204 -188.51594 -177.40188 -175.92774 -176.37888 -176.80048 -176.27900 -172.07047 -170.69678 -167.16034 -165.01015 -158.94222 -156.81282 -152.66003 -145.63113 -141.69446 -131.49967 -129.91956 -128.82114 -129.53856 -127.86743 -127.69810 -123.09246 -120.65155 -120.50231 -121.16223 -125.49204 -125.43683 -132.80426 -135.36200 -136.93863 -147.81861 -152.15146 -144.00375 -133.10364 -120.46099 -108.60963 -102.19315 -94.93550 -95.81534 -97.10391 -99.50816 -103.70374 -106.46628 -109.53320 -109.95949 -110.01052 -106.68677 -105.32258 -105.00354 -103.34724 -96.38588 -89.10526 -87.90397 -85.48133 -83.81819 -84.31248 -83.69346 -81.06813 -79.59762 -77.22003 -75.36175 -73.82310 -73.76054 -73.63689 -73.32935 -72.70892 -69.58514 -65.85477 -62.88075 -57.69844 -56.09825 -54.94747 -51.09505 -51.00783 -39.93928 -33.62742 -9.12994 29.71046 36.28920 35.14898 58.38302 68.02539 122.36099 144.60207 138.96172 97.73999 38.87650 37.32584 69.47613 63.69702 52.16587 53.56861 57.92673 74.38329 71.36836 49.25561 37.60439 10.85783 -5.01228 -7.63227 0.09863 18.83712 38.59142 39.28527 30.87282 33.68771 52.80862 87.39506 94.93880 156.92744 180.03207 186.72318 244.21888 287.37889 291.26774 259.21221 199.76925 174.80941 171.74952 183.11633 212.72789 230.53335 257.79634 275.38893 270.09261 265.61093 245.33980 219.45193 209.83779 257.04887 298.76489 298.26084 292.16753 297.90882 315.65413 289.72409 199.81294 125.63472 100.20572 113.94524 150.92845 192.32545 164.84469 158.06314 129.58351 130.29465 150.36923 200.10040 252.99310 308.83550 326.79595 309.29127 259.61279 252.76930 224.10361 195.61154 141.75052 156.37957 197.53122 253.86865 267.05217 279.54946 291.65587 298.84923 339.73466 409.18625 404.52659 364.30755 391.17238 443.43662 460.32805 432.96499 477.34300 483.20587 567.74280 604.30090 651.81904 639.72056 591.91162 563.59154 554.58940 580.04675 609.97710 662.43332 684.96343 687.66691 661.19887 635.18606 603.87934 547.09855 579.92812 600.39696 638.43854 560.50147 529.36149 492.08457 487.00554 580.68747 587.21318 622.45342 689.13862 721.48430 848.59895 863.01444 874.62462 844.30862 813.56590 736.43574 689.78191 675.09547 642.21972 613.22277 561.58366 572.96693 653.16530 673.42728 708.49676 741.07239 738.55261 825.88613 858.43656 913.83892 924.24307 918.56629 891.95276 802.50501 775.74498 668.14871 629.09570 585.34616 535.66152 480.19785 505.64014 526.58019 545.43746 410.12009 349.06057 318.80279 327.45423 320.30190 313.07814 336.93063 421.07869 474.23530 574.02750 682.54955 682.15019 665.98474 652.96050 626.96834 563.13883 546.32329 536.09278 571.99413 604.90935 611.86670 708.32528 754.91445 741.81433 725.06026 700.80076 735.25581 705.12522 742.83734 763.36492 793.00162 775.59475
-2284.86267 -2191.36291 -2057.23644 -1760.07896 -1621.89359 -1643.55441 -1246.13154 -1029.37574 -947.42580 -877.68569 -741.07101 -646.73492 -626.31863 -578.74187 -519.43000 -429.84485 -402.66527 -389.90008 -316.28230 -282.67276 -267.56956 -196.79425 -187.56543 -175.31070 -173.17852 -172.04804 -171.74457 -175.67818 -171.04429 -169.65604 -169.09737 -167.76096 -163.29736 -159.54234 -153.25101 -151.79459 -143.68509 -135.92714 -130.81993 -129.30043 -128.54628 -128.31443 -126.61042 -122.01703 -118.42146 -117.61068 -117.36849 -117.34362 -116.32433 -116.07736 -121.70072 -124.02717 -130.85757 -141.62794 -145.01554 -140.43620 -129.97798 -113.69531 -106.44866 -98.06409 -98.87593 -97.02810 -103.12303 -102.37469 -105.44558 -107.67876 -109.09853 -111.74660 -112.34249 -110.65768 -107.41400 -107.13501 -106.86765 -99.71386 -92.54405 -86.76130 -86.50402 -84.21372 -82.71566 -81.31133 -81.07500 -79.70306 -77.72462 -74.64351 -72.65597 -72.33649 -72.37712 -72.55810 -71.80803 -68.79361 -65.66321 -59.24968 -56.36533 -53.98441 -46.79160 -45.21890 -40.89125 -39.61543 -34.16841 -13.16207 27.10749 53.70569 74.72035 88.89089 104.65199 157.47256 167.36178 154.17857 104.24870 63.80443 65.21505 84.68834 91.72263 94.63229 106.94084 110.47474 84.79698 93.83169 60.91668 28.16046 15.01802 8.22289 3.05959 0.82695 15.26269 41.21460 53.33852 50.47003 42.68865 48.19655 63.29057 74.99248 113.85378 144.85201 180.11836 230.02761 300.75243 315.76980 288.20705 243.35808 237.23753 218.37269 213.95966 231.57854 274.41413 292.90402 285.66343 281.85343 278.45618 219.87892 179.90340 194.64420 242.56778 271.59601 258.16661 263.84560 295.82200 280.48225 274.54933 197.53819 74.21565 65.04203 79.73176 140.80831 153.03003 136.67194 114.73596 114.85661 117.53911 168.51707 210.61582 259.02986 288.35540 299.41983 264.25799 226.40044 225.44274 186.11118 150.37131 129.85711 186.21423 216.98366 281.33946 298.32277 312.74398 342.63093 368.24525 403.81446 463.43195 427.41762 408.22268 429.51202 500.51041 538.31000 553.98068 577.44504 578.70135 605.22260 662.99555 644.37375 592.08090 567.55429 519.36162 525.49361 539.81465 597.26841 633.32330 640.11022 639.98634 593.71240 580.35052 528.95617 476.67713 487.94357 525.81152 553.96633 504.37662 483.65026 470.05025 470.13294 489.38272 555.96417 597.05918 680.93040 730.92286 811.94028 843.81054 857.02224 856.53846 813.28540 776.34248 747.57848 698.21467 736.64217 656.69448 619.85631 629.61553 658.90626 727.01367 776.77494 787.38912 818.12572 861.90663 920.42054 930.78263 950.81476 956.86565 894.31854 868.42692 796.25639 670.88712 605.33324 562.73722 569.13991 535.59594 484.84311 482.05122 442.66618 382.94417 344.62855 385.11812 459.49467 435.99608 365.02866 406.39149 437.23359 527.28285 656.89332 711.82118 802.94401 705.44483 665.28623 627.07228 562.00421 525.54001 533.88991 608.57147 689.88738 722.76792 764.98541 807.09586 729.57550 635.14883 541.22413 532.37068 590.63120 722.66415 762.47863 770.27445 749.33170
-2221.92207 -2119.96973 -1932.09456 -1706.71711 -1657.98456 -1431.65539 -1157.77329 -950.45163 -927.95534 -880.61906 -666.28961 -640.55773 -542.96094 -522.97817 -464.39245 -417.73014 -409.90142 -343.66827 -303.18867 -258.96300 -240.04173 -223.80404 -186.34564 -175.37699 -173.30046 -172.36743 -172.36484 -169.10395 -167.55982 -164.58975 -165.57202 -164.70106 -160.14433 -159.44998 -148.23637 -147.25341 -142.70201 -136.71965 -132.94950 -128.37730 -126.83507 -126.62175 -123.65786 -121.04136 -118.12112 -114.74764 -113.98317 -112.21985 -112.50874 -113.05491 -114.58240 -119.35413 -126.33905 -131.95880 -145.44763 -138.98194 -132.63416 -118.98917 -108.05804 -102.38225 -102.34672 -104.83807 -105.19230 -106.31197 -105.07543 -105.04673 -105.69725 -109.99925 -114.84049 -115.01456 -113.17941 -109.19983 -107.11647 -102.19312 -98.25029 -92.61761 -90.22312 -86.34864 -81.57024 -79.85318 -78.69332 -78.04881 -76.32789 -73.34040 -71.17856 -70.31584 -70.33827 -70.54199 -69.05560 -65.54078 -64.36179 -55.01167 -51.76649 -46.43862 -36.13513 -32.02479 -28.07494 -17.13683 -20.94385 -7.78750 41.65435 72.51274 120.91332 135.95717 159.98541 161.52321 171.76475 156.64838 126.87438 89.05785 77.71711 84.15334 104.60606 115.46731 115.44008 114.36240 104.95958 98.47081 69.56240 34.53191 25.83097 13.50612 11.68490 8.21772 15.79976 32.78671 68.25097 89.12154 83.92040 80.21981 70.38220 82.50319 106.79604 149.74631 184.74731 244.68509 307.75973 335.76470 336.69710 287.57198 256.65093 249.28740 245.84545 267.80583 286.64891 321.33456 314.34597 305.24133 248.01645 193.44459 146.73666 179.14284 205.46344 226.70831 213.30434 241.43239 250.63979 267.44444 197.70045 119.82490 90.56354 58.75182 37.14399 76.31427 139.19920 129.59119 92.97241 119.43278 139.39265 182.81884 225.82252 257.31021 262.93557 239.71253 223.83111 177.95451 164.71008 147.88178 134.97031 153.46813 193.22161 241.60038 290.41852 323.95525 355.04947 360.72788 389.67090 403.04584 460.25864 479.36850 436.46583 463.46433 534.60606 551.53649 608.10549 635.55448 638.57317 652.33744 662.68157 662.26878 635.94789 574.68278 537.44276 504.34264 522.21897 571.22007 616.47174 617.01071 617.21904 594.57154 539.65286 502.90223 456.75294 427.71679 448.02686 439.71371 456.38578 412.16588 419.79263 433.23946 472.27353 528.21698 600.89012 641.29671 717.42281 738.46188 767.13137 830.07564 836.04882 835.36173 800.08223 790.15030 792.58599 749.11270 715.32592 645.41773 656.63560 675.07351 793.55181 837.49885 868.35621 865.31259 921.30596 950.56099 967.64803 978.97949 932.46474 902.84113 843.41048 802.19700 699.05991 676.37217 699.37946 684.79473 666.30504 590.44083 579.43068 456.33924 401.30589 413.63047 483.36181 519.09732 566.76775 524.12922 484.14575 501.26515 591.11004 719.16804 794.97473 852.92154 787.76744 746.36539 640.24234 619.32707 583.32660 603.66270 650.50355 718.80418 751.76917 809.90160 775.96186 686.46346 609.39747 471.45615 452.41659 503.81776 608.97679 707.46172 745.48411 680.96228
-2128.23107 -2062.29591 -1896.76020 -1624.98079 -1537.63422 -1384.82848 -1162.57469 -1033.60863 -936.04230 -760.29408 -675.30614 -601.13759 -526.02410 -448.11208 -429.05565 -366.02649 -331.55657 -326.67846 -255.93924 -254.28923 -221.67503 -195.93420 -185.53629 -174.33168 -173.06969 -172.01196 -170.73098 -165.93968 -163.73969 -160.48809 -163.44530 -162.55900 -158.32110 -156.12506 -150.04565 -148.11821 -146.16121 -135.25743 -132.83905 -128.27656 -127.18801 -123.63419 -121.14847 -119.61140 -117.25261 -113.78193 -113.38348 -113.25285 -112.38625 -111.98704 -113.66469 -117.76690 -125.73918 -126.55160 -135.25142 -142.28918 -137.55570 -130.32377 -119.29232 -111.97613 -111.53084 -113.24432 -110.18291 -106.76541 -103.04486 -103.56108 -102.42751 -108.90877 -114.21646 -115.10417 -114.38713 -110.37679 -106.86792 -104.01787 -104.04577 -99.91270 -95.28234 -87.17834 -83.17200 -80.94586 -77.14817 -77.27426 -76.48305 -75.35315 -72.16035 -69.32149 -68.25390 -63.99033 -64.30644 -62.78490 -57.94496 -54.20166 -49.59144 -37.19832 -29.23788 -13.57658 -8.70946 -7.67989 4.46710 18.72649 48.70639 102.30658 132.13079 202.96707 182.99087 200.15666 186.50041 151.73085 130.42307 112.26780 102.08328 100.91477 113.70698 125.60739 128.39305 127.60366 112.15130 89.60794 71.47590 59.65478 29.28508 25.35924 14.83939 16.79785 20.60416 33.29368 72.57071 100.21351 105.66055 118.48119 113.51229 116.89614 124.75665 170.40753 199.10163 243.71800 276.73778 317.55916 330.56614 319.97463 298.49327 327.65871 278.12948 310.08662 324.64956 352.21047 321.99212 303.42570 250.93826 201.99930 115.84204 129.98623 193.38155 209.94772 189.11048 203.63140 208.78723 208.13070 188.16824 123.93746 76.33804 56.99816 47.07778 55.55493 88.39556 96.66880 86.94974 115.16379 171.72915 184.99188 215.24815 224.17632 223.70430 216.56505 173.60090 153.41015 120.71748 113.22452 112.12348 163.63219 195.24662 233.36825 269.05992 292.25711 314.05715 329.26094 346.44237 394.96753 458.05488 479.90247 477.60891 521.12834 553.52703 604.57119 609.13857 631.99057 652.68806 670.46537 684.33810 673.04150 652.62572 610.85835 542.20095 494.77207 499.90104 501.19432 538.43238 551.17075 583.46010 576.94416 530.80153 482.30509 413.70457 380.57193 379.11135 397.56712 359.15741 366.04319 377.02015 410.01386 432.83270 519.12111 583.55980 649.60961 708.23062 701.35792 739.96579 793.20895 818.82838 827.79262 830.76273 824.01972 824.04893 822.22347 734.44314 717.04908 714.61591 746.34293 827.10976 884.27352 894.15593 918.32554 949.89695 968.58543 992.76781 964.78661 929.34601 894.16282 814.37028 770.49172 774.60624 801.03260 809.10647 787.02652 706.69577 665.45070 604.38904 467.69400 375.68139 434.60868 506.28368 628.63161 647.61236 557.96325 582.59734 693.83239 711.98295 727.56822 830.20801 882.33991 876.11570 820.39338 767.63571 719.27111 649.98312 628.95033 642.28105 703.35278 746.21153 726.79084 670.07744 577.07289 555.31414 444.33777 369.17736 377.29430 530.81677 631.65699 650.73458 680.66670
-1863.41983 -1868.76142 -1772.05075 -1642.26185 -1439.46756 -1349.14459 -1142.26498 -984.14175 -835.96997 -771.09738 -684.39990 -592.97511 -460.65072 -413.07934 -384.58431 -333.05763 -268.92266 -259.02734 -225.79791 -214.75240 -209.48407 -185.06293 -175.19016 -173.33782 -172.72172 -171.00699 -170.23114 -165.92526 -164.23261 -162.58045 -158.07769 -157.32950 -156.99091 -153.28302 -149.16018 -146.05487 -142.69619 -136.65846 -132.10443 -131.94184 -128.18237 -123.43733 -121.97539 -118.04687 -116.68086 -115.08847 -113.92178 -113.67726 -113.62124 -113.04075 -115.41887 -121.90004 -122.11336 -130.09558 -133.10929 -140.28137 -138.73826 -135.08339 -125.12108 -119.79679 -115.12470 -115.12339 -108.63464 -104.63207 -102.31261 -101.45939 -100.77111 -107.77852 -110.58748 -114.02695 -108.40255 -105.38457 -106.32056 -103.31475 -103.70133 -102.16712 -98.11502 -93.77065 -86.98741 -81.42739 -76.96021 -77.48658 -78.09978 -76.77460 -74.63821 -73.36370 -68.03818 -66.62935 -62.17126 -61.47040 -55.84486 -49.92630 -40.57076 -28.94417 -19.77618 1.25113 11.26494 21.62746 19.54707 35.15288 81.59718 110.93418 135.54732 177.07218 185.06371 186.39630 178.49476 124.26533 115.49032 69.01817 74.13602 82.99650 112.26898 120.06079 128.26116 133.25691 115.35539 100.70676 78.83518 76.22596 54.99282 42.51978 34.96429 18.53985 22.28562 56.84611 94.55822 107.99896 130.97120 142.77485 162.25647 166.64302 170.72445 192.59868 205.53822 225.34643 259.17671 275.57472 295.11131 336.76851 362.90871 379.37988 344.04602 338.10156 339.65949 335.05695 320.63755 311.53798 277.17536 196.48839 117.83165 119.90518 140.91092 167.42181 144.69904 152.30015 153.73146 151.43830 155.51823 108.89084 68.96717 53.89204 64.17872 71.04374 70.17677 67.86767 74.81603 121.04366 141.27309 179.19365 193.34807 199.19078 177.31446 166.43476 133.27382 134.55584 101.57570 109.42194 143.30964 143.76699 182.33374 198.74962 216.35589 243.58558 239.16697 291.95521 319.07901 379.78180 419.87540 477.69293 503.20217 562.68252 598.39454 620.26630 606.71715 624.16634 652.80647 674.30930 680.93621 670.03914 661.68584 635.39169 571.70462 525.75840 455.55743 464.40010 452.97999 481.64673 503.90948 509.49700 502.36077 421.50741 373.64044 361.15741 359.01008 337.51832 332.06940 323.67048 357.45729 379.80252 464.46569 532.03136 583.75592 587.69779 614.76029 641.96449 703.03210 759.61258 770.86098 815.72167 828.32544 840.44196 876.28813 882.84667 885.52102 832.70162 745.79510 765.87435 814.14813 882.34584 928.77382 944.17164 978.27863 995.13676 1009.55354 963.22206 892.15104 881.68332 794.32676 763.47901 783.73846 834.04511 854.28744 806.32175 744.31677 686.85786 591.82889 458.09861 413.83700 437.72924 577.38255 634.36870 663.57116 629.65913 661.22253 722.57431 723.99416 766.83251 833.22224 912.64078 899.59156 867.60606 851.36372 790.58983 742.91777 678.47423 661.12077 657.21337 666.89450 691.97883 634.53390 506.76546 479.95551 354.66430 364.22797 400.76405 472.91175 586.97048 610.87032 606.27965
-1732.26222 -1707.23250 -1667.22818 -1500.09279 -1373.19277 -1238.59967 -1098.77612 -975.70118 -808.07019 -672.96997 -634.80965 -492.85535 -402.31719 -382.35633 -369.56498 -282.69861 -223.27662 -213.00753 -213.43091 -200.40478 -179.37589 -177.25213 -173.32220 -172.54086 -170.23503 -169.21475 -167.40458 -166.50198 -164.72200 -163.57557 -157.34667 -152.81859 -150.26937 -147.38712 -145.32736 -140.49258 -138.47583 -135.19693 -134.62465 -132.46304 -128.72231 -124.21289 -121.45515 -116.63969 -116.62347 -115.73936 -114.66645 -114.29087 -116.33143 -118.66149 -120.35112 -123.05117 -126.22373 -128.40588 -132.88430 -133.69408 -134.93661 -135.98713 -129.19675 -118.09115 -114.88658 -114.53615 -109.45308 -104.95454 -102.11171 -101.17692 -103.00761 -105.09096 -110.70709 -103.33167 -105.16577 -100.79032 -96.62162 -99.83909 -100.79091 -99.36709 -96.53012 -92.90536 -88.98983 -83.97313 -79.45905 -78.68185 -78.82910 -79.05379 -77.80478 -75.34846 -71.26781 -67.82325 -62.89195 -60.99749 -56.75166 -46.28271 -33.54781 -29.37514 -9.13116 10.16461 17.24586 28.75412 35.03042 65.55245 90.70526 97.70471 91.87850 127.20753 160.59323 142.07183 138.31349 82.75465 57.61403 48.46120 31.95677 45.58913 90.20703 116.15950 122.60463 121.18368 112.04633 92.40754 98.27659 96.33514 102.85114 77.81139 50.07705 39.07740 38.75131 76.74520 108.76596 118.89934 148.06186 171.24227 173.67340 180.97714 179.66072 181.89038 182.29741 210.82404 203.22456 240.13326 253.65960 310.19525 371.42831 417.22385 360.43342 311.73075 328.90232 319.23766 315.79053 287.94246 264.20981 190.79256 117.82960 82.71621 98.15934 110.33293 105.18538 108.07590 112.58536 112.60506 111.21319 50.09333 33.94766 56.30913 105.98771 107.15238 94.49534 75.26780 61.98309 113.44561 136.85249 136.26878 129.90293 137.74236 118.08537 99.62868 115.25332 132.25422 156.55679 166.59457 157.49244 173.87310 179.59212 184.78621 203.59014 234.47457 268.34523 284.14553 305.92390 377.99288 439.77427 513.14703 549.19610 570.85990 598.19631 599.24727 572.76264 580.51349 602.84031 595.66682 604.85171 615.41689 636.36534 624.00623 580.54958 525.23179 476.50046 442.83737 425.61314 447.89687 457.90497 436.05606 440.47287 382.64450 353.29152 328.40314 327.88201 312.19422 302.30924 311.44570 313.86641 361.46198 467.49304 529.04059 525.32778 535.76696 532.57639 562.52257 643.75129 748.98625 775.36639 808.31433 860.42895 874.31531 898.92788 935.25493 929.47524 876.17768 801.93990 791.73910 872.61153 934.94549 958.80331 975.26326 993.17191 1004.85528 999.24636 980.39371 902.59268 862.03056 814.01744 826.82092 827.09039 884.57873 869.16233 765.40277 709.57241 631.67444 550.47898 444.77088 425.71911 509.94172 589.48527 678.50080 749.29583 736.06718 762.03527 795.13879 814.45444 819.52761 934.02225 933.78656 919.61680 911.55539 864.86439 830.49781 817.64308 687.35761 690.46632 673.16166 669.11814 660.55485 551.40239 458.61137 348.00436 301.31660 255.53220 341.05428 411.88742 429.18296 507.61632 554.18381
-1675.93425 -1529.29374 -1270.04664 -1232.53681 -1188.92686 -1073.09114 -1059.93770 -947.25811 -793.70600 -660.63381 -556.97753 -462.22529 -375.29031 -337.80329 -267.69076 -241.13524 -199.55324 -192.29830 -188.45453 -185.41264 -180.63742 -176.61876 -171.28653 -169.16718 -167.78799 -166.49300 -166.08346 -165.16210 -163.79595 -160.35388 -158.14414 -152.60189 -147.55265 -145.85322 -141.20944 -137.92768 -136.44828 -134.97194 -134.13807 -131.17412 -129.23533 -124.82484 -121.30162 -117.26160 -117.25926 -116.42591 -115.96217 -115.62430 -117.39519 -120.43319 -124.82046 -124.31942 -129.23014 -131.54119 -132.00494 -129.88526 -131.32588 -133.90732 -127.77521 -120.28818 -117.64242 -111.16889 -105.74537 -101.95263 -101.97591 -101.95157 -99.45888 -102.27320 -101.03436 -99.54055 -97.20809 -94.19321 -94.82616 -94.45010 -94.67548 -94.78085 -93.84167 -93.03841 -90.25383 -85.64795 -83.77982 -80.12430 -80.49314 -77.30641 -76.69529 -74.91752 -73.70932 -70.23228 -65.12282 -63.48337 -64.02605 -57.21264 -43.89718 -29.98214 -13.09718 6.66901 28.13163 29.50371 30.22816 63.69946 97.13622 103.66779 82.12178 90.74277 114.31758 124.47919 95.39416 69.94658 57.59268 24.83355 13.97070 36.38381 51.84349 96.01921 110.97743 106.91705 112.53849 105.32617 116.76329 110.57403 105.69782 104.30945 86.45943 73.93541 60.23420 88.04900 107.86708 128.47742 167.71642 177.43685 183.85556 181.29859 180.82851 184.91395 167.00345 172.68958 181.20611 191.40105 208.46653 269.30789 355.13094 355.20707 329.14670 272.62172 284.01381 291.27985 299.46126 264.60466 243.91542 183.96360 138.08835 84.03432 65.73352 72.09874 77.34021 88.42885 83.77879 66.57392 60.95045 43.82509 39.99308 72.61321 145.13591 152.91660 137.12296 92.23464 72.20671 84.23726 97.67090 86.86966 99.34253 96.07348 80.15928 82.69236 155.14870 185.79390 193.20223 182.33562 196.73383 194.29073 210.07736 230.68439 244.02906 279.53911 293.70124 301.06732 350.58141 414.61281 454.86831 538.18161 574.10514 585.05747 595.40384 537.20263 544.22241 526.70660 524.45424 544.06838 542.35321 581.91401 621.28762 594.70366 577.92168 525.06984 512.74763 431.01573 416.85766 412.73913 392.23428 394.80273 329.98905 325.79749 279.95422 278.30733 269.38037 245.70462 262.08963 291.30430 300.82285 371.10148 473.68411 493.82817 483.07548 441.75278 479.85901 540.56016 615.24613 719.01759 807.16078 835.20511 872.24642 923.87355 940.34020 970.43497 946.60252 911.34645 884.57299 818.04169 870.04689 938.00461 999.58575 1011.66060 1026.63727 1009.05409 986.90258 966.61382 903.50022 859.41909 877.41347 888.12894 891.53554 903.53831 832.24526 759.13935 683.41633 644.82225 547.59850 504.45919 504.61019 519.15644 668.95085 789.75357 806.72659 880.47077 901.59127 905.75800 904.54920 944.89543 947.67391 955.12363 956.03294 923.74137 890.28677 859.86425 830.41977 764.35436 715.19856 713.04432 681.83676 629.90794 443.56406 329.87760 284.14423 239.31176 204.77565 287.59107 371.75410 375.51622 400.71929 433.13419
-1446.35371 -1267.31337 -1126.46923 -1181.90964 -1103.38335 -1009.35670 -1013.29195 -848.23438 -761.84200 -647.43606 -523.01484 -417.84363 -358.88484 -295.26385 -271.59578 -227.09434 -196.36675 -188.60491 -176.48033 -179.22233 -177.76357 -172.12105 -168.96030 -168.06208 -166.37307 -163.82924 -162.12992 -160.53575 -159.50422 -159.69008 -158.59659 -153.41154 -150.51731 -146.12045 -144.16971 -139.91366 -138.38770 -132.26744 -130.27521 -129.63401 -125.70686 -122.78952 -120.78865 -118.09167 -118.25204 -117.54578 -117.19102 -116.90931 -118.75090 -120.11885 -125.78043 -128.14549 -131.47914 -134.79567 -132.32771 -128.42014 -128.35692 -129.03237 -128.38272 -121.72056 -110.03092 -107.33433 -103.47068 -101.76693 -100.29536 -100.20047 -97.16024 -98.35253 -96.08725 -93.47387 -89.10666 -88.99422 -87.76624 -88.44899 -88.14430 -88.85702 -84.10672 -86.64580 -90.53702 -86.84762 -83.25292 -82.56736 -75.21636 -74.32417 -72.28673 -70.87130 -70.49656 -73.18233 -71.92852 -69.19615 -67.03623 -66.24754 -50.30446 -43.19712 -27.49833 0.06247 13.40865 15.42979 24.40783 55.45532 78.23186 80.33586 71.96904 68.94746 65.18444 79.08923 97.04243 75.25246 53.77504 27.00857 0.65655 10.42022 34.26020 53.02721 70.96694 77.33301 103.35215 123.00455 125.13621 136.39745 121.75430 112.61162 101.65734 78.93561 70.74211 73.77556 128.12352 143.67777 163.19010 176.41649 182.12934 174.32524 157.65956 161.73127 149.51830 141.49438 144.84264 165.33943 212.17021 258.79290 319.80653 331.31668 274.49007 265.78579 259.01155 270.55481 275.45296 263.84013 257.10419 208.61126 141.16198 111.66655 91.85504 68.43295 39.38499 51.82151 36.79018 23.11008 21.99265 53.78148 60.94574 112.94776 165.52861 179.70290 177.77390 134.92048 75.17223 75.03928 82.48002 87.10686 79.52019 75.98356 81.68885 84.41000 152.60343 217.77662 214.50222 205.41138 235.66705 247.88409 243.56564 240.91401 320.45608 332.14663 348.08747 351.81272 396.17954 470.90062 512.18343 564.64111 599.28181 584.60121 537.74936 481.58316 474.84357 478.88642 470.20959 492.55630 534.26104 553.78408 583.41713 602.47613 521.01800 512.01407 467.16581 422.93372 367.41038 363.84372 337.05623 329.47302 286.91960 296.40782 262.71173 262.92449 236.59114 237.11518 252.48091 264.69060 304.90546 352.33225 394.39729 424.38931 415.01955 465.05474 484.43053 566.35550 661.88291 725.85520 822.40910 864.27703 933.85508 954.96300 971.73909 977.95961 985.19708 967.28377 916.46878 874.59905 906.88019 938.76363 1000.16429 1020.13290 1033.14475 1022.15344 988.47830 952.04116 907.22080 904.43129 920.43939 939.23236 919.37842 881.93086 831.18336 733.88488 689.59647 651.67428 606.71382 626.57151 612.93214 641.71895 732.55206 786.71522 829.93907 918.30186 915.19663 941.00286 964.79968 960.24416 959.89723 957.95412 959.78328 935.40379 865.93872 862.78156 837.84286 817.64913 735.54125 721.49635 700.84344 606.33769 459.12065 333.83753 267.51848 242.38462 219.33473 203.56061 265.19380 291.23931 270.10929 294.96990
-1538.24362 -1258.37498 -1128.40283 -1122.07594 -1041.60830 -879.15515 -820.25077 -826.55540 -639.47933 -583.76966 -493.33726 -412.15054 -335.31272 -291.22795 -262.36905 -201.57776 -188.48200 -180.01919 -174.87869 -176.34136 -170.09065 -169.00646 -168.23251 -166.48279 -165.10834 -163.59051 -160.92508 -158.51633 -156.97839 -157.32550 -157.55420 -155.01340 -149.85870 -145.71402 -144.68365 -142.48726 -135.81226 -132.86012 -127.89942 -127.71992 -124.29268 -121.73753 -118.23049 -117.96405 -118.17090 -118.24981 -117.85995 -117.94512 -118.85422 -118.63111 -123.05509 -130.36736 -131.07879 -133.80822 -131.01649 -128.48911 -125.22712 -125.31597 -124.28744 -123.95565 -109.43824 -104.65554 -101.39228 -98.52474 -99.07627 -96.36218 -95.57667 -92.58964 -91.27069 -90.57212 -86.94806 -85.24742 -84.64654 -83.92728 -86.57341 -82.30539 -79.89997 -77.81095 -82.77621 -86.60313 -82.57047 -80.97654 -76.00421 -74.57060 -72.97995 -68.84287 -69.13822 -70.22711 -72.51760 -73.66092 -70.00555 -63.42184 -54.77780 -49.21914 -30.63649 -15.94995 -5.65662 0.12631 14.98103 36.60770 63.15036 54.62005 40.22265 22.50910 40.45863 38.60620 56.00669 61.67241 47.23459 0.82213 -22.06115 -24.43026 0.32416 6.99070 43.59964 68.56350 101.10062 122.31481 131.04381 132.34167 127.46200 114.29525 110.84743 98.47926 83.98060 103.01321 113.68130 140.97677 167.39670 181.37426 166.40906 163.64832 137.43757 106.72836 106.43467 124.35575 143.14560 165.33963 194.69523 251.33158 266.57461 281.02035 220.18206 216.92707 215.38459 262.07664 281.95899 291.65340 288.38952 219.90242 178.77258 155.57292 118.76873 83.86835 50.92157 24.63794 23.09748 17.14379 37.23897 71.33791 90.65528 148.90095 172.10162 185.57762 188.38816 145.57415 111.09930 92.26225 88.33027 89.17366 88.34045 78.28216 110.76031 110.88707 163.51996 204.49954 216.27415 235.79648 254.47953 293.07263 296.17073 295.02991 377.16871 410.11167 418.39525 412.32606 466.88062 494.00150 529.08709 574.85383 582.82874 541.16189 503.94857 436.39299 440.82722 432.51072 445.94529 477.32794 507.68291 522.90769 568.11990 532.48057 507.78305 459.09596 440.21737 374.84128 343.44041 334.94246 359.17572 368.95444 408.66793 335.86907 314.35552 288.82552 265.49445 227.97386 227.42905 246.24225 272.34539 292.36862 338.42954 384.36379 417.80663 467.24468 486.46086 581.17281 704.80810 728.04738 822.71657 898.28754 947.83385 948.67700 961.70449 989.90101 993.22322 984.06220 937.27223 924.24338 936.97425 985.83692 1004.46746 1051.05297 1035.61676 1020.73490 982.80840 957.91378 950.33864 958.54970 975.58072 969.83066 951.23334 936.83421 859.20188 786.07389 721.75991 716.72919 683.04876 663.81771 653.14893 704.94539 757.25881 844.09415 891.22088 901.86384 943.62174 964.85885 969.61714 987.25019 971.38455 971.54023 957.49559 939.78046 887.81526 871.69588 862.96052 838.91186 773.80793 710.53370 632.09770 558.75373 476.39223 386.16360 305.60818 306.22984 285.56571 178.75782 185.38495 208.45772 244.98796 257.98144
-1365.11614 -1196.77031 -1137.06880 -1040.14948 -895.06220 -843.06326 -740.58396 -641.07882 -635.71579 -462.36182 -416.87309 -376.70182 -347.12995 -289.14133 -235.15360 -197.21358 -193.10496 -172.55357 -172.29371 -171.18522 -169.15712 -168.31170 -167.38412 -166.55056 -164.90726 -163.32462 -159.36960 -157.91515 -156.16670 -156.49612 -156.76084 -156.80167 -150.87623 -147.20586 -142.68321 -139.10617 -136.91272 -131.33590 -128.66668 -127.95352 -123.57212 -122.82522 -120.21330 -119.18100 -118.99720 -118.96719 -119.35006 -119.91716 -119.18009 -117.81298 -115.95500 -125.62643 -129.07885 -129.33916 -126.84071 -124.11973 -121.84135 -119.36988 -118.19689 -118.63112 -110.44424 -99.15011 -97.19509 -97.42667 -95.72740 -94.37786 -93.15407 -92.81921 -91.38613 -88.71844 -83.06154 -80.93293 -78.87725 -79.32742 -81.08222 -77.97886 -74.78138 -69.35839 -71.15261 -73.55977 -81.13089 -79.02866 -74.44611 -76.53433 -77.90434 -75.08671 -71.80329 -69.14234 -70.83083 -71.11069 -57.51976 -54.56486 -50.82567 -50.78827 -41.50203 -27.56904 -14.02611 -10.46924 14.05630 38.38390 33.66465 28.43117 18.00895 7.68201 -8.57857 5.19642 24.39741 40.13584 32.24946 -9.32766 -30.64093 -32.57749 -7.01728 23.74491 43.29290 65.70297 90.91293 86.98733 95.41451 116.90492 122.19976 122.53058 109.98145 102.48766 93.51139 110.58383 119.02207 143.78395 161.23301 159.32974 150.70489 121.55071 75.01968 66.18395 98.85378 118.62144 153.73356 151.13254 186.93001 229.09245 237.39536 227.83694 163.28475 167.02887 211.94297 232.11670 243.65973 294.85197 297.89541 260.46286 220.89696 177.94765 152.00320 93.38538 60.92279 12.62016 8.41353 27.33859 56.35839 92.40510 132.53814 172.30760 205.69328 201.74217 191.60357 156.27827 147.17531 120.77671 125.27196 151.61577 208.45045 199.79894 179.08064 134.12711 129.81328 178.26672 209.12586 247.23516 269.30175 305.88150 315.14480 367.59885 392.45294 440.18711 437.67340 487.08951 502.24350 542.32411 549.58636 578.63724 562.59407 532.96108 463.74866 429.98219 427.17207 410.00204 448.19914 469.47735 498.53503 528.85077 554.33379 556.04425 498.26088 458.05838 449.30436 404.91691 390.02262 370.49992 441.67495 476.69480 486.91035 431.43233 387.76278 370.54846 295.40717 256.85683 211.17825 227.91236 257.02872 282.72107 329.62461 359.02160 428.93336 495.61409 549.78671 649.09703 696.24217 751.01955 817.54602 897.74048 876.67927 925.08093 957.97591 976.21398 993.72693 983.52733 966.98886 991.16263 995.79868 1025.35402 1042.59438 1056.78029 1034.82915 1022.20072 988.96936 973.09773 973.30674 983.43809 982.53632 976.24103 958.03575 947.47833 894.62721 884.51638 858.18089 803.03818 766.63371 742.65157 743.37252 794.84390 792.55078 879.67348 929.15775 927.91992 937.55644 956.78793 953.31921 969.88892 971.24522 967.68747 952.74182 943.43325 907.95833 892.71388 888.05211 887.38577 806.70826 780.14761 674.85907 598.39386 604.58153 557.61635 461.87835 426.99088 289.48299 227.21444 121.93801 122.12520 162.19412 205.88325
-1271.77658 -1218.91767 -1042.72947 -898.63022 -821.36355 -768.59669 -711.77111 -573.60399 -492.88074 -445.18751 -389.01271 -373.60784 -319.09882 -284.47988 -230.11727 -198.37953 -182.70392 -172.44507 -171.89326 -170.76478 -168.94007 -168.20858 -167.20000 -166.64097 -164.06402 -161.81686 -158.81669 -156.23694 -155.92804 -154.44401 -153.18372 -154.90081 -149.68687 -145.95432 -142.86771 -140.92219 -137.80893 -134.98218 -130.25056 -128.74719 -127.03625 -124.34357 -123.39563 -122.64844 -121.50927 -119.79510 -121.51502 -121.90022 -120.14878 -115.67034 -116.44530 -117.80224 -115.15888 -122.38040 -121.28984 -122.96397 -117.81441 -113.39909 -115.45676 -116.30813 -106.36039 -101.89305 -96.29391 -95.58170 -92.41756 -92.17540 -92.03596 -91.20009 -90.17671 -87.92417 -83.12634 -78.14529 -76.51220 -75.87746 -75.10285 -72.17914 -69.81540 -67.33158 -64.54358 -69.60910 -73.50511 -72.63368 -77.45360 -79.54560 -84.09021 -75.91799 -72.10362 -61.56018 -62.00223 -67.45285 -54.46766 -42.43517 -37.06965 -39.65626 -29.76203 -24.79863 -22.00882 -3.76513 11.88667 37.46583 25.36827 18.88150 -6.77087 -23.02427 -27.01948 -2.79048 2.36787 16.19353 10.31069 -39.19555 -53.23472 -26.57887 0.83792 28.40122 40.93127 63.36844 63.87933 67.86872 59.19108 75.84167 89.88424 110.01570 117.20299 109.12030 117.42561 121.36950 138.45774 146.60891 143.90042 133.99032 126.54984 96.07710 70.75937 52.39850 53.57585 115.39682 127.20875 140.07160 165.90445 188.45450 183.78038 153.79710 150.15044 159.47503 181.91853 209.78190 224.25995 254.33564 301.16325 292.55273 237.41708 214.92438 160.16378 96.65979 52.13522 27.12809 14.57854 23.94786 62.83105 90.36177 146.05015 208.29537 229.20898 218.85330 199.81223 195.53787 182.01072 186.76118 195.66066 213.14920 246.12788 260.54656 229.14570 176.36483 129.48698 139.81263 165.70987 210.83097 251.43941 289.71579 320.47329 362.92745 389.09105 426.50890 474.76023 505.77069 520.32618 574.66752 578.56026 574.35788 538.51824 490.34747 472.92989 417.11862 390.59101 411.52946 441.23854 500.08609 511.98196 536.14902 579.25695 565.07706 543.75973 528.44941 478.54574 476.44973 462.82693 456.51967 462.04091 510.23520 498.02762 484.55436 445.50970 398.06285 347.35468 260.09934 208.83681 223.14602 234.26181 264.04074 337.07221 399.25692 457.59943 503.33428 584.97065 685.85926 723.15893 703.23249 724.67098 724.33689 822.87701 861.52991 889.83965 940.99769 978.64696 997.74641 992.01688 1012.86082 1054.27700 1058.52916 1058.63279 1051.04920 1018.95591 988.71424 981.36565 996.12587 949.09785 933.86150 939.79321 957.71702 960.42498 929.13740 924.99854 931.45430 914.88785 841.32655 842.83417 802.10320 850.33943 843.18680 887.03465 906.40558 910.15545 864.48956 866.71167 873.27063 883.87493 926.51763 952.04069 953.68245 948.02822 940.63405 916.10683 921.21351 919.69856 911.54495 898.37443 844.11511 799.00508 732.65453 683.15688 642.54424 566.19981 401.35506 311.54940 234.23211 202.48275 99.40705 126.42268 169.75902
-1254.49881 -1088.44415 -987.53973 -849.70984 -738.70758 -697.71995 -539.73803 -522.35169 -477.56666 -408.02597 -373.12054 -327.89895 -315.42979 -266.15240 -227.80111 -191.55914 -182.06236 -172.58569 -171.82354 -170.56128 -169.66603 -167.27638 -166.52579 -164.20409 -163.40148 -160.35224 -157.61603 -157.02233 -155.98869 -151.57675 -150.13970 -148.45427 -147.48129 -146.16019 -142.21067 -139.11571 -136.82352 -135.62221 -131.73974 -130.07384 -128.46593 -126.54028 -125.58080 -124.08168 -122.47042 -122.66221 -123.14859 -123.17654 -120.08177 -114.86741 -110.42510 -111.78092 -113.88166 -118.02526 -120.50319 -121.17155 -116.90328 -112.76644 -114.32854 -115.78189 -112.04725 -105.42818 -98.58033 -93.82212 -92.28640 -89.70934 -89.06990 -89.12405 -84.11504 -81.59370 -81.20518 -78.28389 -75.04199 -68.41542 -66.79283 -67.61439 -67.31082 -64.36824 -62.33220 -63.38746 -68.42054 -72.30962 -75.53010 -76.68240 -74.59534 -71.88108 -60.52441 -52.28587 -52.51214 -57.12078 -53.97030 -38.88481 -35.19407 -19.48786 -16.34010 -10.65661 -2.40524 2.00505 16.00845 37.37714 31.67080 12.05207 2.84718 -30.82729 -40.86311 -47.90664 -27.99757 10.46609 -22.35703 -41.50026 -48.06657 -31.77431 1.28846 19.11431 35.29771 54.59520 40.69932 32.65989 31.24636 57.24127 67.38385 82.94713 97.16501 99.42317 124.73358 142.56235 140.24864 147.54294 131.48494 124.89877 104.02136 79.41617 61.25216 44.74766 51.98512 74.10306 117.49701 134.84963 146.85993 168.51500 173.59047 156.68647 133.86058 137.79150 150.90048 184.77415 204.68965 249.42364 267.28197 263.03939 243.44460 192.87711 152.14976 97.11354 77.05695 36.51226 35.50192 51.44198 77.20182 104.40320 196.35816 232.17622 236.65050 236.35928 212.33289 220.58915 220.86755 249.19051 237.49350 250.06141 283.51336 270.46133 242.44028 220.44436 154.39318 131.92914 148.78839 169.11458 205.68611 262.85548 280.18826 323.20355 333.91022 398.83626 444.68165 491.09275 539.43092 568.35854 574.66826 561.60120 520.45704 499.52367 451.77554 411.64351 365.81684 403.80000 430.13364 476.54226 498.48306 550.07479 572.11333 610.19557 600.51259 617.32699 596.68051 579.98625 553.02300 527.14603 500.15088 518.78230 535.68665 490.02952 440.68285 377.20788 330.75389 285.15523 213.73366 216.81895 228.08405 271.65684 376.11575 404.32893 474.30161 500.39885 556.73970 637.68747 665.88213 637.75385 610.60527 634.58840 702.03252 788.36092 810.73807 897.74570 942.63489 970.94041 1028.49715 1043.08024 1086.44470 1072.61541 1068.25282 1024.18894 966.97430 974.06406 976.63582 993.87686 927.71008 871.36054 841.81709 851.61855 868.03890 870.89665 925.00334 930.05351 934.96596 922.86716 914.02153 872.26129 869.19266 856.93882 838.37821 855.81318 878.39169 824.55375 770.37708 824.12277 838.65717 873.03737 879.74740 897.13570 917.19865 915.86473 928.44823 927.57873 924.47037 931.30174 900.48480 865.76009 850.18039 803.61322 736.44896 713.72252 626.77803 522.72621 348.18695 277.20423 191.49081 149.49449 82.92129 90.90185
-1027.66166 -903.36958 -865.25394 -714.76381 -645.37476 -594.69203 -528.50644 -491.41916 -443.07587 -410.79734 -350.82048 -310.28593 -264.58997 -228.61863 -217.51939 -190.22989 -179.23968 -172.61214 -171.99602 -169.97984 -168.76665 -166.92327 -166.39607 -164.02427 -162.83028 -159.57396 -158.09469 -157.22683 -153.93431 -150.60530 -145.55326 -145.05983 -143.33174 -142.67421 -139.20022 -137.70375 -135.68090 -135.31933 -134.43911 -133.99540 -131.58745 -128.04690 -127.71283 -126.36724 -124.24479 -123.74739 -122.23340 -122.46163 -121.75866 -116.48195 -112.75221 -112.85026 -115.87839 -118.30790 -121.02287 -121.33951 -121.03949 -116.21892 -116.30265 -116.81719 -110.73920 -108.44060 -100.21716 -93.79302 -92.63879 -89.52576 -88.61537 -83.86623 -81.34817 -76.61080 -73.37897 -75.40152 -69.74061 -63.91270 -60.97023 -60.91527 -61.62065 -58.77555 -60.04825 -64.21740 -70.27551 -71.33050 -72.18989 -69.29068 -69.64001 -64.28339 -48.60064 -42.10014 -39.86117 -44.58656 -51.98210 -40.58743 -31.81762 -13.08362 1.51729 12.66538 18.68714 16.12321 30.59156 35.27145 37.38408 14.37786 -6.37152 -30.86275 -57.70371 -59.69933 -60.49594 -53.14504 -47.66519 -68.42977 -60.06597 -30.57175 -7.72839 2.98600 27.89189 42.73151 36.27012 11.19100 3.59549 19.22289 42.34281 61.10186 85.22057 92.16154 101.83089 132.40491 128.09349 132.14971 108.29511 102.25174 98.15936 68.47124 49.01647 36.93634 37.78017 74.84208 86.75135 112.44095 126.57991 138.89711 138.60205 134.61812 141.01444 137.56049 145.17907 172.64041 211.04088 230.40851 252.76494 238.59515 194.13737 175.97706 129.06110 93.64071 35.67748 37.16007 62.58735 106.21418 112.10160 152.79257 221.44228 235.46299 244.36079 223.35296 229.85129 226.48215 233.96339 273.44749 280.34071 300.83749 323.51954 317.23438 268.09675 234.42425 168.28655 153.03833 142.53575 153.79946 186.70554 192.00753 232.91165 287.04094 294.30164 320.48574 399.75430 415.88890 505.73540 514.13969 531.82074 538.09808 500.19650 480.18998 442.20642 403.67757 360.13750 357.35802 399.45315 436.31004 478.87880 549.63830 566.83754 616.96849 629.21542 638.96295 631.39726 611.98772 597.80254 553.23595 527.83679 518.35052 504.11669 482.33953 412.44042 369.64953 337.44213 277.78253 214.70139 190.56057 241.32202 337.91823 355.71761 410.68381 389.18850 431.06061 543.70727 623.39031 623.42662 609.74359 589.73473 574.90719 639.02526 710.03170 733.39532 808.82024 894.28130 963.71102 1036.30338 1047.33031 1055.61404 1059.01981 987.46102 924.36906 926.87622 926.13566 937.14433 936.76834 881.18967 833.77303 795.96370 805.68300 768.90147 801.07360 889.33261 902.53770 897.50440 907.00628 868.99426 872.45111 773.86708 805.95999 813.90208 810.74041 789.06611 751.32160 736.22453 694.37093 749.87181 826.68340 843.34272 828.17954 855.41894 895.85312 902.04106 925.30167 892.67709 884.28307 868.89302 860.01796 817.38449 736.92119 674.19877 656.60018 604.31629 519.68090 428.36270 298.60522 239.34019 197.00235 106.53606 82.05889
-945.88089 -806.05441 -706.63677 -670.36692 -604.94256 -522.47340 -500.93685 -433.83963 -421.04954 -379.06210 -329.61288 -305.64787 -263.86868 -243.54609 -204.15859 -181.55189 -177.17702 -172.92195 -171.03519 -168.41075 -167.74707 -166.44831 -165.14841 -163.67656 -162.43517 -160.15262 -158.54166 -157.69446 -154.59489 -150.45763 -148.85817 -146.10447 -145.17267 -143.36421 -139.33977 -136.92172 -135.32064 -135.92314 -136.82313 -136.58328 -133.36213 -131.20805 -128.99832 -126.99008 -124.99690 -124.63053 -123.00603 -122.23731 -121.13012 -118.02704 -115.52788 -113.45528 -115.03680 -118.01752 -120.63745 -119.48534 -119.97554 -118.97243 -117.63546 -116.47886 -115.74322 -110.93628 -104.69359 -98.41705 -94.32814 -92.55560 -87.01089 -83.09704 -77.41506 -70.70304 -69.45661 -64.07443 -62.56042 -61.09796 -59.00118 -57.70453 -56.40852 -58.16286 -59.38778 -63.98478 -67.76929 -69.95207 -67.37565 -66.35143 -65.47903 -54.66938 -43.47996 -33.24687 -31.48551 -37.67072 -40.18973 -36.22305 -31.82849 -9.58560 8.16114 19.60246 21.85285 28.72439 31.64050 33.10283 19.19257 -1.05726 -4.67139 -42.09906 -76.07956 -80.04405 -83.11241 -82.05061 -80.36443 -77.91532 -61.06948 -35.42919 -16.15662 -9.21390 11.15273 28.97660 17.37484 9.20614 -13.82951 -15.03539 -3.25209 34.49237 42.26836 73.60376 92.16575 126.08126 115.09293 104.78432 102.29401 85.11978 65.46109 65.46009 48.36263 29.39431 26.10409 44.89696 73.05325 98.75806 112.34058 117.04540 118.84633 108.34082 112.47096 126.46242 142.72942 175.81849 195.41080 197.40149 217.55265 182.36661 164.59394 135.29669 121.68967 63.44472 49.47308 62.03914 86.56421 133.60990 161.10987 175.06394 216.64782 210.89712 203.60723 200.73055 191.31894 205.56688 228.25203 255.93329 287.97675 322.78938 356.66649 330.34338 307.22065 250.90765 197.40492 151.46541 174.50414 195.92083 204.60967 201.45306 230.27407 215.47308 268.09891 303.55907 312.95692 368.16105 405.46228 439.51060 496.65589 522.60372 506.57119 467.83160 432.32563 396.89946 363.46699 350.35953 346.43825 372.79825 434.57676 493.21710 545.50490 570.20054 617.04495 625.99494 639.86015 631.20361 588.68029 533.53833 512.46140 440.87316 448.80973 400.56909 362.43011 352.23904 339.10650 290.68779 215.09450 214.41943 249.25073 326.43923 337.10736 377.32782 379.53899 375.27784 367.79111 461.88783 499.56054 547.24651 530.23888 545.36165 541.04802 691.16772 743.47103 790.20715 908.08066 936.02755 1000.40090 1026.58756 1019.11566 1027.50693 958.16471 876.38122 898.83103 826.20154 926.17021 892.64890 855.70196 834.15302 673.27061 680.38886 762.95647 762.23560 807.08900 830.31868 823.16843 833.56366 819.17659 718.19599 725.15716 740.25997 741.43895 727.57847 662.32536 649.76814 632.73933 620.87492 695.48568 801.81985 795.49670 813.02595 836.17788 839.89221 882.16326 884.14437 875.54683 832.69269 840.11784 824.31655 798.57944 716.56209 595.76931 540.16105 579.97361 538.62287 452.00006 396.93110 298.24757 260.58451 245.14882 176.21530
-853.28907 -729.70034 -635.11735 -587.13888 -526.37621 -503.89584 -473.80915 -419.77298 -367.83110 -339.17103 -325.74195 -289.24651 -266.61801 -218.49955 -190.13122 -184.63208 -176.69738 -172.27844 -171.53970 -167.00376 -166.76152 -166.04177 -164.79390 -163.06783 -161.93816 -159.90467 -157.03123 -157.15274 -156.77060 -154.08104 -149.88244 -148.26629 -145.03646 -143.15274 -139.67350 -138.16902 -137.74102 -137.90999 -138.31307 -138.12705 -134.18271 -131.96649 -129.48907 -127.68312 -127.09525 -123.16538 -121.87859 -118.91230 -117.68491 -117.86391 -116.13510 -112.89216 -112.28907 -112.85738 -111.70404 -111.34088 -110.65570 -115.68738 -117.14985 -119.26251 -115.60463 -113.12395 -106.00217 -99.48672 -97.43421 -95.01032 -89.04961 -83.25946 -76.90327 -71.35355 -68.04740 -61.24427 -59.11578 -58.03452 -59.16188 -57.05886 -56.30105 -56.29170 -60.34316 -64.09500 -66.15082 -66.42257 -65.05101 -64.64223 -55.38816 -42.85226 -30.96327 -23.85535 -22.55932 -14.61456 -14.51252 -24.76325 -17.20670 5.17972 21.15882 25.77868 21.91625 -3.73443 9.43804 8.19814 -10.57283 -20.11709 -37.39387 -47.65691 -82.29329 -82.09348 -85.95291 -69.63098 -75.76901 -80.55966 -69.87323 -49.17365 -38.19316 -40.06470 3.59931 5.56573 -23.03201 -33.77946 -37.60041 -47.75574 -45.61400 -10.49608 19.95069 43.52156 53.39949 65.71526 79.31423 65.89276 66.97561 47.07648 48.96740 26.95036 47.45749 39.41042 42.31486 52.83268 67.94976 87.17748 98.96255 111.59968 90.64209 88.34607 98.33781 103.86125 137.12313 166.85231 167.95268 174.82495 90.72988 112.49066 111.94909 103.25696 70.43299 18.24981 -3.39342 51.19053 82.03297 133.12373 165.51976 187.47460 181.74213 165.37118 180.05999 155.06015 184.22136 192.54083 211.93705 251.61368 299.76386 329.63197 350.60093 326.93639 292.73799 242.25531 201.19072 183.29069 196.71108 233.50693 264.21441 263.70844 260.15342 279.56854 272.95794 270.72836 302.34479 313.48393 408.17267 483.97226 509.45536 527.67203 503.28904 447.04964 406.76445 398.01052 342.27704 320.98338 326.44856 364.31432 422.44668 449.93962 493.56520 509.19759 575.34973 604.35319 614.04712 621.41873 563.95810 498.03097 422.27336 397.76510 360.60578 287.60046 290.75405 297.28824 323.07265 287.76068 214.61340 173.04269 221.05576 262.22708 299.28320 292.28388 283.31884 276.18843 300.57948 334.73054 452.22384 453.77029 486.59984 498.31337 563.69615 623.90241 666.96934 766.67948 871.61113 923.11959 933.08357 974.93239 1011.47900 1009.65642 948.71608 851.30793 786.89456 758.07669 755.20123 802.38079 821.50213 661.19280 576.01589 577.10345 622.80797 650.21974 748.76759 710.52933 713.90834 697.38897 694.99019 586.96893 612.73301 579.68151 627.28508 583.97681 546.65189 518.96617 506.84520 519.34896 637.72156 690.28300 692.99029 725.68059 798.44376 818.72901 835.23435 849.93389 849.14853 755.25541 731.46329 666.74687 651.28412 637.20102 493.30347 473.99754 432.13988 413.90014 466.14948 421.88138 335.89355 329.75678 253.66199 204.73994
-744.87826 -691.01184 -603.38983 -520.39903 -505.97964 -455.88648 -400.76698 -380.17515 -349.19922 -318.09528 -283.89567 -270.31464 -232.32445 -200.01460 -187.23057 -184.23264 -172.98941 -171.67072 -168.98604 -166.86603 -165.28720 -164.74311 -162.83065 -162.64267 -161.33254 -158.40915 -156.33354 -155.40817 -155.52409 -153.96884 -152.32764 -148.58270 -143.61282 -141.96929 -139.84317 -141.01444 -140.20720 -140.24749 -138.24801 -136.15897 -134.90094 -130.63858 -129.47508 -128.46252 -124.78123 -123.08785 -117.83102 -116.84246 -114.00449 -113.05066 -113.27558 -110.03803 -107.14110 -103.42631 -100.40033 -100.62490 -108.02208 -111.03651 -116.28731 -120.90732 -121.39156 -114.25315 -107.93899 -101.96322 -100.18429 -94.98716 -88.86974 -84.11365 -76.72387 -70.99680 -67.84437 -61.15073 -57.48137 -57.01727 -58.48265 -57.85651 -56.33691 -59.20145 -64.12727 -66.10835 -64.23069 -63.53384 -62.30912 -58.56456 -51.81042 -42.04683 -28.21017 -16.61042 -9.11768 -5.11174 -0.94161 -11.54115 -7.59000 3.28847 15.72655 16.20590 3.23127 -12.10173 -23.51340 -20.83508 -21.79451 -44.16869 -62.03678 -73.96890 -87.91425 -71.83266 -58.02783 -51.27336 -60.45483 -82.47629 -71.96613 -64.60155 -66.44656 -68.88550 -56.65432 -39.61913 -49.77759 -61.93451 -65.47773 -64.74624 -51.45398 -36.02321 0.70025 21.89300 30.11335 39.72906 28.43693 45.98589 38.23165 32.36835 9.26006 11.11875 13.24536 36.86648 65.73589 70.41834 67.93281 74.75219 83.60411 88.49068 80.63814 72.25989 79.88535 97.07684 137.51466 159.72525 151.58108 122.92979 85.15501 77.55263 64.86557 54.22104 23.22110 11.03531 -5.85759 35.64268 93.39961 134.14550 144.69110 136.48493 134.06180 134.97513 131.55201 172.15037 200.76653 224.95994 224.85928 243.46595 280.11110 322.83914 342.17733 331.34200 314.99911 261.93824 199.01784 182.47449 198.70010 261.71034 273.68246 324.50590 331.15923 337.11465 322.87949 313.33096 313.64275 380.02293 438.34213 506.67693 516.07921 518.67362 476.85438 410.95008 385.11070 389.14101 320.53331 313.41926 311.82346 337.96639 386.16852 417.37241 469.62307 508.08698 535.46214 573.22408 596.67360 565.99022 478.89351 442.72331 392.17748 331.92942 277.68680 265.20777 224.20284 212.63954 227.00752 219.04631 208.42683 193.58419 171.70553 220.52157 203.49506 248.63260 270.87722 296.21814 303.89011 375.96151 439.01167 447.88301 554.87512 546.67476 583.51141 686.20111 699.42420 726.70480 813.85895 837.29571 885.47557 918.14255 937.57927 982.06992 853.73016 716.55440 691.28895 636.86916 681.51123 764.06540 772.84639 666.67481 544.06821 488.68637 516.90241 549.80627 583.57908 660.88076 589.41347 597.09746 601.85496 564.61958 500.51375 461.61803 432.97968 452.43425 457.77472 412.53114 428.14019 481.68693 625.71240 714.12012 665.79832 645.14120 683.11758 722.14764 800.72839 835.55896 850.39553 747.01877 641.39281 556.50187 608.53440 594.55320 495.65945 399.76661 365.01907 372.25219 403.15830 391.60412 358.33924 325.44829 230.76992 141.81250
-709.29042 -650.84249 -545.73146 -510.14967 -468.24663 -405.42639 -391.03959 -354.59313 -340.01470 -293.42365 -253.87765 -233.75323 -211.18271 -198.71317 -190.75519 -180.98984 -176.87561 -171.71894 -169.44431 -167.02434 -166.38768 -164.48113 -162.47247 -161.84372 -161.60145 -157.21916 -154.94944 -153.93046 -155.13581 -155.40897 -152.93214 -149.05819 -145.99075 -141.66384 -141.18308 -141.99826 -142.32417 -141.07106 -139.68836 -135.76079 -132.11896 -130.14010 -127.32784 -126.49016 -124.76338 -122.58523 -118.12867 -115.56885 -112.38993 -110.88814 -108.81717 -106.85949 -106.04579 -104.08575 -100.81967 -99.98587 -102.82528 -113.59598 -115.04041 -121.43551 -121.11435 -114.31990 -111.44523 -105.54144 -100.53492 -93.99057 -90.52079 -84.02512 -73.54861 -70.81153 -67.10750 -59.96847 -53.84768 -57.30436 -58.65148 -66.61128 -60.40643 -68.40072 -67.25012 -67.14806 -64.50715 -62.17658 -61.22176 -57.11739 -54.47787 -51.71938 -35.91278 -20.09816 -2.19091 0.83829 5.04734 0.34064 1.34739 8.01946 7.85201 2.42893 -9.32933 -28.53619 -38.02464 -49.64446 -51.05913 -54.44976 -73.90465 -77.48391 -71.06799 -46.25254 -35.55634 -17.42192 -31.29644 -62.21867 -72.89764 -80.67577 -74.45182 -73.33862 -66.02800 -63.18694 -59.18530 -64.35047 -54.06782 -72.84519 -64.86817 -36.51918 -0.10035 15.97425 17.37018 13.06805 14.59438 19.29347 21.05820 11.57760 -3.17392 -19.23658 4.75362 20.63536 52.98280 58.08242 62.67371 64.68347 63.40183 49.72108 46.96335 72.48315 90.92006 119.27632 132.55771 158.86520 130.31904 87.63781 66.11699 36.90514 36.10539 22.19445 3.38854 -7.92238 -5.43086 16.93633 64.74711 96.27399 125.71224 95.61730 104.57263 106.73626 136.07939 179.57852 227.66886 252.20925 251.21054 262.38859 284.86747 302.51148 337.16536 322.85386 339.20441 329.83862 212.14567 212.04024 214.60878 276.42481 320.23939 339.81479 388.01304 403.82143 414.54042 363.25035 350.11125 448.77020 492.24165 524.53788 505.84135 487.74098 438.20714 409.30832 394.54072 376.88282 363.61289 319.61145 305.05968 329.06390 364.99401 371.51358 402.24470 492.97982 525.99026 570.05440 592.29036 551.60444 501.42995 362.23853 355.71630 297.52894 261.21121 244.04818 240.51886 207.09881 183.19510 175.37614 154.55799 154.52475 170.40951 211.60415 220.49180 317.20750 345.90297 317.56095 409.59821 513.71956 544.28518 631.78168 609.77837 637.77260 622.62730 687.27645 726.27048 739.50361 752.28377 805.65767 830.97881 893.29914 918.45029 953.79713 861.93206 720.52759 606.81077 565.99793 584.65422 715.69936 739.76337 652.49704 504.20166 409.72583 439.51579 482.21381 463.72249 441.47421 477.37890 512.82177 525.99625 523.57408 466.33396 415.23834 398.35341 393.00178 369.09065 343.83800 398.78915 507.62621 599.81473 631.65710 570.89955 526.22731 600.45033 657.73036 753.46860 810.37176 803.12190 702.07115 659.31635 593.02322 483.11113 470.73423 403.50798 272.25918 287.11766 279.63844 321.23117 309.55783 276.06699 332.43041 160.61022 119.31183
-676.61343 -569.48215 -508.89313 -491.73254 -430.49965 -386.81581 -366.91704 -335.77533 -308.03090 -284.48354 -237.41354 -227.98428 -207.99110 -196.06663 -185.54220 -179.01511 -175.37575 -171.72942 -169.09490 -167.17093 -165.98138 -163.90971 -160.23608 -159.66056 -159.66304 -158.35657 -156.00514 -155.01090 -155.49479 -155.58056 -153.70111 -150.09407 -147.23286 -141.98371 -142.29664 -143.75072 -145.56742 -144.52023 -141.96552 -135.42781 -130.17324 -126.34929 -124.40847 -125.63198 -125.83318 -122.22413 -118.91720 -118.29228 -112.23808 -110.43047 -109.08952 -109.06608 -108.45701 -103.90796 -100.40422 -100.49559 -103.29438 -110.22417 -115.14838 -122.62198 -123.79418 -118.36505 -105.98383 -104.38464 -99.86939 -92.59428 -86.80945 -82.31619 -74.60483 -70.95075 -67.96838 -62.48170 -59.13424 -60.34224 -70.72507 -77.04737 -76.50333 -73.33636 -74.15531 -74.91496 -72.46069 -73.58045 -60.51997 -61.44699 -63.20490 -55.55497 -49.65925 -35.70470 -17.06415 -5.09504 5.34946 8.89964 7.87534 4.64310 -0.25841 -5.95998 -14.15361 -50.17418 -58.85747 -61.96468 -76.62957 -79.34422 -82.87810 -78.61266 -63.39366 -35.73290 -26.56083 -19.10742 -27.24760 -34.75278 -45.22101 -53.98416 -68.86619 -66.11130 -70.51573 -59.86723 -47.97339 -38.14015 -38.04411 -50.91376 -58.11110 -43.60744 -11.23724 -13.53016 -6.33153 -10.34464 -19.01642 -15.21419 -5.40153 -7.15482 -14.99676 -23.90220 -15.74139 8.50022 24.97967 28.75962 41.89738 34.00424 52.14513 38.23215 42.51700 72.45589 104.15351 128.63219 150.58527 139.42400 117.00872 76.16387 32.21711 0.75728 -5.94957 -15.87255 12.16139 22.83395 24.47046 16.79256 40.80182 62.87526 83.95233 82.29961 85.31849 122.04418 140.66190 183.48285 231.17321 271.26428 280.41808 287.02157 294.50736 339.41480 354.02731 348.93466 353.41993 351.44313 290.14905 223.98528 222.01775 269.34203 321.70373 342.17806 395.01292 478.51299 464.75714 459.99412 446.79459 481.66769 506.84030 537.33485 496.29864 480.83404 437.08264 419.19377 420.99690 443.15543 382.14413 354.27321 278.31930 282.64686 347.29266 365.99247 384.95974 468.79674 533.06063 562.14516 593.02812 555.11696 478.68812 382.75318 368.08143 288.47900 286.40159 275.58400 261.70583 224.63461 195.56406 164.07647 137.66466 183.23923 203.49860 251.49855 332.28609 391.52271 406.17249 423.94895 504.25688 605.48914 607.60627 641.03296 637.67686 613.83825 596.78692 643.52371 694.76909 721.11376 675.43916 698.85667 808.85218 828.87861 897.32175 948.14822 893.18152 798.10693 584.61118 525.84461 546.74253 636.53401 670.57613 589.68516 510.06170 363.24018 351.20885 353.39280 337.44393 353.02499 438.17230 445.32329 444.98791 432.82860 396.00268 360.90769 348.62573 357.94545 298.79803 307.24707 404.24404 517.98499 563.78026 565.82649 545.73500 484.48039 605.71398 641.53885 722.11254 779.81122 775.82863 739.90903 652.61722 642.30651 482.25425 387.56258 293.31417 241.59999 195.83032 205.41219 223.20351 209.73589 230.22792 175.00047 100.67567 66.67276
-604.94151 -560.97798 -490.81726 -445.37255 -387.24082 -377.16806 -358.42073 -316.49490 -294.84639 -248.24366 -218.89448 -211.58887 -202.18142 -186.38072 -186.29365 -178.62135 -173.80171 -172.77781 -168.48573 -167.25577 -164.99110 -161.90399 -159.20184 -157.57932 -157.58379 -158.78190 -157.54142 -156.62593 -157.02020 -155.44699 -154.03423 -153.35042 -149.92515 -147.59471 -145.56717 -144.47297 -145.22851 -145.35940 -143.20078 -134.90168 -128.05531 -126.48939 -125.77776 -125.91601 -125.67408 -124.91079 -120.04415 -118.32477 -115.28052 -114.75075 -110.77103 -111.78208 -110.79098 -107.88138 -104.61699 -104.90122 -106.66776 -111.11387 -113.38320 -119.44368 -120.60675 -119.37294 -107.33445 -99.53934 -94.05040 -90.64901 -87.51574 -83.73857 -79.21304 -77.11512 -69.39332 -69.20538 -61.74813 -67.75092 -79.12611 -91.79975 -90.12823 -86.92657 -83.73214 -82.36476 -89.26451 -89.54440 -81.28406 -70.89655 -66.88122 -56.22730 -50.63502 -40.68698 -22.26451 -11.50041 5.08061 11.52865 8.79868 -9.06605 -24.47731 -23.57406 -47.12793 -64.11276 -71.96171 -73.95923 -66.90866 -79.03973 -84.57616 -69.43081 -58.06007 -36.64832 -29.05025 -19.30092 -3.78428 -0.16827 -28.04374 -35.51452 -35.98543 -48.25112 -49.89851 -44.74612 8.46705 17.02616 -15.30944 -48.25754 -70.91838 -53.32591 -46.44563 -44.50822 -25.04775 -26.98737 -39.74207 -35.81890 -23.35921 -26.25298 -36.17370 -22.52969 -16.55379 1.71601 11.75899 13.48371 26.36211 40.32172 54.02628 58.20282 45.97953 78.52590 105.53661 128.09604 151.73970 136.94797 114.20609 65.80358 19.71488 -3.89588 -19.16590 6.68737 47.62308 80.54176 82.02840 84.80973 65.04284 83.02120 52.36738 95.80512 125.44658 128.11436 155.72315 170.65057 219.80778 278.41778 313.60320 315.78868 362.52722 369.80963 378.20477 380.85818 382.23807 358.97548 300.85918 257.41545 255.16930 274.83114 323.04748 362.08933 450.94978 483.20170 517.59957 490.10926 510.29972 582.47922 565.80718 546.81075 528.91142 519.44880 512.71327 461.53085 505.00665 454.08742 428.68589 346.16622 280.70788 261.36257 315.72750 357.44796 394.55618 484.36681 515.52171 556.83025 589.20029 594.54104 515.96044 479.82698 466.16626 392.73094 354.45543 352.16891 341.53654 279.38619 253.76817 180.74715 123.14487 153.97052 198.49839 317.46161 347.49049 436.52548 447.26996 438.01829 518.07084 619.39564 625.66957 651.73549 633.21343 556.79995 549.01725 521.78813 587.45460 545.55719 531.58617 538.35406 658.87620 699.07938 829.74347 912.37305 870.36497 832.57038 632.51879 506.14459 494.66503 576.95109 574.38335 539.66180 455.09371 316.16951 308.62868 264.13107 293.96213 377.29313 404.78428 447.04995 428.65642 376.69565 357.72463 363.83988 316.12534 261.14643 259.23265 268.79884 398.50547 468.68776 476.17416 453.97968 411.62444 432.14903 591.54927 663.40112 686.49978 728.07564 762.24167 724.03141 706.60519 646.63525 482.88421 407.64698 381.10774 265.62806 199.40835 151.67840 151.70355 153.64861 126.39205 122.92343 118.73307 94.31499
-583.58236 -563.26874 -457.57405 -433.88540 -388.46742 -348.32506 -340.26526 -291.09874 -255.67672 -232.72656 -217.66368 -201.13150 -190.52093 -187.70179 -182.73505 -177.63248 -173.14407 -171.98298 -169.21531 -166.02654 -163.54435 -162.09718 -158.31903 -155.96882 -156.41598 -157.97390 -158.05148 -157.27153 -157.20696 -154.52724 -153.29809 -152.04533 -153.03167 -151.03989 -147.73275 -144.39929 -144.89441 -145.51370 -140.03758 -136.60605 -131.23221 -130.08467 -127.97107 -127.41724 -126.20935 -125.07834 -122.20527 -120.18680 -119.58520 -117.97838 -117.27508 -116.51890 -114.04263 -110.43833 -107.78357 -108.29700 -110.41575 -109.91332 -109.65286 -116.15378 -122.27496 -117.69165 -105.47535 -98.85997 -93.69471 -91.51110 -91.33587 -86.18549 -83.88429 -82.34245 -73.35981 -70.76108 -70.46038 -76.09231 -83.83170 -93.13048 -95.20025 -99.06499 -100.83735 -102.56965 -106.46761 -108.90409 -90.56178 -83.46265 -66.18550 -59.22340 -38.14962 -34.17968 -22.05165 -14.63451 9.72488 14.46600 9.39569 -25.00514 -49.68992 -59.42179 -71.45569 -82.21150 -72.43671 -58.39547 -48.33217 -47.30736 -57.11438 -63.26161 -50.49826 -41.02807 -25.77145 0.02840 19.83313 15.41405 4.53341 -17.05444 -29.47611 -36.64307 -33.10322 -20.70187 9.23139 19.68673 6.86572 -25.27019 -49.44522 -55.04924 -49.94738 -51.86857 -58.22388 -56.98440 -53.99381 -47.18512 -47.48199 -35.12578 -22.15577 -19.21673 -8.42090 3.80569 16.09492 22.97391 39.57711 49.75097 73.73690 65.50148 60.16475 75.88670 89.62960 118.24128 130.68756 118.10393 86.73760 39.88498 24.60033 -9.28930 1.56627 27.70077 78.97853 91.37429 120.43764 125.73538 113.31843 93.30641 90.96639 119.62143 157.65993 159.99850 180.57001 180.07239 223.68660 276.66571 331.71451 363.78579 409.40688 403.60854 422.01018 407.90762 386.13656 369.23627 324.92122 273.99162 263.66849 304.52479 350.82773 416.18935 449.56284 505.48479 513.89368 523.54454 563.25925 599.30103 622.94192 583.16516 574.09719 579.72356 588.69511 546.37504 517.00744 452.48220 400.53068 328.13078 287.71176 248.64756 260.71861 340.24018 372.70268 427.71848 514.43209 555.31960 574.46989 586.61625 570.02843 529.20017 500.36245 490.05350 447.21268 394.80881 363.21764 300.07764 277.33374 234.51824 154.76782 143.39446 170.50655 219.15711 331.40197 443.87327 464.25919 517.02818 572.41152 598.42805 581.39882 583.00031 525.40391 482.82934 448.08186 456.65484 441.89292 426.22821 496.12477 507.23273 614.49816 659.44162 752.71007 817.99985 829.44132 805.59438 635.65353 590.32648 447.21642 405.75763 459.92369 506.00221 492.35341 361.89975 244.24199 234.21687 262.67188 325.56404 392.15282 386.38288 357.47714 306.64136 333.03851 359.28853 288.91370 233.32374 257.03352 282.68827 338.21211 401.46396 438.71665 423.21670 353.49622 444.69709 533.87115 609.69549 669.88878 677.46531 714.48550 710.90992 697.94378 640.56825 605.36945 528.96547 434.91181 387.22512 260.36134 155.85562 144.70408 143.64197 137.74000 176.74208 171.17408 114.47280
-575.29414 -525.94643 -495.37569 -436.32855 -396.08311 -363.37879 -317.11337 -285.15348 -247.82158 -227.48955 -219.03092 -197.53004 -190.24618 -182.59954 -180.23122 -173.04114 -172.04561 -170.09041 -167.01103 -165.03112 -163.28564 -162.09177 -159.90517 -157.04135 -155.48761 -154.73114 -156.47012 -155.94158 -155.33498 -153.36705 -151.17037 -150.89543 -151.22463 -152.29384 -147.47691 -146.63259 -145.23210 -144.37342 -141.32111 -137.57718 -134.01014 -130.84761 -128.09627 -128.01875 -128.28470 -125.69086 -124.89114 -120.95375 -119.03621 -122.18180 -118.59148 -112.01741 -107.60967 -105.26067 -107.54329 -106.99305 -109.22934 -108.90776 -112.55336 -117.29764 -118.80638 -115.82741 -105.27261 -100.24706 -95.86604 -93.89703 -94.64946 -95.78710 -93.33415 -91.16774 -82.24184 -77.96538 -79.55688 -87.55273 -93.16584 -95.09692 -100.34025 -104.32208 -113.28860 -110.00932 -106.29763 -100.78131 -98.03390 -68.56063 -62.91587 -54.78761 -43.23128 -27.97405 -19.03493 -1.50668 12.24615 20.42726 15.22289 -23.14353 -39.21154 -68.57751 -90.93914 -80.54773 -57.67153 -36.75721 -33.28978 -26.67262 -29.53557 -41.31688 -43.16060 -34.43508 -8.10009 9.32891 32.02651 43.81250 35.96045 7.89730 -28.14578 -29.71455 -31.83874 -3.60984 23.42639 44.04491 22.46028 -17.19909 -20.37319 -27.09327 -28.73766 -39.84917 -52.21730 -64.27521 -44.16759 -31.47141 -32.12313 -6.12768 -6.91323 2.99604 5.10942 18.84365 20.06385 23.33320 28.23892 47.05032 51.64962 47.89434 28.61636 60.42775 59.12993 90.75991 97.71382 86.97175 64.93738 34.11482 -3.45437 -11.35263 17.41968 38.33205 58.96398 111.16816 134.30528 133.22551 122.79804 123.30354 130.71860 166.18412 179.54411 182.23313 209.55772 242.11461 243.69938 281.60043 352.29649 393.36816 428.01977 435.25667 431.20863 426.48662 427.34225 396.64178 380.90154 343.01329 331.48902 374.91769 418.95590 450.17219 454.53586 500.15498 518.45639 520.40096 589.34056 653.31226 653.33145 646.27728 629.20681 635.60029 629.07540 604.34110 511.99516 433.76134 401.09571 360.65395 321.59747 259.93953 230.21291 285.00331 302.82466 398.18937 512.44776 556.46878 558.10721 587.48476 582.64599 546.46503 497.64658 480.61348 467.33595 414.73039 390.88791 309.13425 289.84105 249.35736 192.43949 139.38729 134.26266 193.39745 302.90336 391.13146 509.37357 536.35059 567.70359 545.35657 511.53629 521.56539 392.78830 351.25966 347.71241 380.02380 417.45074 504.08613 535.09191 566.41558 666.83747 698.42074 719.51358 774.02530 750.12932 733.39826 684.81814 598.09636 505.52171 365.26171 376.64429 408.41615 411.35509 365.35189 220.79826 206.81002 246.97734 311.00138 344.34407 361.03241 273.13102 285.84811 289.45336 305.98106 279.42488 242.57133 245.46819 297.71411 327.56661 390.55557 394.70119 406.15905 338.53134 413.28299 492.61843 523.37306 587.52339 633.72574 625.67301 613.00151 666.06224 635.08899 589.67574 566.75564 486.38955 436.29667 360.87518 329.83395 217.62362 183.95021 214.08333 208.36355 207.46556 155.50090
-554.60519 -506.79372 -480.10398 -430.91216 -394.59735 -340.28934 -306.82420 -262.71332 -243.31159 -225.77567 -210.44385 -202.24437 -190.34031 -181.53599 -175.70768 -173.85058 -170.94279 -169.76069 -166.99245 -165.21584 -164.80216 -162.83016 -161.36592 -158.61587 -155.21816 -154.52268 -154.08049 -154.28081 -153.38648 -152.63764 -150.94672 -147.64850 -148.43413 -152.07946 -150.41790 -148.22152 -145.74011 -143.68924 -140.84350 -136.65678 -132.36408 -130.34634 -128.61461 -129.71035 -129.01501 -127.84763 -124.00709 -120.84873 -116.14587 -116.92154 -113.81783 -109.62664 -104.71619 -102.39211 -102.65273 -104.36727 -105.23844 -108.80124 -114.82386 -118.44677 -116.34086 -110.21377 -102.95684 -101.82384 -97.01625 -98.33822 -102.93765 -104.54712 -101.59850 -95.44511 -88.34331 -79.49410 -84.41183 -84.03967 -91.47958 -100.46123 -103.45513 -111.26029 -113.72550 -103.03838 -89.44484 -91.19736 -83.80788 -76.05915 -66.34266 -59.12878 -50.18989 -36.46306 -22.31374 13.37963 19.73897 24.42318 13.01904 -0.00937 -25.33033 -62.92624 -86.33676 -78.18140 -47.94236 -36.57316 -27.96551 -16.66017 -22.64546 -20.62691 -6.03470 6.35422 5.82376 16.50640 37.39503 47.76575 57.58784 28.83753 11.75051 8.70317 4.87895 46.45915 70.81732 69.07338 44.64394 21.87993 -1.10322 -1.80888 -6.85804 -34.82218 -50.06495 -44.80170 -27.42873 7.74041 1.61128 6.81828 19.53765 5.36067 16.63562 1.19865 1.04866 18.53143 15.99570 15.97896 6.98747 3.03600 10.35730 17.33329 6.19793 34.70429 47.04157 47.32600 42.19832 20.37931 -9.25519 -11.94471 3.86976 33.23561 70.92973 117.34036 136.03080 132.89064 129.66097 131.09506 133.30524 186.25155 217.39912 250.71978 267.58123 265.16806 265.78664 308.60716 357.11421 406.95832 431.89510 435.95404 416.89511 437.15659 417.54235 439.30554 421.64299 410.95611 399.15608 411.04070 456.31798 466.54980 485.98588 510.41503 486.20705 559.02706 596.83842 663.37307 678.41490 671.49399 651.98103 630.00501 590.20190 564.54765 445.79708 423.38761 358.11404 333.93967 309.88047 249.94053 221.41798 232.24663 244.69846 339.87431 412.83164 497.00195 509.33264 555.61970 571.77521 539.54495 500.70968 470.10056 438.99207 429.02957 338.80580 310.32291 263.97958 261.30568 192.22284 154.61720 171.94177 185.84182 262.95393 357.05375 488.30008 520.87945 559.89151 504.45138 431.20210 386.24942 314.42955 304.96881 370.20710 402.72753 461.62090 538.83664 588.01666 707.40860 751.27280 772.15599 734.39463 714.56250 721.33103 639.85151 651.02719 591.89851 532.16581 433.02548 343.50918 387.41333 323.76673 330.09239 207.72549 219.22982 233.78902 291.48213 319.17763 266.14271 262.83763 252.02094 242.44157 261.49282 246.88679 196.47957 223.17806 255.89933 307.40503 361.26880 301.99464 317.80711 331.80640 400.57437 441.87824 493.72673 521.01040 561.95786 550.88647 551.55753 551.12379 555.79040 578.24001 545.24622 473.72728 429.51154 422.78719 382.68166 319.46009 272.30599 278.46606 273.80110 219.00042 183.99177
-541.63990 -488.28563 -435.30355 -396.48931 -379.76987 -333.61905 -307.90164 -261.88783 -238.70603 -221.10127 -204.79482 -193.87899 -185.44188 -179.07494 -175.02601 -173.06779 -171.96953 -169.39018 -166.96445 -166.60862 -164.86518 -164.50060 -162.34878 -158.68821 -156.13524 -154.10942 -153.18717 -154.60041 -152.55085 -150.01652 -148.92053 -147.05209 -148.47741 -151.61101 -150.82036 -149.66398 -146.04356 -144.04843 -139.95615 -136.24789 -130.55629 -131.40526 -129.63008 -130.51492 -129.44076 -127.66959 -123.34705 -121.48546 -115.27565 -115.87072 -113.27592 -108.66056 -104.48935 -101.57147 -101.00465 -101.38537 -103.57138 -109.39163 -115.00295 -119.64304 -114.41780 -111.54238 -102.23862 -99.00161 -99.24697 -100.53355 -106.88370 -113.55901 -113.33764 -109.42559 -89.59612 -89.40347 -88.40210 -83.54523 -88.46712 -97.89368 -106.36945 -108.69630 -108.25428 -93.84076 -78.31654 -82.26431 -85.58161 -89.76156 -90.22812 -82.50599 -63.56180 -39.57090 -15.82194 13.73994 20.40012 20.84406 14.75499 -0.75524 -22.22199 -49.16925 -79.93150 -83.00734 -69.97044 -46.59674 -27.16089 -15.92954 -9.06244 14.68199 26.19116 29.44341 37.90084 41.89176 54.83974 66.60851 50.02510 42.77990 24.27789 32.61649 57.37696 90.07527 84.99713 76.84805 45.36661 18.76351 3.60347 -4.85638 -20.62960 -43.39591 -56.50378 -36.66132 -14.45946 7.66003 13.86863 15.69543 -3.43475 -9.23192 -22.52799 -30.12338 -19.02456 -16.57484 -0.23353 -19.56744 -23.28160 -23.57076 -27.20842 -30.35474 -22.22209 -21.43258 0.42797 25.72999 39.30901 -3.50381 -26.99140 -13.01381 4.02864 30.80045 67.00993 86.96980 134.91625 116.92073 110.95587 129.91999 146.37370 189.31269 223.02122 254.52184 264.97801 276.58386 273.88304 336.03141 362.97374 396.77886 408.63927 403.93431 393.17406 392.23141 418.56713 437.12169 440.28482 434.98943 432.07838 437.73982 466.67254 490.84881 465.33730 447.23017 428.94888 500.16080 583.34050 637.20922 655.80642 664.98136 653.06561 614.58322 563.32478 509.52794 459.81114 376.41715 310.46869 284.72967 261.41600 233.33929 200.06265 212.85079 233.51548 310.96720 398.55336 455.22990 503.76345 530.40107 533.27867 516.71719 445.77588 423.11786 403.61963 404.23675 354.81089 300.75380 232.31139 193.75079 168.85212 176.93651 190.61244 261.19476 317.52754 337.90373 401.09323 441.89039 474.24963 473.21218 443.32417 301.63656 267.25777 285.91165 308.84524 414.17850 500.71126 574.12070 682.80017 705.33530 752.71691 743.11904 686.13178 647.92367 624.18689 581.09294 577.09485 591.47418 570.27066 469.11136 431.00270 367.20438 289.41979 307.49793 255.99790 218.90073 185.65990 225.61639 288.29224 268.05789 241.20753 219.13295 221.07981 203.62506 190.99617 186.69136 196.01981 209.14040 239.54566 210.41214 249.45420 230.35055 289.49971 321.67508 370.36628 458.38390 488.71590 500.76525 487.94741 431.83568 458.15431 496.95083 512.04082 491.72162 469.04622 437.76617 441.68352 423.06287 431.43029 378.64945 362.93271 285.41786 232.15240 201.79151
-520.77641 -470.23009 -425.73430 -384.97422 -346.27307 -326.96138 -302.89130 -260.25464 -231.12740 -218.48097 -201.52707 -192.84767 -186.43884 -176.91770 -173.60332 -172.64970 -171.23663 -169.39986 -167.41901 -166.70990 -165.49327 -165.18338 -163.60426 -161.96928 -157.88290 -157.32922 -156.18567 -154.03647 -152.57636 -149.65886 -148.19701 -145.61016 -148.69350 -151.13997 -151.25739 -150.35130 -147.20096 -147.62298 -142.65751 -140.65500 -135.35816 -134.33982 -136.00030 -132.12596 -128.12487 -126.37273 -126.76750 -123.96514 -121.28524 -119.62104 -115.27869 -109.36356 -106.06998 -103.62764 -100.68088 -102.07637 -104.74907 -111.15346 -116.59859 -117.92569 -111.79373 -109.03904 -99.55974 -96.73205 -100.28649 -105.92983 -108.86877 -115.49993 -120.68651 -125.83955 -116.66380 -101.54059 -94.60144 -84.01305 -91.52439 -97.14481 -105.54703 -103.80973 -99.98285 -88.41885 -81.27864 -80.14668 -90.54579 -98.01979 -117.61977 -84.75467 -39.76933 -29.49156 -11.55091 8.34370 19.70530 15.58508 12.50514 -9.60897 -28.52701 -55.79506 -76.35977 -92.76199 -63.01193 -29.99912 -26.69889 -5.78539 15.46861 38.39084 33.69531 38.31885 57.75566 61.52282 84.18359 94.12064 68.41093 49.75611 50.57326 63.87547 81.27754 103.56287 104.63698 73.36167 24.94819 4.93049 -16.33636 -20.91784 -46.69289 -57.02429 -60.42883 -41.56921 -8.55791 4.97498 6.67615 -0.65025 -13.03124 -39.91592 -38.51031 -33.91516 -39.38953 -32.47809 -29.08302 -37.17114 -36.37377 -13.53962 -3.54295 14.50432 -5.68743 -15.99642 -23.22484 10.66207 8.68192 -9.58335 -28.01887 -26.71936 3.55532 25.44145 34.86692 79.89276 91.40668 86.43226 98.69813 116.07669 142.77338 169.91793 196.78813 228.85251 234.46575 255.78598 285.28255 307.86194 376.87900 386.05139 385.73481 364.39379 335.94606 350.41326 394.20631 425.98103 424.01675 431.88343 430.69932 446.67817 475.46001 464.99826 442.03022 384.18759 412.56116 447.84724 529.15436 585.82076 634.58807 634.63554 588.10488 564.52012 565.15059 529.55955 441.31993 332.44336 295.45837 249.81348 243.88588 212.67577 184.25738 188.73016 230.57033 284.30991 324.37915 387.39584 475.25501 487.19019 493.88303 466.74312 415.45519 397.75518 377.25410 378.20375 345.76375 297.84942 283.54408 212.50209 135.04359 129.08353 176.84869 240.73069 322.58305 326.47171 332.81810 398.88389 427.91494 436.77122 343.13664 264.80439 252.92265 267.81137 355.73803 435.74638 483.86137 587.07520 659.31715 740.86200 729.44589 671.34009 581.82121 557.00463 473.56337 468.34818 506.46713 534.22481 535.86457 509.20207 407.62049 394.41238 357.56254 331.15246 283.68052 235.12601 188.30180 208.55677 229.80838 245.50958 223.90817 198.98616 199.64315 187.27223 180.12352 179.09617 188.77374 198.20451 212.17519 203.72777 194.43036 241.63126 313.44749 367.54663 389.81278 446.13253 473.29925 440.24709 407.76811 367.83147 361.76719 395.85510 389.27244 456.91968 404.11028 407.21045 443.89733 454.59882 480.26792 417.77492 377.40578 280.40006 251.21195 208.92825
-517.89588 -458.87227 -416.29465 -396.54362 -354.08800 -310.68968 -288.92476 -267.87773 -242.29203 -208.63730 -195.69364 -194.41429 -186.47651 -177.46934 -173.02640 -172.56082 -170.97691 -170.49928 -169.23298 -167.81192 -167.50987 -167.41434 -167.59382 -163.57589 -162.22648 -160.28837 -157.22724 -155.15081 -152.68892 -151.58307 -148.94742 -148.73170 -149.24798 -150.07068 -149.28153 -149.31187 -149.95734 -151.24380 -149.51248 -143.82488 -138.25713 -141.07370 -138.97095 -134.17263 -129.09131 -128.22374 -126.57509 -127.79079 -125.81688 -120.62439 -112.02896 -110.15258 -105.91505 -103.11888 -100.74879 -101.25639 -106.48072 -111.15663 -112.35388 -109.63173 -105.34915 -100.38734 -96.49716 -96.10789 -102.17127 -108.41677 -112.39415 -118.20229 -118.43614 -121.27158 -118.34620 -122.71790 -101.77266 -103.52978 -102.96553 -102.67685 -107.27949 -102.80354 -97.17526 -89.61473 -85.89729 -84.79200 -98.29885 -109.82675 -111.30673 -85.11766 -43.68320 -29.68622 -26.69067 -12.63778 5.10040 15.06216 6.70056 -17.57345 -34.51980 -73.21101 -87.16815 -85.71297 -73.09213 -41.65867 -20.58653 -16.44928 19.99642 54.90622 46.49338 57.32966 61.54988 83.52866 102.22072 114.19601 97.07914 89.46743 87.98460 97.84203 94.50984 97.56215 81.45751 57.93890 6.17379 -19.64127 -14.00952 -22.63248 -33.92357 -41.04687 -61.50948 -42.04986 -22.10593 -10.59970 -6.52605 -12.26801 -29.10147 -33.29797 -25.00916 -14.08096 7.09197 -12.85410 -16.62650 -30.70062 -5.36462 7.57133 47.40788 59.84364 45.12754 11.46743 -15.19044 -17.50777 -9.32714 -16.63791 -9.18607 -6.81239 5.98533 15.12844 43.17401 42.75836 61.96675 58.46994 69.46529 85.92331 115.32584 133.76542 175.20428 179.09526 190.96551 208.27921 239.15794 304.82770 349.25691 355.48068 330.62800 304.24720 285.34089 342.31942 367.23810 395.07049 365.54440 383.88330 418.53154 438.48632 459.70603 463.86317 366.27240 345.56122 367.70212 427.50546 513.36481 579.41418 614.10347 602.61491 552.19341 534.02829 527.35919 468.15480 362.32395 342.21939 287.24149 282.95580 278.68702 226.32186 171.20058 165.54223 221.90509 274.90351 279.97486 282.78508 323.49880 420.34998 420.30842 449.82644 423.05642 355.18948 339.88484 332.23908 363.72178 342.88408 316.46595 257.34719 164.84958 122.72596 129.27735 155.68388 272.02907 277.95316 284.21529 325.22018 362.99511 350.11362 304.15267 236.05222 241.77744 268.66676 373.13036 467.53078 534.60212 605.34652 658.81879 713.40820 731.77626 689.41658 575.11090 491.17731 345.76489 350.22732 405.44637 503.50598 506.67178 458.88780 434.21493 429.29139 403.19821 382.72469 319.93890 248.12356 189.28932 169.77104 196.86205 200.44206 183.59913 180.26785 165.82394 174.42874 173.73427 163.73360 162.15613 181.93227 187.99462 189.32156 193.80052 246.69457 362.82817 372.76604 418.36274 451.50937 444.73223 387.65703 348.02779 329.00138 333.83726 353.80446 337.58757 322.79950 354.59148 405.81290 438.37530 443.59360 441.56480 429.26129 288.89531 278.10192 243.96225 227.88414
-477.10446 -458.36151 -414.72944 -377.78034 -358.18198 -294.68828 -289.51989 -274.79652 -254.48583 -235.25351 -197.77168 -193.98604 -185.58626 -179.31682 -175.85553 -172.29802 -172.29131 -171.15226 -170.31032 -169.89465 -168.90138 -168.17464 -167.68123 -163.82363 -162.92032 -159.55148 -156.98517 -154.03519 -153.02944 -151.31242 -151.54224 -150.81525 -150.96496 -150.44902 -148.38829 -147.13437 -146.91500 -149.90505 -151.18293 -146.67347 -143.44574 -141.14600 -140.64552 -137.29362 -131.87234 -129.92605 -126.25297 -126.47153 -125.31789 -117.95658 -109.46043 -104.32105 -103.65711 -101.23351 -99.82218 -98.12044 -101.67251 -106.66387 -109.24275 -103.99256 -102.70594 -97.72575 -97.54237 -101.13821 -104.17609 -112.88226 -113.17388 -116.96103 -110.08831 -102.23113 -107.21107 -103.60212 -103.14699 -94.34969 -105.64896 -104.73428 -99.43696 -93.88939 -92.05190 -92.41760 -92.29195 -92.42474 -101.41081 -105.67668 -107.28694 -84.15928 -68.04960 -56.19445 -36.28056 -17.29366 -0.49717 8.07184 -0.41669 -17.26537 -38.77286 -73.46975 -94.91044 -86.58231 -67.93200 -33.70698 -20.58889 -9.87920 7.89933 25.09212 34.47102 36.79608 51.27843 85.54242 107.16601 122.16881 128.56241 111.07683 109.64108 121.38058 95.19690 92.85349 46.94076 34.78826 -0.14078 -0.54037 6.97680 -6.79066 -13.82153 -26.70187 -39.34259 -34.36870 -38.49286 -24.96258 -31.89980 -30.74106 -36.04898 -27.39382 -10.84826 27.76724 22.17839 33.26284 8.65606 -4.09492 12.67476 43.81406 76.89318 70.45675 59.37123 36.29842 -11.71997 -22.49952 -33.22623 -6.25810 18.13658 17.35964 2.68818 2.29036 25.54774 43.39574 59.66023 52.50499 49.89194 52.43103 68.57425 89.09407 126.10458 126.40900 160.08742 192.16059 249.51750 308.16457 334.97787 330.87219 287.28775 257.41958 257.99584 311.67719 327.02234 326.26265 328.05550 320.25119 335.11440 379.33421 395.00921 387.49566 320.83259 306.93839 350.74343 414.09466 510.63847 559.83170 575.02775 595.45975 567.53758 494.42832 509.46126 439.44485 367.48290 345.52241 340.96827 340.83202 327.54968 258.95249 192.70143 171.22174 180.85744 210.78601 214.19542 223.65400 238.69427 304.67777 368.65703 445.00850 393.28638 333.84457 295.63439 318.72003 330.26149 333.02845 303.49198 300.28088 227.84056 83.63312 96.09863 105.29443 162.80210 222.86253 252.08054 301.82603 345.87833 325.89640 296.29589 224.49449 278.20800 369.33219 490.01783 511.31680 610.76402 635.38926 641.67339 754.56068 748.11469 629.88136 489.35644 452.95091 319.67280 281.99672 334.55003 438.48119 433.93922 427.98985 427.25578 426.66323 416.64187 363.35707 297.95405 226.90814 208.83168 184.04233 177.41966 159.98464 159.71458 158.66915 160.33789 154.85123 157.42875 159.77897 156.92244 157.51468 169.69705 192.36932 214.07029 262.49876 319.78192 364.75931 411.91915 451.84206 408.73306 339.35039 324.79330 308.52589 340.62532 370.26387 296.13268 263.36460 285.47880 327.88061 373.90686 386.11693 378.51509 285.14995 239.59292 231.69888 241.33793 227.83570
-511.47313 -447.27729 -425.65476 -379.46970 -352.97245 -305.75325 -287.26284 -276.96467 -254.07232 -216.64190 -193.65624 -187.39362 -185.37950 -179.48130 -173.81397 -173.84647 -172.70612 -172.53968 -171.72906 -170.26674 -168.81307 -168.10918 -165.87188 -164.09451 -161.70926 -158.75524 -155.26382 -154.02553 -153.81371 -153.19381 -153.16813 -152.75951 -153.59890 -150.22099 -148.23343 -146.83008 -147.50661 -148.30177 -148.35933 -144.51797 -139.75707 -139.90627 -138.15768 -136.10986 -132.92701 -130.86500 -126.89832 -123.93948 -123.81804 -107.96129 -102.24835 -102.26042 -97.29895 -96.75767 -95.50085 -94.76392 -97.29260 -98.57481 -109.26774 -110.09522 -107.04136 -108.74385 -105.91019 -102.99230 -108.37537 -115.59130 -118.59697 -109.89787 -99.40216 -92.06299 -86.03821 -95.42673 -83.35890 -90.89883 -94.16807 -92.10343 -86.46390 -84.58558 -87.23853 -79.78411 -71.78464 -87.23691 -95.05241 -105.97622 -107.42896 -104.01552 -84.60980 -71.64335 -53.49067 -24.16332 2.78200 7.67627 -0.50369 -20.63711 -52.83899 -86.19485 -94.70072 -99.72831 -76.53834 -61.71165 -32.26729 -24.72049 -26.26804 -19.14558 -4.03178 13.27116 48.91920 100.27546 101.52356 130.65561 140.10020 124.75530 105.41724 103.62039 79.66732 63.35089 37.67681 21.70976 30.50428 15.27531 44.39721 35.16087 19.49591 -20.47932 -26.63319 -41.79314 -36.72619 -52.65105 -46.29271 -41.51062 -35.73832 -16.04402 -2.78107 36.16189 37.51742 56.33202 56.65370 48.09660 50.86025 68.38082 103.56355 109.88975 82.23110 55.18610 5.10865 -4.12199 -20.37564 -3.59700 16.22607 43.03975 34.03248 9.34492 4.03576 16.94708 32.08877 27.57857 28.44390 30.33963 44.04364 78.56336 81.29454 112.49701 150.80015 193.41397 237.90311 267.76393 324.08078 321.24876 268.09477 228.95591 251.32970 283.27780 304.53949 262.24317 237.30258 241.07223 256.77879 331.58493 332.74306 324.65756 292.48642 290.14420 341.51572 375.75548 450.84621 531.40831 570.06401 606.75701 590.38002 537.80166 514.39848 450.27221 395.06323 355.04842 372.48180 400.94431 357.96908 280.35873 232.08618 207.88929 170.58881 144.91010 170.27121 206.11854 232.08823 245.43788 333.94649 408.53579 397.89653 331.59883 264.59561 250.31536 270.93831 295.64237 293.25805 276.86532 233.51365 128.54310 92.81527 104.94778 152.67671 214.82033 259.77627 293.09594 300.84817 308.13041 244.45269 219.30180 323.63322 363.37407 473.85452 548.93252 637.03719 672.05769 697.62185 705.94816 635.04216 592.97337 487.44818 378.33004 309.96144 237.73719 313.65300 385.50917 415.49299 413.53225 407.85962 404.39773 411.68284 383.41175 349.36000 282.07733 220.98826 208.90169 219.01800 211.05780 181.62505 158.13734 143.72250 143.47324 145.88693 146.72942 151.38960 155.24913 163.51639 185.52015 218.25818 265.21507 295.16815 365.76569 393.75881 402.72681 368.72074 297.53346 263.99000 308.18202 298.39477 294.72335 259.99686 219.19577 223.05551 276.01211 273.92060 289.67275 282.91510 232.44461 214.87095 226.17456 217.97129 201.38963
-531.28290 -451.81831 -407.89631 -390.61997 -348.00513 -316.61031 -288.83599 -273.88970 -251.79212 -212.41467 -186.02271 -181.96346 -178.00784 -178.04363 -174.62937 -174.16170 -173.78906 -173.05427 -172.87432 -170.60843 -168.61174 -168.03648 -165.85263 -162.61653 -161.48798 -158.60200 -157.26271 -156.95631 -155.78307 -155.78197 -155.80360 -156.48094 -155.47576 -153.05469 -151.21740 -146.18420 -146.35252 -146.12500 -144.74669 -142.39533 -139.59111 -138.50366 -137.64027 -134.86806 -131.98718 -128.88084 -127.01515 -122.85551 -115.13978 -105.35781 -102.55538 -96.57696 -94.36313 -85.75376 -82.93417 -83.08268 -88.89039 -100.39648 -106.80627 -120.99793 -122.03731 -131.61746 -124.55357 -121.49055 -120.58447 -122.85063 -118.64026 -111.40489 -97.17569 -88.98004 -78.78778 -66.37746 -67.35580 -71.48165 -76.78999 -86.27852 -74.98647 -67.26293 -62.78625 -66.67172 -59.41932 -72.32284 -92.83578 -109.09347 -111.20421 -106.43904 -99.43283 -80.39541 -51.68266 -24.04534 -4.43500 1.41127 -15.08884 -40.59919 -50.69563 -78.60694 -97.85561 -89.60074 -89.30139 -73.99933 -68.60636 -47.66479 -41.22884 -37.50149 -7.75621 5.36521 39.61759 79.03116 108.12385 133.68114 162.88902 133.73896 115.91802 87.01223 71.50951 38.32128 46.65248 50.08455 53.82548 49.75366 51.61845 49.73845 45.73817 23.56359 -9.13850 -25.20292 -30.19002 -37.76905 -39.62801 -33.71734 -24.01130 -18.95601 13.79037 24.92057 37.48643 60.85883 83.18181 71.62044 84.99961 103.89251 120.94676 131.32661 117.11685 84.96122 46.88563 12.02907 -6.82762 -8.35369 26.41501 45.24665 61.45893 43.58518 20.07018 6.90515 11.73575 4.64507 7.87577 15.78379 32.80105 45.04464 65.66435 76.16588 120.29281 174.75324 194.07659 251.65268 305.80011 300.30525 254.58611 198.08051 208.18456 239.72277 253.80466 258.31827 220.83216 224.83238 240.14456 289.65673 310.94335 271.77040 263.13685 284.67321 388.67049 403.89697 451.77827 532.02475 592.78032 635.17779 632.04541 582.80297 528.43370 461.21705 444.89660 433.28708 430.08421 434.60965 383.04999 352.59243 268.30239 262.01720 196.15688 150.38348 139.25079 152.47611 180.12741 242.48686 328.23181 390.31748 401.22039 374.15427 298.87122 244.20241 182.77069 203.56445 221.32223 235.81800 156.17778 118.07781 73.02750 135.77999 163.91494 228.72932 253.16963 288.68328 282.47702 251.31865 223.58603 231.49657 245.63895 376.33421 449.24253 502.26572 621.70742 676.46655 688.24972 662.81426 642.37731 496.18075 445.52842 337.14050 307.60899 208.05232 234.95183 310.28037 328.47048 348.04500 346.46860 384.15234 402.10169 419.40330 375.05591 350.40218 287.77887 270.29481 266.80433 243.44598 237.17758 180.42602 160.37020 131.24837 136.29179 135.36814 166.30449 183.08797 187.60940 197.21109 221.74986 253.75537 276.15972 325.69700 364.46080 386.62141 340.92327 314.74995 254.72246 236.21737 232.33885 229.75037 198.31981 211.34729 218.29563 224.99700 220.35562 222.75577 214.50695 217.21863 194.06327 174.10298 165.12614 166.99229
