167.36690 164.33144 159.92152 160.18647 161.07807 166.34598 176.02476 203.28966 223.11711 227.08807 229.52491 224.99159 250.25249 294.48764 387.09467 456.27210 544.04520 590.30376 614.57806 617.15426 572.91058 541.44538 531.82633 520.82561 535.73544 549.54154 582.49749 579.73492 572.52478 512.73496 445.26702 396.83774 426.87631 452.61480 476.41521 465.64682 506.72907 523.66357 553.53773 468.94256 374.57155 340.45755 296.09022 263.45574 282.56650 333.30375 344.65018 319.06801 350.07737 369.04627 421.53767 486.19623 526.56104 529.09026 504.80392 484.56473 430.81320 413.71281 397.66566 386.76310 406.53116 445.66531 483.76841 528.55634 578.17383 631.38568 667.86283 738.57228 743.02949 827.05108 863.86838 822.01063 864.79902 905.29145 909.66292 950.84214 982.80617 993.43154 996.32740 962.59636 934.99127 905.95832 846.56419 810.31767 772.74204 784.13266 820.01931 903.84732 945.06032 970.67927 950.50024 887.09717 839.82820 790.96619 776.30318 812.83413 830.56304 881.34819 852.38665 851.23509 851.03590 885.21049 940.34544 995.14259 1023.30013 1072.26655 1092.65051 1100.59841 1087.82190 1065.93876 1060.40336 1035.21135 1036.52121 1056.09989 1060.49619 1056.14671 1053.77231 1066.43464 1074.09765 1120.23779 1136.75546 1147.35465 1145.58515 1153.02288 1150.81424 1146.67989 1144.50099 1139.13060 1137.65487 1129.53563 1117.93417 1092.44282 1088.17078 1097.33936 1094.56415 1094.27521 1069.90421 1066.81393 1019.16020 997.26533 1004.57653 1035.55106 1050.57416 1088.01425 1096.19487 1082.18693 1080.52403 1091.37657 1107.43213 1084.08795 1079.55234 1068.77783 1048.34785 1026.70671 1021.30827 1013.64807 1017.00500 1021.85287 1031.55773 1033.75685 1040.44806 1043.25163 1050.05183 1050.35972 1044.78227 1053.45943 1074.17131 1114.81724 1138.02968 1165.70405 1147.44666 1138.00308 1088.98970 1067.45978 1029.88002 976.37256 1004.24600 959.34447 942.58121 935.26790 916.31323 780.71031 707.70760 546.32244 403.77296 352.58567 279.93567 288.17269 289.54718 250.05102 261.33229 252.06616 241.50913 234.68815 244.67584 240.61865 230.75976 220.07989 179.04231 135.53285 142.98018 152.66704 193.28914 216.73155 223.58544 220.98088 212.97982 206.50704 188.75985 174.11820 148.17271 125.70220 125.78916 152.19192 167.91536 167.67810 173.74433 172.13642 160.08547 151.73417 145.15391 129.89295 121.12459 99.47650 121.82859 141.26966 146.03896 150.47534 162.64724 172.48282 185.27829 188.29197 190.34591 191.41976 193.94414 194.34787 196.19185 195.95227 198.42974 200.35224 215.51812 227.34091 232.98612 250.54529 268.01066 300.74043 335.43001 366.74993 374.83431 398.38985 413.89729 420.27553 419.70665 408.64154 431.02707 488.14721 514.07327 518.17047 533.23375 534.23730 539.42749 516.73552 485.65272 439.23471 431.13666 425.99579 433.59281 408.05585 329.63989 300.49819 298.30436 339.12208 371.73335 378.39690 368.13188 376.91462 432.87775 435.20993 433.28282 395.36587 408.20999 434.94172 460.65272 450.75699 448.87870 478.81968 521.70217 513.88035 505.55058 499.18165
176.10495 165.73057 165.71350 162.12600 165.75254 168.69497 176.10076 214.75632 245.61219 252.52299 272.04535 271.27305 290.55585 315.87870 397.58900 475.23691 542.10823 550.19188 588.76247 621.44459 611.34163 591.78614 619.84690 550.66027 574.67727 584.45999 607.29008 594.37575 580.80694 526.69115 469.29602 360.88393 369.57980 432.49006 451.50557 440.22872 468.74241 477.53052 482.80310 461.76125 379.72849 315.78846 286.65570 264.29853 267.92881 296.81885 308.20695 303.95496 341.07766 397.53506 422.40781 478.39781 503.21241 499.94030 484.53925 433.33182 407.70610 370.81994 364.57251 365.34031 416.89616 447.86058 485.77665 522.21904 555.06906 607.84748 640.21461 694.47585 766.28030 834.39471 874.03485 877.36593 907.31155 919.26826 943.33225 949.99912 962.25291 997.35017 998.48015 991.07040 948.20900 930.00055 889.51353 822.96014 765.60443 768.68755 768.01436 825.57186 852.52095 926.61943 923.96864 868.79507 806.75568 734.19099 702.30941 720.90586 786.01825 791.71998 780.60371 782.02112 808.20714 830.80271 912.44869 963.17001 1016.32651 1075.97761 1085.20238 1094.49015 1085.75493 1090.25939 1062.58129 1049.67315 1053.13419 1064.23911 1077.99885 1059.41105 1086.18117 1089.23417 1108.68766 1139.85616 1156.67079 1155.82499 1156.95996 1154.58035 1151.73116 1147.72065 1144.86073 1143.68995 1140.03986 1123.18489 1110.45016 1111.36306 1119.59088 1124.85384 1120.34701 1104.11084 1095.85889 1076.20587 1024.93458 993.78345 1018.06657 1047.23924 1090.53601 1118.68050 1115.79334 1126.52118 1149.80968 1132.59086 1130.90600 1112.28270 1094.79217 1080.58378 1046.77918 1036.36618 1027.78271 1021.95544 1019.88157 1022.41193 1028.98275 1037.42502 1039.58315 1038.51696 1041.11752 1041.23706 1040.65516 1038.62151 1036.50789 1080.09943 1118.28528 1133.42436 1160.47950 1121.61784 1088.01739 1058.31572 992.25244 936.34726 911.42435 897.25576 892.74267 899.45415 907.90980 791.66778 703.02712 555.41881 492.29713 346.23571 279.46366 247.65521 218.95674 227.64405 226.52344 217.16647 224.78782 245.46023 251.92971 251.14476 238.92848 231.20721 192.81941 124.83295 138.81705 150.92032 191.97542 214.17172 220.21651 221.97651 209.83507 187.49588 171.09655 159.98800 134.37592 109.63119 117.81359 156.80858 161.13644 168.57756 167.25905 166.36388 157.05283 146.39111 143.95086 124.27970 108.30558 106.64246 119.68110 143.24116 151.66884 149.51057 157.97961 165.74597 177.78734 182.88971 183.59802 188.04200 187.36033 187.84943 190.16827 190.90395 198.54159 208.32688 214.78321 228.70396 231.11327 255.73493 277.48041 300.33244 321.73258 364.14760 391.76067 397.83563 417.57895 410.91277 427.29235 409.67968 429.08242 491.70070 521.62340 522.34472 527.01446 528.58429 521.41061 497.28597 443.32202 412.45190 372.35179 372.92082 377.65999 402.74829 344.74845 282.80496 277.90734 302.56520 319.29113 326.10635 318.29176 352.10926 354.37238 407.48716 378.47453 383.34508 379.83375 388.58068 387.31353 372.98054 363.32143 410.33834 479.96451 486.38159 467.50461 472.93260
180.73630 173.33351 173.80790 171.31298 166.20679 168.94595 184.06208 223.40328 254.76766 288.17992 301.40858 333.14248 347.59886 374.71415 416.61239 448.22339 479.07805 515.70168 531.71374 575.10939 647.54849 676.41251 688.09853 628.35950 604.98396 606.28484 601.78387 598.98289 598.92877 570.94101 478.15649 371.28828 356.65088 373.31514 404.79590 388.42731 409.69141 416.54824 405.69828 410.69142 358.33323 296.86426 269.73457 280.72684 294.11207 298.92089 280.10080 299.17570 344.63591 365.40343 422.31266 457.38072 483.37176 448.42582 431.51701 387.32734 374.50895 350.25971 361.41910 392.49159 397.38644 440.03284 457.73685 485.02939 518.88664 526.73783 618.12955 662.65239 750.64335 802.17300 878.83413 871.47558 896.72638 929.87285 945.21294 925.52014 945.29591 980.43554 1001.32722 990.08015 965.65159 957.04319 926.05092 851.45930 806.64692 737.47622 742.20436 733.53211 798.73598 833.40543 836.39133 824.63016 729.45826 688.35310 675.13017 707.66069 727.60274 737.88332 728.53340 748.74427 764.37146 847.50223 915.31819 962.13661 975.65249 1024.99073 1076.42308 1092.90461 1098.84314 1102.03097 1099.62537 1075.09719 1066.16134 1098.31163 1112.55727 1117.81773 1121.50896 1107.56670 1121.87613 1140.77028 1160.54633 1163.95998 1163.99564 1160.54719 1153.09160 1150.84511 1149.22281 1140.63350 1138.23429 1116.26833 1108.60595 1113.55043 1126.57143 1133.40034 1124.87910 1113.67645 1101.27384 1071.27558 1023.52424 1014.58707 1030.29458 1081.64142 1097.48676 1125.96728 1136.98233 1148.74829 1150.74722 1149.80809 1140.05995 1110.66915 1079.05221 1067.16505 1047.70569 1042.80252 1035.50404 1031.64009 1026.06180 1024.53936 1027.78843 1035.91915 1039.30356 1038.53926 1033.20516 1031.32405 1015.24200 1025.50003 1033.87051 1045.16509 1091.56350 1123.59127 1136.05480 1107.51274 1093.29500 1060.33865 978.62614 908.58486 875.95964 767.07732 785.28505 778.60201 846.72380 811.45685 712.18658 636.58201 491.65051 391.52131 289.51482 272.10224 234.30091 202.97773 187.70981 193.22876 209.84236 239.19296 255.87724 252.51598 226.67475 197.33516 153.98718 137.78365 133.88939 143.39883 183.92455 211.02307 216.85656 214.14381 193.98826 184.01802 164.61295 150.76569 117.78390 102.59338 114.39928 147.02971 153.70632 161.85480 165.31169 161.82526 155.89781 145.92228 141.62037 118.09784 99.07020 102.79814 124.63753 147.82594 156.91735 158.55097 161.52077 161.59384 166.10608 171.37954 176.71540 178.39207 179.52360 186.12301 187.35989 193.72556 201.89776 205.59259 216.35792 221.12251 223.97536 241.33516 264.42166 268.58224 302.83898 348.15303 397.71525 402.06769 375.97055 390.55804 383.60120 384.86474 430.68842 470.17544 494.73957 495.02056 501.13418 505.54834 496.03610 453.02454 395.24317 361.77920 344.22713 344.74675 372.52816 355.46609 346.56270 251.44644 262.70797 275.13064 277.63312 292.14706 297.19883 291.81078 299.34463 312.02953 336.23383 329.81449 320.80078 326.83613 322.11950 323.63977 344.65186 389.31308 428.32914 442.65843 434.28336 430.05668
187.33762 192.88422 185.03907 178.44317 174.56587 175.64374 201.50450 212.43345 234.43769 292.10639 335.93891 342.76943 369.30764 381.19029 385.06639 384.46974 440.23939 406.76445 477.35263 509.93309 608.86958 691.04856 741.65804 652.50849 585.80520 604.29327 604.34798 605.02948 588.62418 560.88674 472.94013 371.68368 313.89133 327.05174 340.98899 341.42704 351.45836 353.85522 343.75560 342.64555 268.35527 250.30991 272.04242 320.39870 336.19711 330.54217 305.52282 286.02378 337.04575 362.15137 379.11428 387.92835 399.78804 372.55309 344.42093 349.94180 363.58703 385.68040 395.29565 400.88088 426.43089 442.39916 450.27706 480.88477 524.90693 576.48182 609.98374 649.66814 745.11465 816.51543 872.04577 870.75133 867.84826 891.24292 899.82626 866.85246 873.52441 903.61674 891.31206 905.61541 916.18628 944.62213 917.94349 854.68061 802.37466 759.15387 729.34772 721.05104 758.89053 775.36766 752.81340 753.88739 695.73854 668.17488 650.99989 672.63205 706.62070 701.59312 711.44859 681.82164 723.83350 839.27033 916.03617 918.44655 941.34459 996.29634 1027.71881 1084.45368 1106.71156 1126.80869 1103.64265 1108.40422 1085.53234 1109.96028 1137.52967 1143.65520 1131.19043 1123.64344 1126.22529 1164.01957 1173.30019 1174.82530 1170.12923 1165.30169 1152.91989 1152.80578 1153.12775 1139.92584 1129.57816 1118.69714 1123.52786 1124.39828 1139.05072 1136.50953 1116.58431 1105.75168 1082.11803 1057.00469 1025.06370 1019.85999 1058.94485 1085.98687 1113.04444 1146.30682 1153.97460 1148.87207 1150.57159 1148.80110 1117.49194 1061.24298 1059.56559 1055.19268 1049.56538 1039.70957 1037.79112 1037.06398 1027.04920 1027.39290 1028.98800 1036.20894 1038.65348 1035.56453 1031.76064 1013.13131 1000.77475 991.19777 1004.45103 1029.63374 1037.62549 1094.97852 1130.81056 1090.27544 1074.22348 1073.92040 998.01250 967.43087 818.70155 706.66525 675.98381 658.45471 715.10590 754.21200 647.62045 619.17578 517.90099 400.94362 332.99814 296.76847 266.50745 195.40635 189.15795 184.43456 196.13562 202.23784 238.90599 230.28264 216.43466 179.08248 151.62735 120.73681 131.34989 158.88504 173.82156 206.66632 202.38930 198.83663 192.04718 175.94612 159.35820 148.45404 117.89645 89.69584 112.88719 141.51017 143.61235 149.31146 156.30625 148.47315 145.62423 146.00983 126.43391 95.18058 94.25063 108.09923 126.14169 153.67303 163.47999 169.01842 178.08993 170.53665 164.09074 166.51986 168.61056 172.84653 175.08401 180.17457 193.29940 197.77462 205.83553 208.38054 212.68895 219.41477 219.19118 230.76631 235.51214 257.76250 271.86440 323.93840 351.31946 383.02119 368.81208 354.13255 357.54693 366.96638 386.61782 443.89984 474.47907 442.97458 446.64585 469.92980 440.76834 405.04963 368.35845 320.97905 311.25728 317.93067 324.00460 324.56730 282.23409 264.06659 242.51845 250.33285 258.08687 261.16287 262.53978 279.37999 282.38294 300.42004 301.69340 299.23734 299.56030 291.97018 274.61087 300.18113 312.93498 331.80274 379.92480 389.10578 384.19926 388.31552
195.19213 195.49440 196.31168 188.82642 184.67353 185.14366 201.59635 212.30235 233.99308 292.15426 314.11828 346.86392 368.43014 379.84698 386.95537 356.79981 364.37968 369.25110 386.88608 426.06415 538.04161 668.64037 658.63690 620.40770 535.32102 555.68433 573.50921 600.07856 584.41141 559.45931 476.59256 412.93568 330.07686 292.67555 300.24947 306.28229 324.60629 315.39618 287.55634 280.92268 261.60739 256.06282 288.20496 381.31679 397.90447 382.30043 327.93525 296.00229 308.50788 325.22823 317.54975 344.83241 340.68240 319.40118 323.47443 384.73651 405.59819 406.97317 407.32004 429.87889 443.85395 474.21562 508.31943 531.22312 587.80594 612.26479 633.22155 699.20566 772.11957 814.64352 896.17808 877.10604 857.03359 881.40296 795.74580 818.74495 789.81888 785.46717 810.00845 810.22918 872.56324 932.51528 890.82766 862.08411 802.12492 790.91048 720.96635 722.34021 729.38302 719.50037 718.04504 658.01966 656.28519 616.48108 615.77079 627.05572 629.94516 650.04550 660.94950 660.58915 726.96407 844.02224 879.25518 890.48769 890.30279 954.98799 1028.68372 1074.88396 1122.25048 1151.74386 1161.34964 1131.44114 1136.33599 1135.08690 1156.11195 1150.08227 1149.00333 1148.87925 1148.24362 1164.19864 1178.04838 1178.79805 1176.45989 1166.43231 1159.05281 1150.97747 1148.58943 1135.07071 1125.75559 1133.90045 1138.52227 1141.29337 1145.07821 1129.33757 1115.62404 1097.52320 1086.45419 1056.97809 1046.63754 1053.20319 1061.03522 1112.16841 1147.59720 1152.10125 1160.65748 1159.63437 1152.28113 1123.49174 1081.19219 1063.47179 1055.74848 1051.72743 1050.35536 1041.99125 1039.43708 1037.54269 1033.39846 1032.28376 1033.28386 1036.88487 1039.62912 1034.06640 1029.00896 1008.80306 985.61930 973.57280 995.10581 1021.49539 1034.55417 1064.72243 1069.65780 1061.39323 1049.13986 1026.68923 955.53153 910.00460 764.72213 607.32967 477.88300 497.82227 559.66791 701.64208 643.08360 594.41507 459.73682 406.53472 336.42606 332.26659 288.92678 237.20576 185.31152 165.85750 187.33083 193.93685 175.54302 193.74519 175.82966 149.61581 129.18504 128.87093 157.08859 166.28336 185.65895 189.51418 188.98986 188.00041 179.85498 169.94069 152.99799 145.08796 119.74670 99.40165 112.78721 131.18859 123.49698 124.62161 115.53298 122.37032 136.66220 125.17261 109.85714 89.61305 90.67386 124.68701 139.47479 153.07050 178.39660 187.33598 182.43610 176.51635 173.75053 168.61414 170.95244 175.66582 176.14720 180.95606 190.56944 195.27856 202.38084 207.71891 209.09034 205.81503 211.26390 234.15998 244.65950 255.85938 285.33631 298.64372 347.43797 358.12080 349.93081 314.00845 301.20885 367.34755 394.06934 408.85179 404.82303 404.62554 403.05610 405.92665 387.74204 354.26209 302.90112 286.82058 284.15966 308.50698 304.08685 286.10567 253.02927 238.48384 234.36626 249.29698 248.36240 244.25386 249.92223 256.83868 278.96405 277.88349 288.16268 266.62436 252.41500 263.90459 268.14387 275.11143 289.30777 299.40407 284.15164 307.24511 311.30289 311.49853
206.89677 204.03753 196.74497 192.78443 186.59314 185.25180 191.14244 225.32762 243.76892 269.40243 304.79184 341.99351 362.91995 345.57531 346.75438 328.05982 308.98447 304.84353 334.26407 427.67105 505.96375 618.72055 627.31668 538.87785 522.87263 509.76963 541.21165 555.82522 592.93883 590.76715 529.74981 428.49215 379.29733 339.95777 299.01526 259.68250 275.13420 257.30171 241.00808 238.08990 276.55575 277.18389 341.79406 411.92350 439.12821 439.61296 387.44901 306.19136 301.97386 310.52553 322.75943 318.20481 312.67078 321.50510 325.58714 391.40851 444.99782 438.49199 432.40858 471.26342 487.38314 491.28961 522.13336 626.09752 651.52199 681.23333 691.39480 740.87302 818.83261 866.46876 902.74421 913.09931 877.65959 793.73444 706.73984 703.76179 711.52598 696.02106 730.48016 796.68066 827.16884 868.30758 892.84051 800.94967 791.45602 753.24052 714.70744 669.89583 684.12158 661.79499 656.41858 620.04381 631.74416 607.83567 608.20374 598.95486 612.90459 625.53697 625.06416 642.47271 699.30780 750.81651 804.68063 814.12985 932.25137 960.39842 1053.28893 1116.67898 1146.97160 1174.19753 1172.99399 1184.01354 1186.73623 1165.67295 1161.79483 1165.15274 1167.54722 1170.87107 1168.53727 1174.55231 1183.54606 1178.33281 1173.87053 1164.98684 1155.20018 1147.52952 1142.82797 1133.18166 1136.40122 1145.01426 1155.76940 1154.41848 1145.73707 1133.45617 1109.76449 1099.40573 1089.29222 1074.02699 1084.33759 1084.14315 1101.32152 1132.30926 1147.42620 1158.65032 1182.25615 1162.23775 1147.86634 1104.92193 1083.25123 1062.65667 1052.27612 1049.96303 1044.18333 1039.50032 1039.29706 1037.82279 1036.82612 1033.83125 1037.02354 1039.52298 1040.42259 1036.27306 1030.96705 1009.03931 991.89419 974.16394 921.99035 944.47480 974.12412 972.11830 1004.70869 1012.71151 948.99327 808.22599 789.75083 770.93527 731.94431 558.40538 454.01863 450.57393 481.40135 529.47790 476.40186 391.69861 392.45195 365.46022 337.34698 324.97054 282.56158 226.66943 185.70340 162.76278 173.94725 183.96069 170.21041 160.65531 150.74516 131.93389 125.19121 136.01449 168.41372 177.44747 191.60727 183.05701 181.70346 178.59434 177.41344 153.03877 147.15355 144.62268 114.54141 83.10029 90.16701 92.78323 106.25516 81.35946 98.15433 92.80216 116.39661 106.57287 90.70648 100.63363 105.75476 122.13199 147.35352 156.34699 177.63709 187.78862 190.70118 187.96131 181.08009 178.45635 182.60999 184.19086 183.06717 182.96828 188.03584 194.85925 202.76204 206.49548 202.86296 197.63465 200.91302 226.13484 247.13844 264.83932 286.41130 302.64917 301.27894 288.21992 272.92179 259.34513 257.39230 288.15519 345.06351 373.86555 358.05691 353.80258 364.00535 332.32078 326.38708 281.26627 276.40132 247.13279 267.06788 278.57179 271.19935 259.82706 237.06749 222.92338 217.53001 222.46995 223.44588 224.18304 229.62732 257.32577 264.17890 263.62346 253.21253 247.85930 247.23304 250.10473 254.17240 258.36582 272.51326 276.47233 283.15788 281.48206 281.39803 280.30382
212.92268 206.45871 199.24147 194.69186 196.35792 193.97445 209.85864 217.09284 238.91856 274.11837 306.90288 326.14867 335.28479 318.76600 273.17844 265.10234 271.94811 290.12195 327.58008 384.90560 485.93668 515.55270 543.14243 432.65423 427.39605 429.60524 529.53631 587.31357 638.34792 657.10321 552.00886 495.06885 447.15071 375.86991 320.80704 276.62174 241.87740 240.60908 233.91927 263.44904 299.81176 312.58426 380.75323 422.22277 448.37418 457.95692 402.42624 355.17648 332.41413 331.69501 332.99038 331.82805 315.96902 351.42387 354.29608 403.94624 444.98700 452.14002 474.68384 487.85845 521.95718 545.78044 554.11749 688.88413 734.50753 754.75339 757.84793 805.48302 825.42608 868.67964 906.09557 897.43159 824.72014 760.63937 642.39516 649.13360 635.73588 655.29287 704.82704 749.43283 771.66245 839.78171 809.56102 789.43065 748.20745 731.49887 675.72793 652.72633 647.32200 674.55125 687.84336 723.06896 662.39801 649.15316 633.28202 619.78559 601.28530 591.29806 600.72708 614.56812 636.01417 694.52097 748.98829 821.87847 917.25728 959.71367 1053.85582 1146.69670 1155.66849 1180.33072 1192.18874 1192.60615 1192.35129 1181.21713 1179.20123 1182.01276 1191.07442 1182.33422 1183.49450 1182.13956 1186.47368 1179.79858 1166.34519 1158.25316 1153.83414 1144.55712 1142.45528 1142.52027 1150.71882 1162.10022 1169.03884 1167.80382 1160.30284 1139.18474 1121.57972 1109.71176 1106.92700 1093.92477 1092.23986 1099.17732 1122.77450 1136.75334 1161.11905 1172.42383 1175.70893 1169.72669 1101.92062 1093.24604 1066.57768 1060.33309 1049.88456 1042.76818 1043.40908 1039.83502 1038.90252 1038.84345 1038.02187 1037.21835 1037.60067 1040.58836 1041.26306 1042.27058 1034.62306 1013.16081 1001.89066 996.19346 897.61483 868.65074 902.60076 958.31154 970.41028 941.31717 852.58120 738.98354 697.88726 684.74464 545.35187 530.30625 401.41537 348.27338 428.58458 444.32663 418.57111 289.53359 289.29878 289.93035 288.92352 293.23484 267.28053 252.07151 186.42294 146.91472 166.73643 169.47921 141.97155 134.17535 109.90032 117.79169 125.98810 144.72907 171.42776 173.68288 178.01210 178.67730 170.69073 167.98620 155.41107 139.09586 134.55328 135.17101 104.76504 61.74621 66.78812 65.66572 63.31575 69.89180 62.16009 92.13050 100.17339 73.61516 83.25616 97.67690 117.27005 147.67938 147.66232 169.51261 185.35804 191.26357 193.82089 190.41679 186.01314 182.66544 184.99106 186.16783 186.71639 186.84203 191.12452 196.79696 204.49763 206.33355 201.01142 191.41762 200.34579 219.24263 241.79664 234.56420 222.61103 253.31732 237.70090 207.55157 225.35854 242.28179 227.23298 279.39138 299.72385 318.49552 293.63762 287.04709 277.74767 257.94708 260.59684 250.95179 229.06255 247.08323 250.67121 266.06743 250.07242 247.52308 228.10660 209.74381 196.13783 201.77118 202.67577 209.20553 225.43995 235.91714 242.54105 240.49840 237.61246 237.78261 237.99272 241.02199 245.54480 256.64873 271.29334 276.23998 278.55383 274.24563 268.15424 267.66483
219.47199 215.51540 207.51402 201.98491 200.24338 201.59507 220.31697 220.45011 241.75921 262.39505 289.64404 319.60202 301.41311 244.84886 225.56441 250.40048 266.30838 297.36286 300.05078 360.83029 432.24378 453.90372 436.75217 323.09412 329.25841 424.39933 464.51322 491.63896 645.49307 660.61649 617.86634 551.34482 475.05783 417.08994 327.55367 285.26245 227.45429 223.08579 259.55911 290.49847 335.97262 369.11843 408.46699 460.70582 464.05731 464.47411 415.69211 401.23884 371.87446 385.08654 416.63998 477.17793 458.64937 429.18635 377.52437 375.37038 424.74614 461.44776 499.17907 519.40965 558.87489 575.92532 649.38742 702.61949 762.08732 774.45696 833.96072 832.75697 860.40249 873.54060 896.33331 873.66288 815.90458 696.72955 632.48921 627.41578 597.42171 647.04534 677.58394 732.24458 784.39473 819.09098 831.47958 782.44907 749.94731 737.67165 699.26825 688.26535 683.80797 754.85098 783.57302 800.16335 738.80702 706.51302 696.85383 643.14903 615.86090 582.59344 591.82900 607.14995 629.43101 689.40250 724.95754 829.56771 951.70763 1024.38262 1102.95293 1144.29036 1178.80095 1179.83970 1196.42274 1206.96651 1213.41004 1202.23949 1202.27964 1203.08653 1198.59908 1198.76771 1196.51067 1191.48522 1189.14052 1179.36257 1174.89846 1166.77161 1160.24847 1146.63537 1146.04231 1151.51647 1163.99914 1169.14674 1175.26140 1169.99138 1162.82819 1143.46107 1143.40276 1140.39713 1127.43808 1112.44943 1107.48817 1112.90910 1135.96708 1143.76130 1166.52151 1180.53024 1182.83572 1146.05060 1090.44036 1073.37206 1063.61329 1049.86328 1048.04595 1042.43167 1041.54661 1039.96740 1039.64024 1039.72174 1040.54166 1039.18892 1042.83683 1041.97344 1045.84279 1048.99632 1048.00822 1035.28169 1031.15860 970.28539 921.04947 775.52284 760.74927 809.02462 855.48142 898.56451 725.60348 699.77678 687.69323 551.89064 461.23284 374.18379 357.27236 290.33631 349.91093 358.16595 309.86935 288.89659 238.11929 228.79428 236.44166 245.07084 246.28559 231.79936 183.05373 163.09244 167.99382 123.34396 103.17500 90.16142 112.26932 110.69909 130.64193 148.91144 165.58932 164.06231 161.73413 172.25457 166.77323 143.37578 139.76127 128.96305 121.27019 123.79851 78.16372 60.34599 69.44749 71.93599 91.47082 85.13871 89.39418 98.69975 93.75420 97.00558 103.70645 130.64367 147.08200 153.80738 166.78913 173.94533 189.72009 195.46431 197.54687 197.34852 196.14116 188.23900 189.27338 191.24308 192.14262 189.81963 190.76683 196.13635 199.76504 202.79883 199.09183 196.38992 177.88518 178.04021 207.92309 215.69686 209.48177 168.46633 158.75974 155.80981 156.51062 181.54878 209.53959 249.61148 280.45686 261.55978 252.06322 228.42320 221.20717 179.12567 181.79693 206.31031 232.63801 242.88386 249.25687 251.80753 246.67685 241.47976 209.26609 199.77897 191.80739 202.20387 210.68081 208.94859 212.75891 220.81311 230.09782 222.79012 228.71034 234.17636 233.94063 241.14913 242.68674 247.23781 248.69233 262.52248 266.55751 264.01565 260.69444 260.81967
240.21892 235.50835 225.40392 218.10018 223.50132 227.86947 234.39569 245.12312 250.55210 251.60532 276.13421 293.48343 274.55419 242.91483 218.43881 219.03318 271.44547 282.50806 291.31960 336.83503 366.62376 357.91754 307.16207 299.83021 317.11412 350.39415 408.83080 433.62828 516.61739 656.93123 660.07506 572.44673 524.84132 428.39334 322.76760 269.39886 242.71326 248.66757 273.08325 328.37622 351.97256 385.97588 437.73066 457.24721 455.07938 442.39642 456.55970 438.28422 443.38872 463.72067 492.84072 530.22991 529.89983 476.91543 417.64709 378.40113 392.15083 420.68251 472.44084 512.50844 558.19730 593.28779 660.42363 703.47081 760.27569 818.72222 851.04340 856.69862 882.24345 887.04226 884.52091 832.98850 746.79084 714.81924 626.26365 582.20323 601.67049 634.90765 715.45177 753.17132 802.63734 853.14650 841.01283 823.37670 810.07377 759.84250 755.67696 762.51622 776.42309 779.35375 830.49674 818.09338 803.11300 767.58033 719.13189 677.68559 620.04095 580.87326 588.59430 595.26367 615.25231 699.44532 774.45239 859.04428 959.12159 1067.86454 1150.66785 1175.09780 1160.00628 1189.00169 1188.69597 1206.51871 1206.13564 1214.38660 1222.85648 1217.11776 1211.83294 1209.66916 1195.67790 1189.75981 1186.44326 1182.72131 1180.18243 1177.26060 1164.99875 1161.49337 1163.14428 1170.48828 1172.66672 1178.53524 1182.15903 1169.62206 1160.29031 1152.93150 1159.80391 1152.33117 1135.24160 1128.13117 1119.76973 1133.76964 1146.11882 1167.58319 1174.70477 1178.23957 1176.70445 1115.04012 1073.51658 1072.88275 1056.89681 1047.05723 1042.79049 1042.22732 1041.45752 1040.24889 1040.46531 1041.64547 1042.15952 1044.79875 1046.05628 1048.70694 1053.82365 1056.56739 1058.59306 1053.24792 1028.46903 987.26216 922.66838 883.55223 647.56752 676.03851 765.49488 782.13879 693.34393 654.70943 637.93024 474.89618 264.53562 304.21873 246.85126 259.25092 303.43522 305.96102 271.90017 231.01192 216.38266 191.82944 197.61060 206.79840 215.22438 209.99819 188.11401 157.63880 142.05288 111.38762 88.39846 94.82589 99.68583 135.15883 150.59199 159.81073 164.09668 165.37032 160.91274 147.89987 138.77604 130.88826 133.86138 110.64417 107.40354 87.53255 65.08491 64.22214 86.15706 111.28482 129.05929 124.65133 107.46107 109.79051 116.64104 116.44310 125.69220 154.24906 160.61598 173.93655 173.93505 185.34448 189.81937 197.87625 197.85098 197.65113 198.52076 196.81658 196.13080 197.26150 195.18729 192.61932 189.69758 190.09983 194.47100 198.39798 199.81806 188.68678 170.67305 162.23328 174.98319 190.69684 169.00681 148.19662 130.64918 115.62832 134.26841 133.14916 184.29321 208.93525 216.36517 183.20299 204.45081 187.27003 177.33623 170.79914 178.14459 208.30196 215.53575 228.15142 237.86342 237.04816 236.31705 217.66434 199.79399 190.94054 205.69995 222.01010 226.93920 231.13964 229.39054 236.92786 229.55344 225.08122 226.62434 236.53225 243.39011 245.67735 249.24080 249.30275 248.79689 253.54478 254.87664 256.56033 258.39236 260.25091
250.25714 247.52149 239.14975 243.24438 248.73834 263.68810 271.03975 261.89923 268.07277 260.35136 270.64169 265.69052 246.40488 228.14546 214.51145 218.19909 239.31604 277.42847 287.85963 306.97774 335.73511 341.60904 313.21865 277.98711 270.96538 285.59707 342.59661 375.51104 489.28915 570.36224 582.05027 578.62209 491.98134 415.63328 325.35597 303.08820 260.90894 283.42658 329.06196 372.55939 381.77474 426.10405 447.66190 446.72218 436.92013 430.01075 447.23191 456.84207 504.34776 507.98179 536.19867 564.31155 534.31260 486.89529 462.78520 401.27885 383.43452 404.46113 430.66087 473.28357 538.70223 559.52266 625.96535 648.56651 738.71028 795.01692 849.54292 869.78246 877.05858 865.04697 845.73807 787.87979 757.19778 682.28963 622.07212 558.76307 595.48623 650.30049 714.28037 754.63772 839.70341 864.90355 881.88223 877.77667 889.18863 868.96646 850.92367 841.90928 847.10554 829.43196 862.26604 879.40432 830.97112 781.74828 703.24328 661.54199 631.99506 583.86793 585.22506 591.73048 628.74577 778.70200 814.29625 919.53407 969.21412 1064.63152 1119.81676 1138.13711 1134.16464 1138.49390 1159.22083 1200.09795 1216.25040 1223.33081 1228.94373 1226.12339 1223.71692 1208.71973 1203.10028 1193.59328 1190.84031 1185.06126 1179.76010 1177.60092 1173.91541 1167.64530 1178.57964 1176.10621 1178.90694 1183.64646 1182.28067 1171.78892 1169.33524 1167.39064 1165.47523 1171.91818 1169.46435 1165.32050 1140.22454 1146.88876 1155.58371 1170.99273 1178.24370 1181.92122 1175.83461 1135.79656 1072.32649 1068.93223 1052.56770 1046.82614 1043.41449 1042.53485 1041.99571 1041.20891 1041.92292 1042.63615 1044.15290 1052.79650 1055.75311 1057.04773 1057.48322 1064.21893 1067.94293 1064.92656 1053.24981 984.80179 936.05309 772.09726 686.84152 541.66773 537.29768 547.78369 558.60017 621.09876 516.03126 347.43659 214.52174 221.40864 229.69221 258.14148 263.51127 250.09420 214.73942 201.88621 189.51361 169.98813 172.21144 175.39717 196.79201 191.17019 187.97277 167.29367 129.46694 109.31581 89.40840 79.86029 90.02268 116.08870 147.39915 154.87430 159.58643 162.76926 159.81577 148.49385 134.53147 116.90204 95.81024 71.02819 83.53320 60.66426 51.12379 72.20472 99.56232 129.12531 135.53632 132.94889 127.37960 129.61525 131.78200 148.71049 157.81413 162.91919 181.13718 183.92031 189.11783 185.35221 191.11538 195.42169 195.34954 196.68793 197.92747 200.11773 200.78294 201.13263 198.62593 192.61587 185.63342 178.80759 184.87136 185.80905 186.85134 181.14794 167.60682 152.18731 149.79660 151.13919 117.20039 113.34273 130.79631 147.67386 143.14548 125.18591 143.86174 171.52824 177.69129 171.19110 170.70722 167.40726 160.56075 151.33078 174.98959 201.14796 214.39599 221.24730 215.04896 211.20943 212.00100 205.05852 188.12423 195.61004 210.61220 246.12297 249.76458 255.39904 248.51055 251.77384 246.92643 250.81199 247.00771 250.88311 259.28590 261.89028 255.95462 252.52810 254.54740 255.55855 262.57528 261.58524 262.20843 258.93353
221.36349 228.01481 248.44910 252.79674 270.25594 278.21088 276.19359 262.47723 267.04695 253.56549 251.65445 252.61208 217.08507 204.35947 202.80795 209.70053 240.22953 252.14685 269.17446 269.55282 278.43050 285.88455 289.12436 277.75075 258.15403 269.68290 304.98389 380.54541 424.19049 536.19665 544.33602 498.58865 464.51492 382.80391 329.23952 251.18238 272.07429 323.96718 385.02183 392.52069 408.65072 432.40134 440.54673 443.41056 405.58147 409.76099 421.26253 443.28453 519.84669 535.54014 570.74502 585.29512 572.88947 516.38284 477.34148 415.92351 404.29107 399.18548 414.53641 453.10431 460.36986 514.44443 588.74373 613.53608 647.81798 755.17570 775.17184 848.39509 848.29173 834.39450 815.48680 740.02288 711.92199 650.40036 598.21487 547.69744 579.37278 642.17914 693.28604 776.81657 857.74653 869.14129 902.21033 922.50269 913.21977 906.70659 886.78976 880.49204 867.67114 862.00663 864.65631 855.31021 834.12464 756.14087 698.77005 654.13311 613.23079 583.77002 568.68258 616.34733 728.60140 767.29709 853.73688 834.93592 914.00353 1041.68790 1109.88085 1108.82623 1110.30819 1132.05935 1132.98064 1177.33679 1210.81861 1218.45257 1237.72826 1234.51284 1227.27753 1215.61444 1209.56544 1201.33748 1194.79158 1189.15031 1176.79707 1173.71402 1165.88363 1176.90809 1182.49488 1188.80369 1187.21177 1185.66682 1180.61212 1180.31144 1184.32969 1189.22405 1190.89095 1196.06024 1195.92245 1191.97826 1163.58215 1153.60387 1163.30290 1173.54762 1185.17938 1176.97936 1169.39699 1136.88230 1101.33481 1078.45471 1054.92834 1046.44540 1043.96512 1043.25781 1042.30121 1042.20067 1042.34180 1049.10509 1054.57822 1059.57934 1067.59344 1070.65495 1073.71797 1076.55070 1079.92821 1073.62512 1049.22700 1005.53109 907.52014 801.80029 720.38011 560.18861 438.85856 388.67593 419.97649 481.18706 463.40576 203.82827 200.62450 198.85444 226.60709 243.94486 242.68165 220.58331 207.40929 191.42451 176.96669 167.85844 156.05168 166.42185 155.88600 162.07481 154.14555 128.70307 117.77490 86.70545 82.33557 72.82213 61.37659 76.45176 122.98236 150.11701 153.57738 158.16150 157.53860 146.38645 140.24642 109.83404 77.78605 65.42026 57.78492 72.00755 67.00750 85.88440 99.57560 128.53111 144.13581 146.11360 144.57640 147.18064 148.93967 160.72383 169.95292 171.34659 188.14649 198.29518 196.26423 194.88969 191.75625 188.59801 188.97564 190.85106 197.65082 199.52192 200.95499 195.93544 192.89112 188.43383 170.20693 166.92305 165.56117 166.48416 171.06903 172.61493 149.02141 134.84381 107.79057 100.82754 105.18402 112.67860 173.39108 199.06576 200.60924 178.96257 153.56142 144.25951 156.26299 152.33168 161.77154 163.36940 184.81482 168.68631 168.09512 177.29754 180.13585 183.09980 190.14630 190.38457 187.88264 201.14974 192.20535 205.56942 231.31711 256.83439 265.27305 277.47462 273.88955 276.73609 265.79866 271.22191 254.56718 283.19056 277.05298 273.98198 270.54051 271.63681 271.40341 266.61654 264.85291 269.47470 268.72732 264.91453
184.72042 199.63576 231.99906 239.22177 270.59576 275.72547 275.88223 253.96505 249.03551 248.45664 238.80785 219.56068 213.60981 202.90234 199.00966 203.93322 217.82649 241.42249 245.28189 245.53409 237.70095 255.70532 252.62988 244.91488 244.89674 259.90774 304.46357 339.28769 371.89320 440.83766 453.62547 448.26279 402.16106 378.87790 295.74490 285.17295 305.56206 346.03445 391.48079 424.12378 421.33837 424.31639 403.45274 392.12407 381.28129 364.96633 379.12113 422.41486 461.44765 518.29614 563.57044 602.47542 571.70622 549.27277 492.32284 441.80225 406.41717 431.54047 454.13719 467.89267 471.98863 521.15110 505.21210 581.59708 642.05383 661.30812 736.31512 771.86084 800.76264 805.73612 806.57826 744.87795 684.76933 626.98274 566.72040 547.45619 565.44142 587.54415 623.79674 733.61389 826.95108 886.08443 901.30691 928.18058 939.79677 932.68935 925.99934 889.54528 854.70259 848.39274 800.60355 813.75175 763.99672 717.18022 679.00008 651.86053 612.03280 571.18657 592.95245 623.37768 701.98209 750.20760 830.84827 850.43201 846.25535 859.39892 969.33324 1015.93345 1086.53684 1088.77262 1110.09527 1117.45681 1207.52495 1217.13162 1226.83538 1234.15397 1231.38040 1221.85864 1213.72489 1207.60668 1202.77117 1194.11722 1180.28405 1175.14537 1175.22846 1178.79156 1193.25919 1195.30153 1193.32328 1183.21975 1181.76231 1183.51414 1186.35035 1197.53032 1206.65749 1213.93480 1215.85574 1217.29630 1202.38509 1157.94544 1168.07492 1174.18023 1179.00966 1172.62132 1163.45130 1132.88723 1120.41865 1090.47821 1059.89361 1054.51478 1045.31344 1043.44005 1044.54828 1043.41106 1045.97390 1050.78844 1060.19378 1061.23133 1071.49007 1077.53135 1083.02077 1089.28325 1079.59855 1074.36767 1043.76197 1007.72659 934.24582 778.13687 724.51247 684.92534 537.87996 399.12093 355.87198 307.10368 296.42777 199.11601 194.54207 201.07035 201.30465 205.54177 204.61609 190.91732 190.51415 185.34299 175.48516 165.38234 149.33280 144.78607 135.10306 134.26745 117.96573 112.49883 87.04180 84.25837 82.73360 64.42069 60.33597 70.32874 109.71052 124.38603 145.99510 154.48832 154.24396 150.82184 146.46410 107.82728 74.30205 55.88578 46.44426 69.44019 98.55146 120.53797 114.77194 128.77979 140.05246 150.96161 152.98867 158.57150 162.54055 162.16687 176.18975 183.76770 191.55398 202.75101 201.69227 197.32268 186.74113 183.07652 182.59182 188.14532 196.60248 197.82105 196.09201 192.62096 183.81634 171.41535 155.04877 148.18198 132.05518 137.84718 147.13740 129.95694 103.90106 102.49138 82.86828 99.98219 90.38794 117.55228 200.60376 258.76611 253.28923 231.27733 174.83514 152.16361 141.30955 160.99963 174.25522 194.39107 200.27067 185.86865 172.27742 167.20352 168.98449 172.21904 172.92590 175.65139 178.88355 189.90823 197.83414 224.26930 251.33058 266.87854 284.59104 287.74446 301.87852 315.70839 307.04109 281.27593 296.18385 300.39230 320.80145 303.58116 300.41890 301.58777 285.85875 275.52757 272.18659 278.38694 272.12730 265.59469
146.61798 147.75397 200.16477 229.16512 252.86179 255.28566 254.34866 241.17812 221.27195 223.35173 212.34485 210.47036 188.95538 201.00594 199.10665 205.96877 214.47199 225.63817 227.70319 225.41484 225.52646 226.14965 229.26394 231.44251 231.82493 259.46988 326.53804 325.86462 352.33183 301.40338 360.72252 358.67172 349.68224 299.73879 234.68520 208.72032 287.05445 328.76166 387.95520 403.06698 407.26793 390.82952 355.14460 363.20705 328.03775 358.55621 365.97208 386.26143 437.60739 502.25505 540.53856 570.29973 566.11537 531.14322 479.08683 447.79276 433.87393 452.45005 490.56832 526.82273 546.40377 561.26304 594.22792 590.73347 602.43890 656.21907 676.67695 769.35707 818.25833 807.90150 781.38076 739.93849 656.99080 598.11848 580.48645 538.86947 531.67649 558.83391 609.20293 711.36054 766.30298 840.06508 861.00233 935.82039 938.95698 939.22349 933.68665 880.77177 828.40875 777.71176 763.34903 736.48055 670.91946 670.30503 642.39301 624.63048 601.65115 569.51432 557.36571 599.77645 639.26695 704.05194 731.89613 728.12948 734.98758 784.07772 842.90016 959.92945 991.48360 1057.83177 1065.32213 1114.66500 1168.40052 1200.53943 1211.76284 1232.57383 1231.39275 1225.68391 1216.03567 1207.57241 1205.53735 1194.19390 1187.69531 1180.37513 1181.83787 1197.96671 1198.39980 1198.30216 1194.48823 1187.06801 1185.05484 1186.22528 1183.32072 1197.59797 1203.74882 1213.83450 1221.49676 1222.81545 1187.55871 1177.49650 1130.64176 1166.81272 1142.86820 1160.58106 1148.39031 1131.86080 1129.42074 1106.56446 1089.90742 1072.04597 1053.88070 1046.05183 1046.19975 1045.80528 1045.40874 1050.13423 1060.91027 1067.46523 1074.39148 1084.85308 1091.07488 1083.27699 1071.71979 1052.38409 989.18557 978.48440 887.27634 793.43060 759.31944 680.04543 564.93621 430.46244 365.33761 307.22800 223.53231 207.74449 197.49694 193.82465 191.37819 172.15162 173.33094 177.10012 177.02039 174.19441 164.27416 163.30120 145.44900 133.07772 124.84113 123.54884 107.05490 108.63523 106.19119 95.05363 97.96934 88.66579 74.74936 65.15689 107.76744 138.80517 145.29416 154.12322 151.06765 146.47491 134.73948 108.28399 86.54480 65.29565 54.40236 93.02304 121.51716 127.18972 137.75418 140.18155 145.37046 152.03080 157.75990 161.35924 168.03947 175.49951 179.18262 190.62373 197.30595 200.21554 199.51220 194.46462 186.46338 169.65279 167.60960 186.67833 190.68757 194.81858 195.51301 188.31923 183.97252 155.75347 155.90828 130.74804 116.35907 112.10355 103.30318 120.10027 88.90786 96.28708 86.28401 107.71170 113.40497 178.27278 266.00561 276.65438 276.48023 238.55851 212.78714 170.85741 152.17392 170.93529 188.18423 223.63883 230.31311 219.61170 183.44910 166.40033 164.86758 166.17369 164.48830 178.14413 173.20089 198.77337 217.45685 238.75470 253.84796 286.71697 295.97092 309.25662 341.22074 347.95206 328.32294 313.40969 310.63160 350.76228 340.48049 364.27885 346.78282 334.96472 305.65144 286.61974 294.23891 300.81949 275.70516 272.67146
92.49963 128.93137 150.97359 200.74160 224.65197 223.20307 222.61234 192.16145 206.68349 201.31951 198.63393 181.89015 179.54286 180.67625 196.70168 206.63796 214.11196 215.54556 218.04923 216.73109 219.45213 223.37731 223.37608 223.90920 232.47104 282.66275 327.74080 326.00059 317.33063 293.01619 291.09835 286.98195 277.79094 239.89210 225.68388 221.43062 282.39195 338.62859 363.99400 361.28665 342.80986 325.77819 323.49685 321.94279 358.14974 386.37516 403.45337 401.40142 424.38608 469.88321 527.23377 555.64926 562.91162 546.72537 498.91920 446.75357 435.81320 453.98483 523.39364 540.12628 614.69130 646.20678 668.00961 664.97601 659.56556 672.82461 742.81824 793.28746 833.20202 824.55559 790.03000 712.95818 624.22721 586.40715 584.66945 540.67873 528.57619 544.23409 576.48724 646.30635 709.69440 801.00571 855.97184 897.39298 933.23411 937.64435 904.18574 826.90884 794.86292 752.37060 711.45751 672.62605 654.38315 618.59303 577.50696 573.67969 562.42218 566.01353 576.20576 561.10264 606.59275 598.83783 674.67565 711.17668 763.34814 784.85470 878.45824 966.93883 988.27541 1080.03597 1087.44755 1118.71988 1184.44511 1181.96579 1205.74091 1219.74686 1225.94713 1227.46864 1219.55595 1215.83449 1208.08338 1196.95684 1193.44773 1193.87040 1198.54380 1201.36153 1202.05972 1201.59494 1195.25446 1189.94383 1176.29167 1164.67672 1167.27270 1173.87934 1197.97893 1192.96265 1195.76204 1195.64094 1175.62363 1132.26177 1086.69402 1054.95123 1068.90993 1107.30866 1112.03314 1114.57572 1115.80608 1104.97055 1093.07252 1079.54553 1074.68784 1059.16218 1054.12393 1048.35276 1045.95286 1047.35737 1058.75001 1066.81891 1074.24705 1084.28073 1092.13206 1081.28860 1061.35175 996.93521 955.03629 914.65679 834.95772 786.20218 745.84261 593.87814 431.00178 401.24274 307.25380 235.49720 238.82621 223.24341 213.93416 207.73153 191.71395 171.68804 168.73287 160.42732 160.72493 160.34202 159.06111 151.17779 141.45411 135.83046 132.47029 127.27930 135.68527 139.53864 136.63499 132.39347 144.35306 113.36392 82.63008 71.99833 87.49044 134.39183 136.97940 143.34203 149.57960 142.89138 131.40069 107.86461 90.27991 62.12524 67.44102 103.64498 129.40382 146.77084 148.00138 159.78666 160.06754 159.91682 163.59720 170.74171 177.07163 186.11256 186.04158 188.32330 195.64025 194.55664 191.92024 182.95404 175.82429 155.30874 155.13272 167.39772 188.61214 189.20786 192.65591 171.12778 160.11192 145.46433 143.38164 137.99557 105.83412 74.93621 99.21788 119.92860 123.01706 108.76853 141.64002 129.91001 168.50838 255.31648 285.81103 301.82040 306.32697 282.24175 270.06475 213.49941 186.52251 178.09813 183.01707 228.48170 246.45058 240.66906 195.19189 188.08967 184.80445 183.47662 172.00837 189.39099 189.90456 187.41461 214.75366 243.06646 247.48426 283.92223 309.43187 339.38290 389.25571 389.20621 384.25728 378.69353 372.43056 403.59803 397.99574 383.51572 360.97975 346.30406 329.17654 324.56791 334.21453 318.69395 321.69760 286.18600
63.00333 85.74178 131.98652 185.11197 195.50050 197.27712 193.18941 181.00178 181.64850 183.30516 180.00579 170.88778 160.50035 173.89403 183.60356 200.99164 205.70148 207.34941 210.81398 211.77930 211.85620 213.06105 235.17186 246.95795 271.68003 291.17122 328.95152 322.38928 294.82527 272.34948 243.23769 249.05593 237.84411 215.21385 201.97551 227.44929 281.84842 313.84537 321.92154 315.65160 289.59042 296.29669 302.87552 335.23803 380.32190 432.85680 449.69639 445.22764 451.59829 471.57998 492.50733 543.64861 541.40320 567.57643 559.49155 458.96437 459.17858 466.93978 538.38044 591.91435 627.18923 702.04839 726.56838 756.31694 713.02388 717.79323 803.30900 838.40721 858.88036 796.95868 756.38323 674.15647 627.98505 620.77691 609.01964 600.72491 555.72022 538.80429 572.91205 624.63824 640.53596 695.57995 833.18434 883.33692 930.01442 933.65234 894.76177 852.93029 736.15639 730.74370 690.94315 659.51569 642.53488 628.57514 589.75992 550.80977 534.22826 539.71604 538.67834 558.80297 601.20370 611.69130 755.14463 806.34926 785.22793 903.67566 1020.58478 1043.82230 1108.22936 1103.75186 1121.61541 1092.87979 1137.34812 1180.14591 1187.57822 1213.03433 1221.76630 1225.67408 1224.97637 1223.41518 1218.49300 1208.79630 1203.86350 1198.75951 1197.21755 1201.05351 1206.73671 1203.14185 1194.49174 1168.31691 1141.09384 1133.17531 1134.92393 1131.61025 1134.46853 1125.10683 1122.40513 1136.02767 1153.06169 1101.78263 1041.90036 1024.20174 1011.11189 1021.83055 1036.07899 1068.85468 1107.56738 1095.86849 1094.25886 1087.82050 1080.38027 1081.27237 1076.22089 1066.98945 1051.39664 1051.42793 1056.59087 1060.08922 1072.32924 1082.33039 1085.03480 1076.50836 1027.17057 957.17106 872.75487 801.69274 743.94509 678.37585 753.27717 450.23426 384.18650 322.96226 281.87710 268.65259 245.87821 227.09280 213.25743 203.82344 197.45453 178.10102 164.80487 164.26211 160.00815 155.10928 148.09383 145.84135 138.79488 139.55055 142.18782 149.47724 152.14681 147.07173 158.39296 151.54678 146.53783 124.02578 80.87769 64.37254 86.73268 102.37587 129.33252 138.51670 144.44662 144.65830 132.68153 101.89460 63.08472 46.92485 69.39102 105.08950 129.54488 137.28771 165.66545 169.99417 169.56331 166.33916 171.17821 179.33678 183.90186 191.20069 191.05409 194.12332 192.24940 193.96462 188.81135 178.72002 159.74727 152.65578 149.84670 165.71895 174.36383 185.25889 184.14111 160.94373 142.52685 125.20969 118.37054 103.73303 89.00852 89.65805 133.51483 151.93615 181.74637 180.43993 169.67548 205.22612 214.74384 267.20073 324.85483 337.18198 354.26115 303.15133 272.74029 225.58335 211.96050 184.65265 213.61722 257.16186 279.88168 251.15971 249.74531 196.97625 197.23622 194.40235 207.42708 212.23446 209.80045 190.22954 203.00838 214.13514 246.64680 260.64373 306.63906 351.48473 404.14873 431.08705 436.90560 441.71226 485.60007 467.03170 444.19470 429.13308 360.06928 356.26020 359.31181 363.46294 373.20729 359.41289 346.84390 333.24644
94.24554 83.41489 102.83805 146.85065 145.72287 158.21960 156.00918 147.29695 150.46214 158.69720 159.81529 159.84931 155.85064 162.99399 181.04858 191.98119 196.12183 203.00474 202.79572 210.96615 209.42108 219.67358 248.78956 269.03159 292.74900 360.20840 358.92224 317.61804 292.00496 244.16664 204.23963 198.05850 190.22631 216.09485 225.92590 252.62248 264.90786 268.30773 285.13320 277.96406 281.76913 281.90265 317.95884 342.24007 398.36887 445.26590 495.99647 487.53170 483.56283 483.58472 542.30520 567.44605 568.09526 580.34773 578.41323 525.17361 469.16684 471.29989 526.98463 590.97221 627.38767 683.76435 797.74866 795.69468 813.15233 807.26066 842.48410 852.76628 867.36633 793.72506 761.93145 681.32448 656.00287 662.50491 707.98700 639.30604 605.94556 522.92040 529.16649 605.51678 650.52889 682.28667 809.59085 901.11318 921.19219 936.47990 901.26076 824.63160 749.16790 738.54201 684.75649 676.26836 655.50089 631.54876 600.43798 569.49800 539.99588 517.41379 563.98733 586.29049 638.06676 742.00439 835.26823 878.43213 892.05425 989.85078 1094.99019 1095.09509 1108.60090 1095.92001 1082.73668 1066.89323 1095.06276 1143.57248 1172.97903 1168.79673 1205.84586 1233.71096 1233.71974 1231.77384 1221.54775 1217.71454 1212.21635 1198.01000 1195.94525 1199.72878 1203.46850 1197.85076 1174.75208 1151.82335 1118.89483 1055.34537 1036.44171 1047.34464 1096.20911 1090.94304 1064.86369 1043.73214 1036.42481 1011.83695 946.45365 936.54656 988.72434 910.02458 977.28223 1046.50251 1069.15424 1096.05783 1094.84261 1088.32545 1091.36496 1089.77620 1094.73681 1086.74465 1073.89507 1058.12424 1057.43971 1058.75041 1065.17776 1075.49044 1082.83529 1060.93993 1013.04034 888.95895 847.15134 742.04270 632.99158 621.57253 547.10270 386.52629 279.88991 285.67795 235.87196 223.48962 227.50752 209.24072 195.63723 198.11484 189.17292 182.43358 166.56448 169.28091 167.20695 159.34233 150.23105 149.81663 149.16813 151.84560 160.43626 159.52782 158.33007 157.72709 156.92921 150.72873 147.04611 142.80720 97.72818 54.48620 60.99077 78.24139 117.68121 125.42060 139.79116 138.24136 130.16969 83.80288 47.04267 49.74801 76.25522 110.79465 123.34455 147.47184 172.28976 178.15067 172.88763 174.48148 179.15444 181.61637 187.67817 189.02718 189.29206 188.07359 187.64084 183.75997 181.50765 170.87447 161.67510 153.96564 154.61521 140.83707 150.06592 172.51184 166.32914 150.99861 112.60453 107.63455 79.36400 92.32913 82.15294 102.43495 170.63747 173.47717 198.44041 221.17804 255.22484 233.97172 272.08676 351.24701 363.19900 353.60552 378.04632 317.05945 287.08103 246.37540 212.97023 219.43593 227.10297 263.75219 302.31074 288.90314 274.51301 234.20517 200.65846 209.70861 212.46220 221.72516 212.75847 197.60225 199.86442 201.50662 202.99390 234.71096 279.56701 341.20491 382.71914 438.72926 439.98774 471.85629 503.35558 501.93794 489.87163 446.91299 396.08407 382.11795 392.17499 385.35947 383.27508 425.44467 379.92332 350.85302
98.22766 66.97832 90.90697 100.09043 103.54112 132.12330 133.43763 119.15691 127.49656 141.17314 139.97597 137.99302 155.79171 161.69450 176.49701 186.61915 189.91372 199.26000 205.23977 209.79694 221.99310 229.01618 260.12904 299.19538 348.03278 389.53921 388.35013 351.28266 294.47436 233.88689 203.31946 184.03616 207.77283 245.13453 271.59795 277.76831 268.19162 260.65440 266.41113 263.71928 297.24015 313.91321 314.44754 351.18435 374.77719 438.27373 511.59887 544.01839 534.31717 579.13679 583.84161 598.80128 609.02120 613.70358 586.62167 532.18482 496.94463 498.79343 528.76361 589.47818 640.92140 743.14453 784.45801 841.37289 845.51238 877.09828 923.93206 908.43420 875.79607 844.02190 810.45243 788.51981 736.79075 797.81700 729.77052 706.88015 607.62966 533.06351 517.23876 579.98971 639.64629 710.73894 846.31260 881.73077 919.25835 935.51754 928.49233 852.23954 793.51494 773.57976 702.26324 691.42595 689.62584 685.36570 641.38434 619.75063 552.86290 495.98330 526.33514 572.37192 711.27579 759.49154 891.88635 924.53076 920.78435 1006.60802 1103.83873 1104.38012 1113.24397 1089.73099 1031.93403 1025.65876 992.34949 1087.64314 1081.02896 1125.35957 1145.64193 1214.01067 1226.57702 1232.72655 1225.31784 1219.48812 1218.47405 1206.85270 1199.95010 1198.60851 1197.47390 1163.37854 1143.53615 1116.34004 1066.91278 1020.35587 932.91139 952.40634 1010.42162 1001.77380 999.63049 1014.00168 960.53807 920.94360 917.73701 830.02577 802.58378 805.48806 833.84609 971.14490 1019.56890 1049.49730 1078.53185 1088.67905 1095.84272 1112.98310 1122.06299 1101.27986 1084.62794 1071.26735 1067.26924 1066.30770 1071.48809 1076.63912 1066.06041 1059.62957 992.65690 914.21898 783.10156 705.68928 596.10462 494.68654 454.49317 426.62820 331.11700 256.65070 242.50778 223.95022 198.51162 192.50757 184.02065 181.27770 181.95847 176.74766 168.76577 167.85871 166.72427 163.35609 157.40820 158.31290 157.06449 158.02509 162.85511 161.35030 160.23465 159.52063 156.69516 148.40269 142.44531 136.86966 99.41008 63.90571 60.74290 69.00566 94.32904 123.19126 124.41813 123.37313 104.89656 64.23772 43.43618 60.17000 83.35011 113.27896 117.43293 168.25501 182.25464 194.76236 187.55291 186.27234 185.23084 183.86610 182.00893 183.39836 180.59616 177.08481 174.16194 172.20452 169.58410 167.27688 145.07456 120.00926 122.77873 121.72062 142.17342 161.37342 149.88798 140.16396 108.07542 88.28038 68.44392 69.99022 90.34336 102.80585 154.79397 182.14582 194.43339 231.82861 267.74386 275.85589 297.90071 353.63668 392.85029 395.38131 389.92436 351.15025 298.71266 255.34522 236.97594 234.68372 260.54610 296.37746 308.04459 325.19350 304.49728 295.91987 263.94059 217.76984 225.32582 223.77497 217.56952 213.60338 207.66783 201.48170 191.83583 228.02517 262.90462 308.71003 333.56036 384.97380 426.43056 470.27572 513.81279 517.97349 491.56856 464.06547 454.96270 455.26480 425.02086 454.10026 457.72628 482.77899 439.73519 420.09157
133.81760 101.15955 92.59312 97.25951 96.48142 89.12316 92.76899 99.29070 112.04158 114.51859 130.59324 147.25958 155.96799 166.56061 175.71324 187.17838 190.97340 199.58476 202.82854 211.55919 222.31925 237.57919 277.24092 299.79977 361.19815 417.21848 399.22059 338.03752 262.04080 241.27249 195.36372 200.47574 224.00449 263.07395 270.35049 275.79034 260.60532 252.47881 250.97591 280.01881 310.22373 348.08272 348.93676 377.97204 384.66438 445.48953 511.98901 577.46023 613.57429 664.88095 637.42637 662.79848 643.20813 621.32942 601.51417 551.79658 508.86600 506.24919 569.19292 627.24825 707.27540 744.58388 803.86220 834.17387 874.09665 915.66287 932.87048 943.59793 904.81495 888.79752 883.87091 889.38809 846.79260 823.99689 746.80933 675.26350 579.46282 536.92701 505.80273 517.65621 634.67644 692.19545 773.11883 879.66642 917.13870 929.02842 925.39701 875.75626 815.91520 761.32225 745.89775 714.91232 701.06238 692.70130 660.14306 629.21664 580.89933 508.58383 500.63106 541.54596 602.83289 748.29267 905.34381 954.90999 1017.45517 1073.08272 1091.89795 1047.04448 1039.95467 994.88947 961.31806 931.15314 936.34264 979.71693 1031.87178 1103.67236 1165.30994 1208.50979 1232.07723 1235.99725 1229.47843 1225.06743 1224.16725 1213.24662 1209.32931 1157.56490 1121.56371 1097.53187 1098.76261 1101.48851 1038.54446 890.05745 854.30620 800.53261 861.43809 946.10368 887.12522 876.79692 805.52662 830.09694 842.13400 725.46702 666.49781 760.47780 804.64020 875.08032 923.64377 983.95583 1051.31256 1074.23663 1104.41510 1115.67767 1116.78861 1098.01534 1082.84973 1077.02241 1076.65594 1070.38692 1073.94901 1077.95189 1085.96179 1047.94107 996.25448 906.89367 764.75739 636.67683 609.60312 530.01590 556.33080 520.64047 370.21592 291.76821 269.87448 238.54542 215.07498 199.72897 191.76780 183.10265 170.74075 170.39494 167.55746 165.83085 163.96281 161.84163 162.90120 166.71806 166.81676 167.54443 164.46063 164.49391 163.26639 158.87662 149.76775 143.46938 140.15108 134.69491 107.68481 75.19747 57.60990 53.78017 84.26592 109.38982 109.60083 118.43574 95.54937 66.31934 70.42286 74.54334 104.38862 118.58876 156.40469 173.84900 210.47925 204.28482 202.10891 194.40676 188.83942 181.58756 180.24002 172.31440 170.92787 168.53806 160.77473 159.30555 162.65707 144.64616 134.55246 111.54514 81.33046 86.77647 124.54157 135.72484 145.18403 106.85509 77.64321 61.77419 79.40016 95.20786 94.39750 93.00627 135.89491 186.49970 210.23670 229.25625 279.33127 315.93484 358.49733 379.04727 403.66952 403.05234 394.29998 356.89430 310.19463 270.71358 245.65493 241.57075 254.37444 286.96802 323.35221 322.57886 334.05240 314.93086 275.20109 250.94711 232.85777 230.31585 233.65498 236.36813 234.30968 210.76649 199.52663 209.62916 248.95421 264.97284 263.93186 335.78462 399.56587 402.89725 457.77479 452.57233 448.58525 451.95799 480.40536 511.11067 555.73235 478.99418 494.90107 499.93244 512.47532 489.88589
147.30550 147.00380 134.96616 130.76474 113.71860 97.21034 82.24554 107.91151 125.94213 127.11481 156.51197 160.07741 172.95159 175.25276 186.17225 186.47344 187.65375 188.88854 198.07437 202.28429 212.66469 210.09083 263.38501 281.13435 346.02941 366.15774 351.41572 311.38359 255.88032 203.66441 186.58910 211.33078 230.72340 250.34026 268.80059 269.53749 265.03221 251.11680 260.06351 290.67389 347.86455 372.67367 375.13255 414.53828 468.44728 475.62069 534.67516 630.31419 669.78866 698.70343 695.14072 688.61166 675.81647 673.38674 629.65875 608.23830 571.19668 600.55768 671.51640 727.07068 761.71458 756.71197 816.11951 860.80828 871.86414 925.70626 960.46705 961.20804 960.16506 940.39988 942.03411 930.89624 905.84653 826.56360 740.37506 694.01779 613.49140 558.31487 510.64373 497.95379 578.61260 603.29972 730.21188 876.26497 918.44988 923.41257 904.58954 866.73032 808.11712 737.86153 715.68390 713.80744 708.11871 702.21616 677.88671 647.83197 582.97525 528.35776 494.55927 509.83243 583.89281 726.18256 855.86844 1012.63702 1045.73194 1071.34382 1029.77055 987.95188 978.70500 868.83641 832.10735 839.85469 893.48823 949.57847 1049.64937 1119.97907 1147.09776 1194.29454 1222.02935 1221.62737 1224.11888 1215.80520 1220.77561 1217.66550 1211.48126 1155.40186 1082.79952 1068.70989 1009.74075 1002.89818 982.29069 764.18082 675.53891 738.78868 808.19220 795.49796 844.89567 694.19614 742.95797 720.30846 725.41480 700.26726 639.06682 661.95334 773.73723 801.63665 903.30833 927.36970 975.66831 995.44351 1062.13055 1087.00716 1071.87644 1099.01687 1088.68237 1088.90182 1063.09187 1074.59359 1068.85596 1066.56293 1070.78112 1031.90772 997.15115 969.24691 857.88046 733.32413 634.29462 658.24976 616.71526 559.28911 394.59926 316.69621 306.12914 286.35657 234.52959 220.52628 198.64962 187.44826 175.93543 171.90744 172.06737 175.94541 169.90385 170.43107 169.18296 169.66967 172.70662 172.72360 168.55713 163.35331 159.02100 148.97499 145.61428 132.67457 125.11619 115.40352 114.19331 81.68021 58.10217 52.56885 83.13476 94.43357 91.92627 86.00519 71.39174 65.56246 60.60331 104.72239 112.63214 134.58362 180.94438 204.50179 230.51592 227.44639 222.14939 205.92780 185.61490 174.54402 165.86360 157.97283 156.32339 157.98921 155.59866 149.22520 141.90788 136.71862 111.96739 92.35334 76.51802 58.79551 88.13477 118.06223 92.15634 69.53288 75.86335 94.05153 118.85828 142.67181 105.62561 85.10477 122.80722 156.55891 194.66194 220.69089 288.24880 348.20665 388.07827 402.47106 406.30314 405.42214 394.25656 366.57227 325.19562 299.68972 262.35153 256.23962 258.38920 294.33579 332.37890 341.08565 336.26076 304.39798 286.60769 275.55645 261.88039 261.67281 256.75007 240.92265 239.45160 224.37654 203.46001 210.52049 232.92911 240.92840 262.60178 314.91929 362.97689 393.43472 400.08160 417.75464 387.61874 415.11197 467.71942 535.71636 568.30215 635.95762 622.50090 579.23971 598.16842 564.41683
212.92115 175.75547 173.85310 163.98329 121.82777 100.78143 104.15803 126.96186 167.72997 163.33240 169.28566 184.36120 170.66849 184.86861 168.18660 169.16958 186.83782 178.32675 177.06193 172.53600 173.44384 187.87746 216.01428 208.82874 261.54490 291.75454 283.34258 267.27332 231.09914 194.73238 182.36954 195.43006 222.22447 247.68721 272.07397 276.81539 263.67430 252.02819 268.65522 279.73948 368.55569 417.38566 465.18340 488.75347 495.31784 511.12598 585.21989 642.92172 698.33278 713.85264 714.22604 687.99830 702.55004 678.64588 688.47759 651.02033 654.51762 677.28877 727.29323 793.74126 806.88563 820.74646 853.57901 835.68849 913.84529 939.80171 978.22967 980.43975 978.82288 963.73569 936.80795 893.80369 866.97728 759.18426 734.77825 639.88950 585.51175 543.36196 504.86810 492.21419 508.81632 522.99397 655.81944 746.29161 863.40448 882.43256 894.26544 860.30784 777.68245 730.69076 701.64957 702.13406 705.24102 686.23758 677.04994 634.68355 609.74416 520.99183 496.54772 546.12112 574.65293 662.55787 799.08276 971.45028 1030.69906 1066.15198 995.91733 901.49498 843.25832 773.11735 770.49730 864.11595 894.84102 967.98497 1052.78056 1095.31654 1181.14939 1201.21383 1218.52092 1210.18931 1206.04291 1214.31303 1197.89871 1215.52242 1200.37502 1170.00332 1117.27172 1020.26079 974.46180 896.67345 868.91050 643.82570 626.41448 641.84728 723.18280 738.99991 633.05961 637.46667 637.99584 628.54288 635.86926 589.15441 516.80000 591.96057 646.85144 749.05928 817.43566 822.43010 916.59122 897.56946 1020.51325 1004.42668 1043.42802 1036.70524 1069.16467 1057.52848 1039.04335 1040.84917 1015.41426 1059.72076 1022.45242 983.88652 960.23112 961.42453 911.34978 811.59230 722.76608 731.37801 704.13186 547.57243 397.28660 342.50085 310.69033 279.30159 248.66318 229.55020 197.12805 191.02791 182.27247 181.95353 180.05980 179.95816 182.37069 174.26372 172.44098 173.90725 174.48417 172.88023 171.63722 165.32482 155.69220 143.10799 136.45494 123.13305 114.69476 103.24911 88.30714 66.21950 52.27631 55.74459 87.74479 98.30013 80.97543 53.37705 53.68480 64.93918 84.20828 95.45945 132.59812 156.39964 193.88211 210.90612 243.26456 250.69314 226.22827 208.86589 178.16786 163.70744 154.92024 147.11625 135.99510 148.34131 143.76829 140.42191 122.46833 106.76231 81.74128 77.41521 59.92559 49.13345 63.87531 63.94853 73.28857 86.85834 101.02552 138.35992 155.20888 156.53332 106.56394 104.47962 121.05424 161.37262 201.28523 249.49387 281.58694 351.16254 385.70802 401.86105 400.97512 393.64925 390.41925 370.64499 334.97758 315.63681 288.91883 264.02543 278.08297 298.25435 348.98967 359.29597 322.87647 316.06099 281.90031 282.95521 297.13994 297.65355 283.62139 264.48514 264.39706 249.43239 220.58595 202.89673 212.25735 228.96606 257.81921 284.85708 307.37879 333.49179 347.90033 361.64900 361.09991 378.57627 454.02936 532.79206 617.94956 676.75482 675.24155 648.54590 629.23594 614.53647
213.87945 186.70911 173.84544 150.05921 114.87414 94.12632 116.64059 144.13742 169.05366 173.29013 175.44046 157.72791 155.46083 143.62319 136.25731 149.28531 153.12923 165.43007 146.77647 146.88189 149.27744 147.18212 148.14381 155.77394 172.92176 212.47443 239.21924 250.93625 191.04735 167.30031 180.12962 194.16500 217.38726 242.91823 254.58416 272.14753 254.49804 245.49069 268.09566 306.99287 378.11054 436.96458 480.21943 490.52128 515.76517 532.34206 624.84897 659.20992 695.99368 695.62628 678.49074 665.18872 661.63955 697.70936 706.97436 711.30692 735.55779 760.04851 795.97452 830.54831 862.34624 833.62078 822.65518 808.16829 887.45051 944.36136 976.48441 981.81584 976.15938 963.79159 925.59547 873.56810 818.96706 766.27147 672.35458 586.92255 543.30523 513.18845 494.47834 473.52897 490.17920 504.96269 602.86856 726.58627 814.96139 886.56080 890.95318 870.20466 800.50123 708.15363 675.88720 677.61489 698.02166 687.79889 669.58753 642.60633 561.71944 521.39400 514.88069 551.58845 644.89687 722.27538 758.43581 844.61533 922.45168 965.70568 965.58448 923.30406 742.43366 707.29022 756.16799 792.46895 907.76919 994.33135 1068.78544 1158.88571 1171.40333 1199.88206 1205.04892 1188.78117 1182.32891 1182.09678 1170.47615 1182.58182 1201.77974 1188.05919 1134.35018 1110.30583 1001.13631 862.03914 868.80100 698.14661 585.56550 497.06835 575.15910 650.43060 619.99206 571.97958 527.40351 543.79967 483.46080 457.48224 453.95146 477.85951 504.79520 609.13972 630.44038 753.24457 798.89858 807.10487 837.16993 876.87032 986.18467 1001.18016 1013.57839 1007.86909 978.81585 964.40160 970.91936 993.90599 981.67944 943.84217 922.75018 959.90629 947.63641 924.69641 821.78819 804.54353 648.16252 485.72667 374.92366 328.36176 283.09134 264.61946 238.85039 225.20075 206.25206 198.33457 191.72388 188.05425 186.04734 186.23777 184.63916 179.00461 174.34965 175.28461 176.54613 176.03696 173.76047 171.27734 157.89797 139.11073 131.27150 117.28869 109.05643 88.94775 68.07459 63.08449 56.08212 80.73403 105.17609 89.28381 70.10315 45.91990 70.69744 90.05241 117.39182 127.62082 140.14540 188.24942 202.80352 238.76850 246.56252 248.60234 229.18644 217.39717 179.75487 162.81251 143.10052 129.70941 125.86401 129.08946 110.89489 117.81772 108.38424 78.14814 74.96086 62.21538 67.08240 62.89958 62.10709 71.05285 69.84748 79.94485 109.77912 153.37348 167.93302 149.77633 127.17490 106.60603 134.16004 188.93588 208.51688 262.39428 326.30933 355.71339 378.89487 394.54612 398.91230 388.16166 372.75212 360.81918 338.05728 317.75475 307.92399 292.53754 291.06695 316.60181 357.55602 360.47686 348.96456 315.74302 289.76855 310.36669 320.14055 315.01056 292.30210 288.24125 297.11874 287.86867 268.27494 228.28226 204.89764 207.93432 216.99932 258.12375 278.62469 278.87947 273.39482 304.28450 331.67659 362.81918 434.98493 550.74665 636.04944 667.01073 666.86802 659.25905 646.34054 637.66530
196.26739 163.51086 155.65752 118.59925 98.67335 91.07657 112.83839 154.36351 167.81555 166.31398 157.80518 147.40280 122.92753 126.41453 129.05291 128.55736 136.77978 138.54457 139.22557 140.87084 164.57664 176.11138 192.69613 171.26569 163.33359 161.76092 213.22624 201.67486 183.88661 164.88243 167.42523 194.97285 214.64731 223.70599 258.93887 257.59575 250.24002 242.26009 263.01047 299.87959 358.77263 409.43055 470.47899 476.11333 505.51612 569.22738 596.80473 678.98839 681.47376 665.65474 636.47877 598.87138 619.24375 680.55053 708.26601 744.50382 784.49401 798.23277 835.41916 855.37353 854.74918 827.89375 768.78464 806.19098 845.99927 932.69952 964.95053 974.75006 957.43882 912.61098 886.45407 878.55889 840.12078 739.36948 607.46782 563.75850 510.30502 514.56841 489.53232 463.96937 466.30753 496.61872 565.32120 642.45637 743.24990 846.02042 858.39813 855.24872 787.27510 696.84748 677.41290 658.38357 677.74929 682.28074 667.43862 664.65039 587.30193 490.96996 473.26271 521.38921 602.80727 724.66321 737.46814 770.01468 869.02967 919.21901 938.71361 806.19186 698.49148 690.62591 723.92262 847.17451 935.71119 990.07677 1090.03510 1144.65465 1186.78367 1188.27230 1176.38690 1144.20118 1133.12724 1113.09786 1131.72015 1154.97483 1167.90104 1166.74788 1151.91281 1061.92107 1049.63938 966.06773 872.23819 719.20523 606.77041 481.17298 490.30250 514.41978 553.72242 509.22505 455.21918 459.71996 425.60909 408.14319 418.69298 445.24891 470.24000 537.01489 559.99405 607.12531 706.58581 769.76154 777.28497 820.85442 908.25839 947.42147 939.15851 920.11287 884.54230 869.55529 860.21557 860.85785 942.88276 848.71792 848.84116 931.13903 972.40788 970.08713 879.59547 821.37477 558.51810 483.40844 377.29278 321.87292 295.00149 257.40186 228.74818 209.17844 199.92437 201.17736 195.98300 194.17456 189.08335 184.65985 182.32854 176.89292 175.23087 175.64599 176.78054 174.70629 173.75732 167.04022 156.30477 138.49736 122.45699 110.07679 105.07786 86.60849 78.37483 59.00073 77.03258 100.19613 94.97805 89.75559 54.45870 58.27453 97.54853 122.63582 128.68967 145.14945 158.25971 197.08253 219.62614 239.13256 243.61962 231.98162 223.90913 213.15802 180.45567 156.68614 137.68805 124.02301 96.25935 86.18350 88.18673 101.01095 86.64369 65.46507 52.82513 52.79916 67.78069 87.14179 95.92519 92.02396 100.31438 131.30451 140.64795 153.25747 175.24158 161.14021 143.60204 121.66375 131.02336 178.84587 209.05364 253.42841 303.41945 348.95273 361.42534 389.57043 380.11230 369.14054 342.96288 332.72960 326.17996 322.35460 315.56100 327.93918 320.44150 315.37535 347.99263 391.26846 383.88997 358.79336 338.66241 321.59235 348.29983 338.10581 325.26151 327.88392 316.11202 341.08312 300.19094 274.15760 225.35920 218.71887 210.64188 221.86865 243.03758 252.78443 266.05932 272.74883 291.03302 344.54849 463.41568 525.82932 608.71210 625.20690 607.09435 572.79313 556.46105 590.40574
163.89381 162.88156 143.12973 123.38974 113.91050 88.91527 112.60821 139.59833 150.71617 151.71422 145.88479 131.10487 127.51066 135.72319 145.72149 163.08912 147.34834 151.49540 148.92792 180.70859 191.89618 232.15377 239.76735 220.12315 193.87802 168.43461 169.96158 182.04372 174.55441 178.62196 181.89715 195.79089 208.16869 235.20465 238.25219 246.87447 230.98800 227.34802 246.50264 289.12709 328.56688 382.74889 409.45023 443.40437 468.56722 516.63069 593.83542 642.65209 640.22834 600.94980 569.11238 541.45190 616.59554 659.51871 696.89596 752.40485 793.92349 838.82107 855.64210 870.17847 865.70277 750.27002 727.44946 754.80665 825.28923 913.38563 959.85876 958.16057 935.16772 889.89793 872.08732 865.66152 774.79187 649.20059 621.04729 545.74919 548.32703 554.94227 508.68136 456.05400 452.54579 484.60948 546.78842 593.92765 644.42758 710.93788 810.23908 784.22714 793.42628 747.55483 667.75984 647.96275 642.65025 680.54951 675.50693 676.61477 623.65876 511.27698 463.87768 469.13924 500.86364 672.69599 684.76466 701.87187 751.32307 820.95810 809.15749 743.13967 665.45816 680.68477 724.15900 870.96374 975.67276 1045.59399 1114.10264 1142.31159 1171.12343 1188.88612 1177.99682 1142.71935 1103.18510 1028.43290 1022.59061 1060.43296 1145.95814 1138.98453 1108.80575 1099.18519 1089.56860 1017.42942 954.82683 813.41508 652.39447 478.35327 396.67520 442.16923 441.63176 410.82585 396.69020 359.14115 384.74157 387.49248 361.40862 368.86264 434.21901 448.61207 485.54592 496.68909 585.04829 694.30785 705.94840 758.36817 843.58599 884.66664 856.53736 816.74974 805.41684 782.88907 786.85470 750.34783 747.89176 773.03289 837.72391 905.75556 938.54688 934.41391 908.81228 617.66855 581.53926 469.27163 410.74229 372.29786 296.55583 273.34839 231.02376 214.17027 204.56916 197.82756 194.18291 192.81527 183.97303 179.08989 174.25213 169.16072 172.64769 170.51687 168.53987 169.42918 168.99060 166.50300 152.48964 146.94528 137.58234 118.32833 103.80511 93.80438 70.50529 74.92524 80.32061 99.39048 90.88702 75.00307 38.36259 71.54612 89.87095 119.74764 136.40504 157.58416 178.59482 196.42878 205.93310 232.98511 230.81627 222.26470 210.39543 201.40468 176.78792 159.66485 150.56695 130.71357 98.23491 63.83554 64.07875 77.70005 72.03795 49.17212 46.58782 44.58178 77.77176 101.39222 102.35504 119.65968 131.26867 137.05170 157.78307 168.51451 185.20186 184.28224 167.88659 133.97817 122.14131 158.95241 213.25651 269.35014 300.16351 308.87685 352.61698 332.85276 334.75636 322.57837 310.37021 316.68320 318.41881 322.92505 336.90316 354.13562 352.34733 331.00155 370.48796 397.84022 415.02501 414.99405 368.73752 366.08744 354.67425 370.60814 381.99539 385.80958 363.21589 351.18653 323.63974 292.18058 249.74987 226.98640 210.40259 218.72533 232.64115 236.53983 246.98030 281.69410 301.04914 375.65648 445.50468 494.01776 553.18216 555.05685 518.83552 469.36363 401.47078 495.05762
185.90312 179.33486 153.32272 139.55761 128.53039 115.83320 126.25810 119.25364 133.70603 125.10051 127.64245 125.10649 132.81123 147.43631 181.49372 175.52869 183.01579 171.56818 170.99209 204.92974 237.10578 268.66618 251.97322 242.44402 224.12022 177.21059 164.92157 153.65897 178.06404 198.67060 199.96699 192.48327 197.82689 221.96517 240.66695 251.05589 231.45397 222.80694 229.84014 251.86514 284.14141 327.88856 345.08971 403.13508 454.00295 525.68889 594.98984 620.79563 610.68457 551.27828 514.99374 511.43094 575.70879 606.89331 660.95647 727.95166 739.16779 748.39190 777.37620 798.58621 787.40497 700.91074 673.89875 724.23957 794.86748 905.83913 942.69074 945.95800 936.89775 909.11100 847.43115 857.88382 774.14400 667.22855 633.26992 624.46662 629.62293 625.51311 553.31313 489.50929 455.28962 460.45931 503.50605 535.10687 582.20517 621.80754 695.40937 738.94664 790.62622 730.04667 654.76051 621.48334 634.95881 657.02922 669.90261 660.53388 659.05752 580.55547 416.71181 428.78574 444.86347 529.19340 592.93815 624.29817 678.35778 752.69488 750.82811 722.32468 635.52760 721.58790 852.63922 1004.39806 1021.66370 1114.17307 1121.82167 1122.17941 1185.31965 1193.09916 1160.30878 1112.02533 1094.49413 988.55810 943.30780 982.56902 1084.42874 1078.10751 1070.47032 1068.73229 1065.76615 1022.59656 904.66192 777.87951 605.39791 509.42992 410.59530 391.53074 351.72168 347.16015 343.87124 346.16206 333.50146 343.00415 348.91898 354.68029 364.08889 396.25599 428.97424 481.14365 492.55735 582.79673 656.15057 723.61559 823.24254 832.48162 797.49801 784.73651 752.24569 771.58035 732.48420 635.61946 619.11931 661.62793 714.65253 828.93334 881.89024 859.11086 691.19807 555.18561 489.43525 472.37973 412.02325 356.02830 298.68825 271.76794 235.05965 219.99654 203.08993 195.24864 186.81727 182.78701 176.88093 175.56170 167.35531 167.09074 166.62124 161.78633 156.71942 160.98509 164.73213 164.38261 158.93181 149.78076 141.10255 123.74194 118.08165 100.23280 82.84438 66.24717 74.85904 72.60737 65.07927 49.33232 54.31870 77.82127 100.97106 107.87782 134.74022 164.63875 183.41931 204.46112 212.74079 225.95644 214.68666 214.02544 208.57444 172.00685 157.71701 153.29623 137.38464 114.34080 108.45776 58.34171 55.07664 63.04887 63.58142 80.18354 69.49111 69.15284 84.64590 99.68863 118.68621 146.89494 146.70355 156.33937 172.19673 183.04856 193.52550 193.89190 180.25488 166.82551 133.13643 156.52462 215.35741 278.94959 291.86730 302.79987 294.86050 292.83898 294.39107 289.30908 290.49990 291.77332 310.87382 314.24281 349.28360 373.54704 373.43648 367.01353 391.27175 435.90110 429.26093 419.20045 409.17353 403.91692 401.17878 403.21130 403.00957 408.76226 399.56677 355.38960 299.94438 284.24724 259.28218 237.96082 214.07393 215.09122 220.22568 227.03659 240.96640 244.67547 293.66990 353.83468 429.60280 464.52496 482.69311 486.33684 462.04024 388.79774 392.40031 415.96863
203.14125 208.49466 192.11501 173.06256 137.58455 136.39557 119.90719 126.43978 103.85688 114.35945 121.62573 127.80994 143.72925 155.44803 191.49346 192.20440 205.74332 209.70662 207.47127 246.81897 266.64559 299.53260 297.33662 270.42269 245.81893 202.85265 192.97340 173.60227 182.22560 198.74517 230.84815 227.59572 208.60700 202.82519 217.87551 227.83578 218.09192 210.47866 220.60850 241.80739 278.47275 283.99959 329.50250 398.83736 455.78047 510.14309 544.42721 601.09696 593.43286 528.15180 483.12711 503.80005 543.76889 580.85166 595.31697 637.01139 625.99828 625.55417 719.49940 722.24869 707.41753 658.82758 646.10455 705.51573 737.48097 814.83992 893.33804 923.73706 952.31250 928.55334 887.92172 873.27753 790.89996 710.58580 648.41643 672.00948 715.11819 670.42275 586.40910 537.26256 498.32615 458.59708 452.96404 493.57489 557.12401 610.30514 628.78364 713.04136 762.00667 746.02629 679.18402 606.64192 595.48243 611.67219 642.24910 650.68592 640.84749 589.27010 465.72482 425.61377 443.26798 501.06167 575.87022 608.55389 633.36256 662.34364 694.74533 637.77668 613.89509 803.64709 858.43486 992.15391 1060.79910 1116.82604 1129.14174 1135.77061 1154.53418 1145.45124 1135.29094 1113.76566 1041.38400 970.88147 889.64942 963.65835 1035.53756 1058.67546 1043.22754 1011.32978 1000.49382 980.85554 912.36287 849.58360 687.74021 521.28588 452.69784 452.15226 419.03207 365.56667 330.22312 309.08005 309.49644 314.75390 315.95339 333.72589 339.35646 357.47702 404.27277 428.29459 482.30697 514.29730 634.45462 690.28888 709.29390 732.44421 696.30880 688.18186 736.45875 669.41848 642.16684 581.23499 541.13707 546.44282 634.96731 674.20698 719.90040 705.68950 599.82595 522.63158 494.03290 436.95215 358.99416 302.64554 280.91066 242.36708 228.11523 219.04248 205.40372 198.58704 193.92908 187.49301 179.54688 177.94099 167.37845 165.39661 160.70661 159.90777 153.47728 158.34685 161.29150 162.03372 154.17501 149.43406 144.49844 137.28913 122.89782 116.95624 97.58951 72.57560 59.29228 53.21176 40.40482 48.72075 66.58271 92.92823 106.56429 107.73986 128.81224 156.86900 178.36606 199.55794 207.69522 202.49239 202.53463 199.10588 175.75168 149.78833 139.30114 131.09360 114.98820 90.05265 61.89262 48.52171 42.39327 79.36226 97.40830 117.40242 118.76011 107.97493 106.38816 138.75276 144.67886 163.28763 168.86835 192.25066 197.05724 203.25796 213.00060 200.74681 209.14951 163.46168 154.35480 163.68022 199.51285 265.90734 271.27286 295.41902 264.06778 285.21083 284.90005 286.54555 274.46939 278.01063 288.12093 306.16934 337.37904 350.91087 374.42745 384.56606 394.61801 457.98636 482.47872 486.29452 482.40536 430.12131 432.61740 411.86285 394.83214 377.34586 371.41579 317.37275 288.02672 268.12771 256.43171 247.84312 219.49630 218.67334 228.77604 223.98384 236.86985 248.64046 277.78693 296.28474 377.25252 426.32308 429.44945 423.38108 414.96086 381.95482 327.11503 361.62986
233.10836 221.87659 206.14538 193.90047 179.86812 157.65296 142.67544 135.00056 124.85071 124.05081 132.74657 141.11690 144.14555 174.10625 186.20032 197.03697 212.24038 228.00931 238.11192 270.48704 296.24246 309.51061 312.27168 302.05968 274.50584 249.06526 218.54694 194.60213 181.08942 219.16382 240.40403 267.10604 249.64871 230.77744 208.68571 210.44912 201.44353 203.74396 212.53282 235.77938 257.99718 282.85866 298.79085 357.97857 435.07083 458.55944 520.78629 574.51042 557.79137 498.76326 435.95521 452.93920 500.98730 546.09903 577.57058 562.91271 574.98619 590.56848 652.42950 689.51049 623.35873 612.40728 636.06129 754.43749 762.46768 793.77305 872.00793 933.70618 963.99597 965.30778 923.73579 884.92982 808.10544 784.89448 761.67318 752.60197 771.25782 718.73787 683.11687 558.20345 536.87870 476.76818 451.27000 452.72619 472.38164 528.34178 610.79056 700.79155 757.86376 769.68637 739.76323 647.79821 592.34847 532.86976 550.67954 572.82823 592.26935 493.30759 445.97407 392.64545 464.06596 497.22280 562.54238 582.62927 630.35051 634.72160 618.84732 596.35284 649.68249 702.06362 893.12187 964.85142 1015.11727 1103.53163 1120.13790 1127.25688 1117.42614 1121.28236 1076.02247 1062.53105 993.14502 961.57609 801.92959 837.96467 934.56546 946.74438 939.55068 924.31823 941.72400 954.86941 937.43710 827.83073 719.95505 574.23333 545.86338 518.17423 464.14463 443.88901 357.29605 328.08738 284.79759 295.84525 292.96100 341.32125 362.59511 369.87502 381.79860 411.97140 444.32486 487.24052 577.65332 630.05640 688.18598 687.52889 683.93289 622.23889 620.04693 534.87745 528.54737 478.71871 520.03381 528.21704 552.37888 572.64334 592.86194 571.04853 562.38980 472.68639 376.82918 312.70228 296.78270 272.43833 247.91396 233.87044 215.28106 205.00820 204.93307 201.10398 197.70616 196.29215 194.73682 192.72338 172.83033 172.90398 171.05895 164.34825 160.10041 157.27342 151.72093 152.57986 150.26019 150.38684 146.17231 139.08858 127.13535 121.66664 100.60762 79.60804 64.91819 42.94579 48.92986 73.70636 88.08269 109.72774 110.55851 118.73000 136.13523 143.03439 167.16340 184.35057 188.71166 189.81969 174.45908 162.36419 142.20604 135.29787 133.31066 110.86312 103.19670 81.90342 69.32367 46.47239 63.89436 91.58351 112.38772 123.55518 124.06838 126.23686 138.48785 146.08327 166.87166 176.36650 195.63971 203.09960 224.03142 229.49569 225.87254 219.93416 235.45052 200.91106 180.81919 149.99834 190.62135 210.18452 245.03248 249.87987 247.10877 251.28477 257.10332 249.87040 247.24111 261.95965 308.73514 319.45498 347.69678 345.40947 379.75780 400.24711 424.48485 471.96510 508.13588 557.80436 545.10307 499.33921 496.95889 442.83504 382.16372 368.66260 361.54759 313.88499 306.99568 283.15287 273.83732 260.73102 227.67702 237.93922 242.36533 239.36465 234.60762 243.28963 254.17488 281.09360 351.64003 378.94233 401.39122 368.12231 362.96611 334.79046 308.66535 316.79039
293.33565 227.07691 214.01155 197.55009 188.38843 169.06348 160.76376 148.20067 152.61783 137.22760 153.23527 153.04821 149.46480 161.00258 176.09033 202.92760 206.66702 236.60491 254.53943 263.77417 288.92220 330.05998 338.75061 329.91744 306.02271 279.81046 249.90566 238.74528 191.97217 226.43435 265.72495 305.23595 321.23064 305.24971 249.91593 224.65327 199.51081 202.20517 208.45762 238.14257 255.11451 284.15906 303.19887 352.25511 432.49830 501.67850 506.10914 528.09921 527.00571 474.15488 423.78192 393.62812 427.57897 455.96172 457.53183 437.67095 444.66590 490.46551 526.63595 523.98010 588.87601 606.48658 655.95784 780.74393 776.90001 817.47086 886.56916 959.21085 988.29431 971.45084 922.83382 878.11111 830.23951 821.34452 796.63304 793.88473 774.17908 735.70218 664.04928 603.42739 555.63124 493.01583 477.09097 456.46552 430.66073 490.88370 554.71463 672.98150 730.48814 763.34807 729.90708 711.76236 634.16103 534.41429 517.31438 494.65057 488.62984 464.80181 425.43249 423.97105 461.06026 528.68238 535.48021 532.03249 556.90384 563.24956 552.49263 559.72316 605.01551 696.98651 865.96394 904.25300 984.01585 1048.47576 1053.65780 1080.63820 1086.66775 1090.91763 1054.83198 1034.38988 990.64995 823.59776 752.95246 691.39649 768.18762 847.92002 862.96883 793.14437 856.22272 901.28167 857.61770 827.03313 715.18415 654.03805 587.75631 560.53355 478.39393 455.65813 394.63851 276.18859 277.48047 298.96588 315.12728 384.42352 407.46244 414.71910 407.21249 412.04666 444.47928 454.22656 534.06603 567.82718 627.90078 632.60648 661.06265 593.21501 533.23061 448.41958 433.18006 426.59449 445.85318 466.55075 486.73755 491.24151 473.86752 476.90268 470.96892 393.21223 264.49051 278.35957 264.48103 246.66682 248.22181 228.95829 202.95304 196.40272 197.60863 201.64929 201.04853 202.02333 202.96228 200.02238 190.62008 179.03698 174.77148 171.06251 161.87026 152.27907 142.98096 139.36506 146.02246 150.74495 145.71624 146.42710 135.25423 116.50053 104.21018 84.29236 56.03033 47.74450 52.55581 70.95259 98.56139 96.45114 103.16745 125.93000 130.46605 140.99064 152.72723 164.11006 171.38789 172.36439 171.83354 151.01014 136.49742 107.98677 101.10506 93.30944 89.55618 88.74742 55.59596 51.21321 79.28053 100.13687 117.43333 129.53076 144.73163 152.24506 167.29724 167.78482 174.41887 191.23994 207.65777 220.30775 229.71945 255.98529 254.74779 261.99374 255.60603 248.39644 206.18895 185.18440 166.31463 174.96736 185.80155 189.31413 189.35409 210.04833 210.80986 231.00437 244.56145 314.07113 381.43479 391.21400 394.25015 394.08228 404.56398 436.92236 462.74983 485.65081 575.52955 595.64061 558.86129 541.02375 518.53692 481.39519 441.64303 405.56242 364.62540 389.13762 390.80897 353.54604 295.41606 274.46439 245.94850 252.32528 268.55289 249.72493 238.11793 245.81891 252.30475 257.81365 279.85541 298.52372 320.52928 314.62898 296.40383 281.16971 280.71178 310.32450
397.96147 293.91065 218.59421 211.47864 203.52802 175.67242 159.63686 156.72502 147.01234 147.68807 151.03441 153.88049 146.85163 154.18815 168.73688 175.87163 191.22697 210.87446 246.47780 276.86913 293.01479 333.00919 356.16263 353.33917 350.01952 321.99362 279.15943 255.51291 235.68079 222.25800 274.99769 314.83503 345.18839 349.45500 304.48555 251.68451 247.42596 223.82867 221.70419 243.69264 253.62895 287.97297 336.86728 403.17299 441.54374 521.07829 499.48146 491.81298 452.60758 434.24406 401.89702 363.23822 391.72258 401.95873 403.40329 420.03885 437.43473 465.97383 470.74608 518.41413 525.51813 561.46096 679.21424 825.02895 835.65180 854.31792 951.21481 1004.45200 1016.91177 978.76416 917.38275 863.53115 792.02518 780.08226 775.96689 768.06449 740.97806 723.87020 679.07355 659.08979 585.80849 533.59897 456.95647 430.14925 419.34752 489.30664 535.77566 576.21079 648.23510 705.96109 734.50588 723.00581 692.19826 628.92720 559.88701 505.55136 474.80989 383.51046 371.85010 430.57872 507.27639 529.49370 494.65228 456.81909 473.05453 492.53866 520.36926 591.60204 646.07826 674.24026 778.05389 858.46222 925.09847 942.47847 963.45022 1011.45825 1063.62768 1046.60778 1035.53255 1005.35146 962.89009 887.09579 754.34253 683.05148 601.72377 666.82587 725.93919 718.49397 762.58092 805.31090 851.61029 796.48709 768.11517 732.30580 683.15121 629.62846 457.45729 423.26278 365.33343 298.63977 274.53487 285.61674 337.68891 380.53576 415.42489 456.15735 425.52677 427.45836 440.76638 467.29669 480.66704 531.90333 591.51336 597.72898 627.66971 578.62366 537.96971 470.85189 414.33545 361.18227 358.74051 376.06033 345.21287 335.60020 311.20326 322.48575 337.75216 307.42916 235.26207 224.42638 224.03332 228.75087 241.85228 228.08807 206.83572 192.22798 192.12896 195.48252 199.94872 201.92037 204.29179 200.92421 193.60099 186.59290 178.66082 169.03680 163.87790 153.88435 140.29384 129.92432 131.88191 139.60165 144.50637 137.91465 134.65497 122.87054 103.50763 86.66976 59.17612 42.14084 49.12598 70.02382 83.41820 88.65852 95.07167 110.69783 130.66673 139.94084 153.25052 160.96966 161.91762 162.25729 159.09522 134.13477 125.38974 102.10779 84.36146 61.75789 72.42259 69.75002 47.65309 49.13674 68.86408 76.12393 88.85684 117.19888 143.50473 163.40042 177.07584 178.21503 194.79371 200.83861 211.49180 221.96000 235.61194 256.40733 276.06250 287.30483 291.54735 266.87142 229.22773 212.92684 192.30291 190.30050 200.49554 205.38977 203.11325 191.92517 223.69927 235.72377 301.21251 345.53744 426.35934 422.81440 421.47002 407.30015 412.49234 469.34800 513.86212 547.96312 602.64906 602.65561 584.63158 566.18380 551.53004 504.28879 455.34563 469.30017 458.15880 447.60685 426.89346 403.02810 341.94732 285.44499 256.59349 270.99030 284.46708 273.21923 236.61769 238.26827 243.39130 250.95677 249.10758 280.74454 291.00992 288.73440 265.66833 277.68816 311.12805 361.92749
426.47835 395.87042 289.27174 227.74256 207.43798 171.25873 160.06549 155.36318 149.12899 147.98045 152.49738 158.44537 155.63020 135.67728 149.66097 163.61951 184.84827 208.05672 222.59432 259.76025 306.10727 348.30074 357.51893 381.92655 378.39168 352.00379 334.70860 279.97317 224.28440 214.34215 249.27068 296.98614 346.14393 342.32765 334.01422 303.05424 253.26608 229.61393 235.11712 249.50624 281.07373 310.89136 374.17227 409.66354 485.47806 521.98641 522.44690 414.63741 401.34798 392.54080 379.19306 345.71302 347.61250 372.57286 380.71669 428.68339 461.77077 486.06889 484.28273 516.34784 546.64495 621.73012 722.71847 837.13797 857.90044 903.84338 1002.58633 1035.62428 1037.42238 997.58428 911.95122 816.69398 778.45999 741.08562 703.03589 693.92936 632.57556 626.39183 645.98347 634.35105 606.30777 566.96901 435.08085 418.95611 420.22044 437.90980 504.94249 541.56706 558.00568 625.12083 677.27642 707.44214 668.31962 658.03650 622.76061 592.36886 445.15889 395.02625 359.79361 414.31384 492.27514 505.22574 470.69138 423.76880 445.12092 454.63654 514.49870 581.16732 645.43807 670.53268 703.75038 750.47633 791.13670 826.10993 971.18301 995.04971 1007.53466 1009.89520 1029.13056 1025.18583 1004.33565 940.49122 827.37320 616.69164 534.48971 510.46241 589.13966 585.32611 636.76617 679.25718 758.01016 773.21119 771.07294 747.38341 681.57721 627.98878 546.52851 418.74143 376.61328 271.59594 266.82326 297.33778 345.03669 373.31776 406.45075 421.45651 430.63318 425.02944 457.50230 464.15647 527.69454 554.18232 571.66464 588.50174 619.41598 594.50256 578.37441 485.02801 419.44394 367.78869 356.18075 296.84874 296.82751 253.21744 257.22080 226.23337 271.16240 216.03746 209.24349 196.13207 198.05259 219.54144 236.01359 228.55511 203.76632 183.86992 182.42280 186.12927 193.18158 196.35055 197.39184 196.77140 193.77888 185.81636 180.82330 169.27563 161.97636 152.40846 141.63763 125.00462 122.60431 113.14038 111.75237 131.15413 133.75670 113.98191 92.11357 81.53187 60.19285 53.22812 48.87993 53.53884 67.67242 73.19115 78.80404 109.81625 128.49506 138.91279 154.33549 159.93446 161.96953 162.09423 146.32106 127.41738 125.24770 92.85621 60.53976 45.34494 58.17842 50.55131 53.03176 66.71525 71.86584 75.60311 85.07010 106.00770 131.53176 159.02192 173.79372 178.82178 194.48881 209.62129 219.24334 220.30327 234.43286 252.61250 274.77338 303.80424 314.03346 274.91665 240.74165 247.15792 252.39887 254.95921 260.95546 243.64457 221.91600 194.12822 222.06935 252.10222 310.50646 387.87538 434.34503 441.54738 436.63825 448.64453 452.92128 485.09301 530.57198 561.80370 619.32086 614.67605 597.28587 592.98008 562.40035 503.08217 481.03555 488.93830 496.37444 482.31686 468.60498 437.96882 368.22825 288.54057 274.04190 285.05755 307.65024 291.16045 261.62750 247.76087 240.41023 245.80327 248.92296 247.66625 251.16728 258.27292 271.50078 283.52324 333.35329 365.41024
445.05728 381.00138 299.89171 232.17574 205.40027 184.04479 181.79205 168.14652 171.99058 162.24463 174.92486 175.49353 165.24878 155.95052 151.15998 157.83258 180.66319 209.68057 229.00503 253.83161 307.63166 319.44087 363.42827 395.02497 395.08345 369.69568 331.27102 311.00074 256.41196 228.62077 226.14647 292.04772 348.13926 354.51406 346.20685 292.36195 276.65811 240.65983 218.05723 234.44792 261.12419 322.74492 388.98285 446.14410 474.92267 515.69364 422.12275 380.57798 364.11544 337.25247 338.25974 342.22735 356.99151 389.02438 395.84211 461.37562 517.62906 557.52087 532.89770 559.05279 563.96150 620.19164 692.49488 744.12886 850.20898 932.44210 1001.57120 1033.61646 1045.42100 998.94598 885.29491 805.33562 763.57726 744.51455 685.50207 620.56903 620.39413 568.02289 583.35352 600.69819 574.70689 539.72423 423.65117 398.53021 411.95335 436.15767 478.84813 469.97854 485.65672 548.48352 614.43051 627.53906 645.60270 626.44437 631.18767 619.58433 511.65398 396.02406 355.95356 392.98105 436.98036 465.76953 430.96063 424.65110 467.90301 480.63543 488.74180 549.70871 591.51298 594.87082 659.49710 694.64741 729.78712 794.40675 902.70955 975.80807 1000.46231 1007.60598 985.40532 984.17367 964.65946 902.78139 784.02448 605.45527 426.53876 442.10087 437.14744 459.85242 521.93501 549.73186 683.31264 689.37695 766.85549 750.54579 677.65853 651.18883 563.97662 473.19426 329.41820 282.04529 282.71198 306.65853 354.54659 363.78406 365.15435 400.88665 404.07462 438.26166 455.98102 532.08540 562.23017 578.50544 580.10722 599.28930 615.19220 620.86100 593.99041 572.51962 472.13936 413.85136 372.30269 308.05227 312.99342 308.11822 276.49713 257.26125 225.36506 205.71301 195.25684 210.27569 186.08438 199.70326 222.53279 214.30267 204.52425 187.48133 182.26958 181.80179 186.36546 185.75168 188.88900 186.04178 187.58363 186.84626 178.99589 168.09079 160.63610 152.18952 146.12092 129.59216 111.46944 105.51906 102.77688 114.17463 97.90599 98.12503 78.61521 79.37934 69.44155 46.48463 52.81298 38.86026 49.04349 57.61496 77.95938 104.55826 127.53103 137.34433 155.96589 159.19786 158.26693 149.92737 139.00024 110.96174 107.38171 79.39810 38.94979 36.93844 36.88598 34.08700 58.90940 85.90410 98.61947 93.65639 88.55364 117.17235 123.37658 150.58895 164.12138 168.13194 187.19887 194.52336 207.40399 210.67691 219.64861 245.61777 275.70131 310.16860 318.37196 302.57158 293.96161 297.82027 308.54248 296.99514 285.71828 263.06807 244.72185 216.36686 220.89907 238.76531 282.47516 361.23564 434.32473 483.68867 497.54651 504.10083 501.19359 524.41054 574.46559 604.22291 623.54995 627.42911 619.88487 618.43107 584.60770 560.19590 528.52732 546.04531 558.09929 510.87017 450.92765 416.60447 304.14361 295.33540 276.95527 290.19292 328.46814 305.03558 294.86244 266.45591 258.30780 248.88407 249.85652 249.21067 253.66583 254.64857 271.28896 295.21860 311.45350 368.85501
346.24714 331.64543 285.96700 218.64099 201.40957 195.22856 195.12026 193.24703 181.11830 181.88542 182.22648 185.74961 186.20606 165.77589 153.86927 165.94687 203.44677 231.35193 249.20405 261.87560 306.59425 336.06576 387.49289 433.79629 418.92411 391.71664 344.25356 322.61300 277.08493 227.55589 236.14967 306.17438 357.83616 371.24674 368.09691 328.92138 273.33190 241.66082 228.38201 227.50326 268.90174 351.91419 381.77926 444.57192 454.79744 476.75831 416.84034 338.71687 313.70365 320.44709 374.94401 388.20177 426.39938 434.14868 436.75385 465.56429 565.20369 613.20364 558.89036 584.57091 644.63717 689.22759 712.18359 769.87453 828.48533 916.46620 1013.19369 1024.54791 1016.73373 981.35342 904.05188 831.32479 805.88243 751.20130 707.92214 688.59276 650.99435 589.76170 526.46417 529.16724 517.65847 463.17396 441.09447 398.76683 408.06135 421.16456 436.13130 420.54013 432.11407 462.24544 524.02238 586.86592 582.55748 647.80540 660.03691 635.11543 531.77325 449.07682 402.74505 343.12615 395.24788 400.50898 421.75365 435.30844 487.09118 498.75232 503.05842 534.52951 573.20579 624.19110 669.53164 700.49298 741.28244 776.83792 824.63137 937.64539 989.26643 939.82545 900.87347 872.70638 887.44770 891.31623 781.70751 604.66025 446.35613 397.65644 361.50024 408.89530 469.19645 510.74035 600.74043 625.19982 694.14989 700.35925 685.16027 593.89605 490.18119 458.61173 379.86852 289.65864 264.12524 304.16032 323.23463 348.02939 362.70558 360.11376 400.43838 445.28853 490.37793 530.07665 579.60724 600.88951 596.99028 599.95750 605.34519 609.13769 601.49493 573.02544 532.55013 495.49848 425.65770 380.76673 365.19996 344.43662 340.02604 336.30684 313.95243 221.85460 223.18900 232.27660 219.92933 211.01242 193.37456 202.67003 200.81167 188.89543 177.48141 170.00307 173.74846 176.92193 180.43919 184.76286 182.13156 181.54522 176.64013 167.12437 161.61330 154.35349 148.60246 134.58770 127.43365 109.30316 99.66074 108.52701 89.56387 71.81259 76.18797 84.92143 87.37412 63.91921 62.88955 48.86998 38.82005 54.82153 69.15296 102.96583 128.07387 142.97150 148.30487 152.57990 154.56212 145.07268 137.75075 111.34117 87.56412 57.50232 44.88793 31.96346 32.19357 36.02606 55.35564 83.83639 97.26445 113.71403 114.72204 104.35564 113.32068 138.80603 155.31133 157.75847 172.06020 187.77995 198.22837 217.58481 222.20939 260.40973 309.96126 323.53408 341.97933 327.02676 331.68600 350.89216 341.24901 320.28095 280.80399 275.45592 264.76478 255.32574 244.46626 230.77715 286.75357 361.08046 425.62367 496.83197 536.80072 545.94517 531.46595 538.79908 558.96303 625.94377 654.93522 660.66888 646.92397 639.66465 631.97016 586.81312 595.82588 567.68258 541.74373 523.49752 461.97690 392.41851 311.79756 322.60871 307.62273 318.14944 330.55787 330.68299 313.29614 287.93880 274.17177 257.35647 256.51975 250.43630 252.72100 253.60282 269.39854 292.33239 314.96161 327.72456
334.81273 298.01517 232.07368 218.63416 206.99618 218.39843 218.50957 208.72425 199.38816 193.57766 197.03150 201.66737 197.44921 172.42355 164.73061 172.86077 203.53742 246.64532 253.91873 282.29850 319.03455 359.46558 397.41507 436.95588 439.19985 415.97416 381.67818 341.60238 290.18762 244.85710 244.55244 287.77593 350.38094 392.85499 387.69355 345.55262 298.72117 284.66960 219.52547 238.07153 254.51701 285.00372 363.04873 387.92686 403.93917 428.65167 419.45250 353.14348 305.12621 327.64959 382.63520 426.39752 495.96385 487.55984 483.28929 553.02954 648.93256 650.79181 696.01514 633.88641 695.92374 687.04159 760.12691 781.19766 787.52295 881.15704 972.76199 1019.39847 1013.33118 968.37215 935.31625 886.57629 848.81359 828.86328 804.69173 753.19776 735.66966 659.52129 551.08599 498.08126 488.41200 507.98427 443.47698 440.02220 388.47919 399.93514 386.66893 401.98042 395.92595 409.74139 494.76976 538.85907 555.99616 662.10565 699.48263 652.00309 604.83592 506.23970 410.79673 367.04519 343.74617 379.55682 412.50446 486.04742 526.25588 545.65100 556.75665 548.36378 659.16674 756.45601 761.41196 761.01840 778.66500 851.82673 873.33891 907.89623 925.11486 891.55266 795.70169 751.47541 751.74910 707.98083 678.39849 569.11543 480.89693 388.97568 339.24204 356.03671 403.64704 493.53560 502.19640 500.32529 575.26272 599.55492 602.20610 532.61609 472.36336 430.42078 355.93250 291.95749 272.68704 278.63332 320.56223 340.15929 328.62810 342.79561 354.86988 453.31927 471.80364 520.14577 575.85702 607.28387 595.68695 557.29622 533.98703 554.82227 579.05355 569.54388 553.77569 505.72932 480.13477 462.49931 466.50306 429.22805 410.78340 429.42370 374.75375 408.55775 304.07432 295.42503 231.24414 194.79045 181.69711 179.60349 180.08760 180.50397 169.35500 168.80270 167.06682 170.57732 170.65198 178.29048 181.10341 174.70285 171.77440 166.76782 164.27030 157.89724 153.41888 151.64687 146.24030 132.79272 122.37791 120.68933 105.57815 84.84526 89.65097 112.80281 105.19826 96.88361 90.27841 61.09102 48.35834 40.04842 68.32503 103.80658 127.63026 132.15461 146.07297 151.91950 151.50061 143.98586 116.62709 96.29378 89.09049 59.05994 36.93458 30.72970 34.56801 62.91595 51.16578 78.25912 83.23299 114.89107 119.94942 115.43437 123.28482 129.74246 151.41139 156.50456 173.28579 178.61765 200.81684 224.78097 263.32916 273.19448 312.46817 350.63138 361.35508 370.90578 368.87132 359.67811 369.13304 330.61409 309.38682 279.32249 299.73222 304.88930 279.99268 279.59500 280.99294 352.98195 430.64966 485.37831 517.08693 543.48962 535.50247 551.40555 593.25679 647.71797 671.94362 672.91149 672.64721 668.70965 645.22392 627.56684 583.61464 567.13187 551.56069 500.46423 482.64224 395.83983 396.57928 367.90864 388.92832 366.06295 378.31881 351.81478 317.03189 283.78580 268.08055 265.44018 260.86216 261.62062 258.90701 257.60330 265.24354 285.57829 302.36592 316.96741
