-1434.10401 -1382.67552 -1298.69494 -1214.32635 -1185.26174 -1123.73551 -1061.90141 -1004.92781 -974.76012 -863.39526 -836.97168 -735.70543 -715.29774 -668.92547 -623.25104 -602.17668 -540.30572 -508.38733 -435.48095 -360.13621 -354.20354 -318.74215 -312.40758 -276.80816 -246.97506 -251.39726 -221.83071 -212.66483 -212.84777 -201.74954 -192.86989 -181.67471 -169.15166 -167.64710 -170.38406 -199.46036 -210.00983 -218.60728 -238.53660 -268.09726 -298.10809 -324.16497 -344.15446 -353.66183 -368.60016 -383.52943 -391.62299 -396.01862 -386.90039 -377.25762 -351.87787 -347.41740 -339.33219 -271.14687 -244.04326 -223.43350 -185.27996 -171.56168 -93.63910 -56.38999 -42.94153 -26.63931 -23.06087 -19.08802 -22.62090 -31.14004 -36.68850 -40.38044 -38.43746 -35.34626 -29.70477 -27.04971 -21.66234 -16.98536 -13.58161 -9.64443 -8.23446 -2.93786 10.57580 21.27074 47.59003 57.39972 62.21694 77.39708 97.28630 104.07776 112.50091 129.30668 145.93066 152.58794 169.08624 176.91163 179.49913 186.48390 187.35630 200.36480 197.40374 197.59031 203.65849 212.81181 220.55723 224.40423 226.60938 237.68072 244.70425 243.54371 244.67981 245.68681 230.78312 203.99565 190.72542 209.38088 260.79640 287.04186 357.91622 455.55267 643.20758 645.01250 636.61694 447.99003 375.24164 289.09139 250.93999 234.04735 241.82977 254.20035 263.31073 315.34801 354.59008 412.50341 434.70861 480.15008 514.87838 552.14535 577.85099 625.67039 648.77975 652.15162 597.55164 587.77581 583.54045 643.54045 728.94409 739.06861 762.28109 735.30515 722.00337 739.67104 788.89558 735.86369 719.06532 713.04597 727.37643 769.97519 792.65075 812.15732 851.91222 794.49842 765.51216 741.51195 746.37864 741.11803 741.18283 805.28317 867.10478 934.77480 1027.00186 1021.27348 999.87071 1038.54489 1066.50655 1073.71268 1051.12489 1000.79729 988.08153 890.43985 879.06652 876.10569 861.60207 835.66753 812.63921 787.92397 777.69073 776.12450 848.27589 884.01279 888.43286 910.34566 888.48176 925.52251 957.72770 999.60377 1046.02083 1045.30812 1019.97951 983.90285 936.06270 950.86175 948.01554 974.26740 961.44144 965.59889 945.50766 939.25174 942.61778 970.27838 943.27544 934.67548 921.37038 902.29507 858.28910 826.51343 806.71556 775.19024 743.45231 745.59792 781.28133 811.96901 813.00164 793.95134 796.84973 831.75637 885.36391 965.16784 1021.57953 1057.27554 1077.08746 1071.65695 1075.25573 1077.12356 1018.44058 1010.53828 1034.51314 1010.11429 1014.94855 1000.98533 938.03840 923.16704 915.90352 923.83408 919.82527 893.47526 873.09704 877.49153 873.81771 904.81453 916.72322 916.84332 910.25912 906.25371 907.53708 893.75132 891.24839 882.93892 873.14236 870.81318 867.53649 878.17099 892.75728 883.12359 879.24615 854.45381 829.13726 800.87750 784.58601 788.05322 781.78121 822.69391 851.75416 825.87389 796.68609 761.14279 741.64073 744.87726 771.06081 824.04544 866.86741 902.55692 904.50022 914.86671 896.72641 879.63023 883.17921 872.93398 857.88880 818.53346 813.09872
-1440.78902 -1353.20084 -1301.35527 -1231.33063 -1167.30666 -1090.57848 -1052.93434 -993.26078 -921.68704 -888.50478 -769.50826 -750.67031 -701.32971 -647.82263 -615.21835 -547.21612 -512.90778 -429.79801 -382.90621 -350.33992 -312.30821 -297.09150 -272.39340 -232.29465 -233.65192 -200.54194 -187.29704 -193.11957 -186.09439 -174.35274 -168.01027 -160.86010 -145.31506 -146.39847 -160.89345 -182.35786 -194.01821 -219.01550 -227.02179 -255.97578 -283.97256 -308.71869 -330.11710 -342.47462 -361.16747 -368.61166 -373.74758 -370.09674 -376.04020 -352.68074 -345.30412 -318.79716 -309.43955 -268.74791 -237.93325 -208.04027 -166.38922 -132.60470 -77.63418 -61.81876 -36.19652 -30.76244 -17.85006 -17.77727 -20.15011 -30.66609 -38.90384 -40.40757 -38.09999 -36.42614 -31.55286 -26.89367 -22.21994 -16.29720 -12.22170 -11.25208 -4.28033 -4.07718 7.08496 25.59822 43.24286 49.04604 62.46168 71.60535 106.07564 107.81718 113.88890 126.69854 132.81538 152.20374 168.41480 172.81758 182.74450 182.61021 180.96880 184.82459 187.31500 193.48806 198.86406 210.51213 216.01271 220.79955 222.40956 230.50889 239.66308 238.61920 240.42338 244.22790 239.06347 227.29552 209.59040 196.24163 219.57568 283.69858 292.05689 325.12615 461.90336 596.45920 593.71180 426.60377 366.82450 317.90999 263.07045 240.33022 246.90901 256.30542 271.37947 309.95232 360.52006 366.92745 429.75115 460.88880 490.54169 548.85463 592.47598 607.11697 653.35445 662.16649 644.27088 622.49940 644.44457 693.36253 769.37111 787.47450 807.14531 782.97047 788.11283 831.08970 836.38624 828.11255 788.57178 744.13490 763.14896 774.86593 832.85194 887.66974 890.48020 815.74636 768.13372 791.83925 865.59115 893.60370 889.42516 826.36287 855.68891 901.53040 924.94203 1009.83100 1008.02385 1031.15732 1046.86134 1059.41674 1012.25409 958.91572 945.87459 899.56067 889.09208 893.85866 856.46329 826.58615 818.78091 794.92785 805.01651 857.16678 899.12336 959.41616 948.32083 937.14052 950.15486 973.51953 995.07230 1039.14062 1070.30471 1054.04398 1024.64756 999.35309 991.90604 993.68790 994.25209 990.20620 998.16635 987.27669 987.17230 968.56685 945.71078 943.15739 917.01561 909.42388 900.80093 888.30017 860.77993 823.86580 793.48768 775.16474 757.89311 752.41115 778.93225 814.41038 819.14760 803.21805 799.43359 825.95271 881.45526 960.72017 1034.61690 1070.82564 1096.73343 1093.36517 1091.79065 1083.66228 1063.56621 1057.42462 1057.20394 1063.42082 1056.87235 1014.15064 965.87178 907.67866 898.78400 910.36173 909.64497 897.01845 881.53280 884.83140 893.55262 911.48515 924.99346 916.88837 912.10300 902.86893 896.40218 893.18184 887.17384 883.05116 878.32911 875.09391 876.36220 878.64012 887.17334 902.11245 901.15470 894.77661 860.73957 820.60996 810.81131 798.00419 792.67168 818.34786 834.89104 818.83411 777.37658 755.66271 736.49751 748.98450 770.06407 809.44810 827.75739 863.31285 898.80863 894.82669 874.95883 871.44666 881.06786 887.18185 870.26346 840.55172 834.94152
-1424.16280 -1328.62179 -1297.02447 -1229.14747 -1144.96707 -1067.41930 -1043.87428 -973.28062 -902.31037 -860.50665 -797.82030 -718.11122 -684.77802 -640.15667 -612.85141 -505.08640 -470.06017 -399.35800 -367.82787 -311.70919 -296.06190 -225.34304 -229.02145 -208.54232 -191.28661 -156.13425 -169.26990 -154.63083 -150.69939 -144.69143 -138.54822 -133.38019 -125.12591 -137.30764 -148.29661 -157.53810 -185.90273 -218.19643 -227.69626 -244.56609 -273.86084 -285.53013 -304.37544 -332.79954 -342.92789 -362.96363 -361.20768 -364.07432 -356.08249 -339.06952 -323.39470 -300.31340 -285.32546 -269.16142 -230.93803 -187.83210 -164.75344 -121.74070 -70.37092 -46.78476 -36.60866 -18.97747 -11.27724 -16.09866 -23.10507 -31.62448 -37.08352 -38.20573 -38.35264 -36.05395 -31.70358 -25.81961 -21.49620 -18.03110 -12.71752 -9.11178 -3.79378 -0.35446 9.10951 20.99574 39.84714 51.01196 66.88552 71.37551 95.97348 107.09085 115.05026 123.66934 135.58867 150.26333 167.06349 169.18693 176.62519 180.74773 177.29971 176.26760 183.21316 185.41440 189.74991 201.70319 202.10302 205.08162 218.81530 216.56123 221.97234 227.81490 240.45985 247.35247 255.58419 255.77761 243.11314 216.69818 227.57021 282.71491 316.03317 328.85509 403.91127 482.64325 495.10037 443.95793 383.20986 321.83498 259.89876 244.85215 248.58430 266.31218 275.24636 291.93622 345.89947 371.38723 414.80831 427.56035 462.12864 504.29399 542.80441 608.32608 634.33264 665.21051 663.51784 638.03437 656.95090 740.55597 772.55540 827.40158 839.56292 811.66677 821.36960 888.06883 861.44139 835.56213 803.21602 793.90735 787.94267 794.16617 851.63277 907.35282 893.31380 842.78915 809.49578 930.12622 997.88542 1042.53774 972.19116 917.08020 857.32527 859.21738 900.41458 966.19958 1012.16901 993.07614 988.76155 942.75546 948.46060 916.52996 922.17510 915.05894 918.37081 909.65098 869.26936 806.70432 793.92498 831.17520 866.64875 911.13264 977.95823 995.68061 990.60825 973.78385 979.97024 986.69165 1026.13146 1041.48950 1055.73266 1046.98034 1023.15610 1004.42132 992.09554 993.73888 995.75537 1009.78952 1014.80414 1010.23626 985.89381 947.77350 929.55724 914.85422 901.30674 869.88560 862.08623 849.57466 844.72620 824.68632 800.04631 782.82212 764.22754 762.58911 779.64429 816.91829 819.50327 812.53924 812.72975 825.57194 877.00393 966.35194 1032.35705 1055.80883 1107.96267 1111.26711 1112.44625 1103.70921 1095.85910 1094.73495 1101.76929 1095.16006 1079.74657 1028.20463 946.19091 929.84306 894.31007 900.99932 907.29004 894.29229 892.42759 897.64403 904.96079 920.96851 925.12688 918.11552 908.61706 903.81444 896.12717 893.54060 890.31373 883.41331 882.15547 877.37925 874.25955 877.23087 894.49693 908.87672 907.67391 898.52750 883.29587 848.50498 829.76788 818.99553 804.02293 810.14494 808.24975 797.56999 773.70944 774.31075 768.56372 754.50052 775.01584 793.19028 834.51501 852.26543 873.30632 880.17699 856.93328 852.30993 853.34479 887.05095 895.70845 855.19715 831.43425
-1417.86226 -1322.40955 -1258.35824 -1211.72335 -1134.21291 -1054.39008 -982.79249 -953.40848 -882.55066 -826.57925 -802.79188 -726.19036 -673.52190 -621.47540 -570.95160 -480.87218 -392.81177 -378.64665 -321.21894 -282.61396 -190.39348 -188.01225 -187.39452 -171.49054 -145.25122 -133.18921 -129.35528 -126.36973 -119.90021 -114.47658 -108.86252 -117.77486 -119.56041 -125.28171 -130.61583 -148.51251 -172.10383 -192.95409 -225.07018 -235.99863 -264.65442 -279.50905 -290.13361 -313.42115 -323.54515 -329.88651 -345.40731 -346.56507 -342.73497 -328.72736 -309.70214 -290.25948 -277.95042 -239.49862 -219.99667 -177.94734 -145.79330 -135.64411 -66.09576 -52.01251 -24.60115 -12.66287 -9.82283 -16.94045 -22.79961 -33.82774 -39.91153 -40.77142 -39.21534 -33.89961 -32.44819 -26.14795 -20.66207 -15.28142 -12.37726 -7.61261 -2.19528 4.06572 12.19333 21.15506 28.73935 42.60180 63.87111 66.04196 86.70449 112.13455 115.85328 124.32209 123.81037 132.03011 146.49291 150.75042 161.93193 164.52553 162.70206 163.28067 174.41065 179.85140 186.62551 189.90417 195.67605 193.85155 199.27385 205.20326 211.91485 229.72296 245.86670 250.10675 256.99295 258.58258 248.88196 219.44756 225.41291 311.96134 356.53985 369.03981 396.59867 457.73883 422.97986 433.28345 417.18462 337.85227 294.00901 249.63686 251.58492 269.62428 286.87949 313.67404 358.87380 377.65595 397.23926 414.16511 398.14873 484.48066 527.43355 589.64327 636.77111 646.72242 660.46036 676.96741 689.13845 769.93276 825.16804 825.13807 862.83171 819.99882 829.23385 904.48633 908.90018 867.60816 831.47252 834.14072 806.14768 855.45301 893.37969 984.72044 921.53483 863.15561 852.38908 968.22458 1070.65713 1100.03841 1026.49768 878.66230 865.30753 867.81291 902.37012 956.85531 991.68503 971.74934 951.90016 930.50950 925.13559 933.59633 935.16499 941.69907 938.39908 913.69308 846.21431 768.58434 793.97535 849.21748 877.61546 942.05529 1002.53598 1027.71399 1001.16619 983.15084 977.65430 998.57295 1012.66335 1041.50432 1032.35192 1028.66601 1017.62920 1009.42328 991.09052 992.25929 995.35308 1011.35239 1027.02283 1022.82247 982.18278 933.79327 919.98039 876.21165 862.43354 846.82886 842.06071 837.02721 834.77952 818.07901 800.99359 794.37954 780.32716 778.99587 800.49975 823.16213 822.96384 823.55876 827.80094 862.03807 890.64270 977.54021 1028.97521 1077.69693 1115.22935 1114.79714 1120.09323 1112.05600 1110.60891 1120.39274 1105.87195 1103.18894 1083.81937 1020.94674 917.75371 891.16488 878.02206 890.22701 915.18986 947.89141 926.61582 932.74309 931.92601 928.70816 920.60175 916.63254 909.02784 900.50601 898.46025 895.27497 892.71344 890.19938 884.68134 881.37026 879.57428 892.98214 915.97037 942.85938 933.07505 929.82664 922.85028 885.17592 873.60666 814.52608 836.88796 839.10243 830.65625 813.68782 829.37511 792.16277 789.17538 776.92457 791.47661 814.61713 830.49445 854.18772 843.85653 832.72598 843.97833 819.77173 822.25139 862.07173 869.85093 862.61875 834.22316
-1392.56050 -1310.28365 -1248.54870 -1165.22732 -1124.18071 -1049.17590 -959.85569 -911.25460 -844.16987 -825.28387 -776.49309 -719.32113 -643.53241 -597.96560 -517.87051 -423.47841 -364.79820 -326.74527 -260.59392 -231.15193 -170.35880 -155.85629 -138.46535 -122.61307 -90.61051 -92.73527 -88.78682 -82.95920 -85.54190 -86.26801 -95.99433 -99.07574 -109.28496 -115.38663 -127.85840 -135.28061 -153.58091 -176.75291 -194.44101 -228.60205 -253.16825 -259.96337 -280.93759 -300.71950 -301.63987 -320.98612 -319.15152 -324.92339 -310.19725 -311.77108 -300.18217 -282.68790 -260.36802 -232.68541 -204.79182 -169.63346 -131.75067 -112.16518 -61.37626 -46.67136 -22.51454 -11.84821 -10.17765 -13.51708 -21.05982 -32.82687 -39.21495 -45.32130 -39.98483 -35.06549 -30.30902 -26.19639 -20.61998 -15.33806 -9.26522 -5.95354 1.29752 6.04972 15.00523 27.33278 31.65323 55.71736 63.77578 79.40319 95.61387 126.46142 126.77876 127.06219 125.86654 126.84042 132.97122 144.16678 133.32729 142.72716 141.67633 158.37758 167.01881 169.99692 173.99296 177.66163 178.42528 180.12876 193.69271 199.24503 216.41849 225.36367 244.17153 257.93291 265.55193 269.74568 260.22939 248.67340 258.26346 340.51299 419.06314 400.83738 470.50146 504.79714 501.44103 470.97418 426.32766 383.62158 305.58038 282.52468 259.23661 270.89241 291.88282 323.20954 373.01579 387.23358 401.43156 399.29370 444.77555 498.17396 523.25673 586.63793 617.41801 638.74433 642.11954 713.66305 844.41189 854.62087 883.73866 890.08718 901.75400 891.82888 916.76212 950.89214 948.76261 881.14413 843.31254 867.28673 857.25136 880.63323 959.59842 954.87820 890.53032 862.66597 881.23666 1006.78417 1087.26320 1113.32823 1044.59457 997.46814 933.49395 881.68765 912.11796 937.41485 945.80789 928.87563 907.68993 970.69409 1023.09800 995.67531 992.75200 1016.38842 985.96490 922.04083 803.63113 757.66866 772.66860 855.32201 925.33238 952.78096 1045.76823 1067.11589 1022.09360 995.05718 978.85295 988.81827 1016.49391 1029.07950 1027.65913 1023.65968 1017.97668 997.66921 991.31570 990.47579 993.29891 1006.64753 1004.65447 989.50777 970.86476 932.45527 893.84901 878.07464 848.68046 833.11037 826.90354 826.41862 822.52913 823.02537 804.91304 786.17694 787.69599 791.95573 813.87904 815.76673 822.25938 823.15452 827.05687 841.51590 908.19587 989.76592 1041.27349 1067.74147 1114.25802 1126.66956 1126.22408 1128.12042 1122.50159 1121.01135 1109.55753 1091.17264 1055.21132 1027.28019 912.88533 898.20760 885.12684 890.15179 933.89619 966.89096 967.87383 969.34509 947.21207 928.68959 924.29444 914.94449 905.64560 902.86784 899.78371 898.97371 899.35519 896.55953 895.13925 889.79305 882.42168 896.35574 924.88096 946.98873 951.61027 963.75878 941.48787 936.26453 911.19035 903.36165 923.97940 915.27444 924.68675 909.85001 868.53141 844.40051 833.71695 834.82707 852.49552 858.04388 860.01797 825.91217 819.72461 805.93319 779.49719 795.57790 798.55857 826.58304 856.76720 859.14352 837.04790
-1350.68915 -1282.43948 -1234.53531 -1170.61774 -1068.58842 -1044.43693 -958.36623 -879.94601 -844.69606 -819.99802 -743.28325 -692.09208 -566.09988 -545.11706 -483.37479 -414.74252 -331.21523 -294.50890 -229.07650 -188.60444 -148.24823 -113.97517 -104.46868 -82.18530 -81.55931 -66.22573 -60.32283 -65.80376 -69.30311 -70.28683 -75.64956 -75.54603 -84.58598 -101.71590 -118.37311 -130.90788 -146.72865 -170.25979 -186.16380 -193.58219 -238.27887 -251.80671 -258.61823 -276.23011 -297.42571 -296.35921 -297.87636 -304.01545 -304.12121 -298.97131 -280.24262 -268.24012 -242.77718 -219.19772 -198.04818 -136.41639 -99.55081 -97.39521 -73.73163 -40.16526 -20.13733 -12.65248 -11.63298 -16.21021 -24.57127 -35.06401 -45.21327 -44.82676 -42.63055 -33.40395 -31.54033 -25.63834 -20.99748 -17.11181 -9.16699 -5.55719 0.72197 8.90512 12.39391 21.98792 33.53598 51.24634 66.89677 90.64428 113.96319 132.85039 133.10831 125.57866 121.59602 117.14626 125.25090 124.87334 125.81643 129.10450 132.04996 137.00896 151.43705 160.97490 162.87901 162.39064 166.61299 169.01904 181.51921 196.48704 210.07836 234.94000 247.97885 262.37358 277.04027 280.49720 288.56761 287.54921 313.24084 395.12941 433.28968 498.86905 534.85513 594.41452 532.79505 448.11006 399.02553 389.65249 328.87984 286.66110 256.07952 276.18931 290.31452 328.78407 397.71888 419.78370 445.60332 450.41665 463.55805 488.57807 545.82862 567.29962 597.97636 606.64221 664.45159 741.12049 828.36792 873.45738 930.70601 936.05469 926.82914 926.09607 960.28761 958.84980 925.11843 905.14201 894.99536 893.70151 935.23916 967.81208 958.99648 940.40438 903.74647 859.41480 979.37320 1054.83591 1120.81786 1115.07433 1074.55457 1037.21171 946.43236 896.06632 909.15490 909.49966 916.32817 917.63387 933.34856 983.65619 1041.86492 1061.80306 1053.87114 1046.51694 992.40065 902.29775 755.85475 772.16984 782.68175 904.29209 944.02370 1052.83354 1080.80075 1062.01705 1022.84419 999.59887 993.92520 995.97204 1019.68621 1027.50419 1021.88625 1020.56214 1019.28264 1008.40965 997.73534 992.44962 986.75533 985.69982 974.35535 970.98389 930.32107 915.69740 886.15653 859.08755 844.51050 838.30256 833.58744 828.94869 823.06951 813.60007 804.75655 787.59571 792.27882 816.15211 830.32868 827.01972 826.47658 830.35489 830.18450 854.43909 914.42371 985.88070 1037.69977 1080.17037 1121.15512 1119.50755 1123.11772 1121.13212 1118.77559 1104.95049 1089.13416 1080.30610 1033.64130 964.03177 923.78591 904.01817 883.01976 949.69803 984.94383 1004.10194 992.68848 986.32569 963.89753 935.72481 922.80672 917.88950 910.57429 905.76510 904.24383 904.23949 904.40591 905.43265 898.68136 893.14993 899.59322 914.71572 928.07213 962.18680 978.03012 978.07034 966.79366 945.68941 946.32960 950.14223 986.66740 1000.14840 998.92069 984.31917 948.38892 913.78868 912.34157 919.82579 927.98195 890.20425 861.57354 817.88928 801.26627 774.51454 769.75855 780.88665 797.38117 831.76230 843.23089 852.80727 847.90023
-1337.62731 -1272.55668 -1200.81512 -1152.93345 -1075.62459 -1002.53733 -951.32663 -879.13793 -864.07905 -757.94222 -723.22493 -637.68087 -555.40913 -526.61054 -456.63505 -366.64137 -286.35040 -244.50999 -191.11631 -164.17987 -105.53157 -96.61490 -76.30739 -66.05947 -64.03587 -59.73650 -57.45197 -57.52835 -64.06561 -63.04248 -61.58371 -60.50523 -76.82285 -89.78769 -105.06810 -112.61685 -137.02663 -168.03989 -175.55068 -192.19214 -214.25979 -244.80083 -259.83219 -268.26417 -274.90898 -287.86198 -290.17794 -289.50572 -286.09011 -282.86833 -260.44983 -253.08299 -229.24980 -196.25004 -170.03537 -136.65569 -101.77417 -90.25274 -68.40143 -43.52590 -27.13087 -18.58024 -18.32931 -17.36008 -28.39111 -38.11171 -44.11013 -44.50402 -42.23336 -36.84009 -31.05003 -24.75381 -19.95266 -17.94612 -10.66503 -5.20970 1.11088 8.32431 11.73773 21.18423 38.45054 41.04138 60.49155 78.52823 111.90877 127.94723 134.15709 127.15068 124.92991 132.25518 131.66819 134.62274 127.17150 127.98183 125.59643 136.76509 152.09822 160.62305 160.99838 160.99370 163.01610 166.39655 183.01694 196.21474 210.78777 218.81087 254.01750 277.18952 296.94370 300.73939 311.31205 308.38261 301.69528 372.64479 426.75802 491.41839 496.91547 521.06735 515.62055 412.35898 371.10963 341.71529 309.99251 262.85521 245.08821 261.31069 287.60810 325.82536 397.92741 462.58627 463.27031 454.90133 475.12602 508.30922 539.63299 538.10988 572.65712 595.48103 674.30263 722.21823 817.75296 901.83516 936.70769 920.57067 919.48015 924.25595 941.31669 953.08728 945.21081 921.03791 921.68649 953.62222 954.43008 995.41898 968.81300 958.37196 912.41769 900.41930 958.96483 1038.93629 1068.30585 1090.80137 1056.22219 1041.91533 999.33446 952.42410 931.36780 936.39636 935.76239 996.54863 1014.49917 1043.26547 1086.75795 1089.00990 1068.60338 987.25642 914.76725 872.71689 788.00570 810.98476 904.73025 978.13401 1069.86916 1125.73806 1090.02454 1041.38525 1025.65825 1019.90162 1004.09922 999.14887 1014.89968 1019.75241 1027.16333 1023.81071 1022.23731 1014.80130 1005.76553 997.57209 987.81001 973.97895 971.26215 947.21147 915.22250 883.94223 868.11027 861.92111 844.88583 842.74402 835.23475 828.02467 823.61809 823.73222 806.77655 799.26201 803.86934 861.49220 834.10190 833.18845 838.55191 843.87482 850.05553 866.68734 910.52015 985.74790 1017.07375 1079.88881 1110.64002 1114.56480 1110.72508 1109.98391 1107.76000 1101.97073 1086.20652 1054.02113 1029.73597 962.79210 912.85786 901.61062 908.79747 942.64185 1017.95373 1014.32280 1013.05173 1002.00907 987.63729 953.21350 940.68001 918.43055 914.63743 912.77342 910.33174 908.12878 907.09399 909.23330 911.17537 907.43017 914.91488 923.98899 947.00199 963.18663 994.82734 992.25985 969.77171 951.26802 948.70920 964.18086 994.98231 1007.48668 1005.52833 1004.21578 1002.51110 993.17203 968.39303 949.29588 928.00721 908.53857 849.29952 795.37153 765.71171 737.70395 758.24584 757.63358 800.26258 838.47768 851.53714 856.43653 855.01524
-1293.65189 -1265.37408 -1148.41284 -1127.83773 -1069.44442 -985.18703 -927.16491 -875.67455 -781.12133 -714.98667 -673.91177 -631.79111 -555.36035 -492.18163 -394.54977 -373.87619 -282.70389 -190.44086 -173.92133 -114.49246 -79.03752 -70.67825 -60.44405 -58.81427 -60.06020 -51.78276 -54.01616 -51.06137 -55.21252 -55.12518 -57.21090 -61.17142 -65.17217 -77.04396 -92.75197 -99.30356 -118.90067 -137.60397 -161.08121 -186.67396 -195.05336 -205.36612 -236.46040 -243.20785 -242.64395 -277.48138 -267.54148 -271.45027 -273.23480 -261.39591 -241.49374 -238.29335 -219.36651 -189.42354 -159.34363 -139.91678 -103.95905 -86.31628 -65.19979 -46.36910 -37.29509 -29.28965 -27.16382 -26.46201 -34.76170 -42.25344 -44.76200 -45.46908 -41.28094 -35.18913 -32.50670 -25.68327 -21.72825 -15.56190 -11.12110 -0.52825 1.88974 8.49587 13.61546 16.71171 29.41685 39.41859 55.25413 77.23959 96.25743 123.62724 130.37337 140.60780 136.34426 145.55390 154.66199 157.65122 142.08425 138.80106 141.95916 151.58944 163.42314 175.42340 169.18195 166.41355 165.33872 174.63217 186.45117 199.96146 212.70016 234.14243 263.90393 288.50706 301.00953 320.77164 322.61923 318.63426 347.62762 398.27176 428.72182 448.84483 456.38459 451.18022 459.38353 416.44769 377.44978 311.63778 287.52993 254.10964 242.30997 257.28516 293.84007 302.48654 387.32092 479.12870 483.57579 472.02889 467.35831 507.88827 536.07410 536.31249 546.41911 595.36792 637.08394 699.47790 751.09413 865.95762 917.97679 915.35468 883.50483 909.24807 940.32859 942.22992 934.96555 927.81928 935.26475 936.06420 963.57323 971.78571 953.10448 948.91558 923.70875 920.00134 929.25227 1004.52367 1019.78784 1013.75552 1028.17226 1033.28039 1040.42977 1001.61799 968.59884 964.22986 974.25963 1020.55261 1110.50965 1079.40072 1068.63662 1042.41370 964.26328 877.70716 832.61376 815.27767 816.03178 832.66873 977.11392 1067.20079 1128.27817 1118.40367 1084.67445 1041.53602 1028.54072 1032.30226 1024.03370 1015.92354 1014.22092 1025.95150 1027.46512 1028.20643 1027.08545 1020.35512 1013.40736 996.41410 982.57316 967.98189 958.85977 944.26431 910.75794 886.08472 879.70760 858.47751 851.48152 840.06963 834.27874 826.53366 827.03980 827.21617 817.76376 814.82871 857.83618 884.15538 874.46298 844.62217 851.07572 854.13395 862.78947 882.80198 889.94139 952.19197 1051.87743 1077.79425 1086.37365 1099.75352 1094.02698 1087.05839 1081.83599 1081.76986 1077.52236 1027.82496 983.27568 931.59493 929.48930 918.11775 929.93716 1018.31549 1030.60954 1028.51316 1025.38282 1019.64249 1005.86987 982.42698 966.43160 937.34847 928.20920 915.87148 921.17363 916.81029 916.94642 910.01737 915.48088 923.16988 925.28865 941.43834 961.27976 978.98264 993.96259 982.48851 975.83683 962.93844 966.08064 1001.24147 1024.64939 1050.45606 1042.47342 1043.18599 1021.97098 1026.18076 995.42261 990.35083 897.12143 828.99971 762.36395 753.63882 735.41570 720.47035 719.88506 757.00474 776.45530 825.98004 850.71329 857.05097 865.45783
-1278.60164 -1244.09651 -1168.09680 -1102.52425 -1036.50933 -977.75435 -909.19760 -867.30326 -739.38347 -700.60018 -635.98014 -598.55113 -535.44682 -435.27261 -360.23594 -300.23237 -218.22568 -141.87170 -115.78032 -100.72708 -68.34868 -58.32301 -53.45885 -52.09918 -53.62658 -54.41751 -56.26566 -57.90771 -56.97518 -57.80947 -56.47941 -55.35371 -59.66570 -62.20771 -77.51714 -98.27630 -103.06120 -130.35658 -151.62104 -171.94338 -188.72068 -202.83270 -220.66918 -228.30328 -240.07261 -248.18563 -260.21935 -252.28051 -247.11163 -239.85334 -234.38000 -217.96887 -188.40876 -171.93466 -160.54564 -128.11719 -96.23877 -90.68686 -73.28196 -52.41922 -40.28576 -33.96914 -31.93821 -32.60416 -39.05869 -43.75912 -46.71782 -45.48877 -42.40141 -35.14906 -32.01759 -26.62099 -20.59123 -16.59649 -7.44947 -3.90738 2.26572 7.70121 11.24514 17.35096 29.61477 42.85995 48.88243 88.74388 113.44636 124.00347 141.19534 157.77699 163.38149 164.06250 171.50025 165.45264 168.63959 166.79804 154.66877 166.23621 185.82297 187.93817 187.76788 186.98235 179.92292 180.73947 194.89687 210.31706 216.27410 230.51097 257.14528 285.15985 300.05648 319.75132 343.17572 340.23540 365.86894 424.62877 446.66861 436.13155 426.84874 436.75870 441.83526 429.07900 412.48851 341.56386 290.33639 276.12898 268.90660 266.57986 297.49215 368.62214 397.29967 486.73740 492.08813 470.66323 466.26231 482.21886 484.74050 481.49364 506.08878 612.14803 629.39680 680.19512 772.67874 789.39237 825.15911 835.51930 812.55702 830.00914 923.30302 936.71900 927.44273 921.78968 918.75973 925.87783 927.47317 916.49468 906.74024 892.98436 905.09470 875.32008 921.53641 926.23891 955.63968 1007.71799 1019.67602 1024.02852 1039.57628 1028.83196 982.26089 976.66133 975.54441 1026.05055 1031.83515 987.33021 954.07776 949.68797 869.38246 823.36127 784.90623 777.22212 800.16384 889.94320 1032.72045 1085.08243 1118.74293 1107.61825 1080.37638 1043.54547 1029.10311 1044.52742 1040.55072 1024.42454 1023.51112 1029.57642 1028.84647 1030.25882 1029.54847 1022.16266 1017.15182 997.57175 982.29792 963.32331 958.11106 934.39717 910.98707 896.74375 884.45040 861.62900 854.37336 841.90204 830.54918 827.65089 829.75566 826.88416 831.90963 851.74408 878.85547 947.44511 946.61331 884.79496 881.08388 880.45297 896.92986 909.68479 908.31403 935.99954 1009.09993 1057.71574 1082.92795 1077.23572 1075.16920 1065.73853 1071.27013 1068.00078 1036.49055 1009.96896 961.72271 954.22647 968.61273 968.30160 978.42149 1021.00802 1034.65312 1046.95323 1033.37431 1028.33411 1042.34588 1019.44405 976.82750 952.46038 960.29465 947.96845 926.41713 924.88183 918.35087 913.43938 917.07118 929.26272 936.26638 941.70842 970.10810 980.85837 989.83862 973.88141 965.85630 963.58262 976.30764 1011.98631 1038.63119 1051.95496 1039.40515 1026.22970 1026.08101 1025.67112 991.04755 898.50399 850.19367 788.95877 746.40133 697.99665 679.11336 664.51484 716.04708 744.00473 785.42988 818.68110 852.40002 868.50259 871.09945
-1258.52217 -1207.29217 -1138.86472 -1090.53272 -1021.70392 -988.80679 -877.65040 -834.66601 -738.21069 -704.36337 -628.48211 -566.03967 -477.11157 -380.28781 -352.45634 -249.00478 -171.16336 -128.58322 -95.17060 -75.30777 -68.57916 -59.13236 -54.66642 -57.94514 -63.55725 -67.73193 -68.85324 -67.63869 -63.92123 -61.72494 -62.34599 -58.21390 -55.80856 -55.40018 -74.24399 -81.65756 -101.31459 -114.41528 -142.26936 -151.82036 -177.67113 -194.64910 -206.07507 -224.95931 -231.20607 -241.69631 -243.63418 -240.25813 -239.44956 -230.84485 -217.46478 -204.73881 -187.36053 -182.71562 -157.43384 -123.91881 -105.09479 -88.77408 -73.38287 -57.48261 -48.50174 -45.81002 -41.45414 -46.69850 -45.88068 -47.21494 -47.21088 -45.71858 -43.17486 -34.55349 -31.81759 -26.62134 -19.87691 -15.88315 -8.90128 1.15900 4.85350 8.34199 10.73651 16.74489 32.83665 44.29262 66.18495 95.38022 120.92093 128.00732 164.22587 171.61134 182.61087 182.75382 176.95238 178.26350 180.08766 193.99081 181.92744 190.73679 209.46515 211.05153 219.59394 215.38823 201.85969 203.06736 195.84777 218.00300 224.85964 238.18442 253.39460 276.15145 295.18482 327.95603 348.48328 401.93778 445.44097 531.48409 564.31624 561.70337 524.12798 483.29299 490.44501 499.85976 498.45112 424.11667 391.17923 330.94359 337.16918 331.21231 332.91547 358.46272 398.00461 447.64590 461.01864 459.86974 455.51500 452.01328 439.43408 409.28108 451.97943 529.51087 625.29939 666.94496 703.43170 757.41521 731.34670 699.57428 677.48728 693.95336 730.31552 845.98706 875.54773 865.00445 885.52620 903.29224 908.40537 900.95155 863.50944 849.45994 843.22892 842.15598 837.91880 881.55726 872.63805 904.38479 980.12430 1017.05422 1031.09857 1030.72284 995.01132 979.16381 965.89760 923.12938 918.98311 902.71599 853.19603 881.95827 846.26569 788.70915 762.42295 774.54928 829.43829 927.14196 1062.82036 1116.38367 1133.14562 1114.03375 1079.19084 1065.68677 1043.20953 1053.90883 1055.57142 1048.50763 1032.17959 1029.80219 1031.51016 1029.43427 1025.98850 1022.78761 1012.02658 994.46859 981.06971 966.44977 952.58880 938.00218 914.94074 895.15858 890.19793 870.48477 854.96421 845.19929 834.76600 834.10979 839.68549 841.37718 838.80204 849.89127 922.78182 965.04288 1019.91664 1019.31478 954.24172 921.31085 919.33054 930.59936 929.39294 968.92070 1004.95726 1044.41314 1057.55365 1068.42559 1054.38261 1053.32216 1054.90897 1045.47283 1012.10705 994.50115 984.90730 997.78625 1000.67591 1023.77182 1027.33373 1041.71734 1061.37157 1063.65184 1057.07648 1056.70051 1063.55294 1045.60603 1021.09796 1007.98373 976.25713 967.79628 952.46511 928.98958 922.38745 920.96420 928.80567 931.84686 948.07775 966.67807 985.47143 993.26142 986.49560 962.54738 961.06194 963.09473 980.86989 999.25329 1024.09909 1025.64907 1020.12625 995.31710 991.92204 985.00503 960.14044 897.20965 785.54435 726.54782 684.42754 667.41381 632.23415 647.18795 658.88455 718.26163 777.56698 825.55501 858.14263 873.41252 885.76310
-1237.71008 -1201.44779 -1135.15914 -1065.03410 -1021.88421 -940.16354 -857.77470 -779.18525 -738.12755 -688.25748 -610.75358 -525.31758 -416.77459 -348.02816 -329.32297 -229.55833 -119.48991 -114.59582 -92.86622 -70.02447 -58.69892 -61.96913 -63.13989 -63.30000 -70.40638 -78.44025 -82.67301 -80.56963 -77.98218 -73.19177 -71.22317 -60.26571 -55.71940 -56.08389 -61.87112 -78.25943 -91.84504 -116.39193 -129.04064 -142.75921 -163.34045 -187.41183 -195.84315 -211.08918 -222.15703 -223.89760 -232.49691 -233.64030 -231.63296 -219.78454 -213.39557 -199.35598 -192.30426 -170.16336 -146.58785 -118.00216 -105.32005 -96.32990 -74.90452 -66.54438 -57.43113 -53.36174 -52.85914 -51.53874 -51.17725 -48.72928 -48.57994 -45.93649 -41.79047 -35.49811 -29.92898 -24.62980 -18.82595 -13.45749 -7.38137 1.54838 8.82181 10.21461 15.02736 14.92740 46.69361 60.56986 83.73541 109.22498 127.79018 145.15975 153.67537 174.85566 196.06371 195.65532 195.31205 195.31549 206.53941 200.54401 207.91892 209.44255 217.28281 234.46210 240.28321 248.41947 230.28261 197.65246 194.91126 207.54097 239.79097 242.05757 253.59127 273.62208 304.50923 323.02460 382.69072 431.70210 544.42796 580.54019 652.41727 682.42272 569.69826 555.30628 572.89654 587.92980 592.03834 516.61446 489.29157 424.66647 360.03474 388.81714 391.56751 343.84681 355.19464 423.79927 438.11488 435.41030 422.69667 413.71497 402.27571 405.50139 485.12789 533.91759 634.08031 672.83889 744.58490 660.81900 621.74280 642.22665 634.66548 638.33999 640.30649 750.65457 813.60782 812.90398 847.33380 888.46137 890.80519 873.14942 851.96525 814.97183 804.64542 769.40109 760.51895 772.10700 810.55942 895.71178 949.24931 974.55100 1022.94411 998.55710 996.40352 938.72236 911.39461 877.30350 819.74296 806.87837 823.99402 839.16861 814.65127 781.04721 817.24535 819.15000 865.17222 979.68546 1042.44040 1112.27128 1141.39720 1126.16599 1104.61404 1082.56027 1071.32668 1086.89545 1079.73405 1087.24911 1043.95277 1035.62985 1034.26791 1033.56458 1030.68982 1020.48639 1005.25458 989.35188 983.31840 970.28054 955.66326 937.70620 925.31258 901.22398 896.32758 878.12809 875.12045 857.87776 845.49845 844.88001 846.06729 851.25248 855.31559 883.33725 934.47511 977.10036 1032.05965 1028.12736 995.08948 965.47006 957.25483 930.00186 944.60547 978.11088 1012.19735 1031.81801 1040.31796 1048.42706 1049.03388 1036.94918 1031.42269 1025.02608 1011.06074 997.74952 1009.11117 1014.88858 1039.91818 1042.31842 1045.70980 1077.47915 1068.46018 1071.58162 1077.20629 1081.89406 1096.61958 1065.94009 1049.79808 1026.34274 1027.38931 1001.47085 981.52662 953.77919 938.75146 927.49527 935.39804 949.79961 955.08294 970.52301 981.30934 984.20036 977.00869 960.77085 956.89096 955.37929 973.28237 992.57124 998.61043 994.84843 985.38864 981.41865 966.91947 938.24018 932.93104 869.22204 786.52892 704.49025 674.21926 621.19624 615.50361 594.06223 647.20878 694.07041 786.26215 829.72447 858.35021 867.23012 884.95872
-1225.41227 -1175.76889 -1111.64197 -1059.96173 -985.43840 -939.58724 -841.72812 -741.81227 -692.81031 -612.73522 -559.92261 -508.66755 -394.53517 -327.86318 -221.61985 -167.94766 -136.75201 -91.55409 -78.09401 -60.34021 -58.25939 -66.20833 -68.18063 -69.13322 -81.56266 -86.83814 -92.12051 -93.80063 -88.84559 -83.47106 -72.90560 -69.72127 -54.26226 -53.62759 -59.80698 -74.22924 -80.34554 -103.12599 -132.32661 -145.91059 -163.24670 -170.90411 -189.85799 -207.84355 -216.82550 -223.14014 -227.95987 -231.05770 -231.74276 -214.89682 -202.66049 -193.89053 -189.58609 -168.83072 -145.31340 -124.09990 -108.75127 -100.50806 -78.48578 -74.14046 -64.10621 -58.08917 -57.65602 -55.37982 -53.64075 -51.14528 -47.96249 -44.78444 -42.29637 -37.71720 -29.73916 -22.51985 -16.76030 -13.66830 -3.42661 7.06594 11.12798 14.40188 21.88971 25.16772 53.24102 90.18339 98.87016 123.42137 130.33866 147.94193 160.22866 167.94044 192.81531 194.63676 214.75034 222.20037 223.34103 232.05726 236.06716 233.92977 242.78010 243.27552 254.70725 253.71541 229.25445 198.16866 175.64638 206.04395 235.80503 251.23260 264.30961 269.74359 282.57510 357.18830 444.13115 469.88767 562.37657 683.53462 707.37028 718.47001 709.12125 714.53266 733.87308 696.63153 665.11231 616.08033 522.88300 516.56629 436.16217 431.02827 426.55981 373.45371 344.27676 363.02171 420.52850 430.76408 402.63990 401.00896 401.15163 459.06051 544.05414 654.97399 738.40904 714.88546 714.40836 653.64074 634.09002 654.42780 688.23116 679.93879 676.51548 698.05995 784.43255 817.76303 842.70093 889.41300 894.31410 862.09356 848.37642 808.05403 805.84687 773.68275 754.42874 724.12391 787.21858 877.39925 934.75662 992.60515 995.34421 973.14091 921.32600 898.11869 880.19008 870.86476 813.20864 801.12371 790.87448 842.36792 840.29970 850.52948 866.86065 909.87863 933.85407 1014.11208 1066.20976 1133.15543 1152.56993 1145.62740 1114.54182 1094.68142 1095.44286 1095.21500 1096.80635 1089.52208 1068.85328 1045.62894 1037.23198 1033.82635 1026.08734 1020.44688 1007.79489 991.51915 980.55877 968.33528 956.61997 949.42182 933.51967 917.69412 902.79022 891.00250 885.76576 881.59957 880.43868 865.03359 874.83566 881.42173 871.81729 885.88513 922.30241 997.40393 1031.94884 1069.60873 1033.81596 1024.26401 975.24587 980.63307 988.37996 996.28234 1014.89369 1030.65153 1037.52418 1036.48128 1027.97066 1032.73375 1020.81017 1005.84277 1012.49939 1029.90099 1037.17119 1048.87689 1067.59839 1077.87161 1083.39501 1081.54819 1073.53470 1083.86961 1067.25060 1091.30773 1083.95828 1083.28584 1069.41176 1047.42905 1037.24519 1023.45997 1018.97379 992.93967 961.82894 942.92732 949.24301 961.82038 969.86430 978.12696 974.02159 976.43455 971.48799 959.25905 951.28313 953.60944 962.91392 966.81440 974.66968 971.42906 965.18282 954.06261 954.26396 923.06464 915.82900 857.67466 785.94331 707.94227 632.12047 587.24760 578.94331 589.96173 634.53423 686.66891 803.91153 821.17877 834.98510 858.41372 865.20815
-1201.77222 -1159.48648 -1096.78203 -1028.72251 -973.91574 -878.69108 -781.89116 -748.41088 -672.52455 -588.46898 -531.14045 -418.61697 -327.22085 -294.06022 -210.18987 -144.87079 -95.54726 -84.55416 -67.32465 -60.17018 -64.05651 -68.53075 -73.33049 -80.60942 -87.16813 -98.15168 -99.90057 -97.61657 -93.74475 -92.25554 -76.24276 -64.63626 -55.81104 -54.32658 -57.11149 -71.10705 -83.60308 -99.65350 -124.26447 -149.26436 -164.84669 -176.20083 -189.77180 -209.72157 -217.29574 -223.20535 -231.23785 -226.63310 -224.51708 -216.16473 -201.09161 -195.12263 -179.49189 -162.26758 -142.97982 -127.30219 -119.00538 -94.29064 -86.12779 -75.00932 -68.41119 -63.34057 -60.34414 -55.30474 -54.27158 -51.07597 -47.91855 -44.90556 -42.39939 -32.26021 -28.53406 -23.92511 -14.05449 -10.20287 -2.00093 11.12188 16.49833 17.11548 29.48619 53.30618 84.08420 91.96997 109.20842 126.77209 132.84944 143.03178 148.67869 147.47502 169.13056 193.79263 212.89386 236.17363 241.20707 241.44166 251.21485 249.20515 249.45728 254.45188 257.29378 255.00122 218.96673 187.40376 172.67303 201.36941 230.44543 242.58482 268.92494 293.57108 301.81742 365.40978 420.27590 530.71717 674.44997 705.41234 745.07851 750.88064 795.68240 840.82599 859.32958 852.13755 784.75083 638.39195 574.62620 548.63665 568.40683 567.24477 479.65087 386.14695 333.73035 382.97231 458.72344 428.78121 453.00752 471.12069 474.24005 543.25422 642.79921 723.63773 830.23566 822.35683 777.10289 640.20260 635.71790 690.54402 737.10183 712.57406 715.80704 707.38309 805.67794 878.95012 902.16471 906.34541 928.74308 921.29934 900.31807 874.72772 818.99378 805.62594 764.77455 695.04490 715.03147 822.47771 936.99385 994.13135 980.53582 935.31256 896.67690 886.37555 871.67228 824.55659 794.47600 781.34005 846.06775 889.55378 900.31921 905.94802 946.90299 954.39855 1036.79207 1086.23367 1096.26956 1133.70175 1154.15950 1158.76739 1113.38128 1118.58560 1114.24296 1115.06643 1108.84681 1097.53515 1067.38587 1051.76138 1038.49280 1035.37410 1025.80792 1014.12246 1001.95384 990.10577 977.26721 967.79905 964.77990 952.79086 941.46969 924.78801 934.18923 910.29909 898.94091 897.73835 885.44920 898.31804 903.42443 899.46308 883.17326 891.65652 943.26843 1000.12257 1070.18880 1090.61012 1078.66631 1073.57449 1086.45453 1065.49294 1039.14921 1033.41328 1033.64860 1047.56519 1041.48853 1034.57485 1020.11716 1020.28261 1017.21053 1007.56669 1022.42850 1043.35212 1055.14863 1063.55897 1080.60864 1090.78380 1090.17507 1080.06548 1075.41979 1065.25839 1059.52259 1066.14368 1078.16772 1073.03341 1069.44158 1060.67524 1056.11375 1048.71433 1036.95946 1016.47871 976.59323 970.56077 957.32887 972.46574 978.73721 979.14006 976.90780 972.63858 968.05609 958.61062 951.19285 952.56718 952.28022 954.33522 956.17377 957.52893 955.43324 947.84401 946.40278 939.27328 913.63470 862.55727 747.09425 656.40415 620.31616 552.79230 556.40484 583.06028 646.13507 690.01723 792.08451 803.09579 816.54102 845.10759 852.41376
-1180.86874 -1104.30350 -1041.68270 -1023.17293 -936.45998 -837.57203 -771.63256 -679.94228 -595.74484 -522.70749 -476.13182 -372.53869 -319.88304 -214.08204 -154.22164 -120.76888 -89.95158 -85.67404 -70.93902 -65.74070 -66.73182 -75.52123 -80.04084 -91.85450 -95.33643 -99.31896 -105.79615 -104.81166 -102.97148 -94.54546 -84.22028 -67.01030 -58.21410 -57.48501 -63.12727 -75.15930 -79.23609 -103.94571 -132.68578 -153.40378 -166.16542 -185.02931 -192.74156 -216.16099 -223.87580 -230.91474 -233.80134 -230.24452 -226.35434 -216.72217 -202.49194 -184.99182 -174.50098 -166.09705 -150.88973 -130.70363 -120.37123 -98.74676 -90.74728 -77.96781 -69.80026 -66.13778 -60.92718 -56.45103 -53.86529 -51.00558 -47.58700 -43.76605 -42.38033 -33.84742 -28.13096 -19.07003 -10.08868 -5.79314 2.16850 13.18681 30.52873 29.96601 36.30199 56.29990 88.92326 110.09162 111.94255 135.96749 136.11763 140.18270 142.03971 139.69648 163.06213 179.33770 210.96546 239.44976 251.88402 255.25244 258.40318 252.13829 251.29867 262.34775 264.71029 234.06423 208.33562 177.44964 177.78132 196.28304 220.03416 256.53511 288.55361 302.55917 333.97149 370.41377 456.63193 557.71512 635.70679 738.15310 758.34556 764.64739 819.72531 834.77458 878.64963 889.95173 842.48121 731.89227 598.02535 593.72356 582.68343 587.36764 523.59760 457.81631 400.31573 470.95731 467.99420 462.60664 497.81026 632.93894 648.29524 743.28423 819.27545 881.99994 931.20575 904.34644 809.46406 747.19405 744.27989 762.83956 801.45099 799.65700 802.20615 828.68677 857.52989 919.01928 921.37166 951.31851 974.58079 999.54450 972.24575 916.08913 936.11855 856.85787 747.17041 694.52564 694.97706 791.43865 887.17548 961.86811 975.53904 938.23569 918.06064 916.83676 906.21040 854.61315 803.27104 810.45838 856.24728 923.30310 1008.10305 1010.33468 1050.74937 1072.34280 1103.58091 1098.56328 1134.70310 1142.91728 1160.82932 1153.93067 1142.84350 1126.89902 1125.47324 1132.03001 1122.71666 1097.04562 1065.16325 1056.68289 1048.43858 1038.63033 1024.44842 1004.49112 1001.57675 994.59814 988.44025 976.23005 966.05513 971.63709 969.13283 945.24142 941.16868 924.09889 902.10924 902.01120 916.61488 919.65585 913.23395 912.72529 900.25514 888.92173 945.02410 999.25438 1075.18553 1110.38035 1093.05360 1091.27218 1095.79936 1091.71257 1076.29543 1048.75732 1060.22689 1052.37386 1055.34396 1041.40399 1028.62265 1018.30799 1014.96242 1010.79164 1028.40417 1053.99482 1057.46800 1073.38879 1090.97738 1090.78297 1089.10446 1072.08855 1063.19296 1059.24348 1051.23233 1041.80422 1062.05340 1067.16350 1070.36468 1063.80894 1061.10872 1059.59455 1047.77262 1027.41221 1011.09758 988.62615 994.82015 999.77318 994.44003 980.68037 969.99938 968.10929 959.64873 955.32741 952.07039 953.49840 954.63786 954.77428 955.70998 957.59903 956.56838 950.36614 962.85308 956.15986 932.98538 868.93812 751.10283 635.87016 596.12024 535.51751 549.56537 574.53967 627.44937 718.39390 785.50370 795.30633 811.46344 821.61348 844.48221
-1120.85946 -1086.82511 -1015.90647 -961.23559 -862.16453 -820.41423 -741.91624 -667.43713 -551.46085 -510.71252 -420.03160 -360.79659 -243.34633 -182.59891 -146.87351 -121.71059 -94.00775 -85.51690 -75.70051 -75.47421 -75.93569 -85.34705 -85.75793 -97.86569 -105.24268 -109.68795 -113.60042 -111.98405 -108.95794 -100.09121 -97.59073 -71.12171 -68.03529 -64.27067 -78.55465 -80.27567 -89.16330 -124.97007 -137.69011 -153.27308 -177.17901 -194.84557 -200.40294 -219.19785 -238.17726 -240.22971 -242.98480 -234.95691 -229.55001 -226.39919 -209.25859 -192.43725 -184.56004 -169.30681 -152.45376 -137.61503 -117.27867 -108.28454 -92.33659 -83.93925 -73.67848 -61.86876 -59.92520 -55.88534 -53.63641 -50.58050 -46.26552 -41.45299 -35.09819 -31.46781 -25.66533 -14.69212 -10.13980 0.00914 10.39729 16.12732 39.37786 56.82662 59.91065 96.59947 101.87253 125.92371 130.80264 140.84419 141.39097 146.01409 146.00399 152.90461 164.19258 178.54841 208.77109 235.09791 257.63391 256.50582 257.34472 249.19394 258.77612 267.02081 265.45102 254.42081 205.79263 181.36474 180.93755 208.10551 229.60050 271.80668 313.07125 355.49605 359.63200 450.76848 491.66446 567.83660 656.23846 732.46488 766.05535 773.26151 806.81959 837.48494 876.72527 876.21626 821.56872 750.69891 655.61430 611.63978 614.97484 612.57030 590.35664 462.03697 435.98783 493.45351 639.11183 781.73313 840.32367 805.06577 811.47297 835.54800 979.56225 985.67198 995.43268 997.22263 946.19487 874.21979 830.06197 883.40637 892.72137 886.15980 871.00684 880.75788 925.92210 931.44583 960.32490 991.31514 1013.96241 1040.20917 1035.00871 1015.87517 963.17983 884.99822 836.04877 691.76242 693.40271 757.96594 853.35998 893.31288 978.26381 984.42747 958.41670 954.93985 917.27279 875.73003 822.29170 823.85697 923.92832 956.18161 1085.35584 1134.37168 1129.22749 1147.77665 1125.58278 1119.71223 1149.35022 1161.46845 1164.86380 1155.32662 1138.74460 1136.94646 1136.07588 1136.79979 1124.67674 1111.23562 1082.79441 1075.68501 1056.75625 1050.27389 1019.22455 1010.94376 1003.19350 998.08726 990.98859 996.23227 995.15973 1004.78347 988.31424 988.25755 957.75740 944.30288 922.65932 925.55358 926.23048 928.99895 925.77274 920.69176 906.00286 916.10888 934.77021 1056.74776 1099.06750 1134.27966 1124.28381 1106.18390 1111.93400 1106.35774 1101.13709 1091.64537 1084.81277 1079.76235 1070.52391 1057.21106 1027.85057 1018.93940 1019.61740 1018.23352 1030.51108 1054.49773 1064.00862 1073.43081 1075.40054 1079.97864 1073.71525 1068.25494 1063.51814 1047.09523 1042.60520 1035.09474 1044.07388 1052.93630 1062.23393 1061.95388 1064.29436 1063.18884 1075.52090 1071.66715 1060.52098 1035.10136 1010.03450 1014.35958 1000.18902 975.02362 965.59188 963.36419 957.86112 953.95295 954.28155 956.12221 956.66751 956.04747 955.27062 957.32377 964.05984 977.16381 988.81784 982.44377 913.01245 830.52207 767.56903 650.75950 576.07400 522.90075 524.62839 549.28865 646.15910 742.91321 749.67116 751.94279 758.32235 813.30575 825.91147
-1099.82949 -1034.74157 -956.75690 -902.57790 -834.98255 -767.76145 -726.96124 -658.78764 -555.39222 -434.99400 -404.63359 -309.39710 -171.00324 -160.47398 -124.70286 -104.64737 -98.73129 -84.95522 -81.46144 -85.22600 -88.50906 -90.90379 -104.08188 -104.60514 -112.75596 -117.53093 -120.07871 -116.89180 -109.54075 -104.80571 -92.94841 -76.71916 -67.70889 -80.61543 -92.32593 -95.24124 -108.78772 -123.23709 -145.79352 -167.38205 -188.47383 -212.68424 -219.20860 -260.13976 -258.33844 -254.11262 -253.78804 -255.53051 -243.52227 -230.68719 -222.13457 -200.85519 -188.31177 -168.53867 -152.56661 -143.23496 -133.42938 -108.53436 -93.41329 -89.19108 -77.25097 -65.21248 -60.46640 -56.50933 -50.74593 -48.43491 -45.61615 -40.30157 -35.05596 -31.67480 -23.60577 -12.20069 -6.00591 1.66235 8.29307 35.72808 48.87468 84.27819 108.72843 113.76425 134.22804 135.99296 144.06107 144.80982 148.80976 157.06206 160.26263 163.04719 172.23413 184.27451 201.53347 233.28837 255.80809 253.54670 250.37169 245.93541 251.34484 262.23425 267.90619 242.75092 219.84961 191.99833 182.03395 202.65751 234.99554 294.93928 324.32182 390.43849 421.08715 480.80309 550.48071 565.16079 641.62161 725.58338 765.81966 794.66242 797.57789 815.39088 847.64632 838.14378 756.38316 703.87641 674.62468 644.35495 654.84357 600.48552 523.17241 489.30220 431.40807 578.25530 719.33897 905.86081 928.30376 870.03597 953.03648 967.05443 1001.16486 1018.41339 1027.97872 1025.60549 1010.76735 975.99310 933.26612 897.40047 920.25162 916.63881 911.11588 915.25458 934.11174 940.99649 962.60812 984.99061 1024.35642 1049.50050 1044.29378 1018.40603 959.40993 918.85957 748.22465 649.53042 691.44326 749.20659 814.96514 908.32369 1006.85018 1004.39525 1017.50030 983.24153 952.65871 889.53622 869.90289 853.34058 911.60236 1043.77816 1118.09089 1196.13050 1181.58571 1158.74040 1151.53251 1148.27768 1154.54316 1171.70796 1166.47683 1155.47812 1141.23679 1141.70209 1139.61920 1133.61812 1122.67346 1109.38128 1101.03187 1078.36813 1064.39155 1046.10744 1025.39303 1006.81280 1004.66922 999.85736 1007.73467 1007.37804 1021.78084 1012.44063 1002.14325 994.75548 972.78062 957.94675 941.53127 947.82995 941.79572 939.12379 931.72546 927.58955 914.51953 941.15898 967.70802 1043.09814 1134.02296 1170.99415 1161.20290 1137.41432 1125.13185 1114.25879 1104.91542 1112.53221 1113.16535 1095.97624 1087.76436 1062.93264 1044.72053 1027.57585 1028.42068 1026.02934 1026.20938 1045.37356 1051.40933 1057.86430 1066.98966 1062.12096 1064.07610 1058.61683 1050.15627 1046.02481 1036.17053 1035.00726 1034.16634 1046.55909 1049.14614 1057.52140 1057.49850 1074.37440 1096.52049 1107.81586 1119.64146 1102.91862 1065.20207 1027.29435 1009.72269 973.99102 964.28733 954.76912 957.58652 954.13896 955.14027 955.70871 956.44209 956.20974 953.97441 954.29178 970.62341 988.94006 994.09806 979.71388 895.18475 838.50721 723.38891 627.94442 572.58867 532.46001 519.63008 541.30321 636.21187 739.53397 741.10813 700.64380 715.26324 757.22080 813.98014
-1041.23904 -999.81876 -951.56174 -871.20650 -797.64697 -785.22677 -711.52439 -665.04057 -544.58418 -412.62240 -305.79384 -281.46798 -180.00786 -135.47703 -122.57372 -100.72774 -92.06388 -83.55940 -85.19019 -89.33073 -90.99178 -97.30357 -104.69667 -108.77525 -116.44637 -117.89967 -121.83196 -117.69646 -114.92662 -105.75068 -93.39936 -80.68975 -76.81601 -81.28646 -107.45615 -113.18603 -127.61195 -140.75043 -162.67083 -192.52266 -220.57179 -238.08730 -251.41130 -264.56294 -270.04508 -268.79547 -273.25928 -258.42956 -253.47511 -241.60111 -232.37149 -216.48682 -190.84331 -177.61862 -159.96297 -146.33675 -132.94926 -109.69875 -98.07157 -85.52562 -75.29142 -68.32479 -58.30363 -53.00863 -46.70488 -45.22386 -43.95602 -37.86096 -35.97772 -29.42347 -19.78193 -11.27720 -3.76309 4.62967 11.52953 27.80300 71.64782 107.95295 114.66580 132.34798 151.40164 155.90491 158.00640 155.51866 164.52579 165.63495 173.29050 180.37314 184.65604 184.74697 201.75606 230.16894 237.91999 238.04059 223.62061 226.96851 233.22045 244.38445 245.82465 240.63444 212.36776 204.66202 205.03883 209.98905 235.61956 259.37443 328.58451 389.85285 446.35537 481.24108 542.49056 585.94204 668.28254 727.52666 780.59550 804.91325 809.27495 778.37507 796.16431 726.81622 707.56740 683.37541 677.23912 684.69410 631.75098 606.57603 523.78638 433.04201 494.62459 642.56311 747.71557 962.00833 948.51864 963.77074 967.99615 940.73361 940.03706 978.99650 1034.70966 1025.82724 1020.91697 984.22685 938.63764 916.58922 898.81141 895.10726 893.69830 904.44238 935.05008 937.60232 935.21178 949.36682 1008.64744 1058.61417 1046.90498 1036.53281 944.08914 901.25559 706.94560 619.34300 603.70065 750.23172 794.34820 956.02000 1032.50351 1049.60100 1062.72066 1019.04110 981.35030 914.16118 858.92408 879.96606 923.59093 1064.46993 1150.63243 1193.26456 1182.65057 1163.94854 1150.95896 1153.76524 1161.73606 1182.98465 1179.30319 1155.09481 1146.97009 1143.80455 1137.24152 1128.21675 1114.30177 1118.16284 1107.85872 1093.75949 1066.12422 1061.56034 1042.02206 1013.65449 1006.51934 1027.50284 1038.76988 1045.21778 1064.41545 1053.99687 1018.49033 1008.64784 993.80167 976.72555 962.63728 953.24688 954.46447 952.11798 942.53046 934.39340 932.10443 949.28247 974.73942 1072.35692 1129.75206 1171.99103 1162.23453 1154.84595 1138.57986 1105.73716 1099.47066 1105.53268 1107.48231 1093.95336 1079.48573 1072.28379 1048.07380 1035.84944 1030.89308 1027.59871 1026.28494 1035.87255 1043.46463 1053.16890 1050.24364 1052.44345 1049.32321 1049.45416 1043.86568 1040.41779 1036.03117 1034.79819 1035.31277 1039.77565 1044.10598 1050.60075 1052.66727 1074.51589 1100.64829 1128.09469 1143.16345 1118.11405 1091.78023 1071.48892 1023.12860 993.57091 966.60552 958.81446 960.06152 959.35460 957.09771 957.13833 956.23293 954.36944 952.77744 952.51423 971.19122 998.03381 1004.67380 983.62722 905.24908 817.35488 757.38470 623.10395 556.35739 527.00716 515.13432 523.56088 631.94845 649.23083 655.48785 633.32667 640.93417 689.32930 768.96688
-1027.61235 -973.30018 -912.24568 -879.62319 -791.69976 -753.25283 -744.42657 -557.04138 -427.77736 -387.17889 -279.84720 -222.85787 -189.03504 -136.16528 -114.52357 -94.98094 -90.98698 -88.57557 -90.95073 -93.83438 -94.77548 -100.15630 -109.34626 -114.51100 -122.09283 -123.01464 -122.55546 -117.04942 -114.71180 -106.09408 -96.21839 -83.68003 -83.08708 -85.09313 -105.83507 -120.76890 -137.51369 -176.15707 -191.38484 -206.84768 -241.47170 -257.56896 -268.70185 -277.79392 -286.61403 -288.26458 -292.19549 -278.78577 -270.89926 -243.86258 -241.73849 -220.90953 -209.87621 -187.45232 -175.54556 -154.75383 -134.64983 -117.87059 -101.89487 -87.13856 -75.76473 -72.09481 -60.08768 -49.08274 -45.66316 -44.16703 -40.06333 -37.59924 -30.80073 -25.98376 -16.88930 -5.97335 -2.49166 3.24566 18.68006 23.35323 66.74612 111.60624 124.25869 138.61367 160.04627 171.01354 167.00770 164.09553 169.81156 172.69162 175.65541 175.63370 176.06751 185.17704 187.07569 205.29140 216.81284 218.85452 213.89802 218.04557 222.95528 237.19414 238.56562 215.57795 206.76919 207.38321 208.36244 261.77775 239.56884 285.83815 307.48411 390.12636 443.21555 491.03814 543.31266 557.83628 634.92073 716.95879 791.48522 856.11123 837.07710 785.54663 789.31331 749.08143 690.92967 700.99965 705.95825 703.55273 690.14708 583.20306 492.10628 467.10903 521.90400 691.51314 870.31023 924.52923 998.52047 928.90556 902.69036 872.68312 872.71879 936.91454 1001.78928 1023.65690 1016.15847 991.07103 945.58161 912.33890 857.38172 851.04282 836.73103 868.36972 889.24669 924.21992 913.08606 882.62775 904.32175 905.24866 933.89847 844.44473 874.71708 729.01688 594.29850 545.18007 582.11862 616.13614 771.75347 942.14998 1030.47192 1055.14987 1053.61474 1023.94390 968.59811 941.55917 874.14076 836.62922 1004.91355 1078.11874 1173.32991 1183.24677 1179.88221 1168.89039 1157.81791 1157.29855 1175.31489 1185.94163 1185.78985 1174.78305 1153.39920 1142.43359 1126.73991 1116.23802 1114.20155 1119.35352 1119.24560 1111.07272 1092.23416 1068.80555 1040.80294 1024.73587 1010.20868 1065.79315 1091.44855 1083.84097 1097.16898 1072.33833 1040.85146 1008.10857 1002.28100 988.21697 972.94709 972.53668 967.28395 955.57768 939.23766 937.44336 949.45949 977.28857 988.71406 1065.61393 1155.79149 1155.75594 1148.87982 1139.14535 1122.24467 1094.76749 1093.59207 1096.05270 1091.31886 1084.10092 1076.84745 1062.01088 1052.75911 1040.60438 1038.04646 1025.27646 1024.59460 1030.22796 1038.97823 1043.01560 1048.76824 1047.97048 1044.40611 1042.10112 1041.25489 1035.51186 1035.33029 1034.64988 1035.84506 1040.18635 1042.95910 1045.11180 1055.31088 1089.48114 1101.79434 1134.11784 1152.59587 1166.60677 1142.06882 1084.45934 1049.12687 994.69012 968.01840 969.41650 968.17099 962.94938 957.82680 956.74873 955.89399 953.12858 952.16829 953.80048 966.38073 985.87971 1002.20388 1000.37680 949.02975 890.48304 762.34203 620.56381 558.16439 530.75898 520.03773 527.75793 555.78836 574.24714 621.19579 593.44539 629.20623 637.34342 710.80668
-978.48736 -947.90058 -895.73042 -828.36886 -764.60129 -751.35753 -620.35217 -447.63257 -373.79368 -314.06957 -280.09008 -200.83273 -155.61844 -141.81807 -112.36641 -95.34277 -94.55661 -93.78801 -94.17069 -97.65859 -105.05386 -107.46361 -110.84559 -119.76436 -124.34147 -124.97291 -125.58622 -118.49132 -112.24284 -103.63690 -96.21552 -91.96673 -93.54943 -98.59087 -132.41671 -142.09203 -173.52987 -203.48766 -215.86562 -254.20119 -276.52319 -284.93400 -295.58483 -308.46618 -311.85329 -314.29682 -309.43678 -299.69116 -285.82086 -268.37857 -255.27926 -229.28304 -217.01230 -202.03570 -186.63296 -157.16184 -136.22648 -121.66609 -104.73239 -94.27743 -83.42267 -67.65357 -52.10983 -46.17984 -42.99558 -41.04074 -38.49908 -34.05009 -27.53494 -24.13002 -15.92322 -5.12169 2.40850 15.60586 26.85968 31.32757 91.48714 115.93594 131.64962 139.53246 158.20984 166.01905 165.23070 164.79966 168.18110 166.37821 170.27656 166.02431 168.11603 171.77028 183.36893 186.38219 199.79787 208.82035 205.81042 209.63843 219.48008 220.42378 210.57941 205.41366 198.04405 244.83551 268.45300 303.08701 311.76976 289.90170 319.55558 384.05400 448.54241 465.51385 516.93307 562.84101 626.60498 754.87243 844.31761 875.30645 864.08814 797.45762 799.17022 780.05825 712.13683 708.09392 738.40824 740.80604 730.90900 604.97580 457.75249 397.80128 533.07514 736.54363 831.02248 974.69955 950.83525 871.60903 850.49908 807.46492 847.25466 922.57733 975.84178 1019.43349 995.74689 956.21378 942.55021 905.65850 862.16417 831.75631 812.09638 812.22411 867.34417 885.97195 897.66907 803.20407 733.41353 748.22088 738.31651 740.34699 727.57231 629.19403 599.35183 560.12763 584.92811 661.69098 799.42506 967.30816 1035.32943 1052.52151 1044.53083 1008.63749 955.42966 941.02451 856.13269 828.40385 926.39603 1068.57640 1168.96254 1183.27815 1179.59463 1180.51416 1174.96839 1165.05939 1171.94713 1189.88556 1203.97754 1188.91585 1158.08650 1139.03326 1121.41124 1113.06810 1113.09073 1117.72178 1118.87519 1108.23477 1093.19136 1066.03529 1034.91597 1029.18608 1044.90280 1081.03311 1106.24707 1105.50035 1111.81415 1075.10536 1040.87301 1008.99394 1009.90484 1009.82503 1003.57840 993.89329 972.25449 950.10364 934.04561 933.86489 967.85580 1003.62548 997.85097 1070.71891 1162.62022 1141.04151 1114.87594 1116.64231 1085.56882 1075.34598 1079.29635 1081.25006 1079.72683 1072.61394 1074.77841 1067.55830 1050.53789 1042.90461 1032.67226 1021.21557 1020.42709 1031.55608 1034.79368 1040.82149 1042.84333 1047.05485 1041.27336 1037.92972 1035.87686 1034.79326 1034.68146 1035.49175 1037.27380 1039.85653 1041.45866 1042.31216 1052.65346 1089.81817 1112.81830 1156.88304 1176.15185 1181.20717 1165.43524 1113.19110 1062.52042 1026.90761 985.17571 984.00340 977.90815 966.26871 956.83380 956.02055 954.01421 953.00370 951.80781 954.56692 956.33613 966.76141 995.47486 997.74902 958.47479 947.89815 785.20940 611.62290 559.84393 530.35752 525.74061 536.90654 556.69049 566.21969 585.19197 546.91825 553.43965 586.88239 704.31926
-941.71051 -913.49901 -852.71381 -765.44539 -723.97865 -646.06910 -515.15479 -395.66917 -358.12943 -316.33815 -223.52765 -162.27056 -155.44541 -128.64791 -106.25524 -102.46391 -99.07855 -100.21052 -101.65694 -102.23545 -105.58637 -110.91866 -115.47766 -120.92762 -126.22001 -125.71181 -121.65681 -112.98936 -108.55931 -100.90200 -95.60610 -99.31204 -104.43760 -122.54865 -137.46925 -169.33099 -190.43992 -226.71649 -256.09161 -270.08484 -285.05069 -316.71563 -305.06814 -329.95620 -336.08642 -334.81077 -324.03119 -329.45518 -315.11101 -295.05876 -260.57545 -250.87654 -218.98217 -204.94419 -200.77979 -162.62561 -134.32304 -129.03026 -104.13336 -98.00712 -78.10179 -70.46816 -56.75813 -43.65652 -37.25906 -35.98728 -34.47308 -33.49311 -25.46589 -22.73085 -17.29810 -1.98463 6.70475 18.73003 27.61203 60.32965 87.16731 114.53559 132.14799 143.46657 151.06969 163.93628 163.89328 161.09977 160.94952 158.30742 154.55406 153.81776 156.93148 166.52036 176.73673 182.10730 183.02826 186.22355 186.73702 195.32521 204.58639 210.32930 202.99539 207.72044 209.66631 269.80382 308.60854 411.11411 406.04128 370.57021 373.71514 389.37278 441.53275 470.16932 487.22307 522.07286 595.53767 734.34562 908.97709 954.00898 937.30523 854.37698 820.64165 777.43189 725.91846 706.47850 741.13081 751.26009 750.99112 602.67924 532.22337 487.16752 530.00167 700.67541 792.38493 892.83078 839.36107 799.51044 783.35385 803.66900 867.05141 922.41123 974.09969 992.53486 989.56432 937.02803 919.21895 914.26388 863.41505 800.47803 792.82667 791.96856 802.68103 858.71057 837.42946 693.37217 643.04686 624.21018 636.42674 624.94261 630.86737 711.47034 661.07833 698.97890 691.78858 772.60664 849.40031 972.46844 1048.45496 1045.74688 1052.79227 1013.14981 959.44158 887.94981 865.46513 888.25680 922.55551 1061.17931 1151.10528 1154.24134 1185.85220 1181.12910 1177.90206 1167.61241 1174.87881 1186.71782 1206.23555 1199.04036 1164.80901 1143.40591 1121.45505 1118.77559 1118.77772 1113.11043 1102.60367 1090.72658 1085.98516 1065.79070 1048.37529 1038.44626 1071.36789 1103.04930 1106.73143 1112.75186 1094.93055 1061.77227 1048.72685 1023.86212 1014.91178 1024.72689 1017.81147 998.70134 970.27806 960.16985 937.11534 960.35102 1002.79367 1062.51932 1090.89368 1148.16321 1166.96373 1143.30148 1111.83492 1106.91225 1087.80562 1077.25570 1078.45513 1083.14485 1083.49101 1080.30157 1078.32887 1067.07755 1054.84140 1044.33441 1027.38375 1018.22487 1018.40802 1024.03945 1033.03611 1040.22577 1046.44837 1043.61579 1041.23927 1037.14077 1035.23701 1035.09582 1035.00017 1034.94398 1037.20217 1039.04095 1039.51608 1040.44142 1062.08361 1076.13725 1133.75970 1176.49114 1208.86386 1214.25389 1198.02634 1123.38104 1100.29358 1033.79526 999.55850 995.24030 978.54329 974.52344 955.71580 955.02211 952.91581 952.53098 952.16741 953.36793 958.65378 969.62515 991.86302 986.24616 967.17139 947.43699 795.53433 736.29073 554.06546 543.01160 533.72159 550.68417 581.76960 563.56128 546.74282 524.30762 502.86476 570.29542 690.80731
-929.74993 -828.55338 -763.00263 -732.16531 -637.57211 -581.30403 -476.94277 -374.24666 -328.91283 -243.90551 -174.40061 -158.65532 -135.13076 -123.35055 -113.95914 -108.81658 -104.36598 -101.96488 -103.89381 -104.43623 -108.30713 -111.13354 -116.70089 -121.64258 -125.02034 -124.36476 -116.46784 -111.98599 -102.15929 -99.99316 -96.17210 -109.56064 -118.55189 -130.37129 -166.53396 -206.63240 -218.53519 -255.97469 -292.15043 -308.80287 -329.22116 -338.23261 -344.39190 -366.29955 -360.14350 -357.42353 -341.64722 -339.19512 -324.56363 -304.91911 -279.16402 -272.20784 -235.81774 -207.26574 -192.89925 -181.56062 -154.19692 -125.24128 -113.54613 -98.55238 -79.64477 -65.59630 -46.39803 -41.78447 -32.98880 -30.91020 -30.59816 -27.36941 -17.32982 -16.83574 -6.28123 17.45823 26.45644 39.02104 49.99215 73.21792 85.58997 100.62510 119.10546 139.47338 138.97446 136.74581 147.99084 153.26603 159.26860 160.48744 174.67686 171.40864 178.62790 178.12511 166.48651 175.58314 177.14986 176.06513 186.10569 197.94777 209.79437 207.58467 202.04274 211.77885 226.35374 272.87060 393.29595 443.12563 470.22554 467.31091 417.35249 444.04171 447.64106 446.34813 484.11837 519.07034 549.79980 710.61755 909.41690 980.30942 973.09996 849.96424 798.52665 776.19449 741.42852 739.22570 753.02590 764.38231 737.22389 694.16419 586.18062 446.22227 484.79822 581.81137 698.15710 795.66359 789.76910 744.16743 753.84644 774.18752 869.01123 928.77676 943.81841 930.98766 916.43454 887.30474 899.89235 903.61258 861.70849 827.50025 800.91546 791.42702 789.35799 789.19229 774.68213 675.12545 591.96528 572.36526 546.05343 571.28328 647.43446 727.20991 780.28776 776.03297 860.91766 875.13661 959.09144 986.52689 1017.96806 1052.08934 1060.29640 1035.10782 1003.06926 899.31740 892.66853 891.99713 982.12481 1075.40896 1146.94954 1172.58175 1189.90698 1189.78175 1179.16889 1165.09563 1184.32198 1201.18863 1205.91402 1201.21027 1179.45443 1142.24698 1118.24598 1124.07432 1127.50603 1107.85657 1088.92412 1071.59592 1074.26846 1063.40431 1055.48422 1065.81732 1081.31315 1099.04368 1110.19399 1108.17679 1092.70084 1062.10063 1043.75539 1034.38212 1030.36025 1032.89321 1022.93542 995.91203 979.30499 978.05976 967.93622 989.48183 1018.02059 1086.59278 1113.95470 1188.43306 1183.63169 1173.20357 1122.75157 1109.09678 1095.11841 1094.88109 1081.31638 1094.87174 1099.44470 1091.59666 1085.16488 1074.35689 1056.70330 1035.94642 1027.52440 1017.91649 1018.73776 1019.01918 1025.97320 1034.99314 1044.76676 1041.86604 1039.07819 1035.75327 1035.49082 1035.20780 1035.26357 1035.24750 1035.98521 1037.37062 1038.72612 1038.92222 1065.87809 1106.65664 1136.26115 1175.91308 1221.63460 1232.86639 1222.58448 1170.82736 1072.61242 1056.26224 1032.71400 1014.96651 993.11652 972.64240 960.38178 955.19604 953.58471 952.73659 952.48465 952.15273 965.21442 971.94749 989.39935 985.39653 980.44025 939.00239 925.98988 764.66812 726.50334 594.60522 571.99295 605.01161 610.92953 591.95127 520.77227 506.26472 493.19676 507.99753 586.18087
-835.17740 -782.65788 -727.22146 -642.58229 -561.09815 -504.42245 -392.53273 -342.43689 -249.49415 -224.14586 -167.87669 -144.15285 -130.49058 -118.43246 -117.07098 -111.20189 -107.81525 -106.24134 -106.74756 -108.04350 -110.80052 -112.30166 -115.30344 -120.12598 -121.79740 -121.13222 -111.94950 -104.08989 -100.65645 -95.12469 -104.65171 -110.45172 -124.67038 -153.52030 -210.06030 -225.95373 -238.91616 -274.84130 -310.07512 -343.91124 -365.92407 -379.40791 -401.74643 -381.00188 -378.40616 -384.78402 -366.62165 -357.53868 -333.31643 -323.59866 -300.24491 -269.43769 -241.22614 -221.71165 -209.61348 -184.49784 -153.15356 -131.18855 -116.05409 -92.15859 -74.44049 -58.23682 -39.68118 -36.47525 -25.93606 -23.30288 -23.45060 -24.53235 -15.71356 -10.21400 12.45328 32.35162 52.76153 58.93810 76.46726 91.65419 94.76522 102.21485 116.22927 125.24028 133.63202 129.96291 130.57954 152.84517 178.04175 191.35172 222.07656 223.15981 220.28047 193.89574 176.97958 175.76962 179.37762 186.67008 190.27032 199.46170 211.17223 209.26410 208.54642 221.93525 248.41409 290.64639 378.72159 460.00098 508.78270 483.85922 462.01075 442.44504 415.32283 423.55639 454.74371 514.74147 575.57977 712.54459 890.20061 1002.41898 969.76671 864.56847 827.29197 793.17836 765.55565 767.79458 774.90048 727.29574 700.33263 624.52976 518.54184 483.10877 463.92368 474.50064 516.16823 598.10977 643.88528 685.93647 721.20261 752.88465 872.00637 925.28515 918.25819 908.83794 851.49523 876.85641 896.56961 912.33994 894.28450 847.54617 807.59422 788.18344 729.55623 741.90950 696.06622 526.24156 514.79460 520.70654 549.70118 603.38136 740.90450 788.17747 816.31884 876.78000 942.87695 1015.48842 1027.68594 1040.49288 1063.49097 1066.36462 1075.02510 1075.21475 1024.99176 956.80984 918.82432 940.94409 1010.94023 1120.30110 1168.39488 1191.57865 1202.09755 1192.72944 1179.83849 1184.00287 1195.82779 1210.59996 1208.61904 1200.46106 1192.80441 1162.61015 1143.09190 1138.87176 1138.24775 1107.72773 1095.93980 1082.65506 1070.45142 1069.26675 1075.10947 1077.43363 1088.22577 1102.66095 1104.42227 1102.82376 1079.50635 1064.09347 1047.43861 1045.76642 1041.24111 1028.50812 1018.50510 993.06196 992.52013 1022.88823 996.69555 1015.99694 1040.41430 1083.74867 1144.66676 1167.39517 1178.66651 1169.22694 1148.30332 1136.34894 1122.05950 1106.00273 1104.72460 1102.69667 1105.15991 1092.71705 1090.98203 1074.06028 1063.79740 1037.99352 1031.59929 1024.43797 1020.17827 1022.15404 1026.03891 1032.40739 1045.84014 1041.24066 1039.21929 1036.90737 1035.60264 1035.37420 1035.30894 1035.31666 1035.69351 1036.21870 1037.49684 1058.01302 1096.39403 1107.44252 1148.29626 1204.52281 1231.68113 1246.88862 1234.04906 1171.72487 1110.14881 1076.00125 1051.57054 1024.46883 1001.11541 969.08012 957.26680 956.15239 954.65530 953.75691 956.41000 958.85295 966.27517 973.32910 987.06042 996.62040 1008.42746 985.05892 942.78994 853.71256 749.68108 709.84757 652.47234 695.53543 704.38849 613.50885 575.08148 509.57718 511.92651 531.21871 625.25950
-817.60896 -771.31545 -646.12214 -577.06323 -493.73539 -502.96452 -345.14540 -230.85981 -216.23782 -179.70596 -158.67874 -133.97750 -120.56611 -118.72185 -117.09239 -115.84145 -113.45672 -111.10409 -110.56175 -111.34490 -112.35817 -113.68611 -116.08284 -117.28465 -118.94914 -113.69314 -106.34221 -98.40140 -91.48487 -92.71075 -95.24125 -112.51797 -135.30747 -166.73651 -214.59126 -253.03185 -268.51541 -292.46702 -342.60765 -360.12438 -383.81251 -401.57194 -409.89099 -409.69984 -409.74064 -394.18243 -393.58525 -383.61881 -353.78890 -327.16313 -311.74654 -294.61909 -251.58185 -225.89321 -201.04167 -192.77276 -157.30669 -127.86925 -95.76614 -86.20596 -62.79521 -45.76792 -32.80150 -24.99881 -21.04188 -17.43911 -13.73520 -14.95152 -8.48131 12.12174 37.89693 60.77024 66.73873 93.77191 97.47342 98.37523 100.45106 113.32296 118.65432 127.61568 135.74195 133.48433 139.86881 148.88337 244.87439 268.93019 269.43470 251.53550 231.61568 205.36515 193.46395 177.30744 183.91619 195.68797 197.83450 206.19140 206.44044 211.68557 221.98629 246.88870 262.14344 311.64156 374.65691 452.15607 478.61384 499.83317 478.76147 447.82602 414.42107 394.17749 441.73369 503.32620 564.38034 648.47210 786.89658 904.50128 925.42685 868.75666 815.67981 778.07289 789.55185 787.07411 780.50314 751.16385 661.21093 612.15932 505.90424 437.39104 442.57138 437.72427 486.24315 547.36692 615.87913 637.01068 688.24841 762.46915 876.81881 940.43705 881.29939 855.49874 823.32021 841.04831 918.80406 940.24967 918.39082 882.84842 802.35379 720.39540 683.01244 642.64739 607.32376 512.34902 516.90525 576.31953 609.70813 723.13947 910.73981 901.95833 950.36174 987.45825 1057.22595 1067.54971 1105.27098 1105.57215 1104.11400 1101.47147 1096.86336 1114.52797 1069.54429 1005.83153 982.22925 972.02852 1062.63544 1137.16810 1177.06803 1202.20189 1202.38872 1192.27229 1172.96346 1171.82214 1183.98032 1188.17511 1187.36072 1171.87815 1174.50902 1159.01274 1161.43420 1160.55393 1150.56150 1147.38245 1115.21537 1097.64033 1086.71229 1081.30530 1084.41176 1087.00884 1107.71624 1112.17092 1107.83848 1097.66518 1078.78554 1048.12078 1048.04099 1043.34250 1041.77916 1019.02037 1002.59677 990.12252 1014.63330 1029.83958 1046.45963 1087.96199 1101.78270 1141.70592 1152.33633 1180.85650 1174.70068 1167.71988 1159.72428 1152.53475 1144.14595 1126.27157 1111.14320 1120.87645 1120.40326 1111.87677 1092.80289 1072.62168 1059.37193 1048.43222 1037.95651 1029.05251 1025.01614 1024.43145 1028.45554 1039.08144 1046.78419 1041.90213 1038.78638 1037.18097 1035.24803 1035.25657 1035.36517 1035.46913 1035.44920 1036.18773 1056.12684 1068.53755 1121.70963 1140.84804 1172.65493 1231.87831 1266.94663 1259.48300 1216.58450 1171.77898 1141.26996 1104.49955 1075.26198 1043.42473 1004.61405 970.52019 957.36666 960.06114 960.91040 964.35907 964.98007 967.66773 973.25437 974.21784 984.31013 991.25171 1029.31306 1047.52536 1008.50357 884.78900 832.02162 782.49784 864.21018 738.37826 729.93410 637.06036 598.97345 493.94832 506.39700 513.30358 592.36684
-779.13037 -748.25302 -516.67520 -469.98118 -378.28147 -329.37826 -211.61070 -156.67924 -153.81989 -159.00591 -138.68316 -124.13007 -121.34769 -118.83796 -118.65617 -117.50484 -116.93728 -115.14458 -113.96170 -112.39476 -113.78734 -114.01937 -114.00793 -115.60753 -111.04747 -108.35219 -98.21171 -96.43531 -84.38701 -87.73010 -103.94809 -123.21529 -139.27625 -173.15368 -233.62074 -256.13537 -288.24262 -324.34504 -364.70072 -392.18785 -413.92245 -425.87514 -432.42877 -434.94160 -423.66267 -407.13244 -406.97747 -396.54123 -365.78331 -340.06788 -314.90774 -290.68684 -281.05569 -230.89675 -214.69445 -175.81470 -154.38194 -131.73926 -109.31410 -78.67645 -51.65019 -38.72469 -32.74303 -23.42485 -14.82874 -8.76387 -9.88406 -8.46771 32.75068 37.86709 63.90940 67.48941 98.41150 105.93763 115.23186 104.62499 118.07634 117.98602 123.79756 128.47346 134.59102 139.51882 157.17220 235.76974 284.71798 314.40753 300.44540 263.28079 240.40303 216.53417 188.26187 188.50766 192.11073 200.85405 202.22272 203.05259 205.92296 208.65151 253.51454 269.42740 290.39424 352.24133 369.79887 467.28195 499.95819 530.27302 521.89379 475.14297 415.76978 407.60353 454.82685 476.19762 552.67232 638.18822 754.59059 874.49710 847.24356 821.72165 795.90883 733.37519 756.81442 793.99171 782.98171 777.52678 693.20743 589.09309 514.85829 504.28997 477.10678 506.68697 520.30211 554.45673 620.16983 683.66635 695.33132 788.37990 832.91125 859.73101 798.14619 747.27304 786.78872 835.95965 901.45333 938.97128 935.07486 899.60070 819.08173 710.23998 635.64660 626.77991 543.97989 480.72855 603.42480 673.71148 766.73544 893.83696 942.36202 986.07721 1011.15766 1052.39032 1036.52700 1059.79285 1093.69687 1127.49740 1133.30468 1142.48821 1161.11490 1148.34904 1106.68850 1021.98015 1006.78881 1058.21329 1117.50689 1130.77999 1160.33608 1143.30500 1121.56514 1103.84673 1145.91358 1128.93792 1140.52346 1141.86839 1148.87298 1147.60496 1151.99958 1157.61548 1166.68127 1171.29946 1162.06630 1153.39339 1142.14478 1136.50551 1111.63621 1102.96816 1105.91746 1110.00356 1116.85890 1120.59911 1103.40667 1079.94635 1058.71788 1053.40981 1046.11459 1043.06762 1029.30704 1023.96318 999.63805 998.72243 1039.35209 1050.20671 1085.20530 1145.87843 1171.65153 1171.12983 1190.84475 1180.68279 1171.00297 1171.85726 1164.40253 1162.18784 1152.77537 1149.03073 1125.26194 1140.13245 1127.28544 1120.08036 1103.01483 1080.84732 1062.96874 1052.49457 1051.32664 1041.80715 1026.58080 1023.05448 1030.54205 1040.19694 1044.09646 1044.11131 1039.92287 1037.28641 1035.21470 1035.13045 1035.30609 1035.51205 1035.47665 1035.43604 1036.64945 1066.37397 1126.79933 1180.65815 1208.59988 1260.55248 1268.42756 1260.05473 1212.38175 1175.88322 1127.66385 1102.11868 1068.45306 1051.84373 1010.49779 971.31538 956.52711 960.81044 965.02520 968.24068 977.24859 975.61304 980.82166 976.21850 982.93126 1010.28923 1038.39248 1061.89054 1032.83815 994.95310 937.11528 915.25514 888.47335 836.48613 735.08693 707.37664 514.24292 437.45171 438.53441 535.29163 577.86431
-766.63446 -638.02666 -480.12695 -336.92811 -307.57692 -200.26823 -132.50389 -127.78332 -118.82925 -120.23044 -119.36823 -118.59680 -121.02585 -119.40863 -119.59499 -119.02239 -118.30354 -117.46366 -116.35648 -114.35443 -114.53763 -114.68737 -111.64862 -110.12010 -101.85761 -98.46781 -91.05871 -84.90464 -79.89554 -82.78393 -95.88035 -123.51276 -155.60150 -193.41573 -237.05968 -286.53182 -304.38480 -343.36407 -405.06802 -422.47614 -431.06882 -429.09900 -443.61486 -446.74051 -446.25823 -428.28539 -417.87207 -411.42662 -384.46830 -348.53459 -331.75745 -300.14913 -277.05884 -244.07062 -228.26711 -190.36176 -153.35964 -124.11036 -113.45911 -69.82773 -42.57419 -35.93928 -22.97381 -20.05870 -12.63195 -7.55366 4.26829 13.58400 69.30688 90.10625 103.82530 105.93725 111.07304 159.34253 136.87878 149.63579 136.05043 141.14506 126.64779 145.56048 149.54806 154.06988 180.31783 230.58595 298.47889 327.81377 317.28083 278.76841 238.49774 211.25002 182.64976 186.70017 190.18649 195.80522 200.20969 206.02766 202.52541 209.19992 250.53806 285.80378 335.27269 373.00428 445.48788 505.95631 534.09208 536.18705 557.58085 478.89715 453.68165 430.03189 473.70746 499.74625 547.30471 633.64126 712.22496 789.79327 748.50198 770.25484 720.09849 712.54509 724.14313 767.92979 784.56359 784.82215 704.67678 620.71384 582.91294 593.58372 566.72538 561.57406 577.34812 660.83059 660.79952 745.52383 776.87123 781.32166 827.87507 792.71884 753.35707 734.08946 740.11342 841.62241 915.56861 936.53829 924.55640 877.08757 821.05176 697.79130 641.18703 593.78437 535.33155 483.78245 578.14421 699.86438 801.97792 855.17928 939.33090 1020.79998 1014.68033 1049.54778 1034.57987 1036.27996 1067.93368 1099.63782 1149.50881 1168.52386 1215.95392 1207.39067 1116.44841 1044.91339 1084.83970 1110.83518 1120.75568 1111.06692 1093.76394 1069.68869 1039.41456 1074.58151 1093.38099 1109.28603 1082.60704 1100.66056 1102.18793 1141.73145 1140.20541 1154.38472 1164.39077 1167.54658 1171.47527 1154.02497 1150.24184 1138.19987 1130.01331 1122.71309 1121.26508 1120.82658 1126.21281 1124.56651 1110.85767 1070.50445 1058.61619 1049.69350 1044.95697 1043.39888 1029.11400 1019.43925 1013.46761 1034.84577 1060.64108 1107.67710 1146.63400 1160.67034 1188.76075 1191.32680 1187.88566 1173.55816 1164.86211 1166.62660 1169.05959 1168.86434 1169.40274 1172.81806 1167.43619 1161.34156 1143.66471 1121.23041 1099.38208 1080.37754 1067.84753 1058.01718 1058.26592 1053.43209 1034.07100 1026.53832 1030.71392 1039.38687 1043.40549 1044.22600 1041.75580 1039.17780 1035.07566 1035.01711 1035.11843 1035.30368 1035.37479 1036.78133 1036.86543 1056.71619 1127.78128 1181.03128 1208.95746 1256.44602 1260.55932 1252.74901 1213.19446 1182.44135 1152.99478 1107.43172 1074.66697 1050.77695 1002.65579 974.71696 955.18303 966.69647 971.50498 978.97116 979.75324 989.42110 989.96605 990.77073 1002.20672 1019.71882 1045.21528 1064.67138 1079.69867 1067.54596 1048.90061 987.86611 881.20334 760.76943 710.15638 557.01932 459.29876 368.58478 373.55206 409.53140 564.94873
-689.74382 -488.67884 -388.44637 -263.88625 -192.97661 -174.79403 -126.92590 -112.56116 -101.50332 -105.81238 -112.71157 -113.74300 -119.36606 -120.66306 -120.95842 -120.58819 -120.47661 -118.64598 -118.14950 -117.07358 -117.93790 -116.40126 -111.08223 -107.05044 -99.32058 -88.83702 -85.15142 -76.57349 -67.49963 -75.90556 -97.36312 -129.79220 -154.76054 -201.78496 -245.23899 -284.47553 -314.70822 -368.22151 -405.52511 -418.47208 -442.28687 -451.23375 -461.24699 -460.40710 -467.96589 -452.56509 -437.77043 -416.32000 -402.07459 -371.68619 -336.62079 -294.14423 -283.81000 -254.39416 -216.68937 -174.84940 -152.11051 -139.38817 -106.12797 -41.74816 -36.47052 -33.67095 -23.12687 -10.17571 -9.24183 6.92865 12.01379 51.34020 100.34626 143.52015 147.93608 203.29305 200.49000 230.38325 225.42212 213.68888 193.81253 173.64799 191.34847 177.14815 181.53312 214.19495 209.83392 246.79303 296.77211 314.78862 288.02171 279.42618 231.77009 191.47576 175.31652 172.87413 181.18401 190.13117 204.94995 207.43351 213.64964 235.58951 299.07661 314.23275 420.79681 462.49244 509.66576 520.59024 564.27012 590.85306 563.67012 530.18259 461.47228 442.64792 449.45415 479.31157 551.24781 578.54345 692.53361 777.13395 750.56822 719.05213 695.74686 685.85776 711.65485 734.99440 787.45025 818.81908 767.52985 682.87113 634.62720 613.94057 636.24892 643.46458 641.43898 677.37963 774.33794 810.80276 798.82095 780.82876 772.83377 740.77209 696.79277 700.29089 751.13418 847.65490 901.62435 913.46100 903.84273 861.57587 826.46646 686.60527 608.92048 565.21293 510.74358 519.83774 602.29923 729.85456 809.71948 828.00694 845.76526 878.61998 976.61351 963.74318 966.40256 930.39146 974.81636 1000.61050 1170.81013 1205.81448 1225.86331 1218.72206 1145.50999 1088.59296 1094.94931 1116.44343 1110.32711 1066.28869 1028.70229 1001.67001 1033.11886 1072.96828 1086.73004 1075.93781 1063.89932 1051.37633 1071.42503 1100.33771 1134.76963 1142.49010 1149.68718 1170.76519 1171.70910 1165.13692 1154.81109 1144.15715 1136.87784 1131.28657 1126.33401 1124.71475 1124.73313 1119.98797 1112.25915 1070.15913 1060.74450 1058.24950 1051.22767 1048.57688 1031.61814 1027.78854 1042.97826 1070.42673 1106.80308 1126.07087 1161.66910 1175.72997 1175.30678 1183.73776 1175.39030 1168.18064 1160.70516 1159.79945 1160.89364 1165.89639 1168.77297 1174.94151 1176.63636 1174.95822 1147.51403 1122.66506 1108.25711 1086.78634 1075.13521 1067.29095 1060.97177 1051.37435 1033.79122 1026.09028 1032.34789 1039.16396 1043.70841 1044.39395 1042.46360 1041.12913 1037.06756 1034.91554 1034.92098 1035.14708 1035.22543 1035.26118 1038.14401 1047.48535 1112.69439 1134.54607 1193.29626 1252.61516 1268.60965 1247.55854 1217.46583 1208.91443 1157.93673 1109.92553 1083.24653 1044.96059 1004.42209 991.94575 975.31381 974.96753 980.96615 983.80594 993.77543 992.79524 996.20526 995.50061 1002.89808 1025.12473 1048.19189 1066.00831 1070.75577 1086.98470 1071.42465 972.65484 891.65338 731.93377 575.19843 460.08842 431.32533 352.56188 352.44443 359.91435 469.11157
-716.59201 -551.21826 -301.91537 -227.00558 -133.60218 -124.17067 -99.28913 -84.70818 -81.59243 -92.63721 -109.74534 -116.49803 -121.99106 -124.91215 -123.25152 -123.17599 -122.74311 -121.61537 -120.36205 -119.12773 -118.55216 -114.99830 -112.83263 -104.85167 -94.20144 -85.70235 -76.52218 -65.14329 -63.57382 -68.59994 -89.83751 -121.61470 -142.43885 -195.69323 -241.58197 -252.17362 -330.65354 -379.75874 -411.03824 -426.98374 -444.66221 -457.82841 -473.39691 -472.57338 -472.09146 -463.22492 -443.53191 -426.31544 -399.39684 -372.48278 -365.99240 -298.09067 -276.29587 -256.36466 -220.62364 -175.16557 -157.01263 -118.59554 -66.64003 -31.28465 -31.76884 -26.36032 -9.65842 -3.66531 21.36505 36.89137 36.56143 95.54427 120.48636 171.69539 183.99736 233.56643 266.47304 266.62544 263.64256 251.79810 220.21198 208.88018 192.62872 202.46531 201.67702 218.96583 225.52178 256.24317 289.29054 300.03734 278.02676 255.44305 192.34170 178.09115 166.81037 170.43745 179.52952 194.72654 208.40855 211.52026 217.38649 260.51669 313.01472 389.42309 454.08581 562.36770 632.52669 678.88616 667.12341 639.00274 642.17846 562.64027 496.13361 472.94069 441.76455 474.97957 505.13600 595.38620 671.92088 711.17461 700.86380 685.62439 641.52561 693.56080 678.42117 772.20647 837.00586 846.77822 795.90814 762.02600 724.90003 688.21454 701.06724 676.89181 730.44066 784.22210 815.41699 826.10544 785.94696 769.69909 767.37364 749.58761 732.39616 753.74806 789.32764 861.15318 886.53648 875.64372 884.60277 852.32916 755.91593 650.16175 565.58409 515.50952 468.60514 480.57706 593.13089 649.54591 731.90084 778.46515 804.43651 796.85710 872.26486 887.34365 896.04051 852.02303 831.05127 873.63078 1089.63728 1151.46265 1176.03174 1161.17952 1157.47855 1109.91308 1089.67092 1080.86209 1067.33631 982.22936 987.14731 984.38468 1038.14357 1077.55967 1126.05339 1121.34221 1062.20064 1014.22370 1037.57490 1058.21030 1110.07957 1117.19190 1121.58463 1150.12933 1171.47768 1169.92908 1158.00695 1152.11738 1138.84980 1134.85323 1133.68386 1130.09087 1127.62399 1116.60806 1098.59049 1079.69158 1068.85468 1063.59641 1063.17048 1061.21844 1055.41036 1048.61198 1072.96915 1117.98135 1125.64302 1155.33483 1164.00052 1174.70065 1170.83086 1168.13020 1156.98148 1153.21859 1151.03611 1150.79410 1154.27401 1156.51522 1168.06203 1175.64744 1176.26280 1172.84908 1156.41209 1138.68901 1115.17496 1099.55955 1091.58022 1071.74851 1060.92516 1050.31013 1037.74175 1032.62884 1035.65415 1039.94386 1046.69210 1046.39027 1044.57314 1041.00945 1036.75714 1035.17165 1034.91592 1034.97364 1035.10778 1036.06513 1036.57203 1058.49541 1080.23195 1120.37671 1189.55265 1237.10649 1263.28514 1253.93307 1234.79905 1200.91762 1154.25354 1133.96065 1127.46804 1080.18320 1020.43399 992.08384 985.39098 982.56926 987.07402 989.16118 997.62138 997.66619 995.67124 995.67271 1003.11342 1020.87853 1038.55564 1048.67130 1077.03396 1085.40481 1072.48525 975.52159 759.28624 620.87707 489.87093 368.96101 326.35621 300.53388 293.26789 313.04399 331.01700
-581.00336 -427.28362 -323.82617 -203.70141 -124.46869 -99.98628 -75.60315 -78.26528 -82.48542 -96.03414 -112.53045 -120.21321 -123.95349 -126.22836 -125.88225 -125.97528 -124.98639 -123.33930 -122.44927 -120.88881 -119.60793 -114.35231 -109.31675 -97.99130 -92.64237 -79.21639 -65.13316 -60.12862 -58.08715 -63.71226 -85.64569 -101.43653 -135.27304 -198.79582 -240.20766 -272.21298 -330.13594 -380.24794 -405.17615 -416.19928 -441.36679 -467.59143 -478.92665 -478.24111 -475.60390 -461.10622 -448.62433 -424.93377 -396.73951 -376.04931 -346.45556 -311.61010 -280.43956 -268.28531 -213.76877 -164.86355 -141.26019 -114.03157 -66.51449 -32.90773 -28.96827 -16.02346 5.02148 17.57974 43.83642 57.11798 74.89952 106.17117 140.21606 182.90665 225.23002 311.08936 337.33637 345.43260 366.45382 328.94782 248.15136 207.22484 205.86738 209.54207 226.05880 228.42383 240.74358 269.22247 286.69169 284.92085 270.81566 228.16841 194.01814 175.62328 165.32710 171.83808 179.66392 197.68556 205.28461 215.44801 221.42953 251.88431 344.60058 375.02703 507.74120 652.21092 761.80955 765.43251 761.14093 721.91065 650.32046 611.28976 540.38392 502.32204 476.34647 498.49680 513.08347 553.30750 630.38153 661.91960 652.90608 615.25743 591.44838 626.58243 717.10050 804.64350 880.25207 928.04462 874.09402 786.31484 767.00430 758.66948 755.84419 732.40450 787.92330 786.09946 861.04698 831.86092 754.58700 710.49912 680.07939 691.56039 756.20308 778.62779 810.15145 820.36100 849.85129 881.12409 849.39399 762.80990 712.16526 585.04297 541.09049 471.43818 446.21820 491.57963 551.88300 659.23501 692.17588 719.19730 763.64879 763.59793 770.08581 782.83047 785.50151 778.71595 758.50309 781.38528 907.75453 1042.18697 1121.47287 1109.58974 1119.78566 1110.33317 1064.08285 1001.03246 983.87466 974.69929 979.38921 1039.38067 1111.91565 1142.65003 1150.65147 1133.65744 1086.63586 1059.92998 1053.42157 1067.83029 1091.18645 1091.29913 1104.23754 1127.45537 1149.43100 1166.47510 1162.11523 1152.59602 1147.59702 1138.39062 1133.35678 1131.46885 1127.95939 1115.59730 1094.25109 1077.75800 1072.28195 1065.29488 1067.52072 1062.99328 1057.60440 1074.18402 1097.51053 1159.09748 1168.04582 1180.95386 1183.67335 1172.45644 1167.88347 1159.34280 1155.49266 1148.82186 1148.77401 1149.07990 1149.93627 1149.25032 1157.07090 1168.40104 1173.48161 1163.97000 1156.84212 1144.37345 1138.93008 1115.80090 1098.76664 1081.69049 1079.33711 1050.64197 1042.85224 1035.50937 1039.65231 1047.82022 1049.06256 1048.63602 1044.80954 1039.64542 1036.57509 1035.40798 1034.96046 1034.93714 1035.04822 1034.70841 1035.81305 1034.59077 1065.52355 1078.52510 1189.89260 1237.12998 1271.14963 1252.70155 1222.25473 1190.75724 1166.67029 1146.07414 1152.06205 1093.47218 1048.22787 1015.93788 1011.89614 997.32528 994.86321 1001.46735 1002.65324 1011.28475 1004.29682 998.87883 1002.82950 1004.22397 1014.67486 1030.87668 1049.62730 1025.51000 1014.75471 934.48009 726.36284 505.92148 464.71404 343.27554 312.20505 268.62337 261.44016 289.13125 327.52485
-571.41679 -451.78844 -328.77973 -230.20387 -137.72474 -98.49658 -85.46459 -84.57522 -96.23556 -104.49152 -113.98010 -123.12850 -127.99007 -128.59871 -127.89228 -127.58682 -127.30231 -124.71312 -123.56815 -122.18489 -121.02164 -116.18845 -108.59077 -96.10318 -86.01377 -67.63453 -61.73014 -56.39567 -54.18295 -63.56119 -70.53925 -95.88644 -131.75693 -190.59305 -212.78955 -270.73043 -336.71317 -375.14424 -394.44326 -419.94767 -444.52522 -467.56274 -479.41215 -478.38955 -476.05578 -463.31311 -444.79174 -427.99114 -389.86527 -355.61486 -341.22342 -304.62505 -280.79684 -268.48015 -208.98617 -172.93883 -121.18254 -75.43297 -60.21449 -35.36609 -24.68055 -9.81140 8.04326 39.58667 54.87541 93.97739 98.45367 126.79821 209.71749 255.19590 288.06663 398.99118 414.15797 463.78602 483.26958 404.72722 357.34286 242.31632 234.15481 233.82290 245.60581 259.33514 266.73199 279.08598 283.54744 272.97820 237.20221 221.71709 191.47682 168.34962 166.74226 169.40813 195.13515 201.21568 210.54391 215.22584 220.69255 266.37562 287.74122 438.03778 584.65621 651.71438 791.43150 846.37774 774.62521 742.61778 677.70445 626.21609 555.32170 505.65113 498.16161 517.26981 550.20722 563.68310 598.83715 604.55673 605.43890 580.77284 548.19933 585.00459 723.94671 849.77447 886.01566 929.45973 887.10206 848.32676 830.28173 805.99639 780.30472 772.45864 773.89306 766.24728 779.27014 744.78266 711.66644 626.63471 573.87326 622.34006 690.42019 761.01633 766.11095 798.86000 804.68439 811.08815 817.68174 732.85288 627.95706 556.66327 481.93152 448.79537 490.50814 554.57094 594.56539 655.40027 691.63436 750.48512 769.93792 752.52468 721.95528 785.70497 786.44975 786.65110 782.01708 794.01025 859.45712 963.83866 1031.05141 1087.68181 1091.81135 1083.61587 1052.74900 957.69382 930.32977 937.75501 1103.89942 1096.27161 1174.03006 1191.65894 1164.30178 1141.04546 1129.13704 1084.40667 1106.90460 1101.20081 1097.16040 1089.25647 1096.43843 1108.64278 1145.73055 1153.77326 1160.78797 1153.67220 1148.40464 1139.83011 1132.83042 1130.65980 1121.92216 1114.02298 1094.36112 1081.27150 1073.19020 1068.72108 1076.87405 1074.39946 1086.05740 1120.66845 1172.93085 1165.63860 1186.27618 1183.26958 1177.95957 1168.77070 1156.34974 1155.04607 1150.20851 1147.53638 1146.61940 1146.07160 1146.06778 1147.93408 1151.34886 1158.77492 1161.81508 1160.74206 1157.48621 1151.59811 1140.37874 1125.88481 1117.89133 1114.37647 1095.05118 1072.94576 1055.76696 1057.69480 1054.26738 1050.97657 1052.67701 1050.27596 1044.01462 1038.45793 1037.06812 1035.91152 1035.51088 1035.26195 1035.44077 1035.96340 1035.43383 1041.57053 1046.84627 1089.85882 1169.11313 1210.26018 1229.49422 1223.69928 1213.38976 1198.64278 1203.51717 1198.54218 1191.66808 1137.86972 1077.36063 1030.47835 1034.90315 1028.05159 1021.14780 1022.69324 1016.42397 1015.08484 1013.23217 1013.05120 1015.22358 984.94778 992.35571 1007.89663 926.80983 909.42655 932.58201 856.64361 564.43245 460.87752 379.29315 302.24677 256.19333 238.70000 261.65425 284.65013 325.17885
-590.39394 -427.80047 -324.67323 -219.85800 -144.01838 -123.95586 -109.20714 -103.31552 -104.64600 -117.54564 -120.82401 -126.86071 -129.21608 -131.22972 -130.45775 -128.89584 -127.82274 -125.93425 -124.38362 -122.81403 -121.76810 -113.14965 -108.03022 -96.55895 -80.59244 -65.17399 -53.36806 -50.02741 -52.23411 -54.89412 -79.36390 -97.34399 -134.73105 -175.00733 -212.69157 -247.37978 -336.21460 -352.22573 -396.70441 -412.91390 -445.40856 -458.19919 -478.86484 -474.92309 -474.16564 -465.59378 -437.84006 -414.54214 -394.86565 -362.80421 -325.84359 -305.64445 -269.80573 -237.97958 -197.05102 -177.19547 -123.51902 -81.60133 -38.42513 -31.65312 -22.31909 -2.39323 13.45109 48.41891 92.60043 135.85362 144.74385 210.80815 233.25416 317.69662 427.27169 427.52193 490.66487 547.39374 556.25464 521.97107 360.91184 299.32015 257.35375 259.86811 272.57905 285.96284 296.24906 288.70731 279.37023 248.60773 228.55794 186.55031 177.07268 167.39368 169.11283 187.13596 198.63463 208.82591 212.17776 211.53741 236.03051 255.88998 319.64560 407.94947 557.32896 748.93995 806.89757 819.20833 773.16322 756.01484 691.30015 626.76601 558.56938 534.85808 533.41745 556.58340 589.22004 606.19667 630.37586 609.92590 592.15008 570.29678 554.74154 554.40517 693.47775 788.50083 852.82706 850.03158 800.30701 829.87572 827.80347 821.44764 742.85690 700.11118 677.49327 674.02647 662.66064 671.56403 607.80224 547.05447 525.15898 568.70987 689.38910 741.03531 750.22535 768.47182 753.70924 736.76881 671.69906 700.12502 582.17775 457.82503 411.35153 452.20704 524.60544 560.44998 665.59787 712.49129 712.66235 758.84634 801.25415 804.95647 804.25621 822.23537 843.50708 803.88652 823.53289 874.07253 918.44975 973.37669 1049.00505 1059.26039 1050.35599 1055.62814 971.03611 912.96830 913.37552 1028.98841 1180.07556 1185.19109 1228.30662 1199.44709 1188.57065 1146.66383 1127.64004 1108.11674 1112.75121 1114.36961 1106.45532 1094.51783 1095.72757 1114.92640 1122.43271 1139.77085 1147.10805 1159.73229 1154.92139 1142.84765 1140.19869 1130.60786 1126.07667 1101.01214 1084.17159 1082.45621 1073.22593 1077.03295 1087.48356 1098.78573 1109.47361 1149.77017 1178.56511 1193.87473 1187.97647 1187.66761 1174.33510 1161.97341 1154.73103 1151.93447 1149.37903 1147.81183 1147.44828 1146.75949 1146.26610 1147.52420 1147.84779 1154.36015 1155.83760 1151.90361 1153.82916 1152.48075 1143.72988 1139.12747 1134.30169 1137.70696 1136.14176 1094.00871 1094.52432 1080.26199 1066.47178 1073.48986 1056.62183 1050.82019 1045.34536 1042.30693 1041.27707 1035.79197 1035.45323 1035.54071 1035.80584 1036.67171 1036.95723 1044.78742 1057.15933 1089.55171 1128.55411 1175.11601 1175.10366 1186.47265 1194.76572 1215.16559 1234.39721 1228.89824 1211.98896 1168.34042 1126.67958 1093.54050 1063.92820 1040.20387 1042.48933 1038.93214 1031.34907 1031.37300 1026.76972 1021.37258 1011.53632 991.77463 938.39336 903.43664 862.59621 739.85513 759.49401 637.75357 550.06223 354.97214 341.91737 293.43631 241.04133 251.93303 257.37738 271.07403 276.95485
-585.36368 -398.60058 -332.47419 -244.72652 -167.16869 -154.24420 -138.27466 -132.90659 -131.90050 -129.74582 -131.86478 -129.94569 -133.07773 -133.24074 -132.66886 -131.01633 -128.42363 -126.37729 -124.94177 -123.47001 -122.23960 -115.26211 -106.46250 -94.65320 -79.45591 -63.03727 -52.48209 -49.01189 -51.16386 -58.01228 -62.81483 -89.25281 -136.26856 -178.80920 -222.54017 -242.23045 -294.07193 -354.87590 -377.09044 -418.26992 -431.91500 -458.61418 -473.27182 -471.98480 -463.08876 -447.15573 -413.10745 -406.65177 -374.65698 -356.87266 -322.68792 -288.99881 -253.76349 -225.80016 -189.49970 -142.02154 -97.46287 -42.91772 -29.44555 -23.88735 -8.25823 16.55031 70.26092 104.26153 136.46253 143.06036 175.40805 241.89721 344.76605 383.71514 428.95793 495.46104 508.98918 569.54474 585.38818 567.41742 452.84963 320.29068 282.63534 296.39127 289.33906 297.92773 308.37033 280.32668 267.34544 241.86495 204.95786 193.23779 175.87665 173.81979 175.49942 187.56799 204.91645 218.23409 221.26586 218.95635 229.29023 260.73648 323.09730 351.88788 614.01410 710.22031 728.11825 761.34858 735.06483 699.30078 677.27535 624.79392 588.99083 585.13947 586.04019 600.46381 616.28811 634.26136 644.31750 622.28294 607.55857 577.64799 556.53621 578.46258 672.76377 740.33328 750.13743 740.57780 751.79180 806.21268 827.58404 766.20370 660.10159 629.20537 616.18510 642.21772 619.29140 546.76860 526.70461 472.80218 498.52259 554.98185 651.62652 708.73520 740.66320 747.98767 744.07076 669.10880 641.61680 572.41306 536.75109 416.96783 423.08780 469.46879 579.89976 648.30678 725.03916 749.49356 754.09566 780.71260 889.20224 934.89207 927.14606 928.15144 915.48154 878.78062 861.51890 974.70387 1020.67715 1100.65286 1096.10386 1055.41337 1039.39393 983.93718 919.77944 897.05966 945.68284 1026.02851 1189.58570 1236.60272 1238.41758 1180.47565 1163.62369 1133.26669 1086.84822 1087.93926 1097.89879 1117.75775 1116.86129 1106.68451 1095.21593 1096.34127 1120.02163 1126.19152 1144.87124 1160.62019 1161.84963 1150.58533 1144.43390 1133.13372 1115.78642 1108.14305 1091.34197 1083.20853 1086.34559 1093.94205 1096.39353 1118.45927 1124.41579 1167.41010 1178.08783 1191.94612 1186.61523 1185.88550 1167.81062 1162.66987 1156.03681 1152.42929 1150.45900 1149.91377 1149.75428 1149.55205 1147.85763 1148.66346 1148.84014 1148.53716 1147.40460 1149.24958 1152.57735 1155.46939 1146.59254 1141.32291 1139.71843 1141.10431 1146.79814 1135.95623 1134.34213 1127.43651 1130.65132 1099.39154 1088.39378 1067.95315 1061.95461 1057.61197 1044.56413 1035.71828 1035.56552 1035.80518 1036.51240 1036.99184 1037.27197 1053.49350 1059.88185 1069.07057 1107.08784 1133.32078 1164.29706 1167.37592 1193.53796 1229.24810 1249.59389 1254.63457 1241.67993 1209.97045 1138.02734 1115.87569 1077.17603 1067.95184 1053.14744 1049.99936 1056.35444 1055.88706 1047.84682 1044.97398 1039.36534 914.55409 876.76120 789.86850 747.63168 706.66651 655.73501 536.17495 373.27649 356.28859 306.11488 282.16068 264.03956 260.05073 261.12272 260.06996 256.00301
-547.83757 -425.93749 -295.82643 -252.86451 -189.65283 -151.47771 -142.67480 -143.83012 -136.82968 -133.98817 -133.44782 -136.81528 -137.01619 -135.94877 -133.82087 -131.87206 -128.48821 -127.22339 -124.70708 -123.74501 -117.66527 -107.75806 -103.49785 -91.35861 -78.87586 -59.78686 -52.89829 -47.98537 -52.90319 -56.66770 -74.67500 -86.36430 -127.95556 -173.95093 -203.78574 -249.28509 -268.66411 -315.35539 -395.67524 -406.22030 -421.87618 -442.75669 -460.79456 -462.46571 -455.29929 -435.47591 -411.10302 -390.45151 -377.91092 -343.32510 -322.74400 -272.77182 -227.98573 -196.25088 -160.92005 -124.84341 -77.45692 -43.07949 -26.98864 -3.85847 7.12467 20.54793 78.39384 125.95217 152.65680 153.69624 199.09729 249.10392 347.02894 423.71819 499.01728 538.00198 566.40922 607.63607 619.32708 565.36393 460.84618 343.41886 287.30342 287.36844 302.27480 308.71938 306.28218 280.97110 265.34924 250.09768 213.45617 184.26427 178.77217 180.24490 183.57361 189.19253 202.71511 219.90008 226.73609 227.57182 236.54296 260.22588 281.00239 354.63299 524.49348 626.36562 716.05474 761.34682 739.36442 734.01170 692.61168 665.33676 660.28684 633.57900 617.24908 624.74319 651.65141 668.62097 669.83193 664.73673 644.52109 594.05348 560.47816 597.35582 615.72091 675.04353 676.25263 685.87806 729.24932 726.51559 734.41310 717.16429 504.15253 503.00854 512.12139 517.91884 463.18989 425.72141 380.76276 432.21041 446.49904 536.88991 645.34222 702.37095 706.57054 716.71789 665.74834 603.33707 588.48538 505.24164 437.61388 401.17638 476.77045 516.95743 634.63328 700.43611 770.66544 848.15801 902.45973 955.04852 1027.38056 982.03098 997.49673 1012.48860 1017.82023 1048.60682 1059.06260 1145.35234 1164.17509 1182.28009 1160.59036 1058.16755 997.59977 970.46980 887.83328 865.92520 868.70417 980.55726 1119.39833 1173.24311 1228.66715 1176.96480 1137.56180 1097.47174 1046.63918 1040.60316 1074.46910 1102.21413 1098.28030 1102.74058 1097.66853 1090.96403 1091.88750 1121.19791 1143.24752 1162.31622 1164.78672 1163.66590 1145.27378 1134.34056 1122.95525 1105.24937 1097.33842 1095.67367 1093.15375 1114.07040 1118.59579 1128.87457 1155.14549 1171.36148 1190.99194 1186.11210 1186.13626 1181.53502 1171.42005 1160.79168 1157.09265 1155.07767 1154.56791 1153.28647 1153.82598 1151.59203 1150.92687 1150.53948 1149.81995 1149.15719 1148.37203 1148.15437 1150.46068 1150.19234 1145.26099 1143.04014 1146.52337 1153.00124 1150.42723 1160.87956 1165.02859 1151.40324 1139.19806 1122.59044 1100.87210 1099.96073 1069.74371 1056.84282 1046.38903 1040.49689 1035.73641 1035.85873 1036.58315 1037.59551 1038.54563 1047.86950 1060.90843 1069.59170 1085.83776 1095.71669 1105.62300 1145.66485 1206.93872 1239.76471 1253.21959 1275.19456 1247.32856 1221.13994 1160.21572 1117.56176 1091.26631 1080.12668 1069.70088 1070.91164 1069.56657 1063.89022 1065.95150 1045.15023 1034.35313 881.91459 751.21795 762.14969 634.24685 556.46426 511.11692 423.89767 359.07904 333.83397 312.73400 303.60301 288.74643 291.33413 278.26956 266.05814 261.11029
