25.24900 25.25890 25.26571 25.27452 25.28308 25.29163 25.29981 25.30939 25.31702 25.32289 25.32784 25.33771 25.34493 25.36909 25.39495 25.42173 25.47461 25.48264 25.59692 26.22743 26.74890 28.15650 29.21017 31.39394 33.53466 35.12161 34.79661 33.32478 31.22140 32.46290 36.21611 42.05661 44.36521 45.67072 44.57096 40.08785 37.11208 46.43844 53.67998 57.02717 63.66362 64.26976 62.59262 58.01178 51.05935 49.05796 52.96999 61.33230 70.57712 79.00779 83.06818 84.61723 84.90582 83.07820 80.32567 70.94136 67.39689 75.20919 84.39367 86.37857 86.52967 79.12549 74.98657 80.10935 80.86110 75.37972 81.22303 78.06786 71.98814 67.77232 72.11558 70.03610 67.22413 65.58100 64.00337 57.59744 62.98495 73.69904 78.03692 79.87229 80.25337 77.06188 71.69313 63.90534 53.28400 45.32804 36.41934 34.37834 37.13767 40.29386 46.20305 46.81947 48.97720 42.76149 38.48444 37.78558 37.02572 35.83720 35.49092 33.07586 30.99122 28.82542 27.40173 26.06670 26.32683 26.29558 26.07915 25.87045 25.62455 25.47872 25.38672 25.36113 25.34545 25.33741 25.32879 25.32257 25.31203 25.30413 25.29428 25.28569 25.27417 25.26703 25.26700
25.25000 25.25990 25.26556 25.27817 25.28486 25.29350 25.29692 25.30498 25.31224 25.32006 25.32771 25.33614 25.35026 25.36366 25.42630 25.50833 25.64581 25.71066 25.61187 26.09003 26.70595 28.65999 30.10982 32.88215 35.30626 37.59892 36.80078 36.68733 35.77349 35.61190 35.42383 41.32792 45.52447 49.35030 48.39539 44.21014 43.33873 48.52109 56.96212 60.70107 64.59638 68.43572 70.30255 67.46648 60.23109 54.31101 50.79676 59.15844 68.05041 78.39063 85.17207 85.72629 88.56426 90.15032 86.26262 77.59082 72.09953 79.31217 85.64240 91.19985 88.78993 85.03561 83.05284 85.26730 83.52530 80.82632 87.45102 86.39535 79.80681 71.78278 76.34174 76.78562 75.13764 75.64701 69.19199 63.46903 72.47245 80.37906 82.17083 83.03028 83.65247 81.04743 73.42426 62.61806 53.73746 41.98067 37.36988 36.30486 40.24151 46.91141 50.76927 53.96264 52.55517 46.33100 42.71648 42.65489 41.62875 37.97497 37.27716 33.18593 31.04228 28.54557 26.86164 26.71256 27.05584 26.73109 26.48238 26.16220 25.77210 25.48751 25.41620 25.36111 25.33873 25.33333 25.32634 25.32163 25.30937 25.30272 25.29366 25.28425 25.27309 25.26206 25.26200
25.25000 25.25993 25.26619 25.27540 25.28327 25.29085 25.29640 25.30259 25.31157 25.31904 25.32578 25.33789 25.34729 25.37060 25.44454 25.62559 25.79325 26.03457 26.16530 25.98126 27.05173 27.94169 31.49312 33.64463 36.44777 39.31018 42.34053 41.18494 39.98302 40.18365 37.75153 39.00084 43.50613 49.96174 52.16023 47.72124 44.40623 49.74289 58.14402 65.83858 67.10446 72.18585 74.75514 72.33529 70.64332 63.08105 56.11078 58.26131 61.91736 76.19417 83.32266 88.37754 92.06163 93.67828 89.48488 82.88762 77.11822 80.50950 90.77444 94.79978 91.79176 87.87225 88.40197 90.97921 88.70766 86.24889 92.23715 88.77772 80.77710 79.01607 83.76525 82.81246 83.27933 81.21913 73.41172 69.04667 77.93229 84.21994 90.10471 89.27003 86.84072 80.34521 72.66520 64.26160 55.69681 43.93395 40.19461 42.32513 47.12870 49.71487 55.62039 57.26928 53.49889 49.53722 46.99439 44.42902 42.86701 40.53848 36.92686 31.57350 28.94686 26.94847 26.91337 27.39954 27.75026 27.50579 26.83827 26.17516 25.83905 25.51449 25.38508 25.35926 25.33726 25.32828 25.32324 25.31412 25.30719 25.30161 25.29234 25.28629 25.27617 25.26504 25.26500
25.25000 25.25063 25.26416 25.27257 25.28120 25.29007 25.29702 25.30327 25.31240 25.32170 25.33255 25.34238 25.36873 25.37234 25.42703 25.67290 26.08812 26.72030 26.85793 26.30986 26.55418 27.85374 30.24516 32.86201 36.14362 40.19112 43.48206 47.11028 46.72860 46.02366 46.21865 43.87100 42.82923 48.46515 54.50129 56.06424 52.03081 49.27793 55.62719 66.55532 72.60895 74.82748 77.95009 79.68077 74.21351 71.26696 68.92427 64.30115 62.69167 73.69139 84.02198 92.87048 97.25773 97.22486 96.01327 89.99948 81.53258 83.83935 93.20086 97.45548 95.60856 91.82975 93.96519 95.91537 94.43122 94.84370 96.11868 90.94710 85.39515 88.63048 89.73970 90.50608 87.71468 83.86435 78.17443 73.77052 80.57128 86.97068 93.37489 92.47151 87.02342 79.06622 71.94282 61.41591 54.68537 45.11165 40.69412 41.47703 51.64116 56.68499 58.92271 57.66471 55.74798 56.79553 53.35505 48.85732 44.04443 38.65038 33.03281 30.35195 28.42157 27.60128 29.07124 28.57325 28.09394 27.25743 26.31513 25.77146 25.60886 25.51169 25.44481 25.40006 25.34491 25.33809 25.31845 25.31312 25.30525 25.29952 25.29059 25.28683 25.27902 25.27383 25.26400
25.25000 25.25973 25.26647 25.27183 25.28150 25.29079 25.29891 25.30476 25.31378 25.32201 25.33575 25.35539 25.37966 25.43096 25.54309 25.77103 26.29822 26.88137 27.57925 28.01707 26.67518 27.29767 28.66531 29.93350 33.11671 38.79214 44.60918 47.90898 52.45625 50.88591 51.54938 49.32300 47.71543 48.10827 55.75635 57.87369 58.17087 56.19324 56.61671 63.78011 73.77846 76.94344 81.76587 84.35962 86.34061 80.10852 74.64850 73.32082 68.19052 71.91898 85.50484 91.24577 98.90437 100.87137 97.85720 94.70506 88.00420 88.71959 96.64247 100.07196 99.31790 98.70821 102.13779 100.81726 98.43068 100.15048 97.38996 92.60480 92.68329 94.50888 96.49461 94.71198 90.92370 85.68472 80.04635 77.06944 84.71099 91.99979 95.24513 94.33025 88.17742 79.28446 69.90746 62.53329 52.14896 45.07786 43.52114 48.66002 55.07212 61.45442 64.26253 64.04581 60.70465 58.39334 53.84287 47.84751 40.72989 38.31283 32.52176 32.86503 31.95443 30.41816 29.98730 28.43590 27.89342 26.99354 26.35083 26.15221 25.71469 25.69372 25.56134 25.46577 25.37634 25.34048 25.32881 25.31423 25.30713 25.30031 25.29075 25.28504 25.27596 25.26600 25.26600
25.25100 25.25100 25.26243 25.27442 25.28358 25.29002 25.29929 25.30695 25.31402 25.32694 25.34275 25.38472 25.45243 25.58409 25.60515 25.93558 26.50753 27.33417 28.58105 29.00555 28.24852 28.03324 27.76068 28.62432 32.64176 36.95692 40.79207 48.49439 54.84267 55.11639 56.24289 55.95155 55.45730 52.36033 54.15679 60.44327 64.26930 61.34340 56.28506 60.56330 71.59779 78.70829 84.35796 88.62189 90.80644 89.13806 83.66903 79.36358 74.85096 72.90806 85.79070 88.31696 99.42169 103.27017 101.84932 97.28298 95.26669 93.57853 98.39580 103.40211 102.58384 102.79054 104.84296 103.85075 102.81188 103.34852 101.65575 100.57202 101.37995 103.31268 99.98257 97.22639 92.93389 92.51638 87.01568 83.54569 85.47495 96.51299 97.72561 94.23695 85.93345 80.46744 69.58192 60.85084 51.80820 49.18696 56.00367 58.86481 61.64275 66.70913 69.42027 67.14404 64.61974 59.90640 53.24675 45.04990 39.05491 38.01818 36.10042 35.47286 33.63343 33.02973 30.60167 28.38901 28.25652 27.75068 27.23016 26.54575 26.12669 25.97913 25.68769 25.46937 25.36492 25.34262 25.33995 25.32507 25.31215 25.30291 25.29453 25.28855 25.27528 25.26739 25.26700
25.24900 25.25455 25.26235 25.27600 25.28352 25.29335 25.30073 25.31130 25.31718 25.33745 25.38764 25.50923 25.62882 25.74376 25.83374 26.06391 26.25761 27.09217 28.65542 30.31771 30.76105 30.09553 29.75712 29.46567 30.86196 34.42581 37.86695 47.50017 52.20660 55.44396 59.66027 61.15781 61.92385 60.07300 56.87353 62.23133 65.91691 67.51726 61.48996 62.13256 70.80218 79.10302 87.70223 92.37367 94.72408 94.19591 89.93548 86.08224 82.47808 81.03766 83.61248 90.42250 100.76534 106.22450 106.62385 105.08399 99.82244 99.44274 102.15876 107.86209 108.85148 108.47534 109.44154 107.57938 107.38956 108.08614 106.88542 104.10026 107.06938 108.08864 106.26131 101.16282 98.91903 97.00657 92.38142 90.34906 95.92589 99.71237 99.76595 93.59094 85.16021 73.64522 65.72582 62.30999 62.83416 58.82606 65.01729 68.01255 69.39817 75.41451 75.55000 72.01505 67.31083 59.79970 51.94890 44.57458 43.34642 41.97059 41.16405 39.64849 37.61346 35.55556 30.14569 29.13072 30.29840 29.11424 28.21305 27.24950 26.37727 26.14296 25.69904 25.53207 25.36582 25.36532 25.36904 25.33964 25.31672 25.30595 25.29634 25.28792 25.27660 25.26639 25.26600
25.25000 25.25555 25.26274 25.27706 25.28220 25.29162 25.30334 25.31146 25.33500 25.35843 25.45626 25.67613 25.82946 26.16160 26.37229 26.67904 26.82332 26.84660 28.70276 30.20032 31.75089 32.07126 32.51918 31.78185 30.33324 33.45345 37.17286 40.59631 48.15441 51.17050 55.35438 61.89284 67.56403 66.52363 60.90706 65.33496 69.85584 73.11061 73.26293 70.32460 71.62825 77.81207 88.11319 92.87206 98.24201 99.30831 98.07908 93.69895 90.61911 85.31140 90.25402 94.33188 102.07751 107.50569 110.12412 109.77741 106.50491 106.22882 107.28406 111.22896 112.60190 111.56725 112.66052 112.92321 111.90167 113.27902 111.58338 110.38849 110.51289 110.94512 108.39985 107.02658 104.31580 101.22280 97.38481 97.04951 101.56954 102.69083 99.92769 94.71435 80.77284 74.37008 74.48926 71.05398 65.50036 63.58486 72.71739 78.14373 78.22161 79.26716 79.13359 71.79190 66.01097 58.85477 47.69746 45.38818 48.52751 46.63292 43.46915 39.92162 36.71418 32.88465 31.17578 32.30923 32.46015 31.21538 29.50266 28.25094 26.59665 26.25230 25.76337 25.50510 25.47116 25.48290 25.41240 25.36357 25.32170 25.30591 25.29986 25.28991 25.27998 25.27320 25.26600
25.24900 25.25740 25.26297 25.27157 25.28236 25.28953 25.30402 25.32225 25.36755 25.43267 25.53652 25.87933 26.24185 26.88441 27.12654 27.26264 27.87847 27.40315 27.37950 29.51477 32.02680 33.68663 34.80323 34.51345 33.91376 33.16561 33.68517 35.20634 38.60838 41.43531 45.62384 62.26203 65.72201 69.91446 65.97369 67.33893 72.92307 78.91348 79.63585 79.39405 77.48778 76.51461 87.56961 95.67736 100.51013 103.72333 104.02374 100.34592 96.86459 92.73544 96.17971 101.20158 104.21478 109.90743 113.41767 114.16045 110.69146 111.79533 113.95151 116.51315 115.65252 115.98411 117.08008 117.14461 116.60397 117.11167 115.23180 114.86611 114.03194 112.68048 110.26999 110.35841 107.17065 104.45795 100.84286 102.44248 106.22390 106.67268 101.62774 94.87885 86.78392 81.45764 79.63788 73.61296 69.50541 69.30385 81.60616 85.98103 86.05864 82.84498 78.56770 69.97295 64.03189 54.29581 51.79462 52.25146 49.37502 46.10916 40.93576 38.30592 35.52723 34.66203 34.59648 34.67050 34.65803 32.88366 30.01523 27.83719 26.65100 25.81152 25.69633 25.81542 25.75312 25.69558 25.50066 25.37570 25.32647 25.31542 25.29817 25.28823 25.28247 25.27521 25.26600
25.24900 25.24948 25.25835 25.26970 25.27719 25.28703 25.30000 25.32739 25.37937 25.45177 25.65608 26.00084 26.52244 27.49340 28.11303 29.86809 30.17219 30.17750 29.52081 29.15449 29.96398 35.05010 36.93251 38.58489 39.82775 40.17583 37.77333 39.95526 42.58310 43.35078 46.10949 51.66796 65.75349 71.38682 75.24614 72.05344 76.47284 81.88126 84.47344 86.80818 83.75786 79.66856 89.47869 94.93352 101.55849 107.25577 107.96917 106.16768 104.26867 100.43054 103.44995 105.89613 109.95023 113.20265 116.38039 117.40388 116.53801 117.04816 119.52367 119.68190 119.30540 120.29217 120.92834 120.60665 120.80823 118.79365 118.66729 119.00637 118.37133 115.54785 115.28215 113.67485 111.92329 109.78601 108.09315 108.92181 110.47550 108.80545 101.58146 92.25549 89.43679 89.56246 85.31977 77.46924 75.91582 86.28924 89.54236 90.87742 89.44837 83.23272 74.70869 66.85320 61.06658 60.70289 60.17038 57.79379 51.79710 46.76042 41.14801 42.57458 40.89782 39.90116 38.22952 37.13750 34.96057 31.82258 28.84605 27.11395 26.33941 26.30177 26.62216 26.42735 26.24287 25.96540 25.65391 25.45113 25.35402 25.31278 25.29840 25.28818 25.28045 25.26700 25.26700
25.25000 25.25048 25.25786 25.26826 25.27540 25.28652 25.29663 25.31917 25.37675 25.49940 25.71036 26.17084 26.95455 27.82716 28.84375 30.49129 31.94142 32.05988 31.66366 30.69444 29.43858 34.40965 37.70458 40.48292 42.82250 44.61891 46.41165 46.44612 49.06296 53.07919 51.23266 52.13658 62.42728 70.57794 76.79291 78.13164 78.21745 82.77988 87.28257 91.50570 89.82108 87.57369 88.34592 93.98730 103.02097 106.58494 110.39820 111.48680 108.00606 104.57862 108.05169 109.67446 114.11737 117.11723 118.79260 120.69376 121.00018 121.10266 121.80491 122.37341 122.03102 121.78271 121.80605 122.25884 122.12951 122.14506 122.40443 121.67858 120.84469 119.25905 117.61857 117.10098 115.57801 113.15623 112.88413 112.19362 113.38090 110.92868 104.07224 97.77266 97.06430 92.84385 86.05680 86.44368 88.26927 93.27267 95.34092 93.89043 89.75626 81.79497 74.26487 71.25633 68.22605 68.34076 64.46103 59.13165 53.22098 50.35402 47.60739 46.00858 44.68226 43.10404 38.53638 36.35024 33.42429 31.28576 28.36593 27.03952 27.77381 28.04052 27.27037 27.30370 26.58191 26.00933 25.62327 25.51347 25.36355 25.31393 25.29833 25.28831 25.28301 25.27604 25.26700
25.25100 25.25148 25.26013 25.26658 25.27569 25.28791 25.29276 25.30459 25.34219 25.42979 25.71132 26.03794 26.37945 27.80035 29.34264 30.73584 33.18162 34.95351 34.57498 34.23758 34.00174 33.19403 34.55293 38.64454 42.99398 47.93192 50.26051 51.43401 55.81104 58.73439 63.06452 61.07409 58.49834 67.58362 76.72742 82.73569 86.29711 89.64815 91.03310 94.74701 94.71882 94.39585 93.27176 94.55851 100.37206 105.41494 111.57965 113.73913 112.68275 110.03096 113.69541 115.58993 118.25725 120.29245 121.97531 121.62960 121.25760 121.10291 121.14592 120.90186 121.30409 121.03199 121.54215 120.59533 121.56835 122.60961 122.62066 122.64866 121.80939 121.15790 121.42833 119.90470 119.40541 118.51735 117.78878 117.72989 114.92063 111.05403 106.39411 102.57306 101.95522 97.91288 92.88422 92.60820 93.47626 97.66333 96.68277 94.16782 87.39632 81.84718 79.10309 78.59184 75.45666 71.56974 68.55708 57.12776 54.13828 52.29983 50.47091 49.66816 45.16576 41.28824 37.57326 32.64503 31.75990 28.36038 27.92758 28.48301 29.09458 29.33267 28.70693 27.81403 26.81654 26.16954 25.63216 25.43291 25.34661 25.31640 25.29935 25.28854 25.28252 25.27577 25.26700
25.25000 25.25000 25.26117 25.26813 25.27857 25.29339 25.30496 25.30803 25.33205 25.36566 25.46874 25.70300 26.10188 26.67367 27.67350 29.69259 32.81288 35.07385 36.80573 38.10205 38.62663 41.95295 40.46025 39.46987 39.86422 45.82481 51.96633 57.07336 59.27922 66.00945 68.56728 67.64238 66.48385 64.66946 70.97591 79.50494 87.56703 92.34695 94.89839 96.84766 100.69542 101.00675 102.46719 101.08303 101.95221 106.46866 110.97364 115.73797 116.39046 116.66079 118.52957 119.30473 120.36433 120.65598 120.53387 119.13282 118.45210 119.40313 117.17316 118.08660 117.31997 116.46312 116.01028 118.04993 116.91387 119.22856 120.02384 119.47521 119.89171 120.56495 120.84404 121.24255 121.84674 121.62654 121.40875 118.44420 117.27238 114.26392 110.83549 106.29786 106.24603 98.55962 95.21028 100.34319 101.94254 102.22910 98.92184 93.85767 88.40452 86.22580 85.23291 84.05107 79.25010 74.92944 69.47302 60.97547 58.22236 55.43003 50.91918 44.87017 42.37428 37.05734 32.17077 30.62447 29.63337 29.12817 30.64912 31.32173 30.60137 29.61996 27.85729 27.35172 26.36333 25.79390 25.41436 25.38305 25.34534 25.32177 25.31089 25.29283 25.28258 25.27595 25.26600
25.24900 25.25864 25.26392 25.27291 25.28055 25.29370 25.31722 25.37386 25.40165 25.45914 25.61369 25.82166 26.14938 26.58232 27.26785 28.80382 31.51283 35.27818 39.53453 40.82568 43.95084 46.60454 48.30200 46.20166 47.07170 44.95872 50.35672 59.35487 64.64177 68.08406 71.91762 74.32331 76.64547 73.51390 71.78341 75.65696 88.47275 96.10621 99.76843 103.30276 104.43840 106.43133 107.17621 107.27518 106.86723 107.47515 112.69029 116.80598 119.53746 120.19637 120.38090 120.00228 119.46462 118.66318 118.14469 115.62709 113.84290 113.39901 114.05251 112.03680 112.64310 112.08256 112.24974 112.33768 113.68781 113.65536 114.54643 114.66547 114.47019 115.57005 118.12486 119.88982 121.27729 122.18465 122.50123 121.59928 118.46830 116.36456 113.79815 110.77339 106.80256 101.42432 101.63574 103.25839 106.46470 105.28507 100.49629 96.17793 93.67353 89.92769 87.00944 84.60205 80.10774 75.95669 68.42878 64.40269 59.17551 54.09180 47.78194 41.63590 36.76889 34.04911 34.85082 33.65691 32.91739 33.32311 33.18276 32.56449 30.89650 28.83404 27.16584 26.44188 26.20915 25.77570 25.72373 25.54034 25.44577 25.37274 25.31508 25.29276 25.28186 25.27415 25.26600
25.24900 25.25076 25.26258 25.27366 25.28348 25.30093 25.32989 25.42776 25.52475 25.71867 26.13671 26.42556 27.26691 27.23470 28.89455 29.71258 30.59574 33.65666 39.10319 42.32992 45.91509 51.56324 54.05200 55.87678 54.71285 51.90017 50.97970 56.58751 63.34175 71.38634 75.35888 78.31225 81.80179 82.22526 79.66383 78.18669 86.55336 94.04380 100.75145 103.82110 107.44934 109.11951 109.81199 111.99582 113.44335 115.13075 115.66419 118.93662 120.87508 120.89328 119.60047 117.43880 115.50244 115.06506 112.94789 111.77109 109.20084 109.46494 110.37177 110.25190 109.22206 108.88221 108.54059 108.77186 109.77372 109.72788 109.58698 111.27023 110.80193 111.85787 113.38868 115.43825 117.39587 118.34377 120.32894 122.20966 121.20652 119.41030 118.39840 112.59375 109.35137 108.54991 108.72792 108.58381 109.22826 106.19267 102.64029 99.70314 96.25614 91.29561 85.17962 81.48250 77.69619 71.88614 65.81343 60.43494 54.90515 51.18862 41.78223 37.95984 40.22003 40.12349 38.93454 38.52643 36.59626 34.92834 33.02689 30.90386 29.35304 28.20443 27.66827 27.72515 27.66180 26.54260 26.20969 25.66191 25.55206 25.37420 25.31730 25.29271 25.28200 25.27490 25.26600
25.25100 25.26064 25.26639 25.27477 25.28637 25.31039 25.39331 25.52683 25.66186 25.96254 26.51081 27.31255 28.07048 29.01365 30.89002 31.02737 34.01604 34.82708 36.25211 41.81067 45.07044 52.10253 57.29595 59.70808 59.75187 59.39490 58.01265 59.02041 61.19921 67.53518 74.53920 80.95690 87.05447 88.27951 87.88347 85.13998 86.16908 93.21300 100.23096 102.59761 107.63545 113.00179 114.51178 116.44580 116.82179 118.11896 118.89371 120.34947 120.58242 118.85380 116.97068 114.87057 112.98197 110.36329 109.93395 108.79742 107.74040 107.26329 106.70918 106.84913 107.14389 106.28585 106.24871 106.83110 107.50565 107.14479 106.83833 107.66648 108.26709 109.01079 110.24050 112.08827 113.17845 114.98529 117.03017 118.73624 120.43788 120.76941 119.62494 117.43664 114.43393 112.68173 113.33481 113.14696 112.02628 109.68947 104.70385 101.59420 95.62907 90.83322 83.08553 79.77485 70.71290 64.97305 58.43805 51.62489 47.25290 44.27966 41.60242 45.99909 46.67242 46.54495 45.52956 40.57111 35.65385 34.55787 32.08902 31.28817 31.30508 30.76668 29.66247 29.26752 28.39557 27.36162 26.49714 25.79732 25.54066 25.38304 25.32751 25.29709 25.28318 25.27531 25.26600
25.25000 25.25956 25.26638 25.27911 25.28985 25.30015 25.34920 25.50930 25.68578 26.09910 26.74286 27.66387 28.95722 30.39153 32.03534 33.71528 36.23131 37.70053 38.65617 40.13696 45.55970 51.24250 55.49043 62.20012 65.64420 67.50212 67.19994 68.06548 68.55412 68.17192 73.97896 81.77122 88.41573 92.47338 92.21932 90.64348 91.50040 91.94271 96.09837 101.02151 108.82236 113.94860 117.03917 118.03586 120.61684 121.16010 121.14305 120.60197 119.02894 116.41652 114.47328 109.42469 109.33019 107.53766 106.85162 106.40068 105.37721 105.22243 105.14029 104.79333 104.31447 103.99231 105.13851 104.81959 104.24478 105.73382 104.79306 105.12232 106.57002 107.17066 108.25472 108.67885 109.15484 110.48539 114.32064 116.04844 118.59582 120.44960 120.69322 120.31766 118.41922 117.10615 116.23305 115.94833 113.39164 109.30984 104.86158 99.38177 94.56993 90.87129 84.34086 82.06064 71.94606 67.67401 57.08022 49.50464 49.50191 47.23866 48.60813 50.93762 49.51649 50.49752 44.92537 42.73989 37.21067 34.66529 35.12324 35.45070 32.88712 33.70249 31.93813 30.83430 29.08956 27.73102 26.56516 25.93990 25.62337 25.43328 25.34375 25.30589 25.28475 25.27579 25.26600
25.25000 25.25935 25.26592 25.27518 25.28561 25.30957 25.33234 25.39900 25.50011 25.79381 26.24227 27.06293 27.82626 28.91039 30.72549 32.30412 37.34950 39.09378 40.28080 43.52863 47.01413 50.69645 56.23383 62.07232 67.04519 70.61634 74.34184 77.42080 78.12762 79.26811 79.43956 81.03047 88.00480 94.70139 97.57344 98.73537 98.36156 99.70580 100.22881 102.22663 107.05392 115.25277 118.09079 121.05071 121.74388 121.30666 120.55168 118.57955 115.69119 111.84926 109.80977 108.10035 106.82569 106.21884 105.23639 104.69935 103.59095 102.81080 102.45929 102.14069 101.94019 102.03032 101.24099 102.07577 102.48559 103.09259 103.48528 103.68556 103.75087 105.11504 105.74841 105.95398 107.29641 107.16768 110.07272 112.09796 115.75017 117.51369 119.93038 121.51213 120.96415 120.84761 119.15023 117.11225 112.44770 110.10650 104.14901 99.44617 94.85562 92.15954 89.53770 83.67193 75.60158 65.13856 58.39667 54.93806 60.72550 57.61030 56.25586 57.86121 55.78958 50.38311 43.67630 42.19147 42.36317 40.13329 40.01916 38.34659 38.45335 35.47697 33.15746 30.77651 27.89670 27.09938 26.34879 26.05073 25.66348 25.43264 25.37768 25.30442 25.28829 25.27510 25.26600
25.25000 25.25000 25.26327 25.27201 25.29422 25.33146 25.36965 25.45684 25.48384 25.54906 25.54024 26.07111 27.16896 26.71080 28.50587 30.74491 35.49590 37.59170 40.49826 43.92689 46.90887 53.07744 57.97058 63.45500 67.74468 72.67588 77.31583 80.04906 83.26985 83.16834 87.07681 87.31167 88.44827 95.44414 99.00052 102.22070 102.56905 104.18294 104.29125 105.34654 109.73185 115.93175 119.54490 121.69380 121.61230 120.51160 116.37524 114.92383 111.37958 109.24276 107.82260 106.60193 105.39642 104.48137 103.23896 101.65202 101.69433 100.82802 100.79652 100.20897 100.37784 100.44854 100.18915 100.47222 100.23567 100.23563 100.43485 100.72654 101.55774 102.53584 103.65295 104.59152 104.92113 106.17696 107.81622 109.55799 111.70096 113.76819 115.19656 119.29322 121.41760 122.19715 121.02360 118.81454 115.15867 110.21200 106.70709 100.80984 96.68630 93.16204 87.56927 82.46739 73.73975 64.32648 63.82295 66.90898 70.39323 66.80607 66.01200 60.76175 56.36211 49.95539 47.13999 49.56337 47.59087 46.78277 44.47497 40.79334 38.16535 35.68235 32.90879 29.60046 27.40615 26.51924 25.91085 25.76950 25.46111 25.32363 25.31328 25.30735 25.28678 25.27516 25.26600
25.24900 25.25708 25.26576 25.27536 25.30855 25.38634 25.43123 25.60892 25.74478 25.91642 26.08827 26.05299 26.42009 26.89482 27.31414 28.30610 32.21925 36.00176 39.65321 41.92668 45.50828 51.03374 54.57149 60.54218 64.14347 68.26261 74.87633 79.37348 85.58185 89.24525 91.92217 93.59871 93.47983 97.84609 100.89412 104.06446 107.63073 109.01513 110.64268 113.50588 115.30332 117.78240 120.46784 120.56452 119.35154 117.62484 114.17580 110.91562 109.22770 107.64703 106.05648 104.75174 102.76974 102.29559 101.51280 100.43780 100.23732 99.51395 98.76718 98.89823 98.50944 98.58280 98.42229 98.75598 98.86917 98.92814 99.17029 99.42648 100.26490 101.16750 101.71387 102.29842 102.91634 104.23280 105.70086 107.16235 109.34686 110.82236 112.61564 116.09319 119.74673 121.93067 122.03745 120.21493 115.89795 112.67249 106.69096 101.43109 92.23226 86.46426 79.34577 72.81819 68.66425 70.62901 75.57701 83.58333 80.51191 77.71428 69.62015 63.54612 56.75576 55.35495 55.32508 54.47851 56.33050 53.18100 49.53099 43.52613 37.97708 33.95090 31.03244 28.81068 27.21366 26.29938 25.85275 25.79280 25.59464 25.52768 25.37065 25.31621 25.29195 25.27500 25.27500
25.24900 25.25103 25.26205 25.27770 25.29949 25.38718 25.52327 25.79636 26.00950 26.50427 26.68301 26.87970 27.59464 28.94561 29.77534 30.04296 29.68924 30.79388 35.94687 36.01227 39.97358 41.17661 51.70304 54.78757 59.27888 61.93848 71.06693 77.20848 81.98818 86.42745 91.80039 95.48956 98.88720 100.40496 104.30156 106.26520 111.41669 112.75073 114.10791 116.70213 118.64585 119.69773 120.04602 118.45574 116.12308 113.53502 112.23064 109.21689 107.49966 105.34287 103.81224 102.42324 101.33620 100.53978 99.45138 99.11019 98.45893 97.89166 97.77225 97.46118 97.20442 97.18321 97.18719 97.03837 97.19730 97.42505 97.75109 97.72450 98.39085 98.93538 99.72400 100.69261 101.66802 102.51291 104.38284 105.38648 106.94475 107.69459 110.36202 112.39695 116.78125 120.29308 121.73086 121.59960 117.17908 111.58350 104.09387 98.58349 92.82387 91.42612 86.74530 78.74874 81.47784 81.63885 81.75465 87.68957 83.72306 82.65995 74.94855 66.69585 63.91035 61.99870 64.37398 62.04227 58.29310 55.26732 51.63011 42.69226 35.90656 31.91572 28.66309 27.12395 26.34029 26.91681 26.77258 26.31675 26.02046 25.68809 25.51708 25.40370 25.32910 25.28558 25.28900
25.25000 25.25000 25.26258 25.27522 25.29674 25.32621 25.51605 25.75308 26.06992 26.46127 26.72966 27.79430 28.07681 30.85999 32.01758 32.58678 32.33231 31.23210 30.77979 33.07229 34.67245 36.54087 43.27442 48.37572 53.18823 56.79243 64.54278 68.38591 76.02671 81.79607 85.84412 93.56178 99.85356 103.67300 107.06106 110.89755 113.14773 115.40192 116.36323 119.39904 121.18211 121.21558 118.10436 115.19698 113.32772 110.46237 108.70092 106.70834 105.36415 103.49791 102.39431 100.75161 100.12338 98.98691 98.25948 97.82639 97.36209 96.88203 96.48526 96.31158 96.14529 96.12593 96.15378 96.31365 96.30421 96.41614 96.55528 97.10233 97.15684 97.68223 98.43719 99.42447 99.97257 100.41984 101.99433 103.63625 105.57163 106.69909 107.56814 112.15625 114.21061 119.27457 121.52237 122.24789 116.23191 112.01760 105.97052 103.89442 102.12156 98.62542 93.02043 88.09284 87.83355 88.91913 91.69274 93.70817 90.53094 83.85229 76.14535 72.50280 69.97742 69.53924 68.76691 64.54838 60.69399 53.23500 47.71007 39.77503 34.15920 30.50622 27.74549 27.01849 28.26693 27.95750 28.17607 26.85555 26.55244 25.99101 25.68846 25.45401 25.37934 25.29575 25.29800
25.24900 25.25806 25.26833 25.28885 25.30848 25.38904 25.46433 25.65705 25.83886 26.31763 27.15362 27.59589 28.62621 31.67367 34.13611 36.70673 38.02747 37.87982 35.46438 36.86935 39.32577 40.44817 38.42253 41.63788 45.96451 52.06218 57.39007 60.70155 66.34933 74.83556 80.65490 88.75147 98.90645 101.96073 107.43422 111.63583 114.88393 117.91848 120.24335 121.61597 122.49609 121.32329 116.86845 113.14549 110.23053 107.65759 105.68676 104.84739 103.42840 102.13927 101.23311 99.70125 98.50535 97.57645 97.49186 96.71205 96.39702 95.95277 95.79224 95.72458 95.48849 95.39460 95.31583 95.40988 95.48821 95.66607 95.70916 95.84401 96.29101 96.81599 96.88733 97.41605 98.88595 99.48836 100.36682 101.84421 102.78468 105.32890 107.17944 109.11527 112.16585 117.03695 119.65172 121.53496 120.17245 114.92866 112.60334 109.14259 106.44040 104.13682 100.10785 95.35568 94.15888 96.63599 97.19241 95.62411 90.56230 83.61351 79.40891 76.58969 74.64906 72.71270 69.25584 64.52223 57.77321 50.23912 42.97269 36.46118 32.04396 28.91828 28.28196 29.90496 29.96458 30.84558 29.65264 28.16356 27.23813 26.44853 25.75963 25.50340 25.41258 25.30827 25.32400
25.25000 25.25642 25.26830 25.29343 25.35843 25.52831 25.71403 25.93737 26.36050 26.71858 27.79253 28.69876 29.89098 32.01517 34.58771 37.96478 42.20151 43.51387 43.12508 43.75061 44.64585 44.28252 43.24178 40.65834 43.08006 48.15186 53.46566 56.78339 60.21263 69.34428 70.63666 83.51396 90.63757 99.04912 104.87057 111.29194 112.29594 117.27806 120.34808 122.75620 122.61731 120.26448 115.30044 112.13174 109.35034 106.73234 104.79692 103.41484 101.55497 100.47974 98.84513 98.20280 97.60776 96.85367 96.35715 95.89688 95.49964 95.31016 95.22482 95.13319 95.05625 94.90346 94.90813 94.82343 95.01396 95.11324 95.15841 95.38154 95.51117 95.78980 96.35977 96.73132 97.34092 98.32457 99.33961 100.65285 101.57213 103.37118 105.56126 107.79458 109.58376 113.96553 116.69484 119.06304 120.97853 119.27409 116.85427 112.73344 110.22583 107.32923 101.63502 100.74495 101.32618 101.79792 100.31185 97.70523 91.74317 86.98779 84.83245 81.12613 78.03969 72.21131 66.52041 62.92639 53.90259 46.74717 41.18333 36.69095 29.79207 29.99633 31.65076 32.99107 33.01109 32.75426 30.64055 28.77667 27.35263 26.63144 25.81048 25.58055 25.37526 25.29550 25.31500
25.24900 25.25613 25.26799 25.29731 25.40772 25.70511 25.88446 26.33301 26.80230 27.69548 29.24781 31.24857 32.28313 34.29414 37.03976 40.79467 44.96166 48.20722 48.25484 51.93195 54.44421 53.97481 50.71791 46.97354 48.73514 47.57661 51.00218 53.61191 57.25983 62.55849 66.91531 74.33136 83.23712 92.92374 101.28456 104.64994 110.54514 115.91044 120.92985 122.43878 121.81831 117.72904 113.70260 109.49333 107.42587 105.63201 103.72962 102.05520 100.47749 99.08690 98.32031 97.03983 96.51925 95.94683 95.73901 95.43710 95.15537 94.96123 94.79476 94.61768 94.60090 94.53688 94.57228 94.58050 94.57941 94.71905 94.71186 94.86142 95.18173 95.30548 95.50061 95.91008 96.59609 97.21423 97.58904 99.14969 100.34121 102.49264 104.09813 105.99538 108.62603 110.22586 113.53710 116.88974 120.34905 121.14272 119.59458 118.85747 114.60382 111.73275 105.65618 105.57970 104.61916 102.91134 100.54673 96.41032 92.89646 88.42504 84.98619 79.78523 76.60340 71.17611 62.46703 50.34810 49.85035 41.77932 36.19436 32.84041 31.59612 34.46094 35.14717 35.76662 34.99979 32.66307 30.84893 29.03474 27.68502 26.43821 25.69906 25.47688 25.33775 25.29065 25.28200
25.25100 25.25742 25.27161 25.31988 25.40600 25.78842 26.19005 26.97458 27.86830 28.98217 31.42155 33.03002 35.62335 38.35128 41.58154 44.87025 49.23101 52.04924 56.27775 58.78373 60.23703 58.93705 58.89674 54.43975 54.10131 56.98855 61.01404 60.74474 63.09509 67.37277 72.47696 79.60419 85.31690 90.57329 94.58524 103.61602 110.78991 115.66973 119.37327 121.06739 119.29329 115.84148 111.92647 108.36233 106.53389 103.70760 102.41610 100.09178 99.36287 98.16577 97.19967 96.72061 96.29157 95.49614 95.20117 94.84283 94.69538 94.59024 94.42674 94.39055 94.31853 94.28868 94.22758 94.22095 94.35974 94.37670 94.48407 94.60079 94.75912 94.84697 95.09477 95.43439 95.78548 96.41930 97.10518 97.92136 99.36383 100.94275 102.62006 104.18724 106.79058 108.45055 111.73214 114.82252 119.69719 121.91875 121.23709 119.85728 117.74170 112.80327 112.07905 109.21733 104.86447 102.38344 95.62200 91.86692 87.87262 85.41342 82.52037 76.12172 67.98205 65.22504 56.56297 51.25726 41.75909 36.79471 36.60575 37.71977 37.95798 40.16624 40.02458 39.50587 36.48615 31.65246 30.46022 28.26375 26.82588 26.24910 25.73414 25.53155 25.37650 25.29119 25.28600
25.25000 25.25000 25.27012 25.32342 25.42320 25.82751 26.27709 27.36980 28.01581 29.54237 31.66156 33.54938 36.50120 41.05278 43.69097 46.10055 48.99337 50.48620 54.75512 60.41746 62.45769 66.30473 65.47075 66.83498 66.34571 63.95765 67.04606 70.26901 67.07750 71.36904 79.13834 84.90663 91.04551 98.37134 101.65240 107.14866 110.10908 117.38972 119.94593 119.95985 116.77286 113.47368 111.17034 107.68824 105.31438 102.89756 101.36315 100.05419 98.80231 97.36016 96.83737 95.85658 95.25438 95.00720 94.82323 94.52117 94.37254 94.34853 94.22436 94.11073 94.06480 94.03711 94.05320 94.03711 94.05976 94.08258 94.18174 94.32384 94.46522 94.54550 94.77424 95.08104 95.36770 95.91371 96.40007 97.10779 98.72067 99.85395 101.40208 103.17803 105.73128 107.09026 110.06131 113.75908 119.20235 121.64667 122.31866 120.80166 118.29700 115.09302 112.82629 107.38230 104.01332 97.65683 90.79261 85.30459 82.08985 78.64382 77.26163 70.80346 65.03602 56.56323 53.85501 46.42247 43.65223 42.00292 42.13186 42.91418 45.23227 45.68101 42.52341 40.07783 37.13107 33.07026 29.34866 28.35024 27.47827 26.72834 26.06227 25.62645 25.43093 25.29548 25.32800
25.24900 25.25808 25.27261 25.29936 25.48572 25.78707 26.35726 26.50412 27.64091 29.19643 31.12909 32.75890 34.93961 39.49952 42.92026 44.07727 45.28000 47.65963 50.01688 55.51229 64.29640 66.49114 69.37981 71.05691 72.82766 74.25311 76.22769 76.91948 79.73587 76.51534 80.39802 88.26936 96.05108 103.41065 105.41743 110.82328 114.88973 118.06762 120.27807 119.19189 114.25249 111.20831 107.85763 106.75475 104.65112 102.72223 100.38990 99.22507 97.47814 96.74806 95.96913 95.59306 95.08235 94.80856 94.56748 94.33936 94.17851 94.06152 93.99778 93.93485 93.87871 93.82491 93.84961 93.87384 93.87727 93.94738 94.04820 94.08388 94.16007 94.32072 94.48772 94.71269 95.10356 95.61377 95.94175 96.79695 97.57272 99.29792 100.92076 102.28399 104.64251 106.54439 109.47928 112.02692 115.10819 119.57504 121.95991 120.62781 117.01022 114.35631 108.41798 104.53415 99.73243 94.50240 89.16893 83.27396 80.91912 74.71197 69.53230 66.68425 61.34901 57.24433 53.01641 53.03119 50.41998 51.71504 51.58508 51.07742 49.56153 47.47469 42.87668 40.11099 36.08836 34.02916 31.61355 29.80957 28.19423 27.04841 26.24897 25.70999 25.44097 25.30595 25.35300
25.25000 25.25000 25.27166 25.30523 25.44393 25.63476 25.94637 26.24249 26.54307 27.72226 28.63434 30.76913 31.97907 34.40817 38.10645 37.72844 37.93937 39.89042 42.92157 50.36436 57.78707 62.51312 66.44001 71.38133 75.37100 80.46056 81.95345 85.39572 87.42539 84.62763 88.01222 91.65239 100.79599 104.33135 111.27970 113.95464 117.52273 121.19335 120.82832 119.06182 113.53574 109.70738 107.45918 104.89596 103.17772 101.13392 99.76375 98.33943 97.15202 96.43273 95.69115 95.15462 94.81722 94.52352 94.33082 94.18371 94.04324 93.93402 93.86057 93.78739 93.78756 93.75735 93.75241 93.75086 93.75287 93.78801 93.86877 93.95238 94.02221 94.15338 94.29941 94.48524 94.79574 95.11190 95.62848 96.23441 97.42646 98.50139 99.64126 101.72872 102.94828 106.53268 107.28515 110.59595 114.30108 117.84369 119.95553 119.95432 115.83942 112.27151 106.45242 102.91207 97.44537 94.45512 93.91500 89.96528 86.34626 79.89260 70.15657 64.75419 60.40144 59.42048 56.96018 55.04633 55.76859 54.93004 53.36750 51.31146 47.95966 46.36324 40.97625 38.14089 35.11922 33.27411 32.36830 30.31519 28.70349 27.31173 26.31856 25.75251 25.54855 25.32089 25.36200
25.25100 25.25100 25.26594 25.29863 25.36710 25.49903 25.55851 25.53417 25.89210 26.45177 27.05403 27.45975 29.47575 31.44093 32.56039 33.69287 37.58206 39.63788 43.13483 45.97472 55.51465 58.82855 62.22559 67.21498 73.49116 79.90138 85.00448 89.49873 93.39453 94.16600 95.58309 96.92923 101.97440 109.81138 114.31117 116.27129 120.43700 121.12675 120.42302 115.61968 111.68578 109.01231 106.35459 104.62131 102.18762 100.51056 98.99043 97.41265 96.69351 95.88338 95.08445 95.00677 94.57020 94.32367 94.16317 94.03438 93.91276 93.79241 93.73286 93.66589 93.65901 93.62666 93.62259 93.62933 93.65618 93.64373 93.72018 93.82276 93.87328 94.01275 94.17674 94.40235 94.60277 94.74943 95.31225 95.84703 96.74793 97.78396 98.92198 100.79638 102.44352 105.07535 106.66353 109.02383 113.19983 116.13999 120.09643 119.95902 117.75118 112.83409 108.95665 106.32383 104.19651 99.44685 96.66741 93.98266 88.50288 82.14433 75.46817 67.93758 64.65639 61.00950 57.29910 53.56386 50.59360 49.25032 49.92642 45.39018 42.49919 39.89798 37.74453 33.71660 33.63099 31.85351 30.93808 29.89512 28.01948 26.67277 26.16816 25.72002 25.57785 25.38514 25.44300
25.25000 25.25000 25.26287 25.27577 25.28760 25.35282 25.40409 25.76948 26.20170 26.80939 28.09318 29.27317 29.35477 30.22797 31.84972 35.50008 39.99225 45.37152 47.22873 49.95852 51.66878 57.67481 62.25739 69.31210 75.53126 81.03491 83.87677 88.93347 94.23331 97.95158 100.22504 101.91254 104.93211 111.03453 115.44103 118.67123 121.50362 121.47542 117.49259 114.04512 109.26639 107.69729 104.93466 103.31351 101.31225 99.98946 98.33708 96.91751 96.38173 95.45491 95.04921 94.70591 94.37145 94.21854 93.99405 93.90326 93.80944 93.71878 93.65250 93.60698 93.55445 93.53682 93.53567 93.53709 93.54772 93.57799 93.61864 93.68408 93.76688 93.85959 94.04200 94.14883 94.49002 94.71417 94.99206 95.51798 96.30119 96.98210 98.55073 99.82887 101.38486 103.69845 105.40406 108.05509 110.48848 113.43875 118.37361 120.13931 118.61406 115.26858 114.01271 109.30018 105.71274 101.52826 97.99600 93.96872 86.13740 81.55338 74.65053 71.50208 70.85697 64.65571 59.86900 54.92338 48.53878 45.26888 42.28510 38.83874 36.72777 34.47141 32.26407 29.97323 29.55938 30.77640 28.25460 28.01916 26.82816 26.27911 25.78465 25.62398 25.46955 25.36795 25.42600
25.24900 25.25812 25.27082 25.27861 25.32620 25.43024 25.58964 25.88976 26.87864 27.85640 29.35339 31.24375 32.34619 34.25458 36.29691 38.56376 42.62219 46.94020 54.80304 57.66560 58.89854 63.34728 71.27641 75.93737 78.18380 81.68745 85.20022 88.40971 95.43994 98.94525 101.17583 104.43213 109.00394 111.88034 115.66244 119.99616 121.56212 121.17680 118.37715 112.86696 110.32535 107.21054 104.72574 102.62788 100.90348 99.61620 98.18685 96.63089 95.97192 95.29969 94.97490 94.52466 94.28949 94.06984 93.89931 93.81616 93.69129 93.63962 93.54811 93.50832 93.46796 93.46967 93.46480 93.45247 93.49125 93.50795 93.57919 93.63463 93.72266 93.81144 93.93332 94.03916 94.23197 94.54188 94.85727 95.29481 96.20170 96.70953 97.88639 99.23457 100.50339 102.98356 104.70189 106.57696 109.80812 112.77695 117.71688 119.95885 120.15224 117.49800 115.26804 110.63801 106.71326 102.42936 96.16706 91.92546 86.58933 81.44293 78.75934 78.22859 74.79571 70.91456 62.97877 56.66987 49.72280 43.33036 39.86742 39.36849 35.91697 35.50391 32.79670 30.59530 28.68133 27.14842 26.79556 26.56873 26.29517 26.09718 25.77997 25.50738 25.40445 25.34203 25.35000
25.24900 25.25242 25.27319 25.33470 25.46438 25.53565 25.93410 26.24023 26.90965 28.31023 30.09694 32.09657 34.09951 36.83151 39.84357 44.06140 46.70854 50.12226 56.65775 61.97971 65.18447 68.56174 75.81167 78.31298 79.72142 85.09361 87.39675 90.78045 94.10395 97.38545 99.68565 105.23748 108.63970 112.73610 116.36667 119.12842 121.83668 120.87863 118.44582 113.36004 110.27314 107.46058 105.15010 102.76385 100.32580 98.74761 97.69371 96.44587 95.92056 95.17045 94.76554 94.48181 94.17882 93.97084 93.82624 93.75497 93.64651 93.51239 93.50348 93.44579 93.42697 93.41040 93.38925 93.39979 93.40399 93.45671 93.47808 93.57390 93.63158 93.71961 93.87140 93.99018 94.11796 94.40469 94.76724 95.13015 95.71656 96.41830 97.59915 98.54192 100.22399 102.15766 104.54905 106.23664 109.35386 112.63280 117.41149 120.16044 120.57093 118.07783 114.71189 111.56347 108.79122 103.79552 97.70570 93.87803 91.77977 88.70323 84.18863 81.21347 76.39505 71.87436 64.83630 61.15365 56.11839 49.78269 48.70354 46.00203 41.22499 38.37634 34.96882 34.01492 30.62503 29.37687 27.66090 27.80223 27.55920 26.65816 25.99887 25.77649 25.48967 25.34067 25.33300
25.24900 25.25820 25.27456 25.39594 25.57156 25.93214 26.28412 26.75229 27.50875 27.81085 29.38466 30.56518 33.78891 36.40820 39.32811 43.88117 47.81163 52.27673 57.24153 64.68245 67.19970 72.11508 74.11147 77.32170 78.68813 81.74707 83.95873 86.63800 89.44085 90.37370 95.83038 101.46797 104.43959 110.12052 115.14751 119.42937 121.84468 121.08788 117.40069 113.98015 109.72386 107.02986 104.70117 101.61857 100.62746 98.62478 97.32529 96.20979 95.61658 95.04476 94.65143 94.34452 94.17836 93.88675 93.79715 93.70513 93.58316 93.49383 93.47186 93.40170 93.37137 93.35072 93.34984 93.34694 93.37569 93.40032 93.45194 93.50350 93.60975 93.68732 93.80349 93.91110 94.06915 94.34437 94.64114 94.97660 95.68684 96.16336 97.22971 98.27495 100.13568 101.90986 103.96643 106.58075 109.55703 112.78156 117.63155 120.05283 120.61568 118.02842 114.84894 111.12481 108.29353 102.72692 100.00665 96.44373 93.51891 88.92171 83.05504 77.71482 72.59047 67.20868 63.35810 59.75357 54.54153 51.38325 49.20228 47.45079 43.27780 40.62293 37.31302 35.33285 32.70120 31.74212 31.00725 29.42298 28.23658 27.42967 26.57444 25.93719 25.61531 25.37440 25.42900
25.25000 25.25920 25.29043 25.38528 25.67423 26.04948 26.51693 27.51242 28.35102 29.44319 30.83819 31.37510 33.85867 36.79149 41.46806 44.91621 49.37016 54.81443 59.68538 64.21967 65.71354 66.90124 68.35050 69.64896 69.85821 70.77027 73.71745 76.99817 78.94057 83.98244 90.04669 97.80677 102.71529 109.23895 115.24916 119.60288 122.18550 121.87127 116.82965 111.81461 108.67895 106.63609 104.76167 102.16988 99.77072 98.49239 97.11740 95.96838 95.62496 94.91649 94.60898 94.24331 94.07542 93.90796 93.75467 93.66250 93.53994 93.46852 93.40548 93.36762 93.34647 93.31628 93.31713 93.32544 93.34015 93.37698 93.40376 93.47997 93.54622 93.64500 93.77235 93.89817 94.07429 94.22807 94.52118 94.95594 95.42281 95.94371 97.48270 98.18278 99.58329 101.83226 103.94939 105.92374 107.64961 111.69015 116.56177 120.06109 120.58512 119.82777 115.35539 111.48991 107.69254 102.95078 99.69850 93.25881 87.81044 82.77650 75.39771 67.91777 63.19464 58.30387 54.79617 51.52263 50.14781 47.12162 46.95877 44.55035 40.56182 38.99541 34.51435 32.60232 31.61291 31.37801 30.84527 29.75791 28.78036 27.16608 26.57009 25.96380 25.65304 25.42084 25.47800
25.25000 25.25805 25.32022 25.38694 25.65376 26.07703 26.85743 28.13434 29.01525 30.73722 32.19175 34.98406 36.37693 39.75681 43.04983 48.41151 51.50717 55.31462 57.85121 59.10635 58.69388 63.78698 61.21852 59.95570 61.30450 59.57174 64.67488 70.94099 80.41441 87.82398 92.43945 96.97162 104.06818 108.56206 115.81677 119.09573 121.93832 120.84054 117.12843 112.61900 108.61923 106.25931 104.26688 101.84219 99.89091 98.55297 97.08036 96.20918 95.31940 94.89278 94.52841 94.24780 94.04378 93.87965 93.73026 93.64780 93.52262 93.44528 93.39403 93.33470 93.31121 93.28981 93.28397 93.29547 93.31821 93.35596 93.38762 93.47926 93.52960 93.62459 93.72695 93.85697 94.02713 94.25961 94.42122 94.94376 95.35441 95.99155 97.32418 98.22019 99.35434 101.11300 103.35060 106.33295 108.32008 112.14216 115.58334 119.55005 120.60039 119.81607 116.83327 113.16581 109.76377 105.01595 101.44903 93.54329 88.65139 82.58661 76.03735 69.23407 60.77869 57.62156 49.08474 46.98184 41.91277 39.40620 38.29560 38.80008 36.89307 33.46065 32.01740 29.64378 28.65329 29.18747 29.65320 28.47578 27.98206 27.00456 26.07805 25.81406 25.53075 25.35061 25.41600
25.25000 25.25000 25.32030 25.40770 25.60587 26.11358 26.66121 27.70042 28.85603 30.78187 33.10139 35.39084 37.90469 39.81685 42.06597 43.37169 45.79607 48.66713 49.81588 52.62150 50.39935 52.16253 52.69881 51.00395 55.58574 62.37437 71.27365 72.74597 77.46503 83.58403 90.03772 96.76560 104.21001 108.67900 115.39433 119.16319 122.03788 120.71792 116.81647 112.79082 108.92141 106.72971 104.63069 101.29119 99.69360 98.39533 97.15518 96.03141 95.46247 95.09462 94.46866 94.27855 94.04272 93.86547 93.74719 93.59776 93.52742 93.44740 93.37848 93.33338 93.29797 93.28422 93.27534 93.28391 93.30788 93.35465 93.39028 93.46158 93.53045 93.58933 93.71800 93.85874 94.03528 94.24387 94.47564 94.83576 95.43653 96.06318 96.98691 98.09061 99.50392 101.48773 103.45380 106.03620 107.68158 110.80955 115.48913 119.54723 121.61468 120.05873 117.26640 113.91525 109.74870 104.06471 98.43955 93.32615 88.60165 84.58103 80.64013 72.87035 66.67505 56.48914 49.38867 42.35172 40.56350 37.42847 35.66750 34.34002 32.43741 30.69136 30.12418 29.22950 28.02157 27.72365 27.02312 26.82636 26.85789 26.12488 25.88557 25.57491 25.42612 25.32080 25.31200
25.25000 25.25000 25.28981 25.39436 25.59476 25.84845 26.20988 26.81662 27.41635 30.00374 32.13488 33.82249 35.74392 37.02266 38.46660 38.62160 42.50112 42.79617 43.37007 45.19652 44.07758 46.57471 51.15578 53.28956 64.09597 69.40153 74.69738 81.74506 83.31417 87.24050 93.97711 97.88695 103.68525 110.38379 115.24655 118.85753 121.75806 121.34719 116.34758 111.95008 108.86823 106.79944 103.91056 101.95900 100.04664 98.61942 97.19167 96.10036 95.42806 94.99893 94.52098 94.19698 94.03285 93.82551 93.74025 93.61841 93.54436 93.44844 93.40491 93.34763 93.31111 93.29596 93.28269 93.29174 93.30483 93.34311 93.39406 93.48223 93.53785 93.60705 93.76543 93.85991 94.00798 94.29829 94.52615 94.94380 95.45956 96.19926 97.01787 98.17750 99.24155 101.41049 103.13683 106.22087 109.05920 110.92655 115.99501 119.48171 121.81454 120.09667 116.53076 112.47312 107.09846 102.32875 95.34140 90.41819 83.07471 77.79263 76.81920 68.94518 55.94104 49.01827 48.85681 46.45908 45.98039 41.44484 38.34892 34.78179 32.89701 33.91732 34.49567 33.02946 30.27933 28.45763 26.80905 26.21790 25.94028 25.85068 25.58973 25.44794 25.35066 25.31680 25.30800
25.24900 25.25837 25.27569 25.32708 25.40285 25.51467 25.60256 26.07453 26.61534 27.43401 27.91640 30.15682 31.58668 33.33289 32.08979 31.86535 34.77967 36.50957 37.10672 37.66820 40.76801 42.23523 49.26159 59.89454 68.20730 75.60140 81.88135 86.50369 92.44634 94.99532 98.83918 103.55410 107.47458 112.64341 116.61860 119.17809 121.37286 121.64144 114.87169 112.08988 108.57928 106.72954 104.29753 101.94768 100.12292 98.32375 97.29385 96.08419 95.40360 95.03266 94.58135 94.29512 94.06556 93.87933 93.72927 93.63918 93.55921 93.47704 93.41816 93.36223 93.33517 93.31656 93.31120 93.31074 93.34520 93.35539 93.41785 93.48113 93.56044 93.62473 93.76716 93.89301 94.04476 94.35230 94.56084 94.91676 95.50724 96.30933 97.31007 98.37139 100.06577 101.81584 103.87409 106.51695 108.08228 111.70792 117.00834 120.45311 122.41752 120.54112 117.85494 112.41929 109.26605 105.93802 98.29613 92.80119 86.77260 77.59498 71.45635 65.90095 64.54479 60.82249 61.83495 55.17836 51.26478 46.01230 44.93613 42.80213 42.17924 41.64298 37.29382 36.00699 32.39367 29.88294 28.24905 27.45764 26.62772 25.90070 25.70646 25.51364 25.41785 25.32776 25.35900
25.24900 25.25678 25.26892 25.29671 25.29849 25.43350 25.75833 25.90706 25.86282 26.15939 26.70674 27.34279 29.16582 28.77625 30.17371 32.06184 33.41910 36.54509 39.71458 42.30381 45.81661 47.71623 54.13954 61.95018 70.46645 77.19905 85.28927 90.48930 94.81138 98.55338 102.67037 105.11779 106.31876 112.56045 115.26531 118.03441 120.78468 120.41771 115.69186 112.18302 108.51320 106.28054 105.06147 101.89535 100.44812 98.60047 97.10880 95.98948 95.49474 95.11111 94.57957 94.37195 94.12195 93.94481 93.79698 93.66291 93.58593 93.51307 93.47666 93.39732 93.36271 93.34363 93.34073 93.35228 93.38676 93.39745 93.46583 93.50190 93.59330 93.68481 93.82488 93.95788 94.09584 94.29630 94.68926 95.02359 95.62413 96.50171 97.52614 98.66394 100.09349 102.57418 103.75602 107.35504 108.87940 113.44506 116.05451 120.92700 122.88875 121.41251 117.66945 116.27818 111.58537 109.28560 104.71141 99.27002 91.57477 87.60336 81.54384 77.41390 72.60103 69.23907 67.50300 63.08692 58.82086 55.61086 51.75177 47.57933 45.90555 45.78455 44.05725 39.12282 34.98805 33.40078 31.62304 28.55925 27.57704 26.75429 26.18707 25.98822 25.53136 25.36852 25.42300
25.24900 25.25794 25.27329 25.30517 25.41584 25.77117 26.12240 26.53078 27.15708 27.06682 27.91163 28.98344 28.69291 29.07973 32.62203 36.01327 38.78415 41.50053 45.91810 49.26818 52.67333 56.62116 61.54983 66.65985 72.25456 76.87497 81.76571 87.00901 92.25111 96.09314 99.42569 101.43632 104.17451 107.18549 111.65532 115.57981 119.72662 120.47057 117.69005 113.50276 110.06254 107.21211 104.93784 102.86599 100.51149 98.90575 97.42856 96.56391 95.44203 95.16903 94.72462 94.40151 94.23503 93.98773 93.86783 93.72481 93.61065 93.55860 93.51916 93.46135 93.41811 93.39863 93.38127 93.39415 93.41720 93.46130 93.49143 93.54749 93.64596 93.73769 93.83332 93.98017 94.19336 94.39398 94.80429 95.19336 95.79552 96.48377 97.58363 99.08704 100.35124 102.76658 105.13597 107.21645 109.18935 112.78331 117.78153 120.83212 122.51657 121.25157 118.56334 115.65421 113.05927 107.13971 104.61783 99.49403 93.87510 89.47841 84.36749 80.32649 77.57588 72.50653 68.89614 64.81942 60.94296 57.13685 53.94838 50.87020 49.26093 46.71835 44.07960 41.10709 38.09584 35.42772 33.39157 31.35750 29.61029 27.69228 26.76360 25.95072 25.65425 25.39369 25.41400
25.24900 25.25691 25.27395 25.36442 25.47044 25.66907 26.37373 27.38256 28.20824 30.04022 30.47847 31.67710 33.36047 33.37500 36.07566 39.02898 45.36188 48.76121 50.41765 53.57885 56.10659 58.99015 60.28392 66.45199 69.76597 73.25858 76.14424 78.65707 82.04387 89.76939 92.42448 92.90250 97.27570 104.36271 107.51550 113.99635 117.78331 119.95627 118.30020 115.54706 110.59598 107.58922 105.27637 102.83586 100.87953 99.58028 97.91156 96.60103 95.95321 95.27507 94.85059 94.52007 94.30250 94.07157 93.92844 93.80518 93.72159 93.60603 93.56331 93.50308 93.46490 93.47468 93.47115 93.46719 93.50424 93.50956 93.57719 93.62523 93.68859 93.79675 93.90378 94.08503 94.19741 94.56862 94.79836 95.23749 95.92025 97.03738 98.07002 99.37267 100.90304 102.60512 106.09786 107.84789 109.68597 115.18134 118.82391 121.25911 121.16903 119.77067 116.77899 114.52880 110.35360 105.18095 101.02473 96.84600 89.38640 86.97368 82.19470 77.18514 72.95842 70.83316 65.66121 62.49092 55.96112 51.61910 50.46117 47.60323 44.35144 42.27694 40.56765 39.02243 37.50265 36.10520 33.30239 31.88452 30.18915 28.50429 26.87436 26.13566 25.59221 25.37956 25.37600
25.25100 25.25990 25.27685 25.33884 25.51551 25.74841 26.68192 27.55334 28.42085 30.88244 32.35418 34.78898 36.97364 37.66059 39.16037 43.71734 47.63121 50.90396 52.42787 52.49967 53.38091 53.54201 54.57582 57.77970 58.81016 61.40868 65.36289 71.18702 72.36150 80.82346 84.99572 86.13761 92.65022 99.46288 105.20040 112.92292 117.56215 120.13909 118.91494 115.78310 109.43514 107.94232 105.98747 103.40036 101.69418 99.62345 98.24499 97.44037 96.20010 95.53115 94.98388 94.68875 94.50948 94.20525 94.02506 93.86997 93.75798 93.72036 93.62437 93.58390 93.54485 93.52923 93.52291 93.53389 93.56881 93.60172 93.62896 93.70689 93.78922 93.89820 93.98375 94.13421 94.42043 94.67130 95.06687 95.59737 96.17040 96.98887 98.27879 99.94478 102.18535 103.53803 106.02995 108.45183 110.53826 117.17501 118.47615 121.39271 120.01492 115.93180 113.22191 109.91482 107.76020 103.26741 99.03904 92.95589 86.93247 82.16905 76.56752 72.31781 67.43165 63.25281 57.47286 54.88566 51.57336 46.54644 43.98653 41.71901 38.29981 35.72386 34.56607 35.95950 35.81852 33.60462 32.36264 31.31564 29.83534 27.93972 26.99725 26.28063 25.61761 25.35484 25.38000
25.24900 25.25790 25.27816 25.34778 25.54532 25.84748 26.53094 26.94551 28.42997 30.93893 32.53910 35.64825 38.17353 39.53532 41.01902 44.54367 45.64359 46.92039 47.51985 45.79714 43.95725 43.58936 45.45521 48.50045 51.62696 52.69264 58.00353 64.00533 69.24337 74.36959 81.74585 89.42811 97.31177 99.47851 106.20067 112.58373 117.74595 120.78977 120.05991 116.73367 112.86957 107.97779 106.17431 103.39641 101.89697 100.42871 98.74653 97.59940 96.79623 95.90739 95.30803 94.90500 94.64290 94.37824 94.16278 93.99717 93.90080 93.79576 93.73894 93.68081 93.64988 93.57973 93.61474 93.64226 93.69194 93.72323 93.75924 93.79732 93.87994 93.95719 94.15537 94.29665 94.53016 94.95483 95.27422 95.90467 96.65271 97.63983 98.88949 99.98530 102.42053 104.18223 106.88990 109.68807 113.04074 117.56791 120.83223 122.02513 119.80650 113.60942 109.28014 105.14882 102.10556 99.19816 95.71609 94.79349 89.70810 85.75236 81.04311 77.21277 72.50280 68.56507 66.75766 58.56708 55.87299 51.17063 46.39450 43.22564 40.97719 36.79410 31.89199 31.12406 31.19580 31.23512 30.04560 29.29795 28.62949 27.61123 26.48237 25.91783 25.53141 25.32958 25.39600
25.24900 25.25817 25.27354 25.30449 25.46971 25.83777 26.17321 26.82087 27.64478 29.35910 31.80218 33.99278 35.63076 36.41023 37.62066 38.05883 40.48756 40.50022 39.24270 41.38901 38.99793 42.14798 50.44768 54.54028 57.08856 62.96410 68.06744 72.19433 75.40164 83.09082 89.90854 94.40880 101.97191 104.50180 108.63876 114.20938 118.13645 120.57789 120.44706 115.80434 114.05943 109.02471 106.42736 105.15239 102.63099 100.80759 99.95537 98.44397 97.04816 96.32251 95.58630 95.16614 94.74000 94.54031 94.42544 94.14993 94.00163 93.91327 93.82792 93.79179 93.73973 93.76932 93.74846 93.73433 93.78167 93.81678 93.84734 93.91036 94.09243 94.18172 94.31703 94.51574 94.65006 95.11691 95.79616 96.24612 97.07640 97.87444 99.55999 101.08658 103.60531 104.99567 107.08865 110.24850 113.78224 118.78288 121.24924 121.40933 117.98771 114.69382 108.45978 102.81309 95.79943 91.19409 91.61741 89.90646 89.04543 82.99617 79.79857 78.08111 76.51260 73.45317 70.22067 66.12417 61.88359 56.47844 52.15246 47.12423 44.53340 38.73080 35.29495 29.91742 28.58048 28.00690 28.26140 27.40151 27.41029 27.03820 26.15829 25.73579 25.45960 25.31485 25.34100
25.24900 25.25307 25.27615 25.30791 25.42213 25.54096 26.00804 26.50181 26.86442 29.68527 29.92866 30.44894 31.84062 30.87112 31.06727 34.76248 34.46108 35.74972 35.04382 37.63585 41.28668 48.17230 56.97662 60.25112 68.46191 73.40324 77.58711 83.10670 82.92751 90.92807 95.67271 99.70557 104.92355 109.59678 112.12253 114.27397 118.16906 120.48771 120.67753 118.87615 114.44073 109.55330 107.68558 105.88188 104.18617 101.79432 100.55096 99.22393 97.79655 96.90863 95.89512 95.52899 95.06748 94.77300 94.50781 94.36805 94.13894 94.07578 94.02967 93.92744 93.92256 93.87786 93.87155 93.89741 93.96626 93.94843 94.00777 94.09894 94.19777 94.33332 94.44763 94.78098 95.09379 95.47342 95.97886 96.58487 98.06122 98.97133 100.38249 101.70044 104.08347 105.82185 107.76503 111.73824 114.77255 118.48892 120.49087 118.48522 116.08504 113.71642 109.56967 103.12496 94.91618 87.31770 81.95978 81.59162 77.63974 73.51687 74.29854 71.87595 72.82935 74.17126 72.63191 69.23866 66.18329 59.13147 56.27949 52.27225 46.43760 42.36626 37.32984 32.56122 30.59421 27.87290 26.97694 26.24376 26.03216 25.92952 25.86150 25.73665 25.43574 25.30485 25.32800
25.24900 25.25653 25.27799 25.30750 25.39134 25.52036 25.63335 26.03581 26.65616 27.54451 28.44020 28.18339 28.16050 27.76659 28.69015 31.01868 30.19535 32.36363 35.27155 39.78622 48.33921 54.42265 61.05151 69.26967 72.12740 79.86400 82.94200 86.94300 88.92308 94.93184 100.01937 102.82480 105.62214 108.22230 109.83646 111.73271 114.33911 118.62179 119.86216 118.93665 115.78804 112.17431 108.26197 107.30244 105.54732 104.08000 101.49510 100.34095 98.38971 97.57409 96.52301 95.84651 95.51941 95.19429 94.89086 94.66550 94.42290 94.26102 94.10293 94.13364 94.06924 94.03359 94.05697 94.06248 94.07799 94.10202 94.16546 94.27820 94.35418 94.60500 94.88687 95.08743 95.47115 95.93952 96.54235 97.55171 98.38103 100.04114 101.29666 103.12690 105.12607 106.87315 108.71893 111.09448 116.26330 119.24875 119.93686 114.79684 113.09058 108.28292 105.34088 102.82092 95.85254 90.27600 83.33841 73.80194 70.78716 65.29978 60.99670 58.71903 64.78897 65.60525 67.03948 64.40668 64.96121 59.90794 54.49141 49.58877 45.26124 42.12895 37.30580 35.59596 31.55922 29.81560 28.21343 27.14800 26.14323 25.77824 25.63482 25.48894 25.35091 25.29491 25.32300
25.24900 25.25845 25.27444 25.28820 25.33869 25.37633 25.50452 25.73918 26.12254 26.26209 26.42000 26.05682 26.87531 28.20163 29.78670 33.63544 33.99886 34.93614 39.22433 46.66229 50.14104 57.36723 65.21768 69.98460 74.58497 79.76309 83.51478 88.68109 91.34357 96.78440 99.32481 102.30995 104.48132 104.07318 103.89229 106.46837 110.75972 113.67818 119.77423 119.93166 118.22911 114.26745 112.35699 108.86870 106.68060 105.19448 103.59087 101.78447 99.98202 98.53370 97.68799 96.38027 95.81655 95.48961 95.21983 94.86835 94.77670 94.54132 94.40789 94.42031 94.30279 94.24025 94.19984 94.32216 94.29948 94.39351 94.46697 94.47852 94.73546 94.88064 95.15257 95.52861 95.91095 96.45310 97.11712 99.26337 99.71126 101.14464 102.77948 104.46466 106.31843 108.23350 110.47552 112.62397 116.14630 118.75573 116.97738 112.42193 106.09628 102.26834 100.16324 95.74203 92.94939 90.24435 83.96110 76.39086 66.91799 59.52690 56.33690 51.19944 52.08747 53.82763 60.30922 61.14611 61.91891 59.64088 55.95771 48.01283 43.40907 38.67175 36.47937 33.43848 31.85771 30.10565 28.57421 27.54319 26.66889 25.97310 25.61897 25.33345 25.31181 25.28457 25.28100
25.25000 25.25945 25.26776 25.28259 25.29122 25.31103 25.35238 25.45199 25.59558 25.94137 26.24097 27.04794 28.28305 31.77158 35.24699 37.40214 39.53546 40.93497 46.82614 48.14671 53.10295 58.78110 62.89363 64.65233 70.31947 73.58108 80.96077 85.81075 88.74071 92.60317 95.56541 96.71552 98.09447 96.90349 94.69845 101.28358 107.03832 111.84272 117.30573 120.66209 120.85510 117.17305 114.14592 110.73496 108.08505 106.58350 104.31703 102.85743 101.33898 99.43160 98.28407 97.68503 96.47753 96.01025 95.69468 95.23548 95.00277 94.99489 94.72367 94.63212 94.53515 94.43908 94.47342 94.49456 94.49622 94.63039 94.68623 94.90321 95.07144 95.27340 95.80901 96.14253 96.71329 97.29954 98.42835 99.43563 100.81359 102.08021 104.10380 105.17236 107.67071 110.58977 113.50874 117.44823 118.84631 119.30316 115.95511 111.73517 107.07531 98.81517 92.50121 88.89945 84.88640 84.41538 79.81686 78.78248 72.89328 65.44278 61.48261 49.20196 47.66581 48.49852 48.07865 52.99130 55.39210 56.65837 54.30063 49.10199 45.57591 37.63327 35.60596 32.22603 30.64026 28.51022 27.23384 27.11882 26.52448 26.14219 25.68629 25.45620 25.32329 25.28393 25.27500
25.25100 25.25100 25.26488 25.27883 25.30336 25.30249 25.38268 25.51200 25.74420 26.56850 27.16059 28.70024 31.69293 33.77572 36.65291 39.95625 43.28713 46.27888 47.89956 49.41096 51.54329 55.09179 59.00425 59.81674 64.37659 71.11534 78.51357 83.31769 84.87574 85.99366 90.50858 87.67487 89.68624 89.58981 92.55122 99.51908 106.21102 112.08858 115.04488 120.72803 122.11836 120.61457 117.44912 113.33989 109.15636 107.54029 106.22580 103.65733 102.56756 101.08338 99.59604 98.32174 97.60057 96.52984 96.19037 96.00027 95.67038 95.30278 95.20302 94.97105 94.99180 94.84085 94.83048 94.82422 94.96907 95.14665 95.31827 95.34662 95.57256 95.96925 96.59996 96.75131 97.65947 98.40165 99.11855 100.54162 102.73251 103.57215 106.29953 107.04364 108.73960 110.99534 115.06404 119.22346 120.86515 119.90653 116.48531 111.36714 107.34766 100.15058 91.01292 84.23550 78.31738 77.47800 77.08332 72.87030 70.16484 65.54935 58.91799 46.89756 41.92189 39.34160 39.11788 44.26295 48.92090 48.96395 50.53140 48.86119 44.68885 41.01947 37.58975 33.61164 30.72633 28.70733 27.47980 26.52528 25.98443 25.77990 25.70343 25.43615 25.34194 25.28496 25.29800
25.25000 25.25319 25.26488 25.28489 25.30437 25.34912 25.50650 25.77861 26.38521 27.11358 28.26290 30.21935 32.77349 34.78298 38.53274 41.65715 43.05054 44.05108 43.51275 42.51291 45.29395 48.86313 55.11677 60.67700 64.66993 71.52475 77.53373 79.80096 79.57859 78.45595 78.37530 77.75999 82.48973 88.10230 95.86445 100.28768 106.31642 111.59650 116.31093 118.81085 121.06167 121.65181 119.42570 116.25453 111.19051 108.21492 107.29057 105.18688 104.06418 102.02012 101.06480 99.43643 98.55462 98.14455 97.12578 96.72941 96.26345 95.80447 95.77278 95.46314 95.43684 95.39454 95.47925 95.33122 95.47056 95.55395 95.55361 95.89076 96.16821 96.50658 97.13403 98.03450 99.01350 99.61398 101.15688 101.62812 103.51518 105.14935 107.17745 108.40137 110.68486 114.01021 117.36264 121.18282 121.64202 119.82076 116.56328 112.10359 109.36643 100.97483 95.93297 87.65446 81.60018 72.59191 67.37940 65.01957 62.66804 57.69565 53.45306 49.12626 41.22711 37.44057 34.37153 36.11044 40.68910 43.82076 45.85162 45.45200 41.46724 39.88241 37.47570 35.97590 33.24028 30.60973 28.57755 26.77574 26.13078 25.86686 25.49976 25.37637 25.30882 25.28924 25.29500
25.25000 25.25351 25.26349 25.28131 25.30405 25.39813 25.62929 25.93758 26.48912 27.34633 28.67658 30.22101 32.61590 34.55637 37.34574 38.07576 38.30605 37.70771 39.47928 40.80985 46.25192 50.57281 58.62366 64.07166 68.88530 71.51554 75.05728 74.88813 69.70642 70.11316 68.94430 71.96365 84.63859 90.69348 98.46282 104.74158 109.17610 112.30055 114.68389 117.03716 120.47539 121.61671 121.30758 118.28138 114.62824 111.37081 108.97173 107.32525 105.39293 103.92389 102.77654 101.26645 99.85142 98.83039 98.52641 97.66271 97.30855 97.20783 96.51040 96.68914 96.08104 96.13253 95.96164 96.09721 96.08755 96.25648 96.53538 96.51335 97.08829 97.57056 98.44698 99.08361 99.84553 100.95312 102.03370 103.48522 105.56863 105.75443 108.07182 110.75713 113.02404 116.72405 121.03298 122.03996 120.55850 118.40109 114.72414 111.06561 108.71042 106.45631 99.77408 94.90703 90.97238 82.65265 73.06630 63.89300 55.85241 50.98004 50.34479 44.87541 41.68980 40.82622 38.83346 34.05914 35.63565 37.62110 38.19607 37.77213 37.03180 36.01001 35.04976 33.83901 33.31951 30.63651 29.47671 27.96814 26.66116 25.77413 25.50544 25.37318 25.30554 25.27770 25.27000
25.25100 25.25100 25.26294 25.28301 25.30624 25.42229 25.55736 25.92288 26.52111 27.44496 28.01955 29.33865 30.81689 32.48192 33.78995 34.48319 32.60832 33.72828 36.97647 42.26122 45.90643 56.32112 61.29479 65.12686 66.76367 67.85171 67.12913 63.98157 59.08046 63.97127 71.65073 78.31733 88.58173 96.85851 101.12109 106.23058 108.32093 109.94684 110.46066 111.91153 117.44956 119.49467 122.01582 120.06371 117.53150 113.11516 110.27238 108.61733 106.87649 106.35723 104.06275 102.98078 101.95318 100.27358 99.91080 98.76725 98.49274 97.71020 97.61151 97.30105 97.20236 96.87820 97.01139 96.91094 96.96382 97.30105 97.32420 97.62127 98.31017 98.93594 99.27610 100.30452 101.48086 102.24123 104.32253 104.55722 106.60019 107.97474 109.08368 113.54210 117.29220 119.44354 121.88542 121.78499 119.41466 115.80218 113.20281 108.78740 106.45784 105.19155 102.98109 98.29436 95.93969 89.25377 81.02240 74.33351 63.01409 56.11663 54.26226 51.21088 50.67481 46.65637 42.68228 35.93527 31.79289 33.35704 33.64834 34.58624 31.83135 31.42834 30.70231 31.01988 30.79575 30.17560 28.88849 27.73876 26.71783 25.95708 25.60696 25.42536 25.30210 25.27928 25.27000
25.25000 25.25899 25.26655 25.27498 25.30988 25.44442 25.58701 25.83684 26.25686 26.84873 26.90936 28.03794 28.05653 29.23689 29.13958 29.45457 32.27633 35.96288 39.98013 46.68820 52.25276 57.39056 59.93531 61.95425 62.05974 61.45731 61.49462 55.60675 59.26766 66.54247 77.09337 83.10244 91.71792 97.12200 101.66240 104.41740 105.63711 105.11310 107.20397 111.16187 115.08072 118.92611 121.85444 121.85400 120.48727 117.57099 113.73317 112.62844 110.73204 108.57573 105.92580 104.73012 103.47779 102.51194 101.56444 100.69341 99.50669 99.87759 99.15286 98.57201 98.41026 98.39266 98.15094 98.34601 98.27751 98.36185 98.29077 98.73551 99.27909 100.01071 101.04880 101.50641 103.17397 105.87486 106.14189 107.69333 108.71542 111.34651 111.48821 115.31664 119.15867 121.54095 122.20548 120.54391 116.68935 111.76656 108.72251 105.96355 102.48683 100.03635 99.54187 97.80834 96.82992 93.05299 86.86706 75.72604 71.44194 66.84468 63.42303 61.51748 57.58928 51.60199 48.34101 38.63024 34.00905 30.00436 29.86492 29.19183 28.92554 27.74705 27.97266 27.53205 28.18824 28.11250 28.11090 27.26518 26.51325 25.94107 25.55368 25.44778 25.31089 25.27828 25.26900
25.25000 25.25203 25.26390 25.27338 25.30976 25.38878 25.53345 25.58690 25.87989 25.70637 25.99261 26.01158 26.97649 27.44884 28.29990 31.30198 35.28529 37.95597 43.43059 47.57945 53.45372 55.35625 57.60320 56.05908 55.52620 52.45743 50.97401 51.59207 60.96070 70.54331 78.88548 82.57974 91.53172 94.78155 96.87505 96.77587 98.21212 101.86498 106.95796 112.07179 114.98465 117.62656 120.32231 121.91278 121.85277 121.37172 117.54956 115.75175 112.92637 110.08100 108.64503 106.04715 105.36008 104.05091 103.27031 102.65641 101.95923 100.87509 100.41059 100.72648 100.23253 100.34131 99.95446 99.63660 99.48426 99.71661 100.40887 100.66638 100.94645 101.66483 102.43223 103.93828 105.31344 106.37609 108.08391 109.62175 111.18888 113.67390 116.51764 119.04724 121.16163 121.41889 120.51971 116.79869 113.61559 109.30258 105.21284 101.41049 97.91100 94.72647 89.45565 92.51280 92.81577 89.82560 87.64628 82.95355 78.60950 74.46007 71.61972 68.00198 63.17273 57.42819 50.45312 44.05581 37.84027 34.63159 31.74338 30.59123 28.81929 28.34152 27.05781 26.30600 26.31084 26.44025 26.39271 26.36964 26.16385 25.74316 25.59007 25.38762 25.31338 25.28028 25.27100
25.24900 25.25125 25.26172 25.27541 25.30052 25.33936 25.39118 25.42415 25.47691 25.60914 26.21039 26.58846 27.35929 28.07954 29.94295 32.29195 34.13895 36.38442 42.56359 46.10802 49.86149 51.17872 46.49848 47.34454 47.37373 46.29210 48.10448 55.59113 67.04118 72.57681 77.62136 80.40384 82.06305 87.33345 87.42267 91.48892 97.53050 104.24812 106.89800 109.75210 112.62583 115.20703 118.42009 119.88451 121.59274 122.75803 121.36983 118.87473 115.65619 111.87186 110.04195 108.81847 107.42517 106.11243 104.95849 103.17788 103.66527 103.47952 102.51335 102.24302 101.69482 102.31360 102.06640 101.86525 101.50621 101.73792 101.80683 102.16830 102.98981 103.29053 104.19339 105.91988 107.37033 108.56009 110.26575 111.61101 115.81481 117.22565 119.44211 120.49185 120.66154 118.07758 117.72459 115.56355 112.67208 107.55754 101.40178 95.54053 91.32538 89.39665 83.85904 82.77563 83.82533 82.68498 85.67997 82.19296 79.46504 76.76221 73.52634 70.88415 66.12480 59.01457 55.32643 51.17454 44.17263 41.95606 38.46429 33.43213 32.17496 30.99043 29.19321 27.72344 26.32151 25.77013 25.84931 25.68825 25.64533 25.65893 25.50032 25.35797 25.30366 25.27247 25.27200
25.25000 25.25225 25.26330 25.27455 25.28455 25.31782 25.31911 25.37383 25.58448 26.03255 26.51293 27.66895 28.76062 29.91000 30.29340 31.68174 32.80223 34.11701 39.06304 42.56371 45.66359 45.34625 41.07167 40.54002 42.84835 44.67100 52.62381 61.99693 68.40918 70.52911 71.31097 69.33170 74.83280 79.76706 87.74569 93.97644 98.65744 104.19392 105.01776 103.84395 106.63938 111.64986 113.57688 118.27501 120.20864 122.07313 122.08951 121.28305 119.25092 116.51616 113.09226 110.92515 109.66356 108.82673 107.13424 106.47093 105.53499 105.75060 105.19200 104.70872 104.07081 104.06054 104.68567 104.20019 104.80370 104.78807 104.02933 104.68541 105.11198 106.61475 106.82557 107.72263 109.21520 110.93182 111.76951 116.84216 119.44487 120.52441 121.00956 120.58237 117.61717 116.27253 112.40567 111.75216 108.64947 104.20623 97.25095 92.07236 86.38469 81.72920 78.36465 74.42092 72.93901 77.91058 80.59513 80.92901 77.79050 72.87442 72.71609 68.34225 64.69223 58.90356 55.47308 49.41979 47.57715 43.49138 40.84646 38.75909 35.66145 33.79941 31.08490 29.05559 27.57188 27.12777 25.78431 25.64860 25.45936 25.41158 25.39627 25.33954 25.29642 25.26952 25.26900
25.25000 25.25919 25.26636 25.27552 25.28126 25.28952 25.30105 25.38222 25.58331 26.10146 26.69245 27.58728 28.75288 29.26270 29.62307 29.41522 29.84257 31.50708 35.74050 38.14015 38.05596 38.23163 37.00030 39.09599 43.31879 50.56401 56.30392 58.81697 63.61283 65.16563 62.72780 68.90011 75.48749 81.51093 90.86220 95.85108 100.69424 102.44564 102.93788 99.89544 100.63186 107.20617 111.60026 115.79881 116.90704 118.08938 120.67517 120.81341 121.07024 119.18273 116.31627 114.38661 112.94696 110.89044 110.03964 109.25152 108.52933 107.40100 106.61901 107.15770 106.35117 106.20670 107.02448 107.15547 107.17177 106.61989 106.55794 106.70786 107.17732 107.37347 108.52113 108.63708 113.29321 114.43962 119.22814 120.08898 120.55799 121.88482 120.83582 117.24442 114.32246 110.01067 108.04136 107.19461 106.18072 101.67038 94.98035 85.94643 79.78980 74.99319 70.43974 68.21700 63.07805 65.79857 72.97588 74.27594 75.95748 71.95552 65.17295 62.06606 57.74556 52.41998 51.51786 48.67764 44.70342 43.06753 39.76156 38.58666 35.69382 34.93765 32.12677 30.94103 29.03554 27.93885 26.60900 25.96640 25.38566 25.35110 25.30598 25.30345 25.28613 25.27863 25.26900
25.25000 25.25805 25.26672 25.27239 25.28088 25.29469 25.33157 25.39618 25.58981 26.17681 26.58355 27.27664 27.23626 27.45827 28.42073 27.70772 27.46620 28.73608 30.77534 34.07438 33.76347 35.15462 38.15900 43.76965 47.27201 50.95221 53.82755 54.01893 53.64017 55.89423 61.50253 65.08019 79.86971 85.68848 91.58784 96.35735 99.29239 98.11252 94.88336 94.11048 99.49605 106.46043 110.16369 110.67140 112.06358 113.36199 117.43792 118.41910 120.82775 121.74848 120.52007 118.69630 117.45693 114.64115 113.51527 112.33526 111.56599 110.51128 108.82393 108.80155 109.08493 108.43981 109.59363 110.88816 109.35271 108.47835 108.91756 108.55754 109.27197 111.11366 112.40619 112.72199 114.01898 117.32642 120.04630 121.14730 121.60509 120.72662 118.63214 116.35310 111.70948 106.91305 103.65597 102.01065 100.22260 99.38616 94.02411 88.58065 82.54453 72.62116 68.56121 62.03583 58.44654 59.65080 62.92470 69.36320 71.04840 69.48342 62.26018 56.51569 50.83204 46.04900 44.32608 42.70197 40.77109 38.29484 37.65401 34.47765 34.40033 33.25194 32.16394 30.22657 28.97673 27.90138 26.64524 26.14766 25.59048 25.41376 25.32921 25.29427 25.28565 25.27663 25.26700
25.25000 25.25973 25.26582 25.27194 25.28324 25.29267 25.33488 25.42894 25.54759 25.83320 26.27387 26.45905 26.38208 26.54236 26.18459 26.69018 27.88243 29.66284 29.73362 30.92885 31.73672 38.05596 40.00019 44.11829 45.81148 47.37316 48.24096 44.65007 48.91248 52.63989 64.68298 70.17109 81.34749 85.70196 92.27159 93.49725 90.13747 90.08557 88.28913 90.78770 99.79073 104.10983 105.76178 106.35948 106.49899 108.74114 112.16366 115.50763 119.48716 121.67493 122.05991 121.78790 120.10834 118.75299 119.20353 116.94399 116.00936 114.45843 113.53814 113.91880 112.20296 112.11415 112.08603 114.79944 114.95091 112.64427 113.05025 112.89758 114.19225 115.52526 115.72651 117.65144 117.45807 119.52265 122.01507 121.95832 119.81248 117.40566 114.15652 112.97095 110.11887 103.49533 97.66319 96.32011 97.86701 95.86894 93.83211 92.04071 85.45217 80.72689 73.64207 66.26832 55.34606 52.16346 56.07888 62.38618 67.27774 67.86972 64.32854 58.60662 51.61466 45.92971 40.72090 37.88066 35.69081 32.69882 32.33625 31.90091 30.69353 30.90395 29.58427 29.55588 28.27794 27.36823 26.49312 25.99507 25.63525 25.40885 25.35141 25.29465 25.28707 25.27863 25.26900
25.25100 25.26073 25.26578 25.27427 25.28473 25.29674 25.32318 25.41669 25.50020 25.60946 25.83974 25.88460 25.77107 25.94640 26.18440 27.61850 29.23652 30.24389 31.90394 33.15583 35.22484 37.86915 38.98479 40.24474 39.56948 40.42039 41.61236 45.61619 54.26833 57.01397 65.65477 74.26829 81.53293 86.05334 88.83683 89.00587 84.10118 81.58841 87.42071 95.19914 99.04368 103.42484 103.08946 100.19766 99.80400 102.36014 108.19277 111.32695 117.21145 118.47105 120.48074 121.01582 121.43399 121.53878 121.39537 121.04154 120.04404 119.18964 117.58713 118.20249 116.67940 117.11957 118.54469 118.29820 118.67441 118.46430 116.37139 116.66390 117.71078 118.40279 119.76065 120.87502 120.60580 121.27670 120.45737 120.26194 118.98178 115.81488 112.44261 108.41998 105.95470 103.52410 92.46181 93.64953 91.83085 91.04375 88.70315 89.72093 86.30009 83.01550 73.01288 66.54652 58.45942 50.01036 48.64364 53.41750 61.81326 64.32681 64.67272 60.09056 55.81497 50.08854 43.98981 41.73178 36.62947 33.16076 30.14619 29.07387 28.19503 27.41581 27.01389 27.15760 26.97231 26.51135 26.21042 25.63462 25.47571 25.36420 25.32195 25.29715 25.28472 25.27823 25.26900
25.25100 25.25109 25.26309 25.27498 25.28106 25.29359 25.31901 25.35862 25.43947 25.51132 25.56508 25.56257 25.73185 26.42507 28.04061 28.65722 31.58445 33.37824 34.17602 34.99589 35.63488 36.01327 34.34963 34.66310 36.11073 39.36897 44.90859 50.52734 56.96917 62.45498 68.96347 73.98008 81.25236 84.51214 81.25640 79.80203 75.90635 77.25701 86.48652 93.37453 97.86609 101.10781 99.79660 95.77862 92.76976 93.63789 103.48559 109.61931 114.23157 116.27272 117.06701 117.44865 118.64260 120.38031 121.21033 122.86394 122.59207 121.85934 121.08244 120.89210 121.50386 120.11334 120.75289 121.24932 120.73878 120.30077 121.48323 120.81526 120.70591 120.61471 120.60920 120.43600 120.20512 120.46329 118.26110 115.78452 115.23312 112.62917 109.69023 105.29360 102.54979 100.51310 91.68429 85.65748 87.69547 88.18918 84.90265 82.96248 83.10380 81.75632 71.86131 69.41240 59.83351 49.98786 44.59501 48.21744 57.41950 57.54859 57.85966 58.46267 57.24855 53.24023 48.55792 44.53986 40.08425 37.17005 32.38324 31.09025 28.59273 27.62497 26.42375 26.00748 26.10630 26.11884 25.78522 25.46883 25.42422 25.34121 25.31316 25.29402 25.28157 25.27623 25.26700
25.25100 25.25100 25.26327 25.27133 25.28638 25.29619 25.30790 25.34063 25.38548 25.43274 25.43407 25.55157 26.03152 26.81229 28.19270 29.91315 32.07791 33.20077 33.82375 34.49337 34.50828 33.32729 32.79360 36.55052 40.72878 44.79432 49.22679 52.45095 57.15005 61.21349 69.25678 73.64197 78.34105 79.67056 74.88000 70.50648 68.08183 76.74928 87.39945 94.08453 95.87096 96.70156 92.68670 86.87930 83.19848 93.61105 99.94556 109.51319 111.83586 113.95324 113.66603 115.29035 115.73567 117.75087 119.44689 121.26381 121.34290 121.47482 121.57116 121.50232 122.13051 121.63551 121.42800 121.69037 121.83054 122.05653 120.97919 120.47298 119.12855 118.36315 118.17644 117.48409 115.99050 115.96620 113.43751 112.37349 112.58735 111.29899 109.96104 102.33718 98.52112 97.38127 93.65396 85.40332 79.46993 79.41114 77.19755 73.78934 76.43496 78.19759 74.89773 69.95705 60.80132 48.30710 42.38880 44.76091 44.47369 47.36637 48.69919 50.36532 53.80932 53.97056 49.11583 43.82356 41.42601 36.65370 34.42220 31.70718 30.79232 28.96674 27.33332 26.18700 25.74327 25.52327 25.52595 25.43910 25.36715 25.32285 25.30452 25.29213 25.27582 25.26772 25.26700
25.25000 25.25887 25.26549 25.27260 25.28653 25.29611 25.30325 25.31947 25.34284 25.35697 25.41309 25.59266 26.00184 26.58510 27.58743 29.47232 30.74909 31.48862 30.75270 31.27101 31.92875 30.94797 33.53292 39.04269 43.05298 47.68898 49.17748 50.12942 54.32044 61.36552 65.64881 70.94450 69.94336 70.58574 64.79414 63.60204 71.97747 78.77946 87.62603 91.72944 88.42254 87.06080 86.86581 82.74694 79.88762 87.74843 95.75354 105.88934 108.58181 108.79602 107.78454 109.65702 113.17644 113.74283 115.58947 117.06293 117.53423 117.62792 118.62767 119.93248 119.16014 118.24626 118.35793 118.33183 119.36842 118.64029 118.58976 117.00273 115.93842 113.82227 112.11482 110.03232 112.07186 111.77520 110.47230 107.20189 107.12134 108.00429 106.44721 100.62706 95.79461 95.01250 91.66713 87.73059 80.11028 74.17408 69.28536 65.87584 67.20297 71.25171 71.14330 66.53744 57.68655 50.30815 42.20494 39.31224 39.68226 39.41227 43.16006 46.55334 49.53795 49.06298 46.02895 42.36832 39.15655 34.80600 32.49131 31.69412 30.34755 28.64784 27.49941 26.46069 26.02792 25.54491 25.40461 25.35686 25.32413 25.30669 25.29472 25.28786 25.27582 25.26590 25.26500
25.25000 25.25987 25.26577 25.27263 25.28339 25.29487 25.30082 25.31134 25.31855 25.34273 25.42072 25.68876 26.10325 26.62806 27.39637 28.63201 28.54139 28.39262 27.73721 27.72998 29.35019 31.25141 36.51476 40.29217 44.84532 46.47975 46.29022 46.93379 51.71165 58.49918 62.17117 62.36576 62.63804 60.98308 58.17740 65.32187 74.65743 81.05643 86.12974 83.12925 79.71530 78.13070 73.09420 72.17439 81.80957 85.68250 96.35144 101.12317 103.52419 102.99772 105.13250 106.18442 106.72286 109.38411 112.35407 113.49849 114.05114 114.44975 115.86341 117.23519 116.91549 114.37458 112.10342 112.63308 117.89172 116.46579 113.70431 112.17518 111.45678 109.70772 105.74859 103.71702 104.28624 104.33054 105.15599 102.62057 102.72215 104.81955 104.53555 98.80334 96.59978 88.10877 83.13350 85.23416 82.47048 77.31964 71.97438 66.07197 60.31418 62.01342 64.53943 64.13615 58.07541 52.84243 47.10619 41.21553 35.28215 35.14659 38.65156 40.86312 43.83297 44.63370 42.78978 39.94518 37.97348 33.45146 30.81193 28.89536 28.37280 27.61465 26.99070 26.45675 25.80426 25.59986 25.35669 25.32554 25.31346 25.30329 25.29527 25.28915 25.27803 25.26681 25.26600
25.25100 25.26074 25.26693 25.27129 25.28062 25.28839 25.29625 25.30744 25.31391 25.33904 25.40301 25.63822 25.79741 26.41933 26.94350 27.61347 27.62109 26.74912 26.69762 27.63649 29.35242 32.81189 36.83528 42.00830 42.39529 43.32532 41.50078 44.64273 50.93296 56.34664 56.43505 53.24324 51.54202 52.31866 59.57666 67.45803 77.13127 80.30841 81.17671 76.20593 72.22375 65.01999 66.66403 69.58819 83.53065 89.44977 95.45541 99.05267 100.44472 101.03026 102.94565 101.80527 103.53371 105.82794 110.18522 109.99621 109.66845 109.33598 110.20210 110.19829 113.35831 110.29499 107.13540 107.66286 112.21168 114.42240 112.23715 105.06108 102.52732 102.18782 99.93768 97.07125 96.74064 99.29388 99.53580 97.89020 97.59694 101.02824 102.03008 99.11209 94.29810 85.43815 80.25479 80.12399 80.06325 77.82447 75.88649 69.50770 61.73196 55.34269 57.13873 57.23231 57.91015 54.72385 52.51829 44.78728 39.75914 32.14852 32.54057 34.41715 38.59396 37.12562 38.70774 38.41594 36.17246 33.75293 30.71635 28.43745 27.15034 26.59234 26.11758 26.04031 25.74095 25.53694 25.38826 25.31972 25.30984 25.30518 25.29832 25.29025 25.28119 25.27563 25.26600
25.24900 25.25874 25.26561 25.27043 25.27804 25.28778 25.29425 25.30413 25.31725 25.34122 25.39602 25.51192 25.73681 25.98699 26.21423 26.36729 26.35150 26.09558 26.37287 28.20978 30.18860 32.59154 35.68115 38.72121 38.80790 38.14852 38.56327 43.36540 49.34210 51.83536 51.45234 46.28939 50.26917 55.03303 64.88101 69.29294 77.38660 79.34522 78.03113 64.57605 60.72486 60.13619 66.96206 77.82964 85.48296 91.04625 94.51307 94.76860 93.05918 96.13161 97.76445 97.84219 98.09787 103.31299 106.18091 103.97747 105.43265 105.23034 107.15485 108.78727 108.40711 106.41247 102.07401 101.83533 108.70842 109.49253 108.06941 102.72949 95.60532 97.35220 92.58777 88.20485 87.80050 89.55119 92.89098 93.25901 92.36301 96.25207 99.25748 98.57796 92.17068 86.46273 79.79605 71.36654 71.09191 75.10372 74.42602 72.25722 63.29813 55.76540 48.74968 49.66797 52.04243 49.52851 50.77871 47.25045 42.30295 36.11401 32.67843 30.71003 31.31734 33.42308 33.59878 35.39329 34.58576 32.94775 30.86407 28.66241 27.05554 26.24813 25.75552 25.52918 25.49772 25.43842 25.37902 25.33195 25.31242 25.30566 25.29675 25.29170 25.28238 25.27578 25.26600
25.25000 25.25000 25.26226 25.26917 25.27682 25.28664 25.29302 25.30270 25.31489 25.33153 25.36143 25.42277 25.51910 25.64880 25.89406 26.07224 25.63195 25.82086 26.73537 27.90027 30.05059 32.55658 34.31045 35.96010 36.08492 34.93093 38.01759 42.55872 48.64659 48.52411 46.54671 42.03159 46.59217 55.60216 62.09306 71.24552 74.51866 72.98638 67.16197 57.46717 53.67850 62.32032 69.80039 80.49700 86.65623 89.74658 90.23588 87.32978 89.06895 91.39272 92.23112 94.24865 94.93500 100.04809 102.96955 99.52071 98.39436 99.16450 101.66314 105.48983 104.70626 101.63068 98.81352 99.27568 101.81395 105.47445 105.58276 98.16982 90.31817 87.73795 80.34924 78.84562 81.22369 83.63055 84.76880 82.34705 88.02443 92.25537 96.21835 96.95304 93.41845 85.08731 78.66568 71.08242 63.84428 66.92040 72.22147 70.87139 64.30208 59.67825 52.01186 44.27912 41.54530 44.34016 46.97639 46.95720 43.96241 38.36166 35.47476 29.93098 28.66871 28.26461 29.17988 32.66023 31.14453 32.02827 30.65430 28.80339 27.31732 26.15085 25.82640 25.46128 25.39407 25.36052 25.34240 25.32451 25.30944 25.30470 25.29521 25.29017 25.27984 25.26819 25.26600
25.24900 25.25013 25.26153 25.27179 25.27980 25.28515 25.29566 25.30491 25.31181 25.32189 25.34285 25.38400 25.44535 25.56554 25.61097 25.55486 25.59456 26.10013 26.75780 27.81779 28.98072 29.89435 31.03963 31.90796 33.12173 34.30295 39.86789 42.52590 45.27158 41.34570 41.49412 39.59659 45.07108 53.71013 61.93292 65.71077 65.98444 65.67355 59.42913 51.66026 51.05573 61.61092 70.83145 81.86813 85.33290 84.47455 85.31497 80.84212 83.55536 87.33308 87.78526 86.06033 90.34664 96.78843 99.44865 93.87399 92.91250 94.14972 95.80183 98.36331 97.69263 97.09289 89.95403 89.43323 96.79327 98.54577 102.77544 99.03702 89.55818 80.79352 74.71571 72.95555 70.49467 74.10112 75.04138 79.07306 85.03558 89.63648 92.72196 94.37268 91.72051 83.81963 73.28040 66.35169 61.10460 62.24026 66.72783 67.38520 66.50276 60.55743 56.01434 46.52187 42.02450 37.21341 40.52122 43.18092 44.14579 41.86828 36.85157 32.62829 30.43709 28.66753 26.88313 27.68248 29.00834 29.59683 28.76252 27.85326 26.82557 26.25882 25.85915 25.52643 25.41689 25.34633 25.32816 25.31888 25.31010 25.30318 25.29623 25.28891 25.27868 25.26700 25.26700
25.24900 25.25894 25.26305 25.27409 25.28341 25.29180 25.29980 25.30897 25.31483 25.32189 25.33014 25.36205 25.39532 25.41723 25.44560 25.46402 25.65097 26.20473 26.69844 27.32005 27.94516 28.30186 28.57444 29.48830 31.69740 35.35579 38.28993 42.72125 43.06564 36.93813 34.89643 40.27226 48.55789 55.31012 60.45239 61.20394 58.58462 55.32071 50.65596 45.24128 50.88060 62.27130 71.14562 80.55686 82.03762 80.31877 73.33466 74.97035 79.38504 81.76344 78.11059 85.03721 90.30033 95.25673 94.32148 88.88277 84.95288 91.42527 94.84719 92.24055 92.31235 92.49880 88.62065 83.57646 89.07188 96.12405 100.81919 97.98012 92.90108 85.34338 74.75785 66.63084 64.76177 63.49351 67.36529 76.37012 79.29095 83.48270 87.35339 90.76467 88.41816 85.86207 76.11580 68.65581 60.13651 53.62940 59.14762 62.02683 64.77638 63.57257 59.50392 52.56568 45.00974 38.84490 34.42532 38.15317 41.64351 42.28975 38.43646 35.34352 32.21147 29.84994 27.78447 26.52662 27.10584 27.67070 27.48203 27.23219 26.44999 25.89231 25.67616 25.47839 25.38298 25.35176 25.32780 25.31906 25.30977 25.30362 25.29502 25.28992 25.28111 25.27591 25.26600
25.25100 25.25100 25.25819 25.27896 25.28583 25.29354 25.30127 25.30811 25.31746 25.32274 25.33216 25.34585 25.36483 25.38128 25.39060 25.49668 25.75248 26.11921 26.29476 26.43068 26.51323 26.90836 29.54116 31.24677 34.35534 36.36335 38.83671 40.74098 37.55931 34.40403 34.81478 42.33391 49.65914 55.31242 56.24385 56.33728 49.00242 45.77574 42.78146 46.47226 54.03541 62.40267 71.90402 78.55092 79.29629 70.39049 66.73928 72.52313 72.51856 75.31890 72.94871 80.10403 88.53808 91.35025 89.88052 80.81476 79.59916 87.04921 89.81381 90.29949 84.66436 84.17243 80.99842 79.63829 89.31870 95.22362 98.45213 97.93178 91.50878 84.35364 74.43087 63.97940 58.08082 58.48415 65.00487 76.33764 76.51922 80.11509 83.14558 85.47790 85.01860 82.33677 77.67399 70.00650 61.51250 51.20928 48.72489 53.94271 59.69438 60.48489 60.41913 54.96729 46.52486 41.36843 33.49667 32.38377 37.92792 38.82598 39.51832 36.36616 33.80318 31.31076 28.77394 26.93115 26.05568 26.37736 26.38614 26.16410 26.01458 25.76484 25.58171 25.44980 25.39652 25.34294 25.33081 25.32050 25.31157 25.30395 25.29520 25.29003 25.28137 25.27592 25.26700
25.25000 25.25002 25.25817 25.27345 25.28209 25.29316 25.30011 25.30564 25.31461 25.32405 25.33255 25.34386 25.35137 25.36625 25.38505 25.48835 25.55827 25.67284 25.78538 25.78157 26.14265 27.18631 29.11272 32.37481 33.97611 35.54098 35.95852 35.51639 34.37941 33.52832 33.08423 40.66498 46.89231 50.67596 52.43844 48.82490 43.69895 38.59052 40.58880 49.51768 57.29645 65.10044 72.24141 74.91304 70.92103 63.43786 59.47933 65.11799 67.15444 63.14640 69.81978 79.34497 86.62953 89.30588 85.75237 77.12105 72.80637 78.70628 85.78212 85.43043 83.19015 76.94855 72.33709 71.46850 79.47516 87.41456 97.13894 96.21267 91.13305 84.55654 73.66062 64.85939 53.86276 56.87892 66.71139 71.38608 70.60624 70.36704 75.56068 79.79106 81.36168 77.91363 73.99819 68.45204 60.07339 52.42550 44.35973 47.67676 50.48536 56.90744 58.83941 55.01789 48.14074 40.02330 33.38382 29.39441 33.88109 35.67991 36.70024 35.91634 34.21830 31.30476 29.48888 27.13901 26.39335 25.70185 25.69965 25.61459 25.64609 25.58190 25.46702 25.40285 25.36722 25.34088 25.33262 25.32222 25.31310 25.30517 25.29998 25.28633 25.27875 25.26904 25.26700
25.25000 25.25983 25.26467 25.27398 25.28043 25.29059 25.29541 25.30387 25.31285 25.32042 25.33135 25.34194 25.35026 25.36045 25.38303 25.42549 25.46703 25.46266 25.56955 25.80462 26.40436 27.00518 29.50862 30.82923 33.57469 33.98242 32.18831 32.06125 32.70014 31.09388 33.88628 38.19949 45.23000 48.23383 44.60188 42.68529 35.64376 36.43422 43.46899 49.06213 56.57126 68.68294 69.62286 69.76030 65.19124 58.58203 55.00145 61.43856 57.23211 56.86770 67.71846 77.32795 82.52314 84.41581 80.54709 74.80969 69.70832 74.31800 81.76792 80.68662 75.04691 66.35793 64.75297 70.93327 77.83752 83.85179 90.44855 91.96809 88.66949 79.45957 73.85715 63.76242 53.00230 49.47102 59.37665 68.55740 69.31208 66.09477 69.86901 71.47863 75.83056 73.53698 67.44411 62.49061 58.76780 52.55966 43.52400 40.43793 45.43564 49.51868 54.30074 53.26295 45.97285 37.27029 33.50111 28.87102 29.98087 31.93297 32.54138 33.54513 32.22145 30.30721 29.26287 27.38173 26.51187 25.89503 25.45515 25.44988 25.40426 25.38855 25.39850 25.36895 25.34970 25.33816 25.32718 25.32038 25.31395 25.30318 25.29417 25.28571 25.27558 25.26804 25.26600
25.25100 25.26083 25.26647 25.27659 25.28236 25.28967 25.29533 25.30310 25.31420 25.32138 25.33133 25.33856 25.34683 25.35649 25.36458 25.38188 25.39067 25.49193 25.63008 26.08995 26.63966 27.50368 28.37681 29.12536 31.43295 30.63100 29.70363 28.92111 28.50342 30.61173 36.72298 40.71845 43.55582 43.19917 40.31076 36.56077 34.08802 34.71609 43.67247 50.35161 59.08575 63.82515 63.91592 63.81250 60.42948 54.70157 45.55218 52.10930 51.26266 55.77956 66.35274 75.20605 80.55096 80.51267 76.66893 68.34010 64.08654 70.78820 75.88425 77.42900 73.52376 63.59643 59.48962 59.79100 70.90752 77.56951 88.45123 88.53351 83.45475 76.50480 71.21144 61.38697 51.15826 47.42801 56.08875 64.28174 64.36649 60.40650 63.71338 66.06889 69.70006 69.80725 62.97304 59.34824 57.40922 49.90259 43.39568 37.74432 38.24015 45.12810 49.22212 50.87940 42.64898 38.08742 33.95110 30.38789 27.44892 28.10487 29.17917 30.24911 30.67591 29.22644 28.23145 27.07455 26.36667 25.96348 25.63149 25.48174 25.42177 25.37747 25.37072 25.35866 25.34443 25.33602 25.32838 25.31904 25.31089 25.30379 25.29455 25.28337 25.27528 25.26404 25.26200
25.25100 25.25100 25.26364 25.27574 25.28303 25.29004 25.29763 25.30347 25.31077 25.32091 25.32799 25.33570 25.34037 25.34597 25.35240 25.36702 25.39280 25.50598 25.62704 25.88518 26.51524 27.04723 27.57699 27.91579 27.83433 27.59395 27.78834 27.72767 29.73527 32.00322 35.96780 40.21600 39.84527 38.15861 36.43445 32.13022 32.75501 37.08407 44.81478 54.53211 57.73239 60.54348 57.55781 56.03553 54.83272 48.50843 41.93729 46.01417 46.43906 50.30649 62.93675 70.65495 78.52367 76.30719 69.59546 64.86681 60.89063 67.36616 72.91637 72.70455 67.76325 58.33123 54.06755 57.35721 67.88616 77.48238 85.23927 83.90945 76.46768 72.20941 64.52419 58.76490 50.98763 42.02896 51.45876 62.17359 61.99641 57.33398 58.44084 59.66938 65.42459 62.39569 59.30270 52.79156 49.29458 45.53509 41.20744 35.73371 34.62895 39.17909 43.84636 46.87893 43.11782 37.83040 32.82418 30.24391 28.55527 26.73463 26.74757 28.16610 28.53488 28.34505 27.34724 26.30949 25.93452 25.69269 25.62307 25.51984 25.43394 25.37945 25.35844 25.34950 25.34240 25.33516 25.32684 25.31981 25.31166 25.30609 25.29622 25.28725 25.27734 25.26722 25.26600
25.25100 25.26097 25.26584 25.27556 25.28047 25.28652 25.29408 25.30264 25.30871 25.31439 25.32299 25.33241 25.34139 25.34644 25.35420 25.36117 25.37875 25.43012 25.51483 25.80184 25.92096 26.43676 26.51044 26.80863 26.37658 26.18048 26.54696 29.55991 32.07690 34.50381 35.66237 35.30980 34.81755 32.34258 30.01379 29.88468 36.61519 41.08102 47.27644 53.97188 58.37976 54.77411 50.17945 48.01867 44.08891 42.13809 38.64805 40.45210 43.72817 46.32128 68.00228 70.92725 74.49362 71.34146 65.36181 56.74038 57.70742 62.88668 68.76155 67.23058 61.02069 54.55883 50.93470 52.11160 62.75409 77.03214 80.90864 81.29121 72.14837 66.24850 61.36975 52.47883 45.92021 39.80634 50.25016 57.66206 60.13465 54.67580 52.67469 52.28707 55.75558 60.29124 57.25922 49.30271 45.22545 41.69695 36.80015 32.12849 33.80007 38.38241 39.30036 40.56284 41.12705 37.26976 33.93232 31.51883 28.72321 26.97480 26.17163 26.91234 27.79948 27.51510 26.85276 26.19378 25.77228 25.57631 25.48627 25.47075 25.40950 25.38023 25.36158 25.34939 25.34161 25.33405 25.32696 25.32121 25.31282 25.30404 25.29784 25.28914 25.28068 25.27576 25.26600
25.25100 25.26065 25.26690 25.27126 25.27956 25.28665 25.29082 25.29877 25.30709 25.31277 25.32278 25.33096 25.34272 25.34813 25.35498 25.36385 25.37497 25.40086 25.44189 25.56552 25.75785 25.98320 26.11821 26.13230 25.79373 26.70271 27.50105 30.47338 32.41080 33.74581 34.28331 32.56191 30.09707 29.41288 29.05180 32.55149 38.12192 43.93970 49.21023 53.95337 54.82676 52.23982 47.63252 44.61882 41.33224 38.48450 34.39836 35.91213 37.28594 49.15510 58.44532 68.81578 70.54529 64.22489 57.45713 50.28225 52.34161 62.71262 66.18386 62.06220 58.70221 47.34273 45.85410 50.93403 66.71233 73.52890 76.95469 77.76644 67.13845 61.66363 52.64008 49.83888 42.35586 38.43222 48.78572 55.54585 58.68954 54.63938 47.51345 45.47175 52.18480 54.83989 51.78638 47.31198 42.43933 38.59472 35.48637 31.16834 30.51300 32.93138 36.70788 38.26876 37.72366 36.24204 33.51877 31.99252 28.99316 27.37360 25.86574 26.24657 26.59022 26.74326 26.43109 26.08167 25.67905 25.49359 25.43993 25.41832 25.39357 25.37106 25.35776 25.34987 25.34068 25.33478 25.32535 25.32119 25.31347 25.30473 25.29582 25.29042 25.28178 25.27594 25.26600
25.25100 25.25100 25.26281 25.26973 25.27707 25.28485 25.29108 25.30072 25.30686 25.31345 25.32255 25.33323 25.34139 25.34720 25.35311 25.36027 25.36693 25.38288 25.40537 25.48312 25.58856 25.69220 25.83113 25.59866 25.91383 26.98317 28.37251 29.37554 30.94668 31.81731 30.23918 28.65446 28.37752 27.91426 30.48646 33.95559 38.00447 43.71624 47.45921 49.98522 50.27543 48.91917 43.41138 38.49662 37.71711 34.95326 32.97868 36.25324 41.42742 48.92249 58.72889 65.57540 67.76350 61.62571 55.35303 47.14778 51.19703 60.46511 63.80306 56.98129 50.94682 45.91747 45.36408 52.50070 62.11160 72.00567 74.43264 73.25804 65.85357 55.97566 47.43310 42.14387 40.47616 38.31966 44.57223 50.66820 55.84635 53.83907 44.96729 43.02988 47.01614 48.93928 47.91891 46.08221 43.46153 37.82165 33.69579 30.48848 29.16277 29.04568 32.86900 33.98311 34.29944 33.95891 32.38688 30.78404 29.49451 27.18510 26.06586 25.75565 25.93998 25.93814 25.85255 25.80903 25.60943 25.49424 25.40709 25.39178 25.37898 25.37115 25.35912 25.35179 25.34064 25.33481 25.32930 25.32334 25.31480 25.30635 25.29581 25.28586 25.28073 25.27494 25.26500
25.25100 25.25100 25.26101 25.26764 25.27640 25.28618 25.29378 25.29975 25.30933 25.31551 25.32244 25.33330 25.33878 25.34726 25.35253 25.36127 25.36800 25.37793 25.39669 25.43010 25.47715 25.48667 25.46194 25.58537 26.02696 26.72192 27.72196 28.98242 29.91242 30.01107 28.73089 27.57460 26.43409 28.55153 30.45840 34.87579 39.03817 41.54477 44.34579 46.19817 47.66001 45.75436 42.12411 35.11941 33.47214 32.15786 32.77139 40.12213 46.79629 53.40501 59.69348 64.95264 64.46358 55.93872 51.86358 44.31744 50.45418 58.26089 59.61296 54.98390 45.59850 41.72341 44.38344 52.02672 61.06487 64.85465 69.02635 70.40940 65.13066 57.08843 50.84628 41.82424 35.30965 35.56594 42.83953 48.47366 49.45689 50.80892 41.99031 40.60709 38.68459 40.50137 42.35471 43.83075 42.33990 38.62556 34.02611 30.41895 29.30699 27.37896 29.41964 30.91559 31.16724 30.86469 29.84461 29.20997 28.47065 27.37778 26.08327 25.75749 25.58337 25.66211 25.59953 25.57670 25.51844 25.45036 25.41343 25.38877 25.37280 25.36748 25.36102 25.35031 25.34297 25.33593 25.33062 25.32249 25.31517 25.30389 25.29484 25.28756 25.27873 25.27294 25.26300
25.25000 25.25000 25.25761 25.26575 25.27300 25.28294 25.28941 25.29995 25.30731 25.31536 25.32684 25.33595 25.34372 25.35096 25.35873 25.36351 25.36943 25.37559 25.38352 25.38714 25.40408 25.40828 25.48560 25.65958 25.99781 26.25534 26.86515 27.53411 28.01708 28.08295 27.34624 26.61260 26.99950 29.32740 31.65642 34.65355 37.30776 38.92917 39.57511 43.66255 45.41127 43.87747 40.81779 33.02177 30.85121 30.54201 35.14664 40.01345 48.54693 54.89676 60.82045 62.47234 55.18298 48.12326 43.03069 41.57526 49.13310 54.67747 54.07913 49.13519 41.59542 36.99139 36.78595 47.85765 59.70602 63.70417 63.99270 61.31238 60.09423 57.24467 51.34122 43.57377 36.48732 34.33208 37.68900 41.67556 44.12547 47.86389 44.57928 39.03180 35.84276 36.37802 38.11373 40.62915 41.30674 38.24342 34.56362 31.87640 29.53041 27.41946 26.53845 28.10169 28.99408 29.09232 28.46978 28.19544 27.70102 27.00219 26.11383 25.69923 25.48508 25.43945 25.47836 25.48624 25.46428 25.42200 25.39952 25.38348 25.37134 25.36450 25.35642 25.34926 25.34078 25.33465 25.32542 25.31935 25.31478 25.30490 25.29879 25.28765 25.27692 25.26500 25.26500
25.25100 25.25100 25.25747 25.26248 25.27182 25.27973 25.29076 25.29634 25.30532 25.31464 25.32766 25.33915 25.34754 25.35207 25.35831 25.36302 25.36776 25.37251 25.37498 25.37819 25.38534 25.41108 25.49890 25.60415 25.69155 25.86099 25.93016 26.34599 26.91078 26.71255 26.85457 26.04082 26.23463 28.51225 31.44381 33.78713 34.93692 34.21781 35.70571 40.50639 42.50788 42.47914 38.05283 33.68808 30.15219 30.39099 34.37254 40.77461 46.74086 52.41997 55.23195 55.23708 51.25032 46.55353 39.29912 39.13351 44.04877 51.05802 49.78706 44.36950 36.82633 34.97779 41.62559 48.33257 58.62153 60.95525 59.69786 56.24904 56.58219 55.66156 51.85603 43.94514 39.65207 32.29884 32.70544 36.97744 41.05534 45.36693 45.81061 41.85538 36.98544 33.17375 34.14684 36.28978 39.61134 39.29830 35.48726 32.67097 30.23662 27.33165 26.26221 27.09795 27.45326 27.61192 26.91606 26.65892 26.56086 26.45621 26.08041 25.73177 25.48518 25.42802 25.40946 25.43872 25.41084 25.39623 25.38998 25.37972 25.36964 25.36097 25.35531 25.34864 25.34002 25.33117 25.32532 25.31966 25.31126 25.30285 25.29446 25.28722 25.27956 25.27480 25.26500
25.25000 25.25000 25.25431 25.26205 25.27018 25.27879 25.28498 25.29474 25.30328 25.31588 25.32433 25.33474 25.34333 25.34700 25.35247 25.35691 25.36344 25.36789 25.37029 25.37168 25.37371 25.39678 25.45217 25.51655 25.53911 25.55524 25.63979 25.81024 26.01655 25.92384 25.60343 25.75167 26.70197 27.84673 29.75548 31.49448 31.75958 32.73394 33.82557 37.42563 39.27695 39.27649 35.78648 33.26399 29.31196 29.73205 33.44334 40.04030 44.88926 49.27925 48.87589 49.54274 46.17124 39.03249 34.41855 37.43632 42.94841 48.95634 47.19079 38.90456 33.32205 37.05804 43.21636 48.81276 55.20837 58.60561 56.30192 53.07864 50.53276 49.68978 49.50774 45.94676 38.66529 35.16935 30.71929 33.00369 37.89884 42.99460 44.25030 42.78691 38.27404 32.67304 30.28823 33.05963 36.72798 38.27748 35.91191 32.06685 29.42568 26.84006 26.11425 26.43651 26.27059 26.19862 26.41879 26.25844 26.14186 25.85734 25.80733 25.57281 25.48841 25.40292 25.39153 25.39228 25.39204 25.38429 25.37847 25.36882 25.36583 25.35947 25.35390 25.34648 25.33954 25.33175 25.32352 25.31854 25.31040 25.30081 25.29260 25.28561 25.27765 25.26982 25.26100
25.25100 25.25100 25.25569 25.25980 25.26948 25.27780 25.28610 25.29389 25.30157 25.31137 25.32152 25.33007 25.33750 25.34350 25.34847 25.35338 25.35610 25.36006 25.36283 25.36236 25.36794 25.37473 25.38740 25.40333 25.40269 25.45800 25.48235 25.60654 25.53280 25.51474 25.80747 26.15466 26.71644 27.73582 28.89724 29.85913 28.95595 30.20125 31.24432 34.73054 35.70333 34.63492 33.26617 30.39772 28.28378 29.61516 33.13985 38.07022 43.00460 45.90462 45.32622 43.61046 41.51321 36.84512 33.35467 38.76297 45.55587 47.34135 42.11021 36.96127 32.22269 36.96174 39.15753 47.36744 52.59385 54.65552 54.37040 48.67487 46.00270 44.82795 46.84078 45.24606 39.69609 34.17799 28.95209 29.26616 33.76294 39.20988 41.14409 41.43814 38.04574 32.51109 29.96720 30.17704 34.00084 36.02200 33.73924 32.36053 29.76694 27.63207 26.27042 25.86401 25.70759 25.73375 25.74073 25.77685 25.70152 25.66220 25.60386 25.49737 25.43521 25.38579 25.37246 25.37785 25.37721 25.37348 25.37103 25.36721 25.36155 25.35538 25.34875 25.34480 25.33520 25.32803 25.32228 25.31249 25.30739 25.30020 25.29021 25.28457 25.27685 25.26980 25.26000
25.25000 25.25000 25.25552 25.25956 25.26669 25.27535 25.28221 25.29237 25.29567 25.30821 25.31494 25.32627 25.33406 25.33927 25.34447 25.34976 25.35057 25.35534 25.35570 25.35646 25.36046 25.36334 25.36875 25.37194 25.37138 25.37414 25.41204 25.41162 25.41582 25.49514 25.80523 26.18517 26.40998 27.05240 27.69046 27.79524 27.77810 29.12839 31.08460 31.54400 32.42219 30.97433 29.03507 28.14969 28.59737 29.84924 33.18399 37.57100 41.46078 39.39516 36.05778 38.66538 35.67569 32.58747 33.61933 40.35455 44.57029 44.08285 40.27127 36.60859 30.11176 34.65115 38.59271 43.54143 49.28776 53.84816 52.62899 47.45012 41.76604 41.64799 43.11898 42.81893 39.14676 33.54393 30.73159 28.27991 31.27241 35.71699 38.55631 38.13756 35.12683 29.68486 28.53278 28.73140 31.01731 33.02308 32.75024 31.23199 29.22125 27.92078 26.85880 25.78387 25.60798 25.44924 25.44220 25.52741 25.50668 25.43743 25.43228 25.41884 25.39185 25.37890 25.36725 25.36649 25.36385 25.36303 25.36340 25.35967 25.35510 25.35127 25.34513 25.33975 25.33177 25.32474 25.31638 25.30926 25.30443 25.29771 25.28973 25.28233 25.27467 25.26986 25.26300
