26.55147 24.86462 23.92026 26.20760 26.26392 26.26229 25.67079 26.15104 23.49892 25.32951 24.80765 24.89835 27.23267 23.84374 25.59131 26.83139 25.31304 24.93569 23.49344 26.53816 24.73542 24.39445 25.41527 25.51152 27.05571 25.21823 24.76135 23.11647 27.56453 25.48774 24.96298 26.29064 23.22666 26.33448 26.02682 27.13643 27.27386 27.88128 29.26125 26.71020 27.19149 27.03835 25.59803 25.67162 24.35255 30.70844 29.84789 31.57503 30.78690 29.19707 28.60161 31.17548 27.66190 28.43006 28.72478 26.78490 24.53904 27.97727 30.68859 31.58200 29.41995 29.42021 29.35757 32.85881 35.65381 38.26478 34.37416 31.39603 28.34137 26.14313 25.16852 26.48894 27.08528 27.92382 26.34891 29.41569 31.84807 31.51152 28.18987 30.05797 25.99309 24.89582 28.50300 29.18262 27.73531 29.42425 26.63278 26.22009 24.37146 27.17960 26.62812 27.54084 26.50329 25.41313 24.92890 23.30633 23.26137 25.05613 25.23764 24.72177 26.07731 27.65424 27.70603 25.25993 25.66466 24.64219 25.96191 23.38567 27.13472 23.44946 25.07992 25.05739 27.17104 27.21297 25.62620 24.89690 25.93218 23.22128 26.82421 24.56150 24.71882 26.79139 24.28239
24.32878 23.59911 26.64236 26.57859 23.43689 25.60137 23.78354 26.16605 24.76265 25.33719 25.81480 25.85859 25.81788 26.36147 24.73435 23.67284 24.21079 26.41705 22.33333 24.55859 26.60475 22.73971 24.21062 25.31592 25.77444 28.71339 27.22975 27.41804 26.23474 24.28183 27.21109 27.55474 25.62956 26.39584 24.49516 25.29573 27.26012 28.42649 29.09695 28.06508 28.98288 26.17413 26.81800 25.13672 26.14205 28.85449 29.41396 32.95811 30.93815 32.14438 29.88606 29.45821 32.44199 31.36692 28.49708 26.71595 25.05598 31.02490 29.73639 31.65882 30.66701 30.39299 32.08681 35.22365 35.91574 37.36236 35.93532 31.12793 28.86718 29.62280 25.32997 26.13963 25.61057 23.98091 27.56512 26.67265 33.99180 30.03228 28.44800 26.03566 25.94040 27.55041 30.54208 32.65674 30.81586 29.89857 28.14693 26.85114 25.55437 22.05940 26.58798 24.42621 25.95211 24.85875 22.89732 25.58518 26.76422 25.68243 27.69985 27.95242 25.26767 23.92821 25.70896 24.49584 27.22614 25.05563 25.55073 24.59790 25.00217 27.71449 24.28057 24.16741 23.92842 25.86836 24.80347 23.81621 25.55561 27.26509 27.50945 26.35135 27.29922 25.79874 23.75090
24.88695 25.02957 22.60262 26.07643 25.60368 25.16594 25.46256 25.39702 25.86220 25.86807 26.74040 26.64927 24.94753 27.54191 24.26939 26.82465 23.54312 27.53964 24.72014 24.05975 25.51439 26.72719 24.85701 25.23558 24.37492 26.23531 25.50336 24.35664 26.78705 26.60940 26.66591 24.88312 25.93133 26.26210 24.00199 26.90432 25.91320 27.77384 29.11078 28.56860 29.41520 27.22483 28.10190 27.82485 28.03327 30.05311 32.36254 35.76026 36.06894 33.75223 33.45070 33.28880 33.38308 29.38047 30.57596 29.24149 28.38154 30.56825 31.95628 32.92371 32.72386 32.49416 33.26290 35.25586 36.36784 38.55042 37.39353 29.59269 28.25407 24.79409 28.49151 24.18730 26.29471 28.06864 28.62061 30.33631 32.65137 33.44139 29.44134 28.77265 28.68806 27.82052 31.67753 31.75381 31.84678 29.98807 27.00570 24.59241 27.88834 27.98693 27.91644 25.31149 25.54280 24.26400 24.89250 26.91179 23.31360 22.59338 23.40830 24.01949 25.11942 25.97507 24.49477 24.02122 26.44060 22.56597 25.30597 28.13681 25.88726 27.40950 26.22794 23.31134 22.27933 25.16781 25.41495 24.64210 24.34003 26.07164 24.85351 26.74153 23.99428 27.20196 25.21441
26.32413 23.45249 24.58858 23.99186 26.19347 27.26335 24.91653 25.30554 26.51802 26.26676 26.15174 23.68728 25.10739 24.50253 26.99848 23.76921 26.84677 23.65088 26.61204 25.29825 25.46521 25.08023 27.16934 25.18287 26.48412 23.77141 23.77644 26.46616 28.18031 25.53863 25.70527 25.17783 24.67275 24.87541 27.33558 28.21424 25.88628 28.43142 30.65978 32.04542 30.55500 27.77366 25.93765 27.71090 28.45081 27.38294 32.71343 36.67341 39.22336 37.75558 36.93038 36.73838 35.47789 35.28462 30.40626 30.46977 31.76390 31.22202 37.01552 35.18002 33.46287 34.44468 33.32870 37.17065 41.81361 37.76125 35.12691 31.59053 25.54060 28.55391 27.97809 28.91429 25.81798 26.86010 27.44771 29.69382 32.21615 32.04776 33.69427 31.54418 29.81890 32.70412 33.73048 34.99605 29.14384 32.17315 27.17099 27.91452 28.09134 24.73682 24.68108 27.18698 26.20690 26.13590 26.03734 25.52580 27.56034 26.64128 26.45930 25.43529 23.65382 25.42474 27.09216 24.72918 24.00404 27.92290 23.79961 26.00706 25.86359 24.97213 23.04969 25.37990 25.23091 27.57667 25.17652 24.71944 25.66707 23.66468 25.92641 26.97280 24.64595 25.69507 23.86738
26.76710 27.37755 25.73680 23.82911 24.99202 25.48978 26.33321 24.97912 24.76431 24.83527 24.84229 24.55950 24.02856 24.47745 23.44023 25.99338 24.70681 25.48294 25.89034 24.99698 23.40731 25.19002 24.97360 25.18427 22.50951 25.62480 24.26778 25.51067 26.14039 25.03809 25.40782 25.36604 27.36749 26.58288 27.15658 28.32438 27.90610 28.74378 31.39125 33.06862 29.62770 29.93659 27.07636 25.65170 28.46930 31.21178 32.45478 35.97917 39.54303 38.78169 41.30651 38.08472 34.08355 35.41006 33.00597 26.17772 29.40269 33.64116 38.75245 39.25751 37.22882 33.28041 34.11717 38.55951 42.74762 37.11344 36.35883 33.09055 28.93794 29.20535 29.03247 28.30894 28.09066 28.55647 27.30542 30.54902 33.59867 33.87298 33.57394 30.60412 32.46030 35.46040 36.90252 33.98713 31.38803 29.48500 29.16607 24.60721 25.97028 26.29556 24.80128 27.08558 27.70945 26.19029 26.68956 24.77368 27.29136 25.68187 27.78050 25.19985 25.47131 25.09732 26.38539 25.57514 25.23311 25.78544 27.52934 25.19658 25.99231 24.19798 24.71122 25.93658 24.88876 25.95588 24.84838 23.19350 26.32798 25.44232 24.42508 25.64868 25.05779 26.33797 23.33048
23.94246 25.38877 26.31436 25.15033 22.76270 25.13524 24.60839 22.24366 26.56769 26.18392 25.17098 24.24043 26.53648 24.30426 26.63931 24.57634 25.06774 26.56580 26.26195 25.72935 25.11544 26.40651 25.32554 25.01178 25.23841 22.99158 25.53959 28.41376 26.54508 26.22535 25.67106 27.62506 26.41214 26.80003 25.18260 26.83564 29.27046 30.68372 31.23617 32.32124 29.30743 29.66733 31.79377 26.87505 27.42584 31.24844 35.11657 40.07453 41.43013 42.89397 44.28974 40.94787 35.21927 35.61904 32.45292 29.01534 33.06122 35.00230 41.04081 41.22406 38.96895 35.49913 36.70517 40.59542 42.15867 38.39444 33.85694 30.81086 27.40731 28.74478 31.87174 31.31968 33.51181 28.99216 30.53181 31.22563 33.14439 36.75636 32.38878 35.94806 35.93541 39.28275 36.13387 38.71762 33.78111 29.98616 31.71585 28.50429 26.74139 27.86428 24.34657 26.87708 25.73732 25.14625 28.21367 25.14935 25.43287 25.79280 26.45958 26.31471 25.59489 24.10661 25.50600 24.68941 25.03408 24.24790 25.52875 27.34026 24.98941 24.92833 23.21380 26.35721 26.09172 25.19696 26.07190 24.32318 25.81558 26.31117 25.83337 25.06049 26.13519 25.45366 23.90133
26.29121 25.01655 23.44997 24.64539 26.69828 24.72133 26.69787 23.33463 25.78063 24.40135 27.84278 27.80466 27.79115 25.94202 24.57344 24.80306 24.66028 25.93805 26.63092 25.88645 24.87047 24.97998 23.72165 26.39433 25.34838 24.53722 24.62524 26.07058 24.26224 26.31088 26.60108 27.75976 25.64709 28.15383 26.44223 26.71083 26.63862 31.80206 33.36850 33.68860 32.98072 34.11445 28.27194 29.59974 27.21750 30.02073 32.46986 41.76381 44.50093 46.06835 45.18472 43.35385 40.92411 36.21390 33.29538 31.68118 33.08817 38.19721 40.69333 42.66370 43.05986 37.74490 34.30790 42.29690 41.82627 40.71392 33.01285 30.50584 27.12916 31.39559 32.69112 31.24811 33.06498 29.44109 31.21603 34.65562 36.79227 36.48503 39.44363 39.66509 39.10695 43.65789 38.74015 36.25342 34.33954 34.13871 32.37055 26.66710 27.88209 26.58019 25.26809 27.49715 27.93057 27.06738 26.15508 26.42456 27.42917 27.48840 29.21978 25.40347 24.89351 26.08267 25.22650 25.32555 24.63020 26.52858 24.26256 25.68438 23.43289 26.50483 24.98285 26.06221 26.19950 24.89571 27.00678 24.28525 25.43308 26.95757 25.06675 26.13456 24.29161 24.19841 25.19805
24.95751 26.03109 25.40056 24.80139 23.79007 24.28187 27.23551 23.74705 25.34630 25.77938 24.80562 26.60104 24.20858 26.57634 25.29005 24.69091 25.74477 24.83542 25.28467 24.87033 24.85585 27.00505 27.07411 26.65726 27.40486 26.74065 28.60574 26.04529 25.34208 29.11593 25.78350 27.40337 25.69871 24.84761 26.00962 26.62112 27.85375 29.27971 32.89287 35.83967 35.81810 34.72058 30.76753 27.45369 29.55287 29.74019 32.83080 38.42751 44.38018 48.76376 50.18081 46.31228 45.72256 37.89993 33.30889 30.48186 34.51328 36.66051 43.95910 47.15689 46.42112 40.31735 37.43541 40.77094 44.08511 38.06129 33.22406 31.05942 30.30540 31.16868 33.86122 37.26478 30.56480 32.52020 32.77141 37.13917 39.32365 41.87687 40.39501 41.22343 44.67539 43.26452 43.45033 37.14802 36.53833 32.07382 30.06087 28.55211 24.71817 26.60038 27.20956 31.86930 27.62562 30.66131 29.24667 29.94479 27.46252 27.00991 26.14195 24.44613 25.23909 27.06172 24.91176 26.53813 26.77359 25.78462 25.34594 24.17328 25.58462 26.56561 25.22764 24.71004 26.26412 26.29389 23.56239 24.21022 25.40698 23.59688 24.53236 24.93884 26.65614 25.02428 26.11092
25.78678 25.42619 24.55983 25.55749 26.88315 24.91637 23.68732 25.74482 26.21990 26.46756 23.74171 25.79388 25.33622 24.68526 24.62121 27.68914 25.93323 27.72224 25.53269 24.57387 24.49983 25.69806 28.61069 25.17729 26.46607 27.51465 27.47434 26.99697 27.59558 25.05905 28.02232 29.13473 27.00570 28.07712 26.44055 26.51046 27.25470 29.31957 34.04327 35.31389 37.06803 33.50214 33.72008 30.81629 27.10040 29.32761 33.68989 36.74216 43.06098 49.82350 52.00297 49.32901 46.03237 39.04742 34.96012 32.33562 34.67623 41.01555 48.51409 52.13040 51.69965 45.39910 40.12912 42.46641 43.72411 37.80023 32.40193 33.65761 32.74780 32.61149 35.78516 35.79136 33.47614 30.16030 31.34478 36.29282 38.01645 39.07215 44.01278 45.51069 47.70587 48.30097 45.50443 38.72457 36.46721 31.84394 30.70719 28.22301 27.18294 24.94367 26.51493 27.82583 30.40713 31.25000 27.34711 26.17602 26.59502 25.21423 24.61354 26.44922 25.51972 27.27761 26.84623 24.71339 26.01148 24.16788 25.36117 26.62939 25.84151 25.20054 27.23891 25.38708 24.21360 25.10877 27.01002 26.95402 27.06927 27.00114 26.17150 26.74377 26.32460 24.29267 25.66086
26.11702 26.51364 25.72341 27.33280 24.33583 24.34425 27.34064 25.27652 24.38455 24.53480 25.41111 24.92082 24.98043 25.74764 23.22416 26.03223 23.28064 24.83790 22.18668 24.02279 26.31828 25.92862 29.68718 27.78534 29.46161 27.36710 29.00330 29.49685 24.66459 26.64295 28.81464 30.31813 30.69544 29.53910 29.97752 27.99810 25.85116 31.80485 31.16166 34.89423 38.85397 38.67757 37.18653 31.68971 29.71990 28.99858 36.08684 35.50011 44.39368 48.45538 56.08583 53.89696 51.18649 46.15973 42.20099 34.00749 40.04780 42.28491 49.21475 55.74025 51.30274 50.18009 45.40829 47.27893 41.88908 36.82318 35.87696 38.46436 35.66936 33.21154 39.42062 41.19070 33.56685 34.36694 34.34138 33.33553 36.60660 43.99246 48.17803 53.23191 53.11668 49.41292 44.90809 37.93272 33.88221 28.99231 27.54375 28.50481 25.22936 26.40181 30.20136 30.95488 31.54418 30.04859 28.15517 28.39082 25.99687 26.82882 27.00891 28.29062 27.91501 27.11621 23.80796 24.20531 27.08223 26.47557 27.92173 23.16210 21.14194 25.24686 25.81837 26.68674 26.78572 22.67311 25.82560 22.20681 25.10267 25.14175 28.69269 22.84593 25.63098 25.03376 24.91597
23.35885 25.40835 24.73095 24.32848 25.03717 24.53843 26.83288 25.90342 23.26937 26.54907 25.95981 25.56882 22.41776 25.98231 26.50734 25.05703 24.29373 22.12751 27.25098 26.60880 24.68925 26.58303 26.26616 28.11068 27.69941 25.67324 25.42924 27.66939 27.12222 25.89810 25.07470 29.90834 31.95164 32.31685 31.75691 26.85947 25.94453 29.28298 32.87001 34.30885 40.92504 45.65585 38.14899 35.38733 32.04615 29.25019 33.90867 37.55205 43.98517 49.92201 53.42575 58.74310 57.00736 52.83050 45.08009 38.51596 37.03426 44.21875 52.65320 55.85424 58.07012 51.86935 46.42524 48.25537 44.27041 40.67344 43.94066 41.48861 39.83078 38.84389 41.27078 44.79901 42.66796 38.45186 37.26582 34.68739 35.39285 45.37727 51.36836 53.75901 56.36995 49.94916 43.23597 38.04606 34.11285 29.80503 29.76537 24.96201 26.58780 28.58854 32.60367 33.76878 33.00852 31.53025 28.54897 28.69362 28.66648 28.53114 30.06837 27.37362 29.08054 25.88487 25.97624 25.55699 25.85599 25.71611 25.46528 28.10101 26.08558 26.92195 28.01273 24.13548 24.26017 26.41719 26.74993 25.86302 25.51611 25.74266 24.92003 26.09807 25.47221 25.04208 25.54771
24.74935 23.43786 26.62484 24.01694 24.35300 26.17660 25.83934 23.56399 25.14502 25.22157 26.72901 24.83742 24.34938 24.29379 24.84512 26.04904 24.40040 26.23293 26.05109 26.43234 23.24991 27.00766 28.28333 27.55255 28.68018 26.32894 30.14522 30.74879 27.85524 28.31288 24.97420 29.86818 30.82563 33.55069 31.96804 29.46561 27.18517 30.32289 32.81864 39.48285 41.66477 43.98114 45.59404 41.92229 36.37934 32.33900 31.35889 37.08883 40.09208 48.17998 52.80328 55.88739 59.57597 55.88808 49.15357 43.19084 37.86873 44.82302 52.22327 58.34763 58.55383 58.55584 55.32425 51.26621 46.61770 45.83370 51.69775 48.46171 46.36883 40.33573 43.22827 48.14896 45.54546 43.90135 40.15805 37.55621 40.59886 49.99083 48.79456 55.19084 53.75514 48.05085 42.11892 35.25791 32.48048 28.73209 27.75460 28.07199 30.93026 31.57757 34.01361 36.33995 35.76870 32.92020 33.33405 30.88296 29.78911 28.42376 29.51191 27.18894 25.75844 25.69749 26.52223 25.08665 23.74380 26.48990 24.77962 24.96670 26.31646 24.81674 25.40892 26.26305 26.48508 23.83332 25.04810 25.06763 26.48150 24.26638 25.41044 24.90893 23.75730 27.63457 24.34822
24.44775 24.99492 25.34676 24.85568 25.88142 25.70272 24.62015 24.03032 25.84930 26.42762 23.83807 25.19763 24.87349 25.47511 24.92786 23.68342 24.97781 26.20059 26.10586 27.11792 28.28085 25.94866 26.45117 27.71754 28.73661 28.50780 28.49610 32.17984 29.11848 30.26179 30.60793 33.08061 32.99817 32.12165 33.02339 33.45604 28.75355 33.69665 36.34532 41.63472 45.58246 50.47132 48.59938 43.35265 44.29768 36.77949 33.00763 36.76689 34.78948 45.16779 47.52221 54.61183 63.01147 61.81441 52.89324 45.77615 45.04047 45.59624 56.78217 62.35189 63.58189 58.47760 59.79669 58.65752 54.34756 46.12721 52.90576 51.41474 46.41558 47.11218 52.33596 53.15242 49.29405 49.42903 41.44836 39.89458 44.28128 52.70238 58.93157 59.91853 56.99114 49.77954 40.81342 39.03190 30.34854 30.06344 28.86062 27.59616 33.63686 32.94269 38.09913 38.65605 38.47131 38.37347 33.16135 29.21477 31.32586 31.87600 27.35926 24.70628 25.04904 25.36101 24.31828 24.17063 24.50844 25.98901 25.46705 25.00739 25.99390 24.45525 26.43837 26.22647 26.78040 23.92071 25.16371 28.97099 24.97659 23.46412 27.34508 25.71239 24.64034 27.00054 23.81833
20.48716 25.11004 26.74970 24.30580 24.28773 26.32953 24.55275 26.69266 26.63767 24.45915 23.26670 26.40484 25.27530 27.43013 27.37870 25.61397 25.83458 27.02706 25.97486 23.72517 27.97632 26.39249 27.47343 27.20715 27.00310 30.35748 31.58402 34.81020 32.60839 32.45671 33.38651 31.38461 31.64856 32.17047 36.27607 35.56094 33.14146 32.05221 31.54921 39.93642 46.49635 52.37815 52.22356 52.09925 44.18880 42.80383 42.26144 40.52689 37.42793 41.07928 49.61145 59.87011 65.21139 64.05770 64.02769 53.77544 44.78684 47.62868 56.98082 65.31849 64.49823 63.16306 63.71382 59.28117 56.68106 57.30831 58.86309 55.04659 49.43234 56.99961 59.54995 59.66389 55.71538 48.96821 42.67168 43.58121 47.42931 53.56820 62.31575 61.60856 57.48124 46.48533 40.59649 32.63249 33.34292 30.57130 27.78836 28.22268 33.49626 35.96959 37.40862 39.23010 37.92023 38.55936 35.93096 32.42119 32.35183 29.38297 26.74084 28.69165 25.78503 24.57724 25.28576 28.65104 25.11069 25.55651 22.73633 28.31176 25.71247 25.28774 25.61479 24.81318 24.30385 23.84149 25.39813 24.59764 22.88592 24.05931 23.28126 25.44494 23.55595 25.89926 22.17253
25.69768 25.41913 25.48190 21.92804 26.68306 26.55467 25.79831 25.60447 24.32475 22.73614 24.19364 26.76889 26.49679 24.73687 26.89788 25.62385 23.53887 26.86802 23.44634 25.43067 26.72726 25.34612 25.12330 26.10128 24.53247 30.22638 31.74110 34.01364 34.73907 31.82822 36.48385 36.38249 35.50329 34.44193 38.15483 38.16449 34.68365 33.70307 36.38839 38.67890 44.27292 48.51595 53.95031 59.64247 55.65144 47.31219 45.55666 45.12473 39.65648 43.06477 52.42187 58.21517 65.20030 69.91823 64.57724 59.79710 52.09818 53.75820 61.30424 68.15295 73.09068 72.18969 72.01142 67.00301 58.64637 62.54140 63.24521 55.05492 58.56760 62.59561 64.27595 61.27047 54.52793 49.63221 44.03758 43.46090 48.38114 56.74924 61.42782 61.91070 52.88248 48.52875 38.89507 35.34990 28.98712 31.67767 27.94650 30.52716 32.81433 39.80164 41.85801 46.17311 43.44855 38.97781 35.42472 31.09077 31.34138 27.18200 29.11409 26.90896 27.65398 25.76030 24.77875 27.37543 25.13263 25.25151 27.55860 23.41769 24.75399 25.87705 23.31949 24.30791 25.15842 24.49547 21.84710 25.72350 24.87492 25.88242 26.08359 25.42170 26.46361 24.87757 24.78100
24.19549 25.21604 25.16203 25.59826 21.31700 27.21153 24.65365 24.60616 26.04342 25.23949 26.23667 26.42656 27.77376 25.89192 25.27909 23.47119 23.34016 24.52459 28.56453 29.87831 26.61637 26.03691 25.77192 27.03147 26.12046 28.31123 28.51987 33.56794 34.92115 35.96882 36.62807 37.92546 35.24833 35.74565 38.82625 39.37200 41.21904 38.73432 32.27258 36.02767 41.28802 47.93479 56.04857 59.75717 62.04583 57.70658 53.09320 49.50120 44.04347 39.51726 50.25868 52.59616 64.68538 69.08264 70.49239 62.77118 56.66864 54.71242 64.28688 72.10154 74.46152 76.82271 79.37083 69.41321 63.70479 66.97106 65.24013 65.87891 67.82426 74.89853 66.19541 61.83647 54.19869 53.16706 48.96423 47.66793 49.26215 59.01607 61.86351 61.14277 52.45607 48.82982 38.26506 33.88673 29.36280 30.87580 30.74179 32.67008 34.98511 43.25124 45.53672 45.30658 42.05015 40.02450 34.16620 31.36396 28.75127 28.44670 28.30459 27.30070 26.62995 25.86518 27.19131 26.57408 24.82622 26.14026 23.58972 26.18100 24.83056 22.89151 26.40653 22.79964 24.87531 23.75566 24.77415 26.08306 25.96033 26.01293 24.39957 27.45044 24.22371 25.44780 25.32590
25.01253 24.29466 25.80152 22.85477 23.65159 25.98792 23.20396 27.59384 24.02231 24.07832 25.82637 25.71056 25.57981 24.65932 26.24676 23.37552 25.98800 26.32671 28.44810 26.61278 22.24098 25.92294 25.36624 25.30922 24.98128 28.79821 28.06513 31.73484 35.23684 33.44988 36.36778 38.66601 38.47846 41.40522 41.27425 41.70676 41.41934 37.94325 37.03019 33.85617 41.68819 45.90511 53.39951 62.39461 67.08551 64.36656 58.72690 55.87134 48.68430 49.38286 47.44214 52.61169 64.59105 74.15818 73.61135 73.41139 62.21574 61.80858 63.86964 78.72003 82.34300 83.44919 82.27157 70.86891 70.83597 75.15930 72.85086 73.85097 76.49219 77.61062 72.97596 65.69909 61.25819 59.04324 55.36869 51.03083 58.91559 64.75936 64.24356 57.33929 48.29782 40.68958 36.61109 35.19264 35.08837 30.24829 33.70153 37.95650 39.94416 47.03391 46.40622 46.00284 40.52339 35.90275 32.76258 28.97472 29.40525 29.47524 29.58742 29.02487 28.52208 28.40002 25.47840 25.87512 26.95296 25.97692 24.50551 25.91236 25.94795 25.19969 24.65918 25.06411 25.63939 26.04538 26.41728 26.16042 24.29726 26.09721 24.19219 24.24129 26.13974 25.18664 24.55134
24.59162 24.30049 25.77872 25.43864 24.09746 23.12037 24.85299 24.34844 28.46965 24.14904 26.78703 27.07354 24.39162 23.97284 24.71959 24.57457 24.56875 27.50834 26.79878 25.95733 28.07972 28.32559 28.01356 26.51176 25.94755 27.41100 26.10853 28.23620 30.00556 30.63816 34.79067 36.35998 41.56293 44.83776 43.47759 47.70436 46.76609 43.79062 44.09548 41.43597 40.38592 45.55503 51.88201 61.27832 68.13453 68.56596 68.35116 61.29267 58.29641 46.58351 53.89329 57.42308 62.95074 73.81612 80.41972 81.02606 72.11643 69.40975 72.67603 79.56461 87.29386 85.38451 85.86521 82.54351 79.02248 84.99534 81.12490 81.36863 84.93911 83.56516 75.75287 74.32315 68.00810 64.54187 59.86646 61.51653 69.17949 67.74022 62.74108 55.03655 43.71912 38.08853 38.09484 37.32447 35.18978 32.40293 39.64731 44.79776 45.82459 47.61896 49.44043 44.38502 43.63934 38.01715 29.92131 31.40908 34.84893 32.49393 33.13390 32.04356 27.56913 27.08030 25.20992 27.17675 26.54282 27.53610 25.01230 25.51733 24.55887 26.33988 26.61121 26.18337 22.86260 25.81756 25.20353 27.07769 25.88978 26.08057 26.25107 22.07639 26.37548 25.27131 27.52442
25.98016 24.43954 24.53221 26.68932 27.70803 24.56390 24.48454 25.39809 26.18919 27.18416 25.54027 23.48481 24.24433 24.77743 25.24187 25.81301 27.60147 26.27883 24.93694 24.91079 28.59176 29.22906 28.69073 27.81900 24.49773 27.98481 25.97965 24.72753 27.20668 27.15749 29.48360 36.72763 40.20398 43.55736 47.37013 48.87995 47.33120 50.51968 50.01516 47.21224 41.73257 41.91127 50.20409 61.24880 65.77658 73.43389 72.53716 67.76227 60.34267 54.43818 56.98306 61.37708 64.53251 76.40534 82.67603 87.90189 77.41379 76.51904 82.19223 89.24139 91.58755 94.47976 94.15842 90.50450 88.30176 91.60464 88.93690 92.09465 88.14605 82.86208 77.30575 79.01587 72.63773 69.45879 65.27871 68.29466 73.21160 71.63075 63.58099 56.56476 47.08357 41.90529 41.26914 38.18382 36.03051 36.98620 44.52587 47.01455 53.90650 53.73662 47.94426 41.23442 39.19691 35.24320 32.74697 32.34604 34.31894 34.51390 28.87807 29.19650 27.80501 29.10200 27.61355 28.72686 28.32102 27.84252 26.27875 27.43559 27.89591 24.20345 26.81456 27.54170 22.90559 24.50106 25.81674 22.92709 25.11543 25.29637 23.80019 27.22945 23.68256 26.40638 26.81473
26.30215 24.82658 23.19780 25.05373 24.59731 25.13368 24.79073 25.91159 26.17808 25.16019 24.57673 26.55842 25.19272 26.48127 24.38587 28.36577 25.57124 26.16293 25.47782 26.77416 26.61563 26.49002 28.53489 27.59667 28.75089 28.86659 27.41927 30.30354 27.73521 24.74061 30.19693 30.96769 37.17046 41.51133 48.45721 51.37855 57.24440 58.91407 54.23068 52.17248 46.73561 45.54755 53.72118 59.02591 66.86098 78.80925 79.20797 74.26885 68.30955 59.62197 69.48768 69.74643 75.12316 80.14496 87.98141 90.69648 90.42077 87.08129 94.17776 96.67117 97.70020 98.70471 101.60942 97.75709 99.61670 96.56581 96.63753 97.53199 97.03346 88.52497 85.64992 83.48598 82.90990 75.09279 74.74939 76.54667 77.58414 73.34442 61.20290 51.33934 49.76106 49.52100 44.95971 38.57103 37.71452 49.17755 49.89803 53.81487 57.80115 53.57017 47.02083 41.22957 40.26474 37.93432 36.28408 39.82319 40.30143 34.77999 29.41732 29.80866 30.39254 31.82497 32.10690 27.11861 28.02927 24.54873 27.79881 27.75922 23.93514 23.58518 24.45158 25.10867 26.76037 26.70649 26.20422 25.55332 26.44703 26.29111 23.70255 24.39459 25.11098 26.23081 24.61643
23.59717 27.21029 26.70331 26.53771 26.09679 27.24044 25.38428 26.65660 23.54409 27.78820 25.24506 27.67963 24.66091 26.73422 23.94447 26.98220 28.80247 25.96187 25.36493 27.97883 26.75163 26.24726 27.44015 29.70302 32.09866 30.87977 31.99764 27.36928 32.58977 31.24658 33.61820 33.51915 36.48476 40.27135 45.40278 49.10351 54.60311 62.30229 63.41497 56.18046 54.52171 51.22662 52.12709 55.43007 67.31329 74.71292 80.34312 83.36204 72.31350 68.68838 68.51534 75.22365 79.92906 85.32281 92.18556 96.62315 97.10826 97.32677 101.31133 103.68735 105.72189 106.62945 105.32845 105.43763 101.73770 104.38637 103.03870 101.85801 98.43968 97.58737 91.03354 90.72517 89.15746 82.44920 82.28463 82.72545 82.27883 78.77392 64.53382 56.87594 57.19532 53.65496 45.75315 44.62196 46.31055 53.23678 58.28668 64.37275 60.25295 54.92752 47.29392 47.71477 43.19061 44.12273 41.86921 37.58384 38.57813 39.79748 34.05627 30.74112 29.82401 29.37479 28.21582 28.79925 27.67269 25.85376 24.15364 24.03478 23.84258 22.87306 27.79957 25.40325 24.49791 24.59093 25.93070 25.41378 24.99429 26.45345 25.03594 24.81908 24.18892 26.47557 24.12349
23.36953 25.49573 26.14925 26.25443 23.69334 25.54356 25.02990 25.76100 26.20630 24.47653 26.59841 26.44918 23.10076 25.95146 26.69180 24.77983 29.19286 27.87943 28.93430 29.05838 25.72518 29.31657 27.30212 29.14954 31.50429 31.73655 33.92123 34.15419 35.27298 35.78126 37.23110 36.08434 33.19990 37.02978 46.45985 50.17444 55.60105 63.11303 67.41223 67.59801 61.97620 56.06233 54.25866 58.70456 65.31585 72.20107 82.08395 83.34991 81.23236 76.61178 78.46570 83.29996 88.71634 91.65406 97.26858 102.19571 103.66206 99.90681 102.72368 107.83529 109.02387 109.16320 111.02498 109.60340 108.58342 107.33587 108.40341 108.78834 106.02320 103.14514 102.91627 95.88728 95.97067 94.08396 94.08585 90.44385 83.35047 75.14371 68.03337 62.50760 62.65859 57.40757 50.53499 52.67737 49.75129 57.17487 63.85703 66.40900 58.31845 55.46966 51.01239 49.32174 48.04887 45.68892 46.58319 41.16287 39.43065 36.17641 34.32778 33.59512 30.46744 27.79019 26.37176 24.98944 26.67390 26.70910 28.90101 26.19425 26.70493 25.63604 25.28941 25.53506 21.47817 26.58883 25.02038 27.78026 25.88617 24.48228 26.02579 26.28860 25.45786 27.54404 25.32469
23.54232 26.86688 23.69584 24.73703 24.35815 22.60493 22.90068 23.59987 28.16040 25.95943 24.00408 23.25504 27.89110 25.65369 23.93106 26.97676 27.37181 24.13325 30.00493 29.50440 31.26033 29.66039 30.20739 29.77037 27.23166 31.66596 33.93337 37.30210 38.38364 41.76431 40.67460 40.86390 36.03145 36.42985 39.16867 45.75712 52.20028 62.59910 67.05767 69.72291 74.04482 68.28805 67.34750 65.05870 63.73213 67.26323 76.08893 87.47859 87.37945 89.14121 91.99878 94.35213 97.71446 94.83284 104.66682 108.91245 105.34329 104.31076 107.21548 108.59511 106.99245 109.61012 110.72187 109.17299 109.67135 112.01903 110.06623 110.22746 109.55225 106.52263 105.47727 103.38931 103.78036 102.01859 100.20867 90.07029 89.30293 82.53217 76.68959 66.15553 68.21761 57.75700 48.16224 57.61974 62.56011 66.32309 72.79013 69.65701 64.94504 60.05478 56.91149 56.34850 52.34461 49.76285 47.16108 41.05409 41.43096 36.41506 35.01889 31.12440 27.22761 27.71820 25.53676 25.74633 26.82804 25.28504 26.30444 26.21605 26.31768 23.46026 25.35877 26.71673 25.58909 26.68331 26.34266 26.59682 23.47333 22.79713 24.75973 24.84114 23.55729 25.42411 26.90912
27.45958 23.45599 25.16161 24.81090 26.19154 25.28382 23.34145 24.17551 25.10276 24.84334 27.56961 24.56245 24.17696 26.09513 26.50102 27.06032 25.86298 27.60681 30.34060 28.91485 32.05078 31.89427 33.94604 30.65292 31.60266 30.06712 31.69745 36.39598 39.19913 43.90891 44.83335 42.47679 43.91565 39.95281 40.04527 41.13320 48.89530 59.76664 68.33890 76.89070 77.42263 75.89225 74.67113 72.37939 70.27865 70.94369 83.71297 87.21589 93.50211 94.41791 95.76602 99.97508 101.38788 103.18273 108.93938 108.30750 110.35533 108.34701 107.46879 107.03023 109.79252 107.84818 107.26157 108.68136 109.64160 108.10793 108.43388 108.35135 108.10233 109.48142 107.75938 108.51954 108.76553 105.92589 104.94077 100.82003 91.46655 86.04742 77.97797 71.54691 66.15628 57.35588 60.65848 63.24374 69.70123 76.87605 74.35819 70.79692 66.63675 61.05439 57.29642 53.53065 53.10445 47.74172 39.75761 41.00854 37.09926 30.63299 32.81231 29.11197 26.16573 26.37078 26.16103 26.06696 26.44645 27.41279 29.28175 26.49794 26.43464 26.37742 28.12783 24.69987 24.99618 24.01002 26.03547 24.26425 25.53921 24.55940 23.85618 24.88185 25.71345 24.94260 25.90073
26.66878 25.53854 26.01077 23.34251 27.76790 25.12916 26.86188 27.33834 26.16720 25.02849 25.73922 23.55303 26.90243 25.70731 24.56743 26.49366 26.39990 27.22688 27.59488 31.88005 32.25825 34.74097 33.72586 34.99964 35.47617 34.75701 32.43061 32.53851 35.30518 45.39105 46.15414 47.09334 47.91584 46.86730 46.34413 40.14988 47.55467 53.01245 66.98157 72.74924 80.92642 79.55194 78.27845 82.30171 83.89983 87.09663 84.86782 91.52591 100.44664 102.03337 100.77165 102.27816 105.74614 107.19020 107.62019 108.53405 106.71482 105.98993 106.57714 106.16404 105.20410 105.96784 105.94012 104.40823 109.05270 106.28810 105.38855 106.65836 107.17869 108.06227 106.62104 107.03605 106.86653 110.39825 106.21717 102.91059 98.80149 89.72905 85.48764 72.86819 69.21387 71.42725 73.57908 73.87561 77.66663 80.44426 80.49676 72.95916 66.64783 56.95126 53.08311 49.65379 45.17214 39.92670 39.78117 34.67067 33.78432 29.30160 30.52652 27.84505 29.05931 28.25364 28.89049 28.89921 28.49898 26.58892 24.42089 27.98059 26.61540 24.15447 24.88332 27.25585 26.31703 26.53608 25.79820 21.75922 25.46988 24.54824 26.18481 22.90926 22.91926 23.91292 24.71231
25.43142 23.77616 26.93746 24.85757 23.57906 26.50670 25.03043 25.89770 25.11160 26.87248 27.04679 25.09655 24.87141 27.42556 24.81738 27.34158 28.14586 28.30612 28.35592 28.65822 34.19879 40.31726 37.99779 38.24562 38.30592 35.62510 35.35665 37.16515 36.94122 38.71173 44.06902 51.19496 58.15652 56.19034 51.77293 47.71792 47.05947 55.76647 64.42871 67.07796 75.30605 87.39412 88.13618 91.81497 90.33386 91.24948 92.87018 95.00287 103.94842 106.76271 108.97414 106.62782 106.61602 107.49172 107.19318 106.21730 107.07309 103.86117 103.45625 104.63572 104.87830 102.28354 105.74111 105.55558 105.72645 103.02084 104.55536 107.01885 107.30848 107.00851 107.35658 108.62828 109.16766 109.07087 110.41148 105.87782 103.41296 97.64814 90.48156 83.06347 80.17112 77.97638 82.44058 85.77935 87.19991 85.64356 75.87324 70.96221 60.22456 55.73312 48.38666 44.89852 42.51140 37.34487 36.02546 33.47401 27.58482 29.56517 29.93760 30.85152 30.61608 31.29570 31.96476 29.20209 28.47622 26.48803 26.12355 25.94172 25.94915 25.75813 27.09644 29.09417 26.95324 26.14841 25.56402 25.08744 24.24935 26.45904 26.14576 25.12137 22.67157 25.91256 26.01564
24.81037 24.94351 24.65304 24.41522 25.46995 24.30455 26.27269 24.74714 25.62818 24.64894 24.95910 25.21111 26.66438 25.19085 27.22733 28.44603 30.65558 28.23194 30.97888 32.27534 32.82990 37.12267 39.09402 43.53176 43.53148 40.11981 42.52264 43.28270 41.56758 39.64135 45.69401 51.66409 59.42468 61.81746 58.27800 53.36107 53.41930 50.49450 56.74775 64.66281 75.51390 84.73309 93.32822 94.49534 98.21554 100.10594 98.62172 107.65249 107.39202 107.64079 106.03948 107.49547 106.48755 106.60534 108.30350 102.56657 103.90176 101.25954 100.72580 102.01615 102.51755 101.51949 104.19785 102.94558 101.63780 102.81318 102.04250 101.70203 106.96190 105.07305 106.01727 104.49711 107.03628 107.38572 108.72133 109.87636 107.92918 100.91603 97.61810 92.29703 85.89351 85.47148 93.19803 93.58091 90.10205 83.99655 75.55362 68.50026 60.23266 55.95218 48.10777 45.62843 38.26195 35.85063 34.37516 29.01614 30.78150 29.12120 31.05627 33.05196 31.68206 35.48998 29.67623 29.43405 27.57630 27.22017 25.73904 29.04268 25.86163 27.51942 27.93916 25.65402 27.76353 25.90168 26.62845 24.96071 23.45936 26.66502 25.04724 25.53307 25.54635 26.47574 25.32684
22.82775 25.61060 26.46076 25.50128 25.12157 25.14164 25.82711 25.95087 25.65483 25.69629 27.91108 24.21928 24.62160 26.75617 23.94200 26.28637 28.17836 30.79249 31.66474 31.85850 32.56746 33.78874 39.20213 41.61204 44.68456 47.78003 47.73564 51.06765 51.17627 50.36588 48.85331 49.78016 58.92602 65.97030 67.86670 66.84446 62.69525 60.88017 62.69140 62.50240 68.71517 84.65157 93.45947 99.77359 101.76956 105.22806 106.91222 108.40960 107.04252 107.86443 106.00465 107.73545 106.56890 104.05592 103.82221 102.40126 101.57267 101.78338 102.70963 102.67931 101.62063 100.87063 101.46941 102.66648 103.29720 102.53884 100.89677 101.92493 102.53134 101.72178 102.99733 104.31246 105.32402 103.88645 108.39246 106.05606 105.32619 105.70602 103.20458 99.68880 97.65268 96.97401 98.98385 94.46732 88.27569 82.91730 73.70155 66.64298 60.35235 54.24267 51.88038 48.69541 42.53564 36.62882 32.11101 31.65485 35.24687 33.34669 33.60038 38.57785 36.53727 33.43333 31.76014 28.67504 30.96329 31.24932 28.43294 29.81849 26.64578 27.54848 27.85694 26.51622 26.86367 24.38771 25.66448 25.46193 25.75277 25.12501 26.33355 25.49061 25.77506 26.26683 25.09583
27.79190 25.62245 28.20230 25.87195 22.83290 25.04422 24.70900 25.35516 25.71807 23.53630 24.39710 25.18896 25.96482 28.04966 24.97708 24.96095 27.26822 27.06938 28.87363 31.37235 32.05148 34.00172 38.67071 41.52896 43.97100 47.69836 48.14908 51.76753 53.71007 53.82825 56.90228 56.81129 60.68963 66.84372 71.05082 72.98081 69.33861 69.06285 68.86274 63.48495 70.47814 81.61353 91.53839 99.10736 106.12767 108.69721 109.49973 109.97199 109.02063 106.61816 103.37564 106.18503 103.23981 101.16147 101.99526 100.16066 100.50578 98.20208 99.73493 101.32505 101.02341 101.03878 99.64838 100.22726 99.38387 99.83223 101.45938 100.87602 100.25272 100.18031 102.45778 102.57974 102.91392 105.47709 103.66513 106.31052 107.07077 107.05221 106.88054 103.10484 104.49468 100.75458 99.97426 97.73131 90.61694 83.01184 74.32899 65.15566 60.57942 54.38194 52.87276 48.19223 39.30396 36.87761 33.87827 35.81861 38.88521 36.65376 37.93463 38.25608 38.81636 32.84178 33.19744 34.95086 34.76284 30.69082 29.96033 29.21336 26.65560 28.87910 26.24353 24.92733 27.42788 26.79661 25.31992 26.11745 25.00927 27.53826 26.79664 26.99182 24.46386 23.31624 25.53657
26.99135 26.50896 25.63863 25.88655 24.03332 26.90746 25.00889 24.97220 27.53400 26.93765 27.17820 24.78717 24.47716 26.90154 24.86261 24.39500 26.47334 27.57662 28.37480 30.90945 30.53791 33.00756 34.19646 37.17240 39.56585 44.12461 49.01624 50.98654 57.54293 61.07136 64.09190 63.93238 62.89578 72.57738 77.36609 77.94926 83.56601 77.32429 78.97360 78.80885 79.85202 82.99516 92.27728 99.31661 105.77337 109.39481 107.96361 109.35861 107.22038 105.72735 102.98788 101.94331 102.12880 101.40103 101.88963 100.41876 101.23194 98.47016 97.51560 101.75368 100.13914 99.79323 100.07702 100.01690 100.32560 98.98699 98.26926 100.51559 98.04404 100.18219 100.15795 100.39570 102.41615 105.81648 104.36961 106.06433 105.25814 107.00949 109.01609 108.04410 109.37737 105.81167 100.06438 93.94188 86.25765 80.14586 72.32802 62.47970 51.12976 47.68381 41.53206 39.72061 37.93934 40.92754 42.78564 48.87945 49.04049 48.45906 42.59152 42.56675 36.68729 39.33184 36.12881 35.86671 38.34290 35.18395 32.73179 33.13968 27.25566 26.98392 27.32543 25.18260 24.74922 26.55778 23.10396 26.57212 25.04693 28.16848 25.74447 22.88081 25.26550 25.80146 24.76619
25.35656 26.83539 24.54230 25.00042 26.17677 25.92417 24.94436 23.98118 25.06943 25.14802 27.65014 26.28928 25.17804 25.17479 25.66441 24.85053 24.92928 25.94562 28.55506 29.80210 26.54766 27.88798 29.44678 35.61592 35.36639 38.44762 43.96417 51.47629 53.87037 58.24297 59.96231 62.77805 66.68859 69.55494 81.28155 84.53455 87.65050 85.82784 87.52556 88.18631 88.25069 88.54380 96.50121 100.81083 106.71598 108.68704 110.06666 107.43352 105.12169 103.44625 102.79580 102.76670 101.71175 102.40279 100.14444 99.05750 98.24371 99.21466 98.81265 98.77412 96.07042 99.24689 99.05086 99.57401 98.71729 98.73849 96.99024 101.16528 99.35897 97.61229 99.56468 102.04092 101.13086 99.41282 103.64139 102.68450 105.91277 104.97613 107.07348 107.48542 110.27367 108.57632 96.51880 92.34749 81.55496 73.54188 60.48261 56.50688 52.09414 52.52016 48.75822 45.38913 45.44623 48.11477 46.91123 54.96054 51.80961 53.86953 49.60174 42.77726 42.46874 39.62118 43.12079 41.98056 38.74333 34.86985 33.63340 29.28465 27.31377 28.03513 24.27264 24.90368 23.93346 23.79572 25.14086 26.87148 25.36539 24.43451 25.95189 24.67193 24.39964 27.79650 24.28448
25.01141 23.84112 23.72041 23.30813 25.95104 26.30598 26.50633 23.33118 25.28356 26.13294 28.00419 26.94541 26.88826 26.80005 28.56131 26.15624 27.41794 27.48385 28.04769 27.93266 27.36489 26.28566 29.61868 32.11420 32.40246 34.82384 43.30498 44.01808 47.12321 53.06992 53.26722 58.91970 65.26794 68.77905 78.09780 82.76873 89.92711 90.69389 94.47232 97.46211 103.53437 99.34343 104.20278 106.63697 107.28166 106.26508 103.96389 103.50277 101.59894 99.77903 101.73232 98.97316 99.87256 99.11013 99.83638 99.96186 97.60916 99.92537 98.94408 98.37572 99.29504 97.45287 95.90876 97.41668 97.29651 97.45430 100.28119 98.09015 97.60531 97.45474 100.83670 98.48311 100.66736 99.36896 101.46168 103.89804 103.92520 104.96688 104.04780 108.07770 109.86947 104.76194 101.80015 95.05218 79.12875 71.42146 62.87943 63.74272 60.16039 57.98617 53.36034 51.62983 54.12245 56.54937 58.12299 64.34319 64.01550 57.56145 52.74752 48.91714 49.09225 46.33437 45.99806 42.53202 37.91918 35.38257 32.88945 27.26490 25.29402 25.28387 24.66591 25.55233 25.19380 25.96653 22.87348 26.58286 26.41587 26.06680 26.01482 27.58207 24.41646 27.34892 24.84766
23.15311 24.40230 25.38367 25.73033 23.48562 25.72723 23.85266 23.87797 25.99933 25.50551 23.63061 23.55242 24.90145 26.97403 27.70733 29.08733 27.22201 29.21231 30.15638 27.68458 28.19775 30.60078 27.66491 28.23025 28.64134 35.99593 35.42630 36.19652 39.91144 44.80363 48.99919 49.87467 58.74788 61.81991 72.02221 74.65748 84.43515 88.49826 97.95108 101.39943 103.35403 104.24072 107.88216 105.52372 105.98198 104.29732 104.88064 102.67781 101.98115 102.10771 97.44078 99.24199 98.82724 97.37607 99.01240 98.01917 96.68571 99.27396 97.41234 98.56350 97.77425 99.04732 97.84238 100.13715 98.79615 97.43365 96.96351 98.44174 99.01063 98.32309 97.19744 97.76663 101.63788 98.16319 99.38090 100.41661 100.45309 106.38761 103.85557 105.84398 107.31756 110.31883 101.79830 95.75448 87.31166 77.52847 74.45039 70.92637 64.94776 66.47580 63.39991 59.83232 58.75718 61.10122 65.86414 67.82388 65.12882 57.97508 53.78849 53.42508 46.90060 47.30275 42.98913 40.38027 37.14156 30.30256 29.89009 25.46775 26.10309 24.02560 25.67024 26.51535 24.59189 28.37304 26.88503 25.90678 28.79084 25.69928 25.85452 24.76205 26.63599 24.11834 23.52132
26.99272 24.39966 24.35416 23.24325 26.33297 23.22304 25.53752 24.71234 25.11594 24.80774 26.23075 24.35376 26.06756 28.03509 27.10560 27.08126 30.18060 31.64042 30.07687 30.14460 29.63085 29.39473 28.68376 26.11350 29.82842 30.21004 32.23315 34.42340 35.36886 39.20913 38.73896 45.71017 49.37273 58.40945 62.26031 70.50778 71.75450 81.64548 90.39910 100.44829 106.63286 108.77928 107.74577 109.48895 106.51938 104.14775 104.55991 103.59800 100.39238 98.49962 98.33524 98.39809 100.09652 97.14465 97.67935 97.59081 96.66447 97.01258 98.79020 96.98863 98.03302 93.54106 96.68556 96.80297 96.90320 94.57597 97.48807 95.52735 97.66501 97.18089 98.69509 99.54887 99.36989 101.40483 101.11022 101.72131 98.56343 102.41330 102.78471 103.63169 108.31441 107.28018 106.59457 100.18395 97.03456 85.47899 80.24169 76.32583 74.91861 73.08412 68.68391 65.58323 68.42636 71.10122 72.02266 71.57523 64.99758 62.02736 55.02617 50.27106 48.53513 43.34611 40.89310 39.43608 33.36906 30.68559 28.83514 26.40525 27.85036 26.57449 26.26073 27.31866 28.20475 28.69021 26.37945 26.56060 26.44188 24.45820 26.78981 23.22358 25.67431 26.17816 26.27660
24.28469 24.70539 26.22991 24.55782 27.55245 26.72623 27.12633 22.45540 25.44010 25.82643 24.22620 28.53793 27.81520 28.32370 29.21782 27.20293 31.48682 31.74716 30.59668 33.61531 34.01506 34.47855 35.27355 31.00356 31.78929 28.92283 31.61573 33.25260 33.87593 33.65932 33.19720 41.98551 44.42838 50.27979 57.07565 58.39398 67.82140 75.98786 90.93666 97.37499 104.78220 108.85684 109.54510 104.94910 103.70215 103.52228 101.05571 100.30410 100.96218 98.37877 98.62313 99.74190 98.10068 98.27028 99.08556 98.75653 98.23814 95.02045 97.54549 100.61243 98.11440 99.25418 96.14020 96.40228 94.89099 97.51413 96.89614 95.19685 93.99523 96.66905 96.92901 99.78380 98.46184 98.98721 97.43141 99.79364 99.09671 101.69567 100.26293 103.99054 105.46610 107.66745 109.28017 101.92921 99.20555 96.72984 93.32048 93.17814 87.97120 85.05381 79.30745 76.58995 74.59174 71.82586 69.36605 67.07267 61.83143 57.03328 53.26030 45.74061 45.99839 41.43529 36.59691 30.71387 31.78248 26.34670 26.14040 25.50120 25.26343 26.22941 26.93168 27.31777 27.98833 25.14721 26.71430 27.05217 29.52782 25.40605 26.02604 26.89418 24.04791 26.65592 25.57983
22.81538 25.03268 25.44913 24.89675 24.81991 24.41840 27.22933 26.00449 25.63276 27.42402 26.72893 27.42993 28.90309 30.72721 32.95599 31.30805 31.74915 36.17968 36.01432 38.11274 36.73869 38.61267 37.93034 35.79611 33.94043 35.95025 36.69092 34.98764 35.19040 35.93682 40.31857 43.12071 41.94893 45.28880 48.12540 58.10769 64.68307 72.99231 82.93930 96.65530 104.76460 106.41559 108.75820 107.06268 105.42524 100.02671 101.26956 98.56294 98.87300 100.09917 97.87299 98.34552 96.72089 97.03352 97.82273 96.48435 96.03819 96.84365 97.13646 96.37124 95.04973 97.06902 98.48947 98.25180 98.09375 96.60410 94.87144 96.57474 96.72103 96.63650 96.25922 95.67873 95.55887 96.95473 98.76923 95.78400 98.92082 103.37319 101.15162 105.62015 103.48204 104.83576 107.40205 106.27800 103.48085 105.49788 96.88678 94.20677 92.36233 86.60599 84.23294 79.68024 74.71476 70.75377 61.73558 56.38180 54.14997 55.42973 50.39013 42.87329 39.35622 38.42235 32.47458 30.37505 28.17153 24.86022 26.07828 28.80874 28.47063 28.07020 29.49745 28.97063 27.64083 28.41022 25.92828 25.94764 25.39292 25.23507 21.58971 25.89988 26.29623 24.12691 25.61434
26.71794 26.10639 25.15974 26.18983 24.55465 24.90497 22.63205 24.75807 25.85118 27.26463 26.27159 26.15132 29.83515 30.57028 31.83521 30.76470 33.14948 33.00470 34.11207 36.69217 40.26611 40.68011 43.24948 42.12605 41.27808 38.74652 40.61095 41.50293 38.63216 37.28379 46.91342 51.78074 51.82888 53.75363 57.49835 62.75401 65.21135 80.69903 87.32618 95.32367 105.79306 106.04915 106.58513 104.92081 103.58384 102.26030 100.99816 97.25677 99.61982 97.92175 99.05266 99.34143 96.97024 97.37325 94.89249 96.42946 100.25664 94.23774 97.91617 98.60634 98.15726 96.76121 96.23235 95.40106 96.60341 95.87925 97.92960 99.80422 97.63782 97.71789 98.41019 97.47628 96.62908 99.72450 99.52924 97.74105 100.77480 100.10181 101.55504 102.48681 104.86197 103.62765 105.35543 110.62797 111.18128 108.03042 104.27612 99.67802 95.57963 90.86173 87.02913 78.14542 72.12895 63.76597 53.91373 49.32318 47.06507 45.46604 47.05113 39.60164 35.18149 31.32216 31.62036 28.58010 32.61638 29.02051 27.14714 31.22245 29.00586 31.76782 29.47112 31.79373 29.27833 26.84743 25.44356 28.62395 24.34893 25.30275 26.21249 25.00522 25.84289 25.68362 24.57066
25.11990 25.89158 24.44216 25.74798 25.59525 26.90201 24.19693 26.82302 25.63138 28.27241 25.31870 27.79572 28.89225 29.86679 29.41377 29.96963 31.25778 31.00154 32.46622 35.14029 40.77498 42.53830 41.40414 44.96169 46.53034 46.53524 47.73202 44.66791 47.06257 42.76759 46.56348 54.61595 59.58532 63.71151 63.99719 70.98970 76.26857 80.15466 89.19204 101.89319 104.60797 106.50103 105.36906 105.40533 101.71143 101.01944 100.78248 99.33694 99.66729 98.10868 97.43266 97.28376 100.40502 98.15222 99.15696 96.78286 95.16450 98.28614 96.26799 94.88132 98.30325 99.66048 97.10686 97.11791 96.95728 97.10810 96.61836 99.66268 98.00482 97.09912 97.77023 98.42305 96.73798 96.23190 95.89793 99.89677 99.25007 100.75133 100.93030 101.32575 103.78788 103.89676 105.14331 109.43880 109.11606 106.30462 106.54521 98.57461 90.67498 87.55920 77.32938 72.17936 65.43307 59.82369 50.78937 46.77951 43.06128 41.32621 36.78623 35.36965 32.50599 30.66482 31.93953 32.02356 29.45745 31.47664 31.56171 31.95457 33.66545 30.13933 31.23718 29.70358 32.36935 29.13826 29.80074 24.81711 24.95128 24.74854 24.46764 24.21997 27.46944 27.11773 25.97598
25.64658 22.98895 24.69339 24.34034 25.00061 24.76559 23.55295 26.05990 24.81556 25.80876 25.31711 25.75203 28.03363 27.99211 27.46693 28.68280 29.29380 27.47169 31.24395 31.04564 36.63635 40.56101 42.39774 46.56144 47.81935 54.79464 54.19775 52.49231 53.54872 48.44988 53.84312 57.30175 68.63785 69.99362 75.85221 79.95003 86.80408 91.47788 99.27430 102.37474 106.61889 105.88716 105.76074 106.26079 102.66918 101.86526 99.82586 97.16172 97.64488 97.87630 98.81085 98.53727 98.49470 96.26625 94.58745 96.97010 99.64194 97.68479 96.25435 98.26852 97.48522 96.77435 97.33150 97.13518 96.21664 97.41499 95.80966 98.34581 97.55814 97.79983 96.23169 96.94265 94.42700 98.31258 98.17812 97.13662 97.54197 99.01775 100.16469 101.97338 102.94641 105.01729 104.49482 109.82109 107.19307 108.10940 107.99414 98.04108 88.96417 82.29662 74.97702 70.06267 60.63778 59.17308 59.71854 53.95046 50.06299 44.87405 39.53589 33.90764 35.43225 33.60149 33.51457 33.89921 31.59427 35.04415 35.56248 34.15526 32.05641 28.85275 30.34490 30.61230 26.57847 27.38176 27.89565 26.99244 28.09099 26.80721 25.73486 26.06188 27.82770 22.57798 26.06800
24.63911 25.08803 25.47656 24.84121 26.09204 24.90624 24.14338 23.42719 26.44512 27.48604 26.94939 28.08434 26.02008 26.08313 28.38099 25.91485 27.72890 26.79397 30.75153 30.02531 35.17365 37.53181 42.24538 44.14071 51.00529 53.54293 58.23850 60.05065 64.51178 59.48132 59.44593 59.88944 64.35207 78.21320 85.99777 88.46864 94.10188 97.22237 100.82605 107.25513 107.28611 109.57317 107.11427 102.84398 102.21312 100.25490 99.80853 98.26623 96.41319 96.77727 96.56295 97.08192 97.28013 96.49340 96.27283 97.65579 96.56542 98.49967 95.72372 97.32290 96.89721 99.17503 96.00146 97.89984 97.28528 97.09565 98.39842 96.42374 95.48310 96.40981 95.93214 96.09707 97.05119 97.81869 98.16115 96.84981 98.02012 97.18355 101.71242 101.73438 101.68880 103.70471 101.60715 107.21022 109.11109 105.66001 104.68242 99.56536 92.45581 87.10670 77.54727 74.99502 73.22739 66.97607 65.80370 62.53308 54.29989 49.34181 40.72977 39.02567 39.74955 39.96726 39.61109 38.20070 35.84393 34.22321 32.92325 28.98637 28.43102 28.36903 28.46183 29.81127 26.27028 27.73065 26.33559 26.58256 26.12581 23.89036 26.76890 24.93010 23.46965 26.51179 24.80482
25.50959 22.76171 28.92839 27.25726 25.67342 27.27926 25.70535 26.23857 25.03836 22.30867 26.45004 27.08338 26.69112 27.47528 25.68100 26.58212 27.14038 31.47881 32.88092 33.72404 34.57793 37.63131 39.66866 44.26597 56.19422 59.00185 63.64517 64.23752 65.15114 67.86810 66.33672 68.14895 72.09071 82.73534 90.62753 92.85229 100.47227 102.76713 106.67557 107.92911 107.76137 105.54702 104.90621 100.32160 102.85317 99.89921 99.23347 95.51880 97.42409 99.08063 96.59214 99.48394 98.75683 97.52105 97.44113 97.60796 98.23556 97.61627 97.57704 96.97949 93.70435 96.77039 95.63447 98.33239 96.00223 97.63809 98.94902 96.20038 95.93549 95.61884 97.40474 94.87209 97.32873 95.50030 96.43784 95.69225 98.80968 98.86547 100.27227 100.85580 99.94783 104.14472 101.27364 104.17430 110.72753 107.78749 105.57529 104.01321 94.76945 90.01079 88.23904 81.63772 78.62906 74.06018 68.66004 63.75578 54.16390 48.67343 41.81172 42.83361 44.53010 43.04699 41.44860 38.87553 35.87134 32.28246 30.70474 30.18901 27.84130 28.69747 28.25848 25.78157 27.18841 27.34547 26.01730 27.28612 26.22414 27.29791 27.09753 23.51089 27.20367 26.28868 23.59110
26.30348 26.71621 24.83111 28.30000 28.29978 25.40354 25.49969 24.91084 25.07908 25.26826 26.98207 25.97317 27.56231 27.50252 28.33582 29.95548 30.72694 29.91275 33.99408 37.22481 37.10004 42.66401 47.64088 50.11919 53.04875 61.90710 63.80171 66.41852 66.05110 68.63963 70.69786 73.76531 77.68560 85.52049 91.64716 96.75813 101.79079 105.41490 107.38200 109.34290 107.67462 105.06842 103.74185 101.85151 100.32203 97.76846 98.97506 96.72998 98.62501 97.56533 97.42074 97.53066 98.47687 97.39625 98.44223 97.24525 96.90026 95.46250 95.59875 95.66500 95.36906 98.07467 94.81558 98.15451 95.79762 95.03236 96.74718 97.03427 96.77148 98.27322 96.45295 97.17419 96.44153 97.75208 96.64097 97.10873 99.70784 97.41053 97.16044 97.45820 98.26410 101.98540 105.21924 102.25896 108.85744 108.28870 109.26832 105.51021 103.36002 95.41051 91.20765 85.64903 78.61037 75.90854 69.07770 62.82815 53.28056 49.91814 46.53416 45.34967 48.24562 43.72111 41.63790 39.97755 37.05725 33.46666 30.35669 31.59809 27.00453 26.52838 27.24823 26.98372 25.91955 26.27048 27.82530 23.86869 25.44812 25.37912 27.12485 25.67309 24.43500 24.65961 25.61003
24.60754 23.56437 26.77339 25.94716 27.96576 26.81513 25.59292 23.90243 25.21444 24.88036 24.28313 27.21422 29.43390 27.75967 28.55608 30.55637 29.65694 33.79425 37.29091 40.17206 42.64676 45.02411 48.84084 54.42700 52.01042 53.27570 57.91927 57.68914 60.69511 63.16617 65.17150 73.23181 77.51220 82.21088 86.12964 94.21464 101.31516 109.41418 109.17329 109.07792 105.18847 106.00498 102.94316 102.79354 100.36346 97.96779 99.13388 95.86228 96.31156 100.04923 96.14369 95.86982 95.45558 93.73649 96.82368 97.41036 97.40723 97.96266 96.07769 96.19434 98.09492 96.46591 97.96348 98.33842 95.84553 96.04815 95.62912 94.85430 96.58547 98.26560 93.36176 98.30082 95.86806 98.49124 97.88018 96.20726 99.87313 98.65569 96.46811 99.55876 100.37771 103.33291 102.16070 105.46248 106.33207 110.89962 109.52951 108.65021 102.86321 97.35642 93.09692 88.43649 83.52778 75.41555 69.18962 65.81406 59.48372 56.44042 53.87616 50.97407 48.32052 44.71647 40.42998 37.33192 40.36122 32.97909 30.84954 32.58641 29.28115 30.90870 28.71599 27.32571 27.53575 25.73593 26.07949 27.14778 26.38287 24.82000 23.70405 25.52715 25.95788 26.56073 22.88810
26.96137 24.83455 26.11752 23.88466 26.63345 24.95895 27.21314 26.64079 26.66093 24.22661 26.51422 26.02709 27.57090 30.32431 30.41477 31.93768 33.70596 33.49195 35.10156 41.92845 42.77114 47.47421 48.78402 51.83285 47.12614 50.02624 51.65625 49.62666 55.74220 52.91307 60.83667 65.32775 67.47080 73.83205 80.48299 89.75684 98.42810 105.82875 110.31287 108.29838 106.64075 105.95414 102.32719 102.08551 99.72674 98.01403 97.59707 95.03468 97.43018 96.95168 94.59017 96.84504 98.36402 97.47734 96.19224 98.07159 95.51796 95.86432 96.75146 97.43483 96.32990 97.40822 97.47018 97.96021 97.82286 95.82221 98.04308 97.20879 97.14509 92.87642 94.00135 94.83094 93.17068 95.00785 98.86605 95.63209 97.81717 97.93560 97.55419 98.27162 97.61865 102.58962 102.10952 104.85644 105.71097 106.01905 109.16264 107.41055 101.86655 98.78630 95.97347 85.29822 80.42672 71.45356 68.45240 61.77965 59.20919 55.03258 52.14269 47.66241 47.34741 40.17946 39.60776 37.69114 35.83567 33.86106 31.97839 33.77432 30.83319 30.82433 28.37916 28.63982 26.61491 27.18972 26.28413 27.54054 26.76888 28.96133 27.01625 26.16926 24.63620 23.70981 25.85497
25.29093 25.46213 26.52983 26.95497 27.60985 26.68006 24.62843 25.06375 28.66566 26.95295 26.36651 25.68403 28.03019 29.82919 28.90792 32.68619 33.85537 34.30703 40.75759 40.04384 42.56375 40.32100 44.93177 43.37217 42.53827 43.20497 43.99360 42.50868 43.50984 43.26448 53.79170 58.22677 64.90337 70.80442 81.77103 89.86273 100.92894 106.33618 107.88956 109.66755 104.89283 106.82907 102.07119 100.32137 100.44318 97.31225 97.03476 98.34287 99.69403 98.30387 96.14430 96.76608 97.22148 97.06616 95.59753 97.76160 96.27980 100.09832 98.48725 97.43448 96.08566 98.62089 95.68459 96.38190 97.01578 97.68486 93.10974 94.45273 94.39986 93.22218 91.10101 94.33162 94.10123 96.03342 99.44539 98.79017 99.35431 100.12999 101.51187 98.15638 100.34950 99.94657 103.64648 103.80291 104.38627 106.66950 108.64376 108.94362 104.33871 100.80831 88.57500 83.96279 74.30088 69.78461 63.07182 57.85073 51.10410 47.60697 43.90617 39.15714 35.79127 32.21885 35.00306 31.11471 30.43796 31.02366 32.02035 31.06669 28.53069 29.22014 28.51839 26.70540 28.08257 27.42424 26.79586 27.19117 27.98542 22.79291 25.63738 25.02846 25.05759 26.11680 25.84937
26.79223 23.01706 22.73447 21.80141 26.52507 25.46063 25.25114 26.66123 23.54044 25.90554 27.82177 28.09119 27.49447 30.97694 33.23045 30.65094 34.03683 35.71351 34.03274 38.06393 35.30259 41.29345 37.20786 37.29933 38.27183 37.20699 35.85682 41.30466 46.17186 52.94917 54.82370 60.81480 68.96188 73.72277 86.18847 93.09875 100.57788 106.22902 108.25777 105.42321 105.85232 104.46956 102.91392 101.55591 100.39614 99.26688 97.11851 99.36293 97.79563 97.33516 97.30339 95.45863 98.18754 96.77323 95.65377 98.20385 97.44438 96.98943 98.07131 97.91547 96.09018 98.60295 98.39340 97.73896 94.83376 98.47591 94.51204 91.75232 89.72094 92.17735 88.06940 87.56169 90.18689 94.61508 96.05520 97.90957 96.10166 97.17299 99.74918 97.58447 100.42936 101.54765 99.01462 105.37982 106.94924 109.30746 108.15213 108.00617 102.55371 97.16808 90.42785 82.45345 78.82447 71.33537 64.43575 58.02646 53.21251 47.68839 41.94608 37.76415 35.33125 33.56495 31.07569 29.85848 30.86159 28.53698 29.20685 29.40361 26.15356 27.37947 26.86045 26.14421 23.50362 27.29038 25.15479 26.58498 23.41387 25.22868 24.83382 27.43988 25.87430 27.99794 25.67324
24.71547 25.61609 24.42308 25.90850 24.38608 25.44984 23.75932 25.22691 28.03663 27.57902 25.66654 28.51228 30.06931 28.85983 28.09117 30.16835 31.71077 33.20679 33.78791 33.32101 33.80735 33.93513 34.16232 34.33447 34.22769 36.52552 40.59977 42.09018 41.75573 46.88911 56.27000 62.08273 71.62794 78.77362 89.93462 93.65307 102.09839 107.74077 108.27467 106.78353 106.80430 103.97267 101.20732 102.28966 99.45579 100.12218 98.23978 97.76273 98.26808 96.54923 96.43518 97.94316 97.12452 98.26937 98.30665 95.24437 98.31185 96.36503 96.74024 96.01965 96.22701 96.70517 94.41682 95.54398 94.33338 93.69611 95.62555 95.47288 88.25000 87.15546 79.64835 81.73699 86.90340 95.24396 92.94072 94.58745 98.35804 99.15034 97.13101 100.83281 100.64659 101.85630 100.32511 103.13528 104.85620 108.13550 106.03289 107.62330 102.29181 94.48547 88.82289 82.35803 74.51332 62.53333 59.32175 54.10635 54.41313 46.77688 44.50694 39.04713 38.01488 30.86492 29.62998 28.06125 28.04141 29.24385 29.45887 30.00379 27.04476 26.04628 26.44318 25.59559 25.26737 23.73473 25.89536 24.54419 26.56331 25.25451 28.47667 24.60468 25.05575 24.34686 24.65478
25.77828 26.44208 25.58743 25.31167 27.85644 24.61900 25.24205 24.41579 27.23320 27.55938 26.60808 25.19666 28.10008 26.14208 26.64436 27.69244 29.30313 30.16365 29.87351 31.19435 30.84999 30.48682 33.56102 29.79071 37.94346 40.19062 43.15893 47.94463 49.35792 54.26338 58.31466 63.84909 71.47428 79.95285 86.48622 93.85272 103.63173 106.34284 106.91965 107.44458 106.13693 103.99999 102.95140 102.12320 102.68392 97.94313 97.98052 95.14738 96.30940 99.58818 98.35580 97.47674 97.75595 98.17408 98.76458 98.65382 97.19920 97.49057 98.50277 97.82875 97.15862 96.15021 96.34431 94.13411 96.46789 93.29202 89.33797 95.07453 92.24091 89.02809 70.66152 75.42023 79.79277 89.00033 92.24341 95.96086 96.65378 100.18677 96.98197 97.43556 98.34847 98.04961 99.57057 105.78464 104.86324 105.84921 109.68241 107.37841 102.51400 94.16548 81.81458 76.42013 68.62924 61.11510 53.03115 49.22575 43.96048 40.67060 40.77367 37.60227 33.48138 31.74956 30.64120 32.35910 30.31553 27.84608 28.53596 28.33765 26.78380 28.93876 27.73164 27.44053 25.98437 27.18537 23.28251 26.94133 24.86847 26.88042 24.21115 26.50145 22.97052 24.70501 24.56415
27.41664 26.19579 24.69956 26.00038 21.37375 25.80586 24.50277 25.79240 25.99441 25.27960 27.32071 26.88714 26.07834 27.56398 25.29283 27.28077 27.43638 29.41650 27.59185 28.31372 29.15152 29.19288 28.72047 35.49931 40.54020 47.17057 49.62413 54.77094 59.07551 61.47298 64.48160 71.66727 76.49851 84.23463 91.53328 94.43309 98.22755 103.67794 106.57502 109.44366 107.44734 104.52531 102.97170 101.03505 99.97801 99.06473 98.66475 97.98810 96.89016 98.02454 95.85407 98.18952 96.83555 96.81194 96.12467 95.72564 98.46114 98.08558 95.38629 98.03460 96.61481 96.30043 96.96089 98.30706 94.73354 95.54364 89.52937 84.12384 85.07709 90.49610 73.54617 76.04768 88.96706 91.58768 95.51186 95.83751 94.99332 96.97745 97.62066 99.59165 98.59521 102.08570 100.52511 105.17915 105.76750 106.55542 108.86761 107.99993 105.55568 97.11395 90.79275 80.55942 74.41473 67.84618 54.32727 52.83748 45.79894 39.29036 39.40756 36.87779 35.46198 34.21732 37.28607 32.89082 30.89741 31.36576 30.39139 27.56629 30.41390 30.31444 29.18457 27.42751 26.62941 26.75382 26.33202 25.75280 27.73309 25.00344 22.30463 24.10356 26.42744 25.33205 25.49994
25.54863 23.90256 24.10215 26.27223 25.50600 25.51891 26.06134 26.50357 25.40717 25.55893 22.39725 24.21891 27.02779 27.43594 26.17727 29.35287 25.94594 28.62734 28.46296 31.07973 29.78552 30.50724 35.61961 37.25532 40.47731 44.87001 54.53525 57.72557 60.72993 63.74520 67.74120 72.85485 73.69609 83.01766 83.94197 90.97545 94.27836 99.56416 105.89210 106.47249 106.47065 105.68855 102.25717 99.93635 100.40891 97.49250 95.67510 98.99704 99.79459 96.99080 95.69204 98.97361 97.00552 97.25735 95.57901 98.03071 96.46903 96.34249 96.17677 95.34189 95.85793 97.52230 96.41700 98.10318 98.65270 96.00830 94.21011 89.68489 78.80572 77.29075 68.09805 65.15712 78.26023 85.42597 91.24583 92.55492 95.26080 95.41785 99.16010 97.88254 100.03954 102.07910 99.83412 103.78880 104.31805 109.06056 109.94193 107.19251 105.47659 99.71239 91.20730 91.04944 83.37277 75.41057 69.26231 65.03385 50.35370 47.76129 45.83430 47.49715 43.69567 39.47918 40.70315 37.32542 35.74396 34.64882 33.82340 31.84415 31.44860 31.03825 31.33324 29.71466 27.50254 27.79809 27.57382 25.20838 25.36213 26.23212 26.69995 25.41984 23.76479 26.13913 25.51804
24.31256 26.51205 24.45839 25.15374 26.62573 23.60339 25.65777 23.99203 27.25253 26.00694 26.13050 26.98239 28.52732 25.42120 26.98901 28.61091 28.94170 29.16489 33.78356 29.80332 33.41006 35.16429 38.18807 39.85823 45.03125 46.67009 48.98046 56.61397 55.32059 62.75113 67.42042 67.44380 70.70057 70.85861 77.75161 79.89100 87.29164 97.42901 102.58519 105.14375 106.46936 104.38226 103.44049 102.72004 99.01493 98.14860 96.09434 98.49078 96.77467 97.47170 98.87454 97.05665 97.96611 98.62504 98.31968 96.28153 96.90146 97.45657 97.04287 98.52970 97.12931 96.61312 95.46060 95.74912 97.55324 94.35662 94.24835 92.39320 80.37596 67.83018 70.27605 65.57727 67.50603 72.81242 80.01307 84.50018 92.54081 97.10512 95.43384 98.04352 98.50878 101.87496 103.79785 106.60290 105.50435 108.29869 106.60852 106.18920 102.45232 99.67977 95.06833 90.41161 84.95555 77.33849 73.87992 65.60526 60.96711 55.43981 52.49212 48.74662 48.39837 44.74703 42.94846 40.40419 38.06019 34.17515 37.44767 33.43701 32.31977 32.62621 31.20999 30.29758 29.22708 30.21575 28.67271 26.43596 24.85973 25.04210 26.90442 26.86625 27.77533 23.66538 27.37034
26.49346 23.56754 25.40236 25.05369 24.08499 25.36861 24.75189 27.23890 27.04098 26.09299 25.14537 28.81530 28.10443 28.48764 28.58041 28.76086 30.69469 31.84126 31.99173 32.87122 35.72971 36.64254 36.60579 39.77168 41.97640 42.75187 45.29426 46.95456 49.94592 55.67331 56.91817 56.50957 59.54373 65.81229 69.90379 78.42861 86.38027 94.02538 103.98643 103.82928 105.46698 104.45159 104.69062 103.61819 101.65509 98.10173 98.15071 98.08594 98.09608 98.44633 95.05526 95.41535 96.10307 97.67222 95.48884 97.66652 98.04955 97.67999 98.04489 97.15127 97.10546 94.96714 95.34888 95.47102 91.36102 93.80891 88.68641 81.72121 79.71544 78.69685 81.36503 84.27644 67.92600 59.18716 66.39302 76.01834 83.80805 87.59137 89.41983 90.04273 96.25259 98.09360 102.45064 104.59946 104.86499 107.73791 108.10412 103.55093 96.54035 96.66257 88.78635 87.55472 82.38620 78.40402 74.24001 70.28180 62.57825 60.95411 55.95498 52.68477 51.70941 50.47162 42.57071 41.75567 36.88798 34.34396 34.21232 32.97277 28.74064 27.82674 30.12188 29.74622 30.08205 28.53334 28.15183 26.40756 26.07723 24.18672 27.24378 23.75783 23.82128 25.05615 25.47316
24.46102 23.57036 24.10700 26.13117 25.60431 24.87599 24.29942 28.17137 24.73773 26.62625 25.51624 27.93468 29.57476 27.23207 28.90596 30.11446 31.25474 33.98146 31.95203 32.99629 34.13332 34.78787 35.02390 32.47708 34.88548 38.33817 38.02638 42.54466 39.84782 49.05515 48.81018 50.48619 54.15944 59.80638 66.38628 73.94829 85.52209 92.88899 101.77733 106.19351 106.69037 107.07460 104.22480 103.29191 101.38646 101.78293 99.07644 98.56276 99.08019 97.88001 96.19633 94.95698 98.17860 96.52536 96.17177 97.45839 95.49312 95.44529 95.75550 98.41890 96.37697 96.73309 96.12917 94.35811 92.87210 93.61079 88.11767 86.01560 81.52993 87.79593 90.63045 90.74200 88.46356 76.02352 69.28490 58.28045 74.33575 83.52180 84.51102 77.27326 86.16927 94.51647 101.75648 105.34055 105.73861 107.52223 107.25546 100.13087 93.67964 84.99323 84.35868 76.84427 72.24201 72.76254 69.85338 66.83285 64.73546 59.69917 56.19911 51.80181 47.50660 42.80002 39.52984 36.86872 35.58113 34.02327 32.20876 31.87962 27.05621 27.72505 29.85120 26.92826 26.49686 26.12181 26.41640 26.01388 26.39024 24.85179 28.39240 25.74318 23.73049 25.82745 26.44569
24.83753 22.62174 26.18019 24.83722 24.03688 25.07722 23.51418 25.88798 24.90234 25.03029 25.32557 29.16468 26.90233 28.57861 28.52393 30.25607 30.71033 31.82061 30.87353 32.73228 32.20058 29.48215 29.97577 32.68322 31.81848 32.63562 32.45458 36.47558 38.97909 45.38519 45.68534 51.53549 59.50864 60.87112 69.26233 76.20870 87.15676 96.83600 102.75977 105.64540 109.48275 105.71888 103.99609 103.68032 100.26496 101.13922 99.18870 98.20723 98.32349 98.19373 97.53247 96.34040 98.25127 97.92305 97.43110 94.73657 98.30323 97.77400 97.26997 96.23107 97.17387 94.56416 94.99629 93.80990 96.61441 94.11211 92.33733 93.06975 87.04745 87.31072 97.51554 95.65648 89.37616 94.24122 85.08439 62.52561 65.40671 68.10332 62.18180 66.00790 85.38763 92.18491 95.18649 102.94623 104.35683 103.63368 101.64624 96.49856 94.28566 79.74416 73.35156 70.89163 66.25165 63.29136 61.73797 61.95450 58.59005 57.18176 50.50839 52.27249 48.85190 46.71056 42.62715 39.43487 35.72461 32.75466 31.34780 31.39513 31.77359 28.88691 26.24503 27.27200 27.50494 26.55684 26.90421 25.71763 26.15787 25.24536 25.57389 25.93244 25.29040 23.58376 25.54372
23.88276 26.01027 24.65610 26.44879 24.75018 25.38389 27.85665 25.61731 26.38000 26.68079 25.52097 24.95662 27.05356 26.97264 28.26582 26.19484 29.17420 28.12559 31.30671 29.33286 27.86664 29.68881 30.62923 32.89074 36.60356 37.37022 41.66180 39.87666 42.82066 49.53567 56.18738 58.75039 66.61763 70.09477 77.31584 82.78913 88.73184 94.98998 103.71385 106.20792 106.04026 107.93320 105.08247 102.88230 102.33917 102.44277 102.23465 98.76211 98.54012 96.82018 97.40337 97.85658 95.52145 98.58572 97.50395 97.02348 96.36900 96.19540 95.28347 95.97348 96.64776 97.96534 96.23779 95.54490 93.45895 92.63016 94.30558 92.74082 90.63295 91.57263 95.14101 96.24234 97.38660 90.46178 80.23644 70.31902 61.96143 60.78004 55.87006 61.02327 77.44467 79.56059 82.87665 91.52667 91.92365 95.74281 90.98125 88.61309 81.19586 80.34676 71.14706 64.84779 55.44302 54.69515 53.67161 52.95104 56.26684 50.66767 44.96770 47.30727 50.47009 47.23499 45.84113 42.24532 40.94083 36.68780 33.30563 32.25888 30.79942 28.40463 29.95613 27.87989 24.24897 25.59589 24.27300 25.84311 22.96439 24.16368 23.86054 24.88285 24.93879 24.84158 25.01666
23.79555 24.09659 23.51578 24.89995 26.30498 26.40874 25.26170 25.14066 25.30226 26.81028 24.68303 26.62737 25.18237 25.20293 27.80027 25.69308 27.73735 29.10047 27.24476 27.03972 29.00150 31.02063 32.33527 35.54947 39.84611 43.93932 47.72706 49.11905 53.87377 57.01384 63.65640 63.57337 72.44106 78.08484 81.86506 84.20545 92.86193 95.56316 101.43252 104.68385 107.19706 107.32011 104.82056 105.55025 101.65389 100.88292 100.02399 99.49013 97.38942 98.09551 99.20963 98.87299 98.40417 96.70793 98.44473 96.63299 96.93475 95.70463 96.91042 97.70117 96.78748 95.15644 99.33885 97.07264 94.65319 98.04415 95.49657 95.01828 94.55832 92.88396 97.86630 96.26254 95.42090 90.18026 86.58317 79.58032 76.87081 73.36122 57.95717 51.95231 61.95546 55.76537 68.05015 71.48033 75.74733 76.63018 71.18695 68.14841 74.33993 73.53859 69.48112 63.77930 55.69691 49.00379 46.46718 47.87007 46.14819 43.64309 42.72934 41.82885 45.08021 44.73710 44.55704 43.58641 41.98431 39.83749 36.04951 34.34621 34.09447 28.35240 28.37170 30.44066 24.19104 26.61388 26.05661 26.97603 23.28838 24.70050 25.22961 27.92185 24.52745 28.09124 24.87127
24.98719 23.93819 23.90661 27.08850 24.93619 25.47844 24.90604 28.00416 26.18006 23.39349 25.46131 26.09570 26.51263 25.90362 26.37796 25.98776 25.76730 26.76722 27.39423 30.86630 31.02081 35.96227 38.21438 39.45799 41.65672 51.59235 54.23112 53.53301 57.26311 62.81743 68.52910 70.22585 73.83507 77.36236 79.77864 80.15282 80.76021 87.34883 91.50837 99.97402 104.32651 108.12934 105.73073 104.23459 104.68634 103.37215 102.64863 101.53973 95.74897 100.11211 99.51200 97.70084 96.93716 100.11418 95.62164 98.24119 98.18362 96.60763 98.37597 97.39539 97.35337 96.03039 99.70216 99.55948 95.93519 98.50320 95.06652 95.64446 98.37271 96.83951 96.75725 99.00431 96.29637 96.06244 94.74208 92.02783 90.21677 78.22851 69.97512 62.20418 50.47271 45.74831 48.49742 53.79582 61.83223 59.25611 53.42143 48.80995 57.67866 56.76271 58.67777 63.89856 57.89597 51.50594 48.64701 41.76437 41.50023 37.76240 32.96734 34.24920 37.87074 41.39974 38.57143 37.59119 39.51570 37.37874 37.05407 34.95596 34.78470 30.28192 27.39666 25.87835 26.48402 24.92991 23.76492 26.87099 26.01284 26.86019 26.50514 25.42249 23.29000 26.41454 23.84314
25.81021 26.71570 24.02416 25.32941 24.90430 26.65830 27.33251 27.02308 24.70384 25.71198 24.85743 26.95305 26.12998 27.17332 25.63766 28.20003 27.99500 27.52281 28.04049 30.43400 31.62199 37.06211 42.76479 45.83314 46.58219 56.07418 54.17121 57.27687 60.46559 66.44292 69.39487 70.83913 74.92095 70.83708 68.98522 66.74010 72.43098 78.25625 92.63167 99.80317 102.32978 108.01073 108.57730 106.51714 103.81860 103.23137 104.19244 102.19389 99.56834 97.64479 99.23502 97.90066 98.11529 97.88280 97.06802 97.39598 96.01780 96.39167 98.08054 98.11934 97.03461 99.05841 99.10787 97.20991 97.34881 95.41150 99.24366 92.82787 98.69591 95.60747 95.46886 99.78032 98.19060 96.61257 99.34283 97.10530 95.62937 91.03604 89.00006 76.20766 61.30194 57.62769 55.38912 52.66216 42.75746 37.45246 40.72030 33.64742 34.20298 36.06335 46.80640 51.06031 49.43549 50.51956 48.92459 42.24788 34.98062 35.48780 36.03035 29.78510 29.66216 33.15700 36.91464 36.03654 38.50000 39.11722 37.59611 35.01571 32.45148 29.79251 28.34526 26.48284 25.22143 27.08984 24.16639 25.63803 25.21406 25.18447 25.94477 23.16765 26.03044 25.23568 24.80806
25.40381 25.27578 24.98751 26.66173 26.61698 25.84083 23.42061 27.53428 25.40154 24.72590 27.29446 25.79582 26.59463 28.49633 24.99199 28.48562 29.06517 29.48325 30.77221 33.76491 34.35194 37.87290 39.37010 43.93932 47.45047 50.25714 58.05402 60.75337 61.34323 62.31433 64.18629 62.38023 64.71952 58.93199 57.81105 65.89308 71.07950 76.36064 87.98407 97.44205 103.18741 108.33191 107.08587 107.80006 107.72114 105.38729 101.69044 100.24754 98.90619 99.48521 100.74039 98.20735 97.73297 96.74903 96.15844 95.69021 97.71112 96.65074 97.22609 94.02950 98.07676 96.88286 96.72449 97.66082 93.68836 97.81451 98.74491 98.25775 97.22084 95.47265 98.43992 98.59098 98.04974 96.21041 98.45446 99.89349 100.09220 99.29122 92.66903 83.17871 83.51084 81.99533 74.18752 73.23546 70.71991 68.37427 56.68460 44.91070 43.99381 37.12770 34.37656 36.85251 36.11077 35.92734 43.20485 46.20577 40.40055 36.96948 37.56123 29.83145 33.21802 30.46443 29.00443 34.24201 36.46366 34.07056 36.10642 33.71619 32.99781 29.18254 31.33604 26.07080 25.71197 26.87097 23.66993 24.10579 23.64365 24.87643 25.08930 26.33526 24.19711 24.41517 24.97069
25.98329 24.92538 23.41075 26.08306 24.85832 25.98606 25.62040 25.81207 23.12930 26.61306 24.24738 24.48434 26.39594 26.41555 27.53241 32.26421 31.99831 30.56059 29.90988 32.47238 35.88206 34.79421 39.70831 39.43625 43.98909 49.75582 55.73295 56.19606 53.71179 52.45788 56.04915 53.85746 51.34734 51.50983 51.89606 61.38085 67.74018 82.42338 88.40000 97.88727 102.55971 103.66052 105.90217 107.41888 104.37366 104.14368 103.50560 104.49745 100.86627 100.52130 100.59733 98.84369 99.55081 99.16038 96.18197 97.74447 98.70691 96.91044 98.13690 95.75828 97.08101 96.48168 99.62275 97.12624 95.97269 97.00099 97.01666 97.22738 97.41382 96.50902 96.49417 99.18609 95.15754 98.70429 98.99766 102.10839 102.48077 102.65465 98.92121 97.13367 94.87873 94.84600 90.28644 90.93238 91.27530 77.29827 74.58053 63.02130 59.40039 45.35692 32.74707 28.83422 29.10983 34.11131 36.84858 37.07111 38.71135 35.51975 34.57764 28.89911 27.05833 26.10392 28.38821 28.49876 29.19708 33.59066 34.04032 34.39777 30.01951 29.74152 29.39117 29.78700 27.66860 24.34859 27.25811 25.38359 26.98811 24.00155 27.77375 25.77467 26.84527 26.35322 23.69397
25.20867 23.86014 24.98748 22.92635 25.10577 25.66686 24.16351 25.67726 23.15589 27.25938 24.81001 27.46897 28.33201 27.48853 29.18202 29.16337 30.25796 29.17875 29.91185 28.54956 32.24756 33.78587 37.34869 40.53567 43.55169 47.70210 50.24345 53.12581 49.03008 50.22662 44.04538 43.98372 47.70350 51.82288 59.24545 65.78522 74.02587 82.44070 92.03406 93.05695 98.43575 104.17458 106.60896 110.29397 107.88554 106.59255 105.29079 103.24278 103.44218 101.24822 101.99694 100.81026 98.89856 100.59052 98.01707 97.34272 99.67125 97.70562 97.17887 99.15694 96.66354 96.48553 101.25985 98.81272 97.31713 95.27648 97.34591 99.81303 98.89569 99.98305 96.13623 100.20452 97.05946 100.77646 100.59190 102.11424 102.26234 101.87274 105.57642 102.05175 102.13977 104.63934 103.55916 100.21012 97.32747 93.56887 87.87900 74.65526 68.32488 51.47786 43.36568 38.27243 36.20036 31.64579 30.59851 32.10530 35.08951 32.12911 29.88224 29.28996 27.36021 25.55308 26.05816 27.18980 27.98466 30.62079 29.35385 31.74338 30.51950 29.08784 28.04503 29.31768 25.61474 26.25353 27.30905 26.85562 24.04870 25.33932 25.07005 26.91721 24.42805 26.57809 23.85395
22.68132 24.97956 24.50023 25.18598 24.64238 25.40543 25.57006 26.11000 25.97447 26.00884 26.90684 27.12599 28.22765 25.97525 27.75261 27.95680 27.87793 27.74220 29.11801 30.11890 30.32575 33.20231 39.50319 42.79779 46.88144 45.75061 48.88058 46.25039 40.51273 41.30493 39.45353 40.62390 49.83674 55.56291 63.75943 70.59706 75.36027 85.05261 84.46938 92.43646 96.47852 104.01259 106.28297 106.69156 110.29047 108.17328 105.65327 103.59942 102.90796 102.08670 102.42296 100.05801 99.78788 99.75131 101.82813 100.06869 97.08396 98.15383 96.63474 100.75743 96.65107 97.27148 97.15524 99.35024 97.81091 97.06958 95.89297 98.15182 99.15838 97.45584 95.97324 100.90660 101.93694 100.39078 101.71131 101.45287 107.22246 103.04596 103.42591 105.62661 107.37825 107.89556 105.59903 100.07505 96.03900 91.55692 85.38341 78.88027 71.39404 68.56695 56.57278 52.16320 49.62554 40.66101 37.07786 31.60329 26.19065 28.05358 27.11153 28.10989 23.88013 26.20121 26.03372 25.78145 27.36316 28.22486 25.86181 28.60037 28.99957 29.43881 27.93007 27.02433 26.48692 27.59940 27.26555 25.90131 24.17157 24.63939 23.16727 24.33282 25.24364 24.55423 27.13189
26.07218 24.05655 23.86527 24.19680 25.22101 24.63654 25.86985 24.08219 24.96903 26.70179 26.74321 25.36367 25.49870 26.24546 26.83832 27.85911 27.34610 25.69270 27.34877 30.68067 30.86531 38.33332 39.48314 41.10441 46.15897 43.25559 41.55314 38.14238 36.66824 37.28725 42.86064 48.68433 54.65125 63.27042 65.96757 72.08748 77.20038 79.50727 79.49700 79.70075 91.54404 97.81938 107.24231 108.64867 106.74746 109.09557 107.51666 107.58633 104.73597 104.44891 100.12553 100.37015 99.96834 99.29427 96.88992 97.28483 99.41452 100.45259 98.89138 98.15045 101.30394 96.21997 99.67305 98.37361 96.99163 96.92781 100.67323 98.98901 98.80348 98.75904 100.08263 100.01994 100.43467 100.81508 103.46141 103.21458 101.41696 103.73202 107.72472 109.43749 110.56006 108.08294 99.50599 98.84269 91.45866 86.72694 83.40407 77.91161 74.60720 66.19383 65.36925 61.12002 57.63000 51.35826 45.26901 39.70992 33.66453 28.99208 31.73377 29.81604 29.62031 28.12685 29.58977 25.71865 24.15001 28.40118 26.56832 28.54283 25.90687 26.59001 24.77902 29.19939 26.46606 26.63553 25.77359 24.65337 25.18028 25.23107 26.31089 25.60463 24.35740 25.89227 25.62716
25.31763 25.31080 26.52680 24.83252 25.50944 26.07862 26.32155 25.73297 24.45935 26.06230 26.43221 27.41591 27.51920 24.75436 25.35597 26.02902 26.10588 28.21994 30.92286 30.57717 33.70413 37.30526 39.36971 40.70642 40.65662 39.37208 37.64525 36.45615 36.74780 40.83376 47.16635 51.80762 58.93267 65.03371 68.67966 72.81671 72.28974 71.09699 74.45847 79.79270 86.49500 95.81256 103.91978 107.74721 108.12959 109.01535 107.97760 107.12092 108.33881 104.93229 105.95462 103.24036 104.27373 101.70455 98.68612 100.54481 98.35725 98.13853 100.01989 97.63890 97.56004 98.36990 98.42232 98.61551 99.75408 98.56095 97.28153 101.68112 98.48948 99.20231 99.97674 100.12117 101.70984 103.92941 106.15707 108.98466 106.47455 105.77248 106.93667 106.76005 105.99955 104.19102 101.81636 95.95896 84.32923 77.03645 74.14675 68.39839 68.70454 65.05613 65.28975 63.02043 59.80489 57.07820 50.81471 38.77352 37.63514 38.08032 37.82534 35.46198 34.60971 31.34471 28.03139 28.35983 25.60879 24.91926 24.73290 23.90440 24.46811 24.62458 26.06339 25.35064 24.91827 25.79263 24.96490 25.51392 27.02410 22.80152 24.24510 27.16776 26.03196 25.46318 25.08782
26.65739 24.80387 26.14251 26.09554 24.43764 25.56406 22.54406 27.43242 26.37633 22.66849 23.93934 25.52384 27.65172 27.92618 26.42830 24.21197 26.92132 28.54114 29.48034 32.04721 35.32501 34.80010 36.67160 38.26196 35.71594 33.59096 31.36595 33.17023 36.77196 42.16247 48.76122 51.31046 59.29920 62.21015 61.15737 62.30451 62.48836 65.88726 74.54978 83.59038 90.47949 93.31245 97.49979 102.97242 105.39436 109.52509 105.84089 108.34239 107.08315 107.85922 102.85229 105.99307 104.03944 101.06400 102.30687 103.14324 99.49153 99.86626 99.96361 102.94907 100.26982 98.00876 101.43746 101.11861 102.08714 100.58471 101.14150 99.50912 98.48764 98.14218 104.12915 104.63481 101.68191 101.89199 103.90690 106.09684 109.34353 109.76168 106.24792 108.70540 103.13354 99.57399 97.67611 90.61651 82.93134 74.32554 66.35252 62.71288 60.27964 58.18065 56.46355 59.46301 60.39681 57.76541 54.73643 46.48874 42.63230 43.37381 41.33715 41.22700 37.81362 36.20330 33.47042 29.21986 28.37598 25.91409 25.64745 27.14233 25.56148 23.85251 25.42558 25.18185 24.77787 26.13327 23.64835 23.24269 24.48509 26.35219 25.29978 24.93177 27.20479 25.02792 23.20368
25.27311 25.08438 25.93770 27.20886 27.21463 24.35851 24.56503 25.13970 25.74485 24.58721 24.96227 24.59857 25.48445 25.82002 25.21981 27.05688 26.07604 26.91838 32.68383 29.93447 32.93420 33.33670 35.39710 32.85181 31.69305 29.37903 31.49884 34.32752 41.63534 42.02929 48.26608 50.40378 50.13647 54.98769 54.38815 55.77402 62.55146 72.92020 75.65852 79.25658 84.00470 88.72142 93.48746 98.23192 101.07305 103.34109 105.54084 108.67271 108.80036 107.81031 107.58626 105.75443 103.06488 101.67635 103.94431 103.13221 101.59718 100.82427 103.93692 100.96537 99.15776 99.66847 101.36451 104.44514 100.99293 103.27324 99.79295 99.33259 102.35958 100.83331 99.73517 104.09490 103.59942 103.65211 107.86605 106.68046 107.59024 106.63325 101.62047 98.99282 101.14371 93.45789 90.10390 86.50470 84.88926 75.05647 63.55626 55.53194 51.94463 54.65350 51.02850 51.04817 55.02554 53.03340 56.18059 52.83652 49.24484 47.92077 47.75419 45.71753 42.11560 37.47486 37.75491 34.55851 30.91479 30.68596 30.58904 27.50267 26.45408 25.85989 28.29730 25.50757 24.99255 24.77280 25.99852 24.68630 26.28597 26.03472 24.20227 25.42873 24.27389 23.94751 23.50355
23.89290 24.54601 28.74130 24.37862 23.86411 23.25014 27.94833 26.51261 26.77606 25.00918 24.19857 26.72232 27.08166 24.46411 27.39234 27.06609 24.47786 27.70523 29.29631 29.11174 33.60685 32.58017 28.29623 29.03485 29.59707 31.12221 32.51047 36.34274 39.77379 39.73843 43.82054 39.71599 46.21474 46.94134 54.13491 60.27088 64.49769 75.19701 73.16623 71.46581 76.37465 81.18567 84.38153 93.51412 95.74737 96.60785 97.87856 105.83162 103.33650 108.39243 108.98176 107.25753 103.94344 105.65627 104.10381 101.39820 103.60609 102.12823 104.34397 104.81476 102.87741 102.45171 103.90071 103.76264 104.15343 104.91043 104.88260 103.58513 102.42043 104.50844 104.23467 105.42359 106.31721 105.46650 107.43976 107.02343 111.26542 105.75633 102.68146 99.24691 90.94665 87.03102 85.04732 81.05397 76.98967 68.95249 63.82503 52.65521 46.91545 46.88852 46.25642 45.01134 45.77553 50.09789 53.36559 51.11113 52.81644 49.99884 51.17324 42.46201 42.74085 37.32424 36.59798 35.40053 32.49460 28.39432 27.96120 26.92458 27.48234 28.06993 29.50213 27.39540 26.23566 25.11485 25.27835 24.21155 23.22648 22.75522 25.13575 24.99342 26.21606 24.67474 23.74805
26.39586 24.66587 25.32491 25.68207 25.68574 25.56125 23.17227 25.73413 26.54993 25.69254 25.04253 26.46085 24.73218 27.38377 24.57839 26.31862 26.63999 24.85860 27.52054 29.68035 29.35822 28.60313 27.24321 28.83444 30.66279 34.03221 35.49882 35.90877 39.66993 38.55616 38.61813 40.51467 44.37845 50.67827 56.57340 62.06197 69.17226 69.06705 73.28557 65.72002 66.77253 76.66806 82.47948 90.53401 90.73446 87.05094 92.07629 94.00340 97.43133 106.73463 109.54159 110.23406 110.48888 107.06137 107.19097 103.53610 103.30732 105.98834 103.70145 106.63606 106.58210 102.53235 102.85737 104.84281 105.72860 103.70211 104.83325 103.10346 103.83951 103.76579 108.01260 108.46099 106.40644 106.73647 107.03304 107.37134 106.41033 105.03170 99.12276 89.64324 81.19291 76.02678 75.54069 76.96893 76.36577 66.61522 58.99226 51.25020 46.56301 43.78702 37.85106 38.18088 37.52407 39.75382 46.69188 47.12004 48.74865 50.53112 44.76243 41.84663 36.69010 34.79371 34.76532 31.58632 30.26764 30.51413 27.24520 26.33273 25.23410 28.35179 27.30461 24.20972 27.25934 26.36989 24.82187 24.42730 25.43250 26.60411 24.49337 25.95924 25.58658 22.69602 25.40966
24.93500 28.33847 25.05379 27.05576 25.36992 26.65399 25.73734 23.76722 25.74871 24.04082 28.32645 26.22728 22.98917 25.48755 26.56744 26.54685 28.92577 24.21005 27.50482 26.91134 28.64706 26.61293 26.10235 29.75996 32.24572 32.64949 33.74138 33.35853 35.82462 33.14601 38.10580 39.13340 50.30496 53.11009 57.35821 67.46952 70.95144 66.49945 63.09131 60.96495 69.88778 78.22875 80.55239 78.85800 73.31679 74.16181 84.94850 84.11349 91.87009 100.69320 106.61910 108.80863 106.42079 109.49410 107.90370 106.55171 106.60021 107.66328 104.64903 103.97645 105.27373 105.43059 109.60281 108.00334 106.65833 105.49041 105.06257 107.59103 105.87676 105.55905 104.87074 106.30420 107.26625 107.69146 106.41014 108.51581 104.37137 99.99978 97.24548 92.12472 80.63145 72.42240 66.33436 69.61871 69.84278 67.44101 61.72380 54.58022 48.86275 40.72921 40.20504 36.39435 35.86014 36.97455 38.20762 43.55586 45.75626 43.60729 42.83427 40.99507 35.18547 35.00875 30.42975 30.88433 32.20918 27.31511 26.67366 29.03318 27.57699 26.21429 25.41616 27.50232 26.70133 24.87411 25.91566 26.24089 24.40603 24.46170 24.59732 23.57843 26.64755 26.53632 25.22946
23.64705 25.10612 26.93088 23.23985 25.89906 25.92225 26.59391 25.42760 24.79458 25.53129 24.15485 25.49984 25.91072 26.21399 26.39249 27.47810 23.87552 25.15406 25.17343 26.09443 25.14538 28.28662 29.27694 31.83367 32.83495 30.90064 30.23182 31.01332 29.99713 32.67465 39.54011 43.05729 52.57907 57.20970 61.41878 60.90322 56.22493 54.77583 57.17208 57.62033 71.39352 74.68592 72.23726 68.66626 64.78098 64.59377 73.77548 78.51874 85.73390 94.83213 102.26599 104.83727 108.62622 107.97982 107.03164 110.68619 109.77285 108.08156 104.08548 106.64868 107.93713 109.07154 108.31203 109.17744 109.06275 108.50278 107.89627 105.19611 106.62792 108.31804 107.43837 105.68667 107.07831 106.90287 104.32712 103.69572 97.80439 93.51518 88.09478 83.82987 79.94112 70.02832 63.38909 61.44435 65.82761 64.65206 62.45811 61.27452 53.12714 50.86798 46.49551 38.33537 34.52601 33.24804 32.47865 36.98218 40.17107 44.98764 41.71865 39.35970 35.92279 30.78872 30.30076 29.99940 26.97983 26.93769 29.97325 26.99137 27.12913 27.89783 26.13367 28.01212 25.42187 27.86611 23.20759 25.13360 23.95979 26.62839 24.83607 24.80813 25.86451 24.50959 26.95090
26.92380 23.08139 25.62146 24.78831 27.31693 23.54110 27.51745 24.95470 26.76181 25.68561 26.30930 25.69643 26.34603 23.49591 25.80883 25.55278 25.97499 27.59353 26.12225 26.67251 27.91210 29.09856 28.12113 27.40218 29.26347 28.85041 30.31417 29.71416 36.44399 35.91566 43.02351 45.44442 53.37921 56.94996 57.48429 55.98276 53.52733 51.27850 57.60081 65.09280 71.23293 72.09954 68.82402 62.44121 53.94951 59.64334 65.65552 70.42242 79.71249 87.80164 98.88696 100.67553 104.10065 105.57671 105.57658 109.26792 111.27737 108.78891 110.51500 108.80420 108.46809 107.08736 105.98484 106.20864 106.60875 108.10985 108.70283 105.12703 101.71870 104.54798 102.54624 102.13152 104.06693 98.99825 94.81539 97.84531 96.82417 92.31278 85.53899 78.35758 74.68634 70.79540 57.21591 58.48542 59.82455 58.64117 61.37689 58.69343 56.15471 51.37699 44.36424 39.74950 38.00896 31.42703 31.76624 31.77044 36.39506 37.81377 39.08403 38.77451 39.43075 31.17780 31.75850 28.24716 26.89209 27.69871 26.32423 25.65314 26.51597 27.29199 24.42493 24.47721 26.25988 25.06633 26.53018 26.14031 25.12910 23.54100 24.79140 25.57827 25.83382 23.04147 21.93241
24.20672 27.34413 24.58681 24.35541 25.19984 24.39784 24.96069 24.73208 23.97486 27.77859 24.74827 24.48030 25.42225 24.81819 27.77126 26.43408 25.69181 28.56001 28.84528 26.61840 29.36823 28.03865 26.95805 26.88344 27.74536 30.43066 32.45931 33.09911 33.90389 41.47181 45.92159 46.16721 54.97793 52.94968 50.20223 49.51548 44.21065 48.38503 53.38373 64.39753 66.98269 66.96510 64.13739 59.97474 50.96563 51.36341 60.31513 68.37999 77.45259 92.73708 94.93883 93.86237 94.71620 99.53179 102.69697 106.26414 106.49255 108.17914 106.49442 110.46898 105.64771 104.51462 105.81866 104.17763 103.02886 106.18231 100.17687 101.59763 96.98518 97.60533 90.83977 92.20989 94.05268 94.48520 89.24799 88.29011 89.40660 87.10218 82.64741 71.44525 69.43882 69.51471 57.32209 52.62628 54.37762 57.18459 54.85391 55.35714 52.48953 50.95665 44.06383 39.41374 37.80458 31.41736 30.50843 33.22944 34.82055 32.74797 39.28084 36.73327 38.37854 35.83962 32.05149 31.48131 28.73115 27.21780 25.22553 24.64225 26.24505 25.67328 25.43707 24.43962 25.34900 25.57989 23.96650 25.08982 25.03318 29.12227 27.75403 26.99881 25.83432 24.75248 24.89540
25.62511 24.91329 26.67358 25.45671 25.41312 26.48285 26.38052 24.71050 24.59625 26.49583 26.82425 23.96531 24.79379 25.30289 28.48939 25.34493 27.99550 26.18831 27.82164 28.16600 28.24334 26.34906 26.80309 29.00529 29.43948 30.40942 32.15937 35.65651 38.80097 45.25996 44.64450 47.27603 47.44259 47.42694 41.18874 43.23414 41.76432 47.62354 57.83698 61.63151 60.42602 60.92650 55.20244 48.44559 44.46414 52.51396 58.36749 72.12110 82.14326 89.14999 90.56404 88.06007 89.07384 93.23523 97.20203 101.99902 102.78766 101.92799 101.90189 100.56065 99.07046 99.39781 93.85693 96.96351 98.11871 98.32071 95.49406 93.08429 88.26898 84.71177 86.85045 83.10161 79.02909 86.27779 80.11518 80.06344 84.85723 84.46925 82.74774 68.08152 66.86026 62.43760 58.52721 50.12996 45.75807 48.48195 45.32059 45.17689 45.20685 46.75110 43.11942 42.48498 34.36568 32.18184 29.90672 29.62223 27.93841 32.40122 31.79417 34.09059 34.74689 35.91402 33.50745 30.86491 30.22820 26.76762 25.71444 28.12932 28.58414 26.25807 24.31357 28.74847 26.19438 26.32601 25.69769 27.61567 25.85229 24.55204 25.66911 28.21855 24.95855 26.04362 25.31338
27.65927 27.61979 25.42452 24.06623 26.14313 26.16733 24.68088 26.97704 23.33709 25.01365 26.81066 24.74137 25.89133 25.74815 25.21824 25.93641 26.68520 26.45292 26.95191 24.12314 27.43265 25.28267 27.25248 29.54460 29.73405 31.88749 33.67226 35.24273 38.91390 42.46492 41.86769 44.03309 41.50595 42.08531 36.80677 39.72150 43.36565 49.91060 54.33298 56.85027 52.55520 50.67927 49.74921 44.07512 44.67643 52.05659 57.19952 72.22404 78.14005 83.08754 80.66108 78.14951 86.13137 86.83193 90.50554 93.76183 93.88199 93.74758 97.68903 97.93651 92.47310 87.94871 86.50298 88.26780 91.96411 89.70852 89.16881 86.19678 81.18236 76.23549 74.55515 72.14529 75.56747 74.16634 74.73572 68.47658 74.11715 78.45321 77.38658 72.09264 62.51694 61.11008 57.69969 53.39772 47.16395 43.84415 41.10357 38.87731 37.43374 39.73570 42.27120 42.02495 38.90177 31.66269 28.52762 26.80677 28.79651 26.24202 28.65540 32.56225 32.63333 32.15357 33.07608 33.00379 30.25789 29.52012 28.41387 26.78852 26.69375 24.42144 25.73201 26.75217 25.91806 26.28555 23.82240 24.71400 23.58716 27.09037 26.41816 26.92246 25.16338 25.24684 24.40485
24.21156 24.41467 27.41244 26.47784 24.68091 24.55382 22.79205 24.87509 24.61464 26.70944 25.43423 23.27636 26.03332 26.30709 27.33563 26.56039 26.87303 27.30400 24.96384 25.50112 25.29085 28.07962 27.04856 28.89139 31.23079 32.23873 33.94969 35.43034 36.26702 40.41648 37.61967 36.47215 35.60324 37.30353 33.70009 38.42035 43.23387 49.67489 56.49648 49.76569 43.79027 42.46852 41.90310 41.21675 46.48789 51.60070 61.42952 65.69939 75.00026 78.77186 75.76756 72.32247 74.41516 79.84261 85.81264 88.15398 90.15278 87.42629 89.84138 94.77071 89.52027 77.89502 74.90574 76.18251 87.42948 86.43935 79.33723 76.22119 74.91322 72.11245 67.03754 61.26234 62.42807 62.32896 68.24684 63.20934 67.71748 76.67170 75.68750 68.82874 65.79941 55.20636 48.62502 51.31800 50.49615 49.55506 41.43910 38.41981 36.17142 38.50938 38.25233 40.91168 39.30822 31.42296 32.55033 30.71056 27.07792 27.03276 30.42983 31.12526 32.25899 31.99558 30.84400 30.27627 28.95871 28.68440 25.20913 28.72743 26.87246 25.81850 23.82086 25.02557 25.78584 26.10271 23.82531 22.96545 25.88575 24.78757 23.50003 25.28395 25.04260 22.83155 23.96733
26.07034 23.94533 23.83189 23.87876 27.19673 24.01437 23.49187 23.00523 24.95540 27.48295 25.27866 25.60513 27.91641 23.99977 25.94654 24.35464 24.99073 25.98307 24.13098 27.98902 26.81518 24.14764 27.05088 29.17800 31.41002 31.29614 31.61167 33.80220 35.44792 37.48992 35.70634 33.20472 31.35541 34.89464 33.66021 40.18690 48.51347 50.96597 50.40642 43.44467 42.53252 36.40808 38.27089 40.17584 48.54714 56.34235 61.94600 68.09925 71.65694 72.97949 72.10042 66.05187 70.40972 73.73187 81.58297 80.89127 79.90898 80.94105 83.40336 80.93744 84.19769 73.95489 67.83549 69.41051 78.17513 85.26276 77.77970 65.62319 64.00238 61.79830 56.45548 56.19361 53.65506 60.97563 61.83557 59.86610 61.39322 67.67137 72.70585 68.12166 63.09147 50.80886 46.48485 47.34613 47.39340 47.19066 47.68186 41.95217 37.33562 33.82772 33.85870 34.86881 37.70533 36.28331 34.07444 31.05260 29.24325 24.89886 28.29513 30.10832 26.38431 27.56475 29.19334 31.48359 28.24801 27.86316 25.32613 26.88464 26.38905 25.99232 26.61333 25.26522 26.65710 27.29616 27.15534 25.48914 25.68807 24.46855 25.99505 26.10074 27.35260 24.44800 26.91860
26.38353 26.63219 24.26278 25.20023 26.67671 24.70113 26.11877 26.70624 24.12386 23.77222 23.84360 23.30609 25.17115 24.36636 27.87251 25.62865 25.82923 24.81001 24.58002 26.53109 27.14960 27.58688 28.59716 29.07133 29.44287 30.68973 29.30550 34.02549 36.12292 35.46690 33.41199 32.33061 32.08543 31.82200 39.18573 42.50553 48.26104 47.58105 46.80119 36.05023 34.94980 36.65240 37.06474 46.33200 50.70862 57.95579 63.06458 63.09847 63.30590 66.82030 66.12899 62.84025 64.69186 71.48754 77.04400 74.01474 73.05656 74.86887 77.94699 83.49756 77.30938 71.32849 63.54385 63.35818 74.50485 77.14318 75.43801 63.69616 54.30514 56.97013 50.67683 45.21107 46.35648 49.76167 53.12847 53.67714 54.27051 61.31014 67.12512 67.49467 60.58248 53.28714 46.20541 39.56362 40.14177 45.20860 46.47356 43.32355 37.90400 35.28750 31.06831 31.07004 33.05730 31.74398 31.76415 30.56386 29.83998 24.89958 28.22294 27.64604 26.11758 25.91595 26.26529 28.43693 28.44814 28.50191 27.89094 27.48502 27.14294 24.90762 25.53359 24.42956 26.01958 25.88585 24.55137 26.53178 24.13248 24.15331 25.63911 25.00991 25.24948 24.38368 23.05681
24.90137 22.84562 26.77558 22.91514 23.56795 25.31602 24.90182 22.86430 24.40752 25.40547 25.47061 24.90351 26.40856 25.09047 26.64115 25.20030 26.33382 24.87252 26.04099 25.31725 24.98103 27.77051 27.38954 29.48532 29.63931 27.27284 30.62629 32.36598 33.74407 29.19618 27.63366 29.34522 30.44228 35.41941 39.21699 42.70221 46.98702 43.10906 36.96812 33.36558 32.78996 36.32201 40.47454 48.21128 54.81904 57.65303 58.41047 54.16712 59.55274 57.47368 57.06622 59.02078 56.66732 66.15574 69.98666 66.58677 66.42571 67.30786 69.23694 76.49051 72.70701 63.32445 60.58595 60.07729 67.85437 71.23649 72.12959 60.49007 50.84571 46.25212 39.35661 37.39567 42.89822 46.92228 41.53390 46.02792 49.17624 60.27798 65.42459 67.44931 62.43466 51.79415 47.28976 40.02547 34.92992 40.87412 43.38806 41.48285 38.01150 36.71640 31.07844 29.28467 29.13194 29.64670 32.57032 31.14802 30.76036 28.47554 26.65003 24.12955 24.85321 27.67701 25.96927 24.95755 26.54990 26.69957 26.17830 25.02695 26.80108 25.01752 23.36048 24.78322 26.11431 25.69509 23.71459 27.08617 23.84626 22.45650 25.02907 27.15108 26.39155 25.50328 23.58314
26.35905 25.90808 25.80057 25.58837 23.62983 24.68566 23.49658 28.29122 26.12983 25.78282 22.88651 26.64391 25.34261 25.23084 23.55413 25.85993 26.33056 23.94798 24.65612 24.40267 26.84698 28.25581 27.29793 25.55791 27.96508 28.78538 29.93274 30.60720 31.24007 30.61445 27.83932 29.58732 31.69779 34.04106 39.65968 39.10825 39.82816 38.83395 36.34051 33.52486 33.61927 37.12508 44.66005 51.50732 52.45871 52.25514 51.25576 46.10622 51.76274 51.16021 48.79568 50.56089 54.89712 60.67590 67.26864 62.53662 60.01343 63.21230 63.16307 66.05609 62.91371 55.74662 51.63335 51.61702 62.92243 62.46396 68.53180 59.51318 49.16202 46.06048 39.13830 35.78712 35.94916 39.45193 37.67938 43.26783 50.38039 59.64933 64.98441 65.37657 60.98866 50.98442 42.24073 38.83885 35.25259 35.81770 39.18182 42.45521 40.70740 39.59385 36.67099 31.63717 26.44322 26.57588 26.24318 28.73078 30.46457 30.18951 25.08692 26.49453 27.65538 25.30005 26.53683 25.24104 28.38727 25.17584 27.41401 26.04104 24.88090 25.04073 24.65457 24.40005 25.83166 27.31730 25.60867 26.11035 27.78080 26.73888 26.58835 26.66278 26.37275 24.70465 23.58406
23.57037 25.24241 26.80489 26.37271 26.44107 26.92576 24.07878 24.02461 24.99048 25.07403 24.04507 25.91956 21.56461 24.00717 24.29146 26.98564 24.85360 25.53144 26.42264 27.89455 23.97095 26.66616 25.58278 25.69404 28.13742 27.41997 26.73034 30.97457 29.73893 27.79145 26.20354 28.19160 31.94924 33.49705 35.16129 37.08592 37.59498 34.23567 32.75502 30.72638 32.47393 37.88666 41.07578 47.29905 51.77094 48.44379 41.46135 42.12349 48.11542 45.48877 44.02692 48.78746 57.15891 62.57043 63.24321 57.17085 54.16009 56.35921 61.51292 56.37307 60.24605 57.05873 51.23053 45.97510 53.35837 60.21087 63.53314 60.34126 55.21424 46.77478 39.06034 35.12312 33.38030 32.30050 34.16768 40.89896 51.63388 55.57235 63.52040 62.90475 57.95481 55.85982 46.29294 38.48918 36.83904 33.27565 35.52761 40.04709 40.35945 38.09697 37.61963 31.35280 31.38256 27.38746 28.57268 28.30834 29.86068 29.52580 30.02017 26.92668 30.30095 27.57861 23.94255 24.20668 26.35170 26.36088 25.36711 27.60914 24.77014 25.19625 27.22236 23.87686 23.39604 23.85214 22.49486 26.26013 27.52377 26.41865 23.28609 25.83964 26.49495 25.46694 25.73610
24.79446 24.06577 24.41693 24.76717 26.33733 26.54175 26.00857 23.74788 25.98989 25.58163 24.00678 23.04561 25.86620 23.88432 27.17960 25.51220 25.23664 26.21607 26.19939 25.21564 25.03375 27.59663 25.83428 27.47501 27.66156 28.41050 29.18401 29.75933 25.73142 28.24276 26.83434 31.35886 36.82171 33.22379 33.32349 32.90441 31.23404 31.76469 29.09676 31.78536 34.28276 37.99271 42.56309 46.76623 48.86152 41.64711 38.13916 38.98849 37.27360 42.82593 38.53647 43.55714 52.93873 56.13961 58.74720 52.23542 49.82578 56.59556 57.78392 54.25303 50.57304 49.08739 45.10140 43.81523 52.77231 59.63551 64.99418 65.09329 53.35316 46.25982 38.11199 35.68483 32.84050 32.95980 36.65653 43.07244 47.59779 56.41952 60.92989 60.59074 58.75524 55.26104 47.30543 43.47974 36.94308 30.82972 30.91538 35.77319 33.51631 38.17909 36.85135 34.04177 29.92496 26.98803 26.66290 25.21792 27.30220 29.84052 26.87960 27.63117 27.71257 29.58827 25.37375 27.13927 25.60115 25.38980 23.50520 25.03883 26.21224 24.72798 23.80559 24.81888 24.47169 26.00662 26.15621 23.73590 26.03315 25.29039 27.06098 25.39341 24.75853 26.57209 24.90107
26.04032 25.61470 25.71750 24.92891 26.66801 25.71326 24.46909 26.36194 23.61512 24.73114 27.38935 23.86470 24.31570 23.72623 26.22433 24.46993 25.23871 26.59601 24.36047 26.94115 24.11199 25.68461 27.59205 26.48940 27.18343 28.90325 28.74129 27.82181 26.92458 26.15361 28.17237 28.94646 30.05627 34.41267 32.33884 28.88023 29.06789 30.99315 29.18570 33.41676 34.24385 39.32197 43.37064 45.68382 41.82763 36.43352 34.81256 34.81164 37.80339 35.98858 41.09680 46.94595 52.65891 56.67285 55.68797 49.27122 43.59552 50.40107 55.59564 52.79229 50.35349 40.96673 38.86664 40.64405 44.01036 52.75868 62.47925 64.21999 57.08941 49.29410 37.63322 38.47738 29.53260 31.47766 37.05329 40.71553 44.87181 50.28531 52.84880 55.64205 55.25486 50.19864 45.94050 41.56864 35.22845 33.74212 30.23910 33.29081 30.81592 35.93105 36.49354 36.89007 31.19226 25.31052 25.02567 25.28445 28.46371 28.16920 31.06721 26.48075 28.24416 26.44202 26.11321 26.63147 26.48040 25.37805 26.70881 23.95850 24.72596 25.59784 24.30473 25.34119 26.26463 26.59930 25.13143 24.96138 25.22818 23.65361 24.73226 26.49055 25.40587 22.90108 26.84925
27.29613 25.57218 26.73438 26.81344 26.96842 26.04607 25.85775 23.95344 25.41995 24.41061 24.62894 26.92000 25.49191 27.79198 23.55718 26.77894 26.13571 25.84597 25.10725 26.61404 23.61763 26.46925 25.55539 26.23301 25.75164 24.87879 25.97916 25.00430 28.65133 26.97982 25.23814 26.87969 31.13942 31.52567 28.94898 29.07459 27.85198 29.48269 31.08046 32.65052 34.07698 43.56601 44.84872 45.27172 39.31353 38.30580 35.34733 35.44711 32.40158 34.24509 37.34645 45.58166 51.06313 54.56848 51.84989 45.34261 44.93088 46.58392 52.85225 49.65287 43.45592 36.14575 36.27909 37.59819 44.26475 48.87910 55.39117 60.13779 59.34093 46.62320 42.52792 38.28484 31.08865 28.73813 31.81092 40.56364 41.17261 46.39389 50.08166 50.51342 50.01675 46.14319 44.46807 40.85304 36.99481 30.33739 28.29563 27.80195 29.08413 30.47635 32.02686 34.70339 33.46093 31.74038 26.40911 28.10202 24.60376 27.35021 27.13642 26.50629 27.88573 27.83377 28.04163 25.33853 25.80532 25.42379 26.25779 23.51442 25.41814 26.86350 23.60838 23.33318 25.29063 26.24757 25.20919 25.08953 23.43488 25.52314 23.74664 26.46841 25.70701 26.56877 23.28759
25.45671 25.54383 25.08216 23.84200 24.63519 23.46863 25.15969 26.38361 27.16560 25.34111 24.39271 24.45375 26.05644 25.49683 25.56233 26.44778 26.52125 24.65046 25.01151 24.30427 25.28058 25.21806 24.96160 26.22622 26.67872 26.34350 26.63679 24.54960 26.47291 24.26178 27.11635 29.85458 30.37594 29.23480 28.85477 27.73343 25.24307 28.22673 29.61949 30.55819 37.34013 39.94324 41.42452 39.87788 35.80217 34.27961 28.46926 29.66998 31.15444 32.59355 41.08362 46.41275 47.86830 50.07830 48.16747 44.13611 40.46260 43.93168 46.59612 47.77857 44.05852 37.02803 32.76618 33.99173 37.56922 44.55115 56.17215 58.69709 52.74858 45.24955 40.80776 34.14355 29.27520 27.11117 33.84821 35.19506 40.57452 43.34710 45.31750 45.55451 45.90329 46.66163 40.44107 40.05687 35.86644 31.40329 28.00360 28.34297 24.30798 29.06303 30.54423 34.44016 28.80272 29.08769 29.58008 25.52846 26.39883 25.34440 27.31874 26.32837 26.88660 26.51040 24.89045 26.27573 23.69524 25.48002 22.47687 26.99528 25.13739 25.44643 22.87983 24.20692 23.33515 24.53707 26.36755 26.46323 25.44073 24.44301 24.71170 23.88677 26.67183 26.03527 23.20056
27.35500 25.61762 24.66637 25.73588 24.39737 25.16777 23.49025 26.47229 24.86302 27.12691 22.35611 26.32243 28.05901 24.44585 24.46999 23.29681 24.75201 24.74352 24.32959 28.35451 25.59902 28.90659 25.42262 27.08548 25.11606 23.89307 25.59244 24.19876 23.91728 25.05468 28.79294 27.94407 30.58292 31.01387 30.46685 27.19759 28.18697 30.78141 29.33204 35.63483 36.54979 37.44460 40.90169 37.49985 35.99375 32.22982 27.80566 30.92617 30.27878 33.49092 36.29183 43.95531 48.09233 47.86027 41.69839 38.69049 38.21082 42.52111 46.08279 45.00946 41.24601 34.71334 32.62501 32.24086 38.06281 47.18040 51.10312 53.83623 47.35161 43.53035 37.07045 34.41115 29.81078 29.41855 32.48750 34.04051 42.43901 38.50432 43.41384 41.02148 46.88930 43.55246 37.11110 37.27929 33.77403 28.18309 29.45479 27.66026 26.73746 25.45915 29.99368 32.88505 30.52668 30.08047 27.19204 27.93040 24.93944 22.50610 23.22306 25.65923 27.75112 27.32075 25.64081 24.61914 25.82531 26.13249 25.75222 24.64091 25.28983 22.23514 27.68786 25.85024 23.76944 26.26354 25.15215 23.85575 24.80583 24.66348 27.19530 25.76788 26.57004 24.41402 22.83215
