25.25000 25.25990 25.26470 25.27125 25.28018 25.28736 25.29434 25.29798 25.30638 25.31513 25.31995 25.32952 25.33569 25.34080 25.35021 25.35521 25.36447 25.37207 25.38115 25.38652 25.39462 25.40945 25.41535 25.40439 25.41355 25.43790 25.50015 25.59162 25.65021 25.60028 25.48683 25.60394 25.87461 26.24696 26.62541 26.66637 27.63832 29.62804 31.36015 32.60622 32.49036 29.76823 27.26383 27.53814 28.38740 31.81159 35.40786 39.25947 38.94366 37.03433 34.81738 34.10179 35.91921 35.11399 33.82943 29.65856 30.29613 33.60231 36.18132 37.46496 36.74476 32.93434 35.88573 40.19436 44.41286 43.70281 40.72829 33.98165 30.55919 28.21638 28.77727 28.29363 27.35094 27.43471 29.44707 32.81553 35.99985 35.86207 32.63225 29.85343 31.28104 31.83598 33.26686 34.61556 33.73835 32.01038 28.30815 27.74055 27.71774 27.64356 27.14209 26.32493 25.86522 25.65874 25.48623 25.60919 25.74438 25.68456 25.63803 25.50706 25.42845 25.39986 25.39256 25.39154 25.38926 25.38320 25.37926 25.36682 25.35793 25.35021 25.34170 25.33610 25.32707 25.31877 25.31220 25.30370 25.29759 25.29025 25.28292 25.27328 25.26811 25.26100 25.26100
25.25100 25.25100 25.26231 25.27283 25.27845 25.28608 25.29275 25.30144 25.30819 25.31545 25.32364 25.33037 25.33759 25.34323 25.35153 25.35919 25.36741 25.37601 25.38542 25.39290 25.40627 25.42746 25.47932 25.50493 25.48859 25.46213 25.47922 25.60771 25.78851 25.83941 25.70496 25.56288 25.81958 26.46369 27.28839 28.04501 28.31052 29.64007 31.58354 33.61525 33.23495 30.37152 27.78084 27.65284 29.52804 32.63283 35.78431 41.25019 43.63038 41.24322 39.20819 38.71154 38.69320 37.73584 33.50561 29.97157 31.52246 35.96102 40.70021 41.81813 38.14307 35.83909 36.72838 41.48966 46.34350 44.52480 39.74637 34.29167 29.83983 28.29117 30.03214 30.30893 28.38547 28.06760 29.76693 33.75152 35.87563 37.01310 35.05951 32.55187 32.69111 35.98623 36.35523 36.46093 33.74209 31.57876 28.78377 29.01587 28.86799 27.90923 26.54307 25.80834 25.66136 25.89431 26.02276 26.12825 26.12724 26.05451 25.69836 25.58827 25.43004 25.40942 25.41986 25.41697 25.40745 25.39448 25.38414 25.37332 25.36396 25.35278 25.34594 25.33574 25.33143 25.32110 25.31397 25.30504 25.29756 25.29087 25.28514 25.27716 25.26968 25.26400 25.26400
25.25000 25.25933 25.26361 25.27394 25.27910 25.28625 25.29160 25.30044 25.30850 25.31617 25.32434 25.33169 25.33769 25.34505 25.35215 25.36257 25.36558 25.37917 25.38813 25.39858 25.41096 25.45593 25.55824 25.57196 25.61958 25.64470 25.53096 25.69739 25.90740 26.17369 26.34781 26.29809 25.96354 26.63166 28.17513 28.59728 29.34880 30.23706 32.26403 34.41417 33.48261 30.75717 27.77936 28.07249 30.46721 33.65918 38.11284 43.50570 46.13694 45.30223 44.43847 40.06001 41.01448 38.65740 35.90978 30.07953 33.27196 37.85975 42.63549 45.03314 41.53348 37.30024 37.46976 43.51410 47.45832 44.34217 38.41288 34.30260 29.75663 30.11905 32.05937 32.35536 30.72634 28.67758 30.04064 33.26234 37.00095 38.58843 36.32402 35.97183 37.99243 40.18366 41.02175 38.39455 34.40144 32.04039 30.92464 30.12631 28.88603 27.77884 26.36534 25.99713 26.07979 26.78579 27.08342 26.63627 26.66151 26.24922 25.85189 25.61015 25.47134 25.48803 25.49451 25.49025 25.44427 25.41804 25.38770 25.37582 25.36424 25.35746 25.34779 25.33879 25.33106 25.32398 25.31372 25.30627 25.30023 25.29031 25.28428 25.27842 25.27081 25.26500 25.26500
25.25000 25.25018 25.26183 25.27405 25.28085 25.28733 25.29313 25.29953 25.30665 25.31409 25.32276 25.33073 25.33703 25.34389 25.35256 25.36189 25.36679 25.38109 25.39261 25.41640 25.46216 25.50576 25.66419 25.75666 25.98165 25.79367 25.65925 25.91283 26.39743 26.83071 26.88342 26.97486 26.51940 26.91159 28.03687 29.50281 30.38111 31.29198 33.25064 35.20874 34.83938 32.51125 29.87123 28.25512 29.76547 33.99798 37.60590 45.59701 49.08981 48.83544 46.63407 43.05534 42.90385 39.73174 35.83204 31.80541 34.67011 41.36892 45.11509 47.07685 44.38272 41.02857 40.48010 46.11670 48.65297 42.85565 37.74119 33.69542 29.98204 31.96489 35.21513 36.02469 33.33370 30.80882 31.75249 34.14976 38.17384 40.87135 38.69511 40.25744 42.13650 44.44559 41.90211 40.18169 34.95769 32.98891 31.74104 30.42744 28.18089 27.10647 26.18916 26.41064 27.62409 28.35831 28.26821 27.95125 27.45335 26.92130 26.18410 25.70895 25.60630 25.63832 25.60631 25.57030 25.49921 25.45130 25.40038 25.37807 25.36913 25.35816 25.34946 25.34197 25.33218 25.32333 25.31510 25.30763 25.30225 25.29523 25.28638 25.27692 25.27216 25.26600 25.26600
25.25000 25.25995 25.26647 25.27515 25.28110 25.28762 25.29512 25.29931 25.30941 25.31500 25.32090 25.32908 25.33316 25.34082 25.35033 25.36367 25.36993 25.37964 25.40087 25.43887 25.48124 25.59263 25.76095 25.98519 26.22956 26.21318 25.96403 25.83454 26.67041 27.35109 28.13714 27.46112 26.50503 26.60127 28.02651 29.16322 30.73377 33.14482 34.56180 37.10139 37.46083 36.09303 30.83651 29.71633 30.44290 33.33781 38.07718 46.61198 50.54205 51.32687 51.61986 47.33280 46.72194 41.39845 37.11824 34.18956 38.46941 42.65378 48.14253 51.07745 47.93526 44.22598 41.15628 48.22628 48.82456 43.13094 37.72865 32.12378 31.29158 34.81968 37.50025 36.67683 35.28249 31.14819 33.59394 38.17441 40.57877 43.97188 42.51327 45.18446 45.25373 47.31575 45.50139 40.82761 37.08592 34.68617 33.37592 29.76380 28.40617 26.45725 26.61761 27.49845 29.11354 29.73738 29.46327 28.65622 27.82833 26.94963 26.23671 25.79941 25.86415 25.94784 25.80586 25.69881 25.55168 25.46473 25.39766 25.38046 25.37045 25.35898 25.35124 25.34168 25.33510 25.32530 25.31977 25.31072 25.30283 25.29496 25.28977 25.28021 25.27447 25.26626 25.26600
25.24900 25.25895 25.26616 25.27513 25.28098 25.28797 25.29695 25.30482 25.31017 25.31832 25.32163 25.32860 25.33249 25.34274 25.35209 25.35740 25.37161 25.39345 25.41692 25.47193 25.54281 25.72022 25.94240 26.37752 26.59894 26.85659 26.44456 26.06989 26.59323 27.83773 28.71589 28.78095 27.86855 26.81163 27.58768 28.97544 30.90889 34.36497 36.04559 38.32477 39.66981 38.02964 34.52153 29.80430 30.57874 32.48796 37.66155 44.63805 51.31743 56.07082 55.98523 52.84455 49.84960 46.37703 38.56464 36.84196 41.27628 45.82111 52.18880 55.43904 52.71849 47.05621 44.66543 49.40237 50.32265 44.33075 37.52210 33.45844 33.83746 35.92758 40.32499 40.79070 35.14632 33.82230 36.36737 39.58860 45.92023 47.93165 47.61675 47.90338 51.88234 51.40159 46.76932 41.70645 38.83492 35.95593 32.62657 29.92994 27.21428 26.56555 27.07321 29.00889 30.43962 31.58565 30.35905 28.90771 27.38242 26.70785 26.26394 26.17749 26.33150 26.17123 26.04430 25.81883 25.60046 25.48726 25.39215 25.38341 25.37639 25.36560 25.35320 25.34533 25.33675 25.32900 25.31840 25.31322 25.30512 25.29658 25.28914 25.28420 25.27870 25.27692 25.26700
25.25000 25.25995 25.26367 25.27408 25.28347 25.28985 25.29687 25.30482 25.31442 25.31753 25.32396 25.33053 25.33596 25.34582 25.35629 25.36522 25.37581 25.40468 25.47148 25.54319 25.63821 25.84662 26.10729 26.57009 27.08204 27.60773 27.46268 26.98502 26.68336 28.04964 29.47371 30.07883 29.55492 28.52709 28.08380 28.20626 30.36753 32.25998 35.71525 38.79789 41.70821 40.02061 36.80306 33.29250 31.34920 34.12799 37.79314 45.93675 51.76393 57.54748 58.95537 57.22521 54.38590 50.09630 41.76671 37.98594 41.31841 49.84666 56.23294 59.21477 56.30725 50.93395 47.54826 51.74089 51.13554 43.97656 37.83207 38.31652 37.79413 37.13351 42.08532 41.63944 37.65372 33.70267 35.47090 39.79913 43.85276 48.14937 50.67041 53.29779 55.41348 53.54383 49.86401 42.70460 38.17063 35.57559 31.99642 28.96951 27.68382 27.46816 29.11775 30.91810 32.39087 32.50601 30.76064 28.56167 27.21998 26.81316 26.69748 26.76599 26.66945 26.62193 26.15050 25.69859 25.54485 25.44597 25.41389 25.42354 25.40026 25.37866 25.36234 25.34849 25.34051 25.33240 25.32178 25.31573 25.30816 25.30143 25.29211 25.28491 25.28114 25.27592 25.26600
25.25100 25.25100 25.26120 25.27364 25.28093 25.28993 25.29825 25.30601 25.31556 25.32062 25.32741 25.33442 25.34103 25.35365 25.36138 25.37127 25.37841 25.39723 25.50461 25.66776 25.86131 26.11954 26.50954 27.18268 28.06505 28.49721 28.03927 27.32133 27.36282 28.45238 30.43522 31.76197 32.15359 31.03384 30.45308 29.34626 28.91394 31.47330 35.71445 39.84373 43.64542 44.79368 42.96090 37.17635 33.65551 33.03216 38.12283 43.66842 51.64791 57.53362 62.97519 62.74830 59.10916 55.13000 49.37314 40.58626 44.11826 50.01897 57.05089 63.51505 61.83577 57.83182 52.68108 54.90913 49.55841 43.24916 42.03235 44.73150 41.31484 39.48244 45.71532 45.71812 41.74885 39.20904 37.34130 36.72872 41.41067 49.77915 55.45448 60.52326 60.48324 55.94243 51.72801 44.30120 38.30280 34.40563 29.60016 28.46738 28.03649 28.80557 31.18542 33.47351 34.74610 33.36332 30.59661 28.92863 28.44182 27.68036 28.00567 27.69351 27.34546 26.65737 26.10456 25.62260 25.49642 25.48552 25.46465 25.47397 25.42320 25.38452 25.36685 25.35077 25.34275 25.33371 25.32545 25.31822 25.30943 25.30150 25.29273 25.28480 25.28091 25.27593 25.26700
25.24900 25.25890 25.26470 25.27317 25.28179 25.29018 25.29813 25.30686 25.31429 25.32090 25.32609 25.33684 25.34327 25.35666 25.36615 25.38126 25.40424 25.41008 25.45104 25.67969 25.88143 26.47135 26.91170 27.90738 28.97424 29.71192 29.38615 28.71141 27.78512 28.30521 29.91390 32.64806 33.73211 34.36622 33.41045 30.79351 28.97172 33.03687 36.24416 40.26440 47.89436 49.21259 45.00445 40.91357 35.96926 35.05178 38.27401 44.62412 51.79602 58.64148 64.36965 67.22640 66.53842 61.76851 54.21360 46.30246 44.80112 52.22167 62.96710 65.85975 66.36531 59.67426 55.87625 57.40230 53.70928 48.12754 54.06739 52.38526 47.92601 45.20123 49.49140 50.35051 47.87845 45.09574 42.83677 39.01829 42.34874 51.17345 58.74731 63.42394 63.74858 57.93100 51.05778 43.82887 37.11296 32.77328 29.05342 28.33900 29.79004 32.21743 35.46131 35.51450 36.67447 33.55367 31.39195 31.05159 30.47240 29.73372 29.44545 28.39180 27.40500 26.55892 26.02364 25.59175 25.67066 25.66645 25.60328 25.53248 25.44524 25.39240 25.36049 25.35072 25.34119 25.33397 25.32540 25.31938 25.30998 25.30291 25.29356 25.28559 25.27441 25.26703 25.26700
25.25000 25.25990 25.26443 25.27552 25.28216 25.29184 25.29538 25.30423 25.31212 25.32017 25.32710 25.33577 25.34510 25.35172 25.37539 25.40514 25.45405 25.47698 25.45392 25.63526 25.88129 26.72183 27.33332 28.55637 29.82907 31.02290 30.50364 30.38921 29.84398 29.80954 29.81411 32.54002 34.75605 36.67514 35.66791 32.60936 31.82879 34.36763 39.77421 43.79678 49.02822 52.67362 52.22095 48.25027 42.23225 37.82345 35.69747 41.61152 46.97210 55.42947 62.85740 66.48945 69.64638 68.31617 60.33284 52.05780 47.39873 54.37778 62.52808 70.19947 68.34652 65.33137 63.27612 62.76677 55.95372 51.94223 60.23289 60.39908 55.02074 48.26168 53.01314 56.33993 54.47779 52.74701 46.00488 42.50219 49.49996 57.14665 61.09945 65.27062 64.93201 59.10685 50.28488 41.71291 36.02947 30.74944 29.15688 29.28881 31.36692 35.77021 38.35812 40.67763 40.14280 36.87295 34.53752 33.92713 33.07197 30.62929 30.21870 28.06112 27.17052 26.36733 25.83221 25.77676 25.88767 25.79180 25.70847 25.60824 25.48649 25.38869 25.36639 25.34819 25.33744 25.33152 25.32404 25.31904 25.30756 25.30160 25.29322 25.28433 25.27335 25.26206 25.26200
25.25000 25.25993 25.26523 25.27343 25.28056 25.28952 25.29546 25.30219 25.31147 25.31877 25.32543 25.33556 25.34162 25.35470 25.38057 25.44067 25.49614 25.57061 25.61420 25.57495 26.00047 26.38354 27.77824 28.76651 30.27861 31.87541 33.58866 32.81529 31.90177 32.09185 30.97641 31.64194 34.06653 37.25147 38.30129 34.53438 32.34219 35.18951 40.86957 47.31460 51.15713 56.24225 57.08844 52.17222 49.72410 43.59761 38.97560 40.38775 42.65558 51.83159 58.10769 64.86944 71.10095 72.13474 64.85347 57.29613 51.53610 54.82731 66.76353 73.20189 71.75239 68.54825 69.37897 67.47627 61.78836 56.81941 64.84176 63.22428 56.02489 55.87293 61.71407 61.93743 62.47041 57.00063 48.27629 45.96270 53.85022 60.74545 69.06610 69.55297 66.35345 57.72244 49.34306 42.75492 36.92563 31.63014 30.05304 31.87018 34.94628 37.44936 42.00178 44.07376 42.41404 39.92742 37.20521 35.02205 33.59521 31.92905 29.96494 27.33448 26.43523 25.82888 25.83268 25.98230 26.08572 25.98420 25.79081 25.59511 25.49287 25.39223 25.35427 25.34629 25.33427 25.32805 25.32262 25.31346 25.30633 25.30079 25.29172 25.28607 25.27592 25.26504 25.26500
25.25000 25.25063 25.26397 25.27191 25.28038 25.28948 25.29668 25.30284 25.31168 25.32056 25.33028 25.33613 25.34620 25.35364 25.37319 25.44999 25.58449 25.78738 25.82905 25.66664 25.76362 26.17335 27.07729 28.27858 29.90227 32.19466 34.02887 35.80105 35.63140 35.46864 35.76743 34.62719 34.18745 37.04488 40.04000 40.55707 37.04342 34.92061 38.88110 47.18683 53.87744 59.26389 60.41151 59.25692 52.75595 49.53587 47.94423 45.23181 43.40082 50.87450 59.46848 69.07940 75.67195 76.38258 73.79926 66.09194 55.28126 57.80609 69.11020 75.71580 76.11075 72.85195 74.85784 71.62971 66.34558 66.99371 70.20055 65.64546 61.21597 66.53239 68.79724 70.79775 67.11864 59.26457 51.89143 48.40264 55.83222 63.05041 72.84897 72.28038 64.95422 55.47086 48.73095 40.11447 36.05138 31.82709 30.31982 31.03710 37.16443 41.66152 44.34779 45.45701 44.81543 44.94607 40.63871 36.96017 33.92401 30.89038 28.15539 26.93875 26.27888 26.03588 26.55857 26.37728 26.19034 25.91101 25.64193 25.47654 25.42448 25.39851 25.37242 25.35635 25.33451 25.33021 25.31949 25.31379 25.30637 25.30088 25.29104 25.28670 25.27861 25.27383 25.26400
25.25000 25.25973 25.26676 25.27211 25.28116 25.28955 25.29759 25.30398 25.31355 25.32147 25.33150 25.34123 25.35024 25.37164 25.40824 25.47697 25.63471 25.83104 26.07040 26.23245 25.80023 25.98882 26.47147 26.99075 28.41659 31.20069 34.22223 35.98547 38.86462 38.28459 38.94664 37.80542 37.01681 37.35204 41.61164 42.51008 41.17319 39.36083 38.88632 43.82464 53.00552 57.27266 64.35710 65.39262 65.12773 57.33151 52.68903 52.59102 47.36402 49.73749 61.48566 67.60217 77.27823 79.94493 75.22513 70.99077 61.98436 62.52149 72.99312 79.11318 80.68500 80.64211 82.89707 78.12383 70.68462 74.24180 72.53609 68.08839 69.29823 73.34504 75.58477 72.35905 65.76955 58.74004 52.98849 50.85725 58.84692 68.23230 73.56409 73.29623 65.76012 56.23682 46.51262 40.66678 34.79320 31.67658 31.24016 34.19308 38.54953 44.33303 49.06768 50.89483 48.26150 44.71941 39.81952 35.57966 31.99941 30.64106 27.93239 28.03687 27.69048 27.09443 26.90328 26.35830 26.19916 25.89653 25.69967 25.64045 25.48727 25.46679 25.40727 25.37398 25.34734 25.33515 25.32787 25.31645 25.31000 25.30274 25.29201 25.28534 25.27596 25.26600 25.26600
25.25100 25.25100 25.26236 25.27396 25.28285 25.28868 25.29862 25.30609 25.31352 25.32538 25.33470 25.35410 25.38010 25.42509 25.42812 25.52413 25.69016 25.95740 26.42237 26.59788 26.39418 26.40523 26.11981 26.44860 28.10321 30.01072 31.87719 36.07509 40.06019 40.37996 41.74268 41.92810 41.70924 40.14111 41.75589 45.54886 46.62148 43.26730 38.24015 40.84625 49.34352 56.09295 65.71162 71.47337 70.68809 67.43242 61.28241 57.84389 52.22105 49.74278 60.46849 62.47636 76.30921 81.60909 80.09676 73.76268 69.86683 67.64671 74.93325 83.92545 84.22660 85.65808 86.53616 80.17583 76.99340 79.38262 78.14211 78.33621 80.76093 83.76118 77.95263 71.99620 66.23125 65.51994 59.61397 56.79829 59.20266 72.87775 75.00595 70.70121 62.03780 57.32792 46.36777 39.57613 34.11324 33.13818 36.89799 38.87085 40.73898 47.92164 52.57030 52.81380 48.85626 43.67704 39.01235 33.98956 30.80165 30.22746 29.47394 29.14418 28.37070 28.18839 27.20190 26.41773 26.42121 26.23408 26.06234 25.82808 25.67127 25.56628 25.44690 25.37794 25.34964 25.33894 25.33490 25.32350 25.31334 25.30433 25.29546 25.28887 25.27523 25.26739 25.26700
25.24900 25.25455 25.26199 25.27403 25.28145 25.29223 25.30010 25.30933 25.31435 25.32931 25.35867 25.41265 25.45941 25.49537 25.51282 25.58585 25.61930 25.88561 26.43803 27.12758 27.50567 27.41287 27.09756 26.65724 27.24469 28.56149 29.95449 35.19185 37.83500 39.68191 43.05880 44.42807 45.66883 45.23570 44.18373 47.67774 49.35954 47.31232 41.19857 41.62399 47.69686 55.33173 65.34117 74.05281 75.48608 73.69930 67.92424 62.94502 58.09299 55.89710 57.64872 64.13590 77.38086 85.39184 86.33756 83.79488 75.77278 73.92376 77.74633 88.68574 91.96525 92.84741 92.60066 84.82718 84.16857 86.97374 86.10467 83.41367 89.14566 89.66918 85.64328 77.22187 73.57959 71.13248 65.34328 63.86083 71.29189 76.39366 76.22745 67.61583 58.48909 48.10476 41.58174 39.22168 39.20325 37.47363 41.22523 44.85897 46.46360 53.98784 56.30492 54.11604 49.32365 42.54107 37.02954 33.47892 32.87578 32.15620 32.01427 31.28510 30.35690 29.37457 27.10418 26.75207 27.25758 26.78227 26.47915 26.14193 25.75965 25.60652 25.44999 25.39781 25.35185 25.34794 25.34485 25.32959 25.31549 25.30589 25.29596 25.28668 25.27601 25.26639 25.26600
25.25000 25.25555 25.26235 25.27512 25.28002 25.28993 25.30221 25.30976 25.32463 25.33714 25.38914 25.48700 25.54753 25.68005 25.75252 25.82157 25.85532 25.81851 26.45407 27.03672 27.91035 28.23111 28.31801 27.47614 26.91145 27.88299 29.39754 31.02784 35.09609 36.41797 38.47206 42.97739 47.86363 49.02098 47.72680 51.15321 52.92090 52.40170 50.76509 47.67370 48.39721 53.02984 63.56766 70.25672 78.68584 79.66623 77.09643 70.45939 65.59199 59.25638 63.67082 67.40415 77.83869 86.44508 91.70478 90.56992 84.50048 82.75801 84.71363 91.08611 96.73306 96.93160 96.73721 93.98685 92.31603 95.89492 93.47096 92.69141 93.79120 93.50256 88.00674 85.79646 81.46681 76.58892 71.53763 71.91319 78.43206 80.00052 74.46530 66.98570 51.93632 46.47978 46.76096 44.51362 40.67522 39.66616 45.69434 51.94037 54.69224 56.94535 58.33874 51.71360 47.22965 41.89129 34.72571 33.77937 36.19908 35.71297 34.00485 31.96377 30.28534 28.33192 27.55689 27.97166 28.06313 27.52326 26.86940 26.42124 25.70324 25.60905 25.46594 25.39353 25.38222 25.38469 25.35872 25.33556 25.31554 25.30360 25.29856 25.28880 25.27914 25.27320 25.26600
25.24900 25.25740 25.26313 25.27184 25.28285 25.28963 25.30268 25.31462 25.34016 25.37321 25.42193 25.57425 25.72886 25.99641 26.08773 26.07869 26.24722 26.04496 26.00477 26.70600 27.89143 28.67545 29.37514 28.69570 28.27387 27.92455 28.02899 28.49843 29.92161 30.86464 32.59988 42.91652 45.64205 50.36392 50.85108 53.47013 57.69763 57.35232 57.34301 55.62742 52.46239 51.78574 62.32629 72.22127 79.33431 84.66706 83.83949 78.13875 71.89792 66.48614 69.85095 75.19272 79.31220 89.29098 96.15645 97.45949 90.51212 90.94270 95.13004 99.76087 100.70435 102.98851 103.73568 101.17065 100.58782 102.48166 99.28534 99.20571 98.83175 95.73399 91.18687 91.14721 85.81866 81.57044 76.51339 79.47289 84.97642 84.95302 76.10224 66.71905 57.45537 52.66430 50.90146 45.45648 42.29443 42.79158 53.20732 60.00894 63.74838 61.37466 57.20136 48.99293 44.91322 38.70154 37.24878 37.98438 37.67028 36.61756 33.26836 31.69032 29.74088 29.11910 28.75959 28.89391 28.84981 28.02842 26.91588 26.08537 25.71971 25.47908 25.44854 25.48788 25.47054 25.45872 25.39335 25.34000 25.31577 25.30927 25.29692 25.28770 25.28210 25.27521 25.26600
25.24900 25.24948 25.25885 25.27165 25.27919 25.28866 25.29893 25.31564 25.34184 25.37710 25.47255 25.62644 25.84634 26.24500 26.52969 27.22126 27.25266 27.17653 26.88545 26.63874 26.97774 29.12923 29.98092 30.56575 31.00806 31.18747 30.02595 30.61335 31.66655 31.68063 32.57543 35.91779 44.28626 49.54501 54.38357 56.96721 62.12621 65.12507 63.83083 62.88855 57.20311 53.78278 64.06529 70.41076 79.57101 88.55810 89.04507 85.27818 81.27426 75.11291 78.83497 81.33561 86.83046 92.96000 100.24427 102.71323 100.18105 99.58431 105.27713 105.98253 105.94618 108.90509 109.99283 107.82636 108.67778 105.26417 104.74916 105.97687 105.31515 99.99213 99.67959 96.82473 93.78305 90.09012 87.62296 89.23256 91.08515 87.65714 75.26362 62.89474 60.50797 61.02811 55.72575 47.91392 46.54272 56.82044 61.57334 66.40599 67.64277 62.19191 53.89122 47.19059 43.21321 43.16075 43.19499 42.86307 41.15047 37.81747 33.73521 34.16079 32.35773 31.39968 29.98818 29.66295 28.78066 27.47283 26.31844 25.83866 25.63837 25.64367 25.75307 25.68642 25.62936 25.54586 25.44567 25.36976 25.32896 25.30847 25.29712 25.28773 25.28033 25.26700 25.26700
25.25000 25.25048 25.25840 25.27042 25.27786 25.28805 25.29666 25.31093 25.33866 25.39854 25.49479 25.69008 26.02534 26.36336 26.73365 27.43098 28.03211 28.01444 27.81705 27.30374 26.69695 28.64269 29.90928 31.22819 32.42537 33.51641 34.76874 34.36994 35.18559 36.85207 35.38886 35.37603 41.06226 47.36805 54.49934 59.16210 63.31081 68.13871 70.73017 69.26786 65.11128 61.83903 62.12176 68.82794 80.21720 86.09466 91.55464 92.62233 86.05982 80.76040 85.14340 86.66188 93.46748 98.62983 102.88739 107.36530 108.71838 107.85594 109.73790 111.69508 112.07604 111.84810 112.16142 111.96573 111.81731 111.57881 111.66612 110.00395 109.00825 106.15944 103.60780 102.64548 99.98462 95.57499 95.35495 94.03493 94.63626 89.39060 78.01898 70.07811 70.48003 65.35634 56.09039 55.80084 57.94674 64.38070 69.52249 72.77094 70.62533 62.11252 54.05063 51.64324 50.07792 50.78269 47.95744 45.69250 42.51364 40.76134 37.72231 35.79478 34.00668 32.69547 30.12770 29.21641 28.08333 27.26079 26.22209 25.83681 26.08872 26.18722 25.95641 25.96319 25.72169 25.55133 25.43023 25.39091 25.32980 25.30556 25.29655 25.28782 25.28289 25.27604 25.26700
25.25100 25.25148 25.26073 25.26770 25.27777 25.28853 25.29323 25.30533 25.32534 25.35850 25.47208 25.60674 25.75773 26.21901 26.70575 27.36484 28.54827 29.35651 29.05691 28.81996 28.71108 28.24090 28.62431 30.40648 32.42177 35.12349 37.05459 38.43489 40.98506 41.18875 43.26397 40.51509 38.35250 44.02456 50.95977 59.63236 65.28916 73.21010 76.78426 77.70978 72.92338 68.63729 66.83113 68.04595 75.41371 83.27490 92.63503 95.68846 93.04274 88.84238 94.52297 95.56130 100.70196 104.70564 109.20567 110.64846 111.41306 110.96352 112.28977 112.62030 113.26706 113.31158 113.60494 113.11904 113.60653 113.31102 113.51172 113.38120 111.91835 110.51015 110.40777 107.49755 106.65442 104.55050 103.43854 102.26937 96.09144 89.08888 81.68551 76.46230 76.54233 70.25592 62.49491 62.54628 63.79587 71.01935 74.12425 75.61953 69.21591 63.01762 59.35815 58.60432 56.77651 54.39389 52.44820 45.61638 43.55858 41.35330 38.02404 36.18226 33.31142 31.42933 29.73131 27.73326 27.40530 26.23967 26.09384 26.27942 26.48695 26.57308 26.36861 26.05707 25.75799 25.57625 25.41877 25.35655 25.32387 25.31033 25.29819 25.28758 25.28220 25.27577 25.26700
25.25000 25.25000 25.26107 25.26847 25.27915 25.29142 25.30132 25.30565 25.32325 25.33523 25.37029 25.46323 25.63246 25.77912 26.06636 26.89328 28.33498 29.40997 30.14301 30.74999 31.04378 32.71444 31.66700 30.86163 30.90358 33.79356 37.57693 41.81057 43.41974 48.41688 48.68411 45.32485 43.27425 41.60609 45.71759 52.41926 61.21055 72.65070 78.14437 81.45067 84.34182 78.59929 79.11928 76.40440 76.87620 83.48997 90.86683 98.26879 99.22904 99.72238 103.38109 103.02828 106.06066 107.16105 111.73607 111.96968 111.72232 111.88402 111.36971 112.14766 111.81139 111.54336 111.45987 112.28725 111.82860 112.72411 112.93498 112.60167 112.32543 112.29247 112.12433 111.29775 111.17052 109.97346 109.21019 102.98849 100.33871 95.42093 89.01487 81.63252 81.87713 69.43462 64.80636 73.12278 76.54781 79.53145 82.89553 77.25533 70.78274 67.28261 65.68252 64.59547 60.85159 57.83655 54.02794 47.68091 44.56615 41.19405 35.86154 32.76801 31.73001 29.41271 27.54887 26.96648 26.64692 26.44881 26.94012 27.19700 26.95669 26.61558 26.04772 25.90117 25.61398 25.45107 25.34589 25.33759 25.32417 25.31132 25.30305 25.29070 25.28224 25.27595 25.26600
25.24900 25.25864 25.26304 25.27202 25.28009 25.29101 25.30527 25.33547 25.35019 25.37289 25.41578 25.48078 25.59516 25.71496 25.94389 26.56006 27.73253 29.51185 31.74654 32.46212 34.14154 35.49044 36.11646 34.34227 34.65266 33.25318 36.09169 41.99288 47.06645 51.00352 53.83017 51.74922 51.88738 49.09769 46.44506 48.63717 60.36824 71.54471 79.00256 86.14744 87.58532 87.83746 86.63326 85.86765 84.43316 84.96601 93.41429 100.24430 104.49928 106.20090 107.15669 107.75938 108.98631 110.85162 111.51591 111.04347 110.71625 110.46565 110.47273 109.65056 109.93226 109.92819 110.12263 110.23142 110.59721 110.56908 110.82597 110.82218 110.91217 111.25645 111.87558 112.40659 112.84870 112.56333 112.00759 109.74890 103.26175 98.71513 93.70584 88.17457 81.28075 73.33502 74.56872 76.96313 83.84747 88.87518 85.48366 80.36218 75.90247 69.68991 66.13388 64.04188 60.45793 56.83597 49.72514 45.91310 41.30360 37.40960 33.91459 31.10069 29.27811 28.32459 28.79886 28.22037 27.80200 27.81819 27.73154 27.54421 26.94818 26.32567 25.85916 25.64931 25.61572 25.46100 25.44527 25.38465 25.35465 25.32743 25.30223 25.28912 25.28156 25.27415 25.26600
25.24900 25.25076 25.26200 25.27302 25.28088 25.29241 25.30855 25.35550 25.39855 25.47811 25.60530 25.67919 25.95182 25.94127 26.59024 26.96798 27.40942 28.85918 31.88229 33.75619 35.74853 39.19935 40.17286 40.76467 39.25977 37.20508 36.19157 39.28392 43.79489 50.73403 55.17768 57.76698 58.52548 57.58857 53.91862 50.35789 58.46360 67.81820 78.14929 84.68365 90.40312 92.06288 91.39902 93.88790 95.37152 97.65667 98.37608 104.27987 108.56824 110.03167 110.86130 110.78847 110.58873 110.65800 110.05305 109.81579 108.85387 108.92697 109.04757 108.87743 108.32879 108.42643 108.37655 108.33925 108.82630 108.76844 108.79246 109.53100 109.53342 110.06998 110.21458 110.85235 111.60006 112.08961 112.44773 111.58030 109.41363 103.79319 101.04900 90.20408 84.70257 85.33670 86.99845 87.40164 91.18683 90.51807 88.21146 82.28059 76.05909 68.66880 60.28780 57.90394 55.75201 50.30292 44.67108 40.65346 37.07327 35.01658 31.18674 29.83203 31.12059 31.28881 30.77016 30.31639 29.28491 28.33114 27.65882 27.00336 26.50841 26.17682 26.10249 26.17450 26.16665 25.73366 25.60833 25.42839 25.39047 25.32448 25.30138 25.28908 25.28171 25.27490 25.26600
25.25100 25.26064 25.26610 25.27418 25.28398 25.29628 25.33294 25.38855 25.44026 25.56414 25.74468 25.98808 26.22097 26.57874 27.31703 27.53198 29.02988 29.67952 30.57934 33.80756 35.77254 40.30617 43.48466 44.01118 43.06187 41.96286 40.77586 41.38764 42.35046 46.73330 52.72514 59.70073 65.84431 66.01831 63.16621 57.92222 58.20955 66.52546 75.35085 78.84716 88.02246 97.15389 99.23377 101.93100 101.19663 102.78219 104.37512 106.87212 110.48453 111.71474 111.58655 110.92068 110.27304 109.20701 108.99679 108.32894 107.84626 107.47175 106.87322 106.82161 107.05936 106.52664 106.58551 107.00958 107.40391 106.98771 107.01323 107.73896 108.08789 108.62187 109.03574 109.60270 110.35636 111.13202 111.91033 111.91730 111.80250 107.81923 103.36298 98.97977 93.91185 92.76433 96.18068 97.07044 97.30733 94.67174 87.47907 82.47345 72.61214 65.53575 57.11699 54.74980 48.12178 43.68430 39.23300 35.53882 33.29149 32.03529 31.44228 34.13878 34.68435 34.88291 34.30389 31.40019 28.89553 28.32281 27.43379 27.34290 27.41545 27.30696 26.92755 26.79865 26.47484 26.06081 25.73352 25.48172 25.38675 25.32626 25.30442 25.29211 25.28230 25.27531 25.26600
25.25000 25.25956 25.26607 25.27787 25.28711 25.29570 25.31552 25.36865 25.43078 25.58711 25.78591 26.07474 26.49616 27.02951 27.56755 28.45353 29.91334 30.88679 31.84248 32.98750 36.67215 40.64683 44.17120 49.13963 50.42664 49.19132 48.62291 48.88772 47.88422 47.19627 52.43546 59.97260 67.77928 71.89273 69.28513 65.03369 64.36865 64.18828 68.54483 75.70669 86.88940 96.85627 102.78587 104.42898 108.04145 108.19376 108.85603 111.55000 111.76122 111.30889 110.82585 109.06222 108.82858 107.74095 107.12537 106.58462 105.89462 105.76040 105.64558 105.36001 104.97563 104.76040 105.71656 105.41526 104.90867 106.04343 105.42253 105.78071 106.85482 107.21619 107.77952 107.96234 108.79540 109.55447 110.83687 111.35165 111.66414 110.47238 107.83687 106.39902 101.41892 100.51492 101.99618 102.68079 99.22130 93.11235 86.28057 77.65961 70.51362 65.60701 58.46594 55.64617 47.24229 43.80914 37.79626 34.10207 34.51917 33.59631 35.04799 37.11582 36.46369 37.27758 33.92730 32.68560 29.87340 28.66809 29.10076 29.28010 28.13712 28.66115 27.93862 27.50447 26.80232 26.24654 25.76962 25.53164 25.41958 25.34537 25.30897 25.29471 25.28250 25.27579 25.26600
25.25000 25.25935 25.26617 25.27448 25.28415 25.29545 25.31078 25.33353 25.36676 25.43980 25.55116 25.80553 25.97877 26.28894 26.94367 27.57862 30.14938 31.21689 32.60185 34.95684 37.52046 40.08114 44.84756 49.20297 52.50961 52.76763 55.70847 58.37127 57.29222 57.33328 57.51187 59.31014 67.05698 75.07376 77.65648 77.52970 74.25297 74.56954 73.80161 74.72055 82.17308 98.32645 104.16823 109.04764 111.55391 111.80831 111.99826 111.70759 110.90637 109.68659 108.82850 108.19491 107.12064 106.66552 105.80701 105.30125 104.47952 103.88956 103.63355 103.36555 103.15121 103.25517 102.63103 103.21409 103.53474 104.04431 104.44464 104.73190 104.68040 105.50847 105.81503 106.00097 107.43256 107.46411 109.27136 110.03388 110.96353 111.25680 110.75974 110.76109 108.67236 108.28835 107.59899 105.01301 97.50523 93.97096 84.54123 77.15203 70.56292 66.73594 64.11775 57.73060 49.64479 42.11351 38.20532 36.82877 40.43990 39.18874 39.24940 41.54716 40.70981 37.39035 33.27285 32.43266 32.80094 31.72112 31.71476 30.89813 31.06969 29.60118 28.52694 27.41679 26.25673 25.93303 25.66292 25.54558 25.42309 25.33941 25.31742 25.28988 25.28301 25.27510 25.26600
25.25000 25.25000 25.26364 25.27134 25.28149 25.29574 25.31933 25.34962 25.35733 25.37217 25.36803 25.50859 25.78713 25.66562 26.23991 27.02207 28.96611 29.92408 31.57886 33.92250 35.59683 39.65955 43.27225 48.95428 51.61465 54.24573 57.93994 60.64989 63.21677 62.06078 65.63854 66.08141 67.93419 76.57451 80.84199 83.29051 81.77441 81.09142 80.25127 79.75099 84.98861 97.11102 104.40798 109.76642 112.09186 112.66196 111.13739 110.70376 109.52213 108.57776 107.79168 106.88506 105.98805 105.27910 104.26311 102.92484 102.95651 102.29685 102.28018 101.76664 101.89803 101.94003 101.72763 101.94301 101.72296 101.72665 101.94143 102.26888 102.95206 103.59259 104.38134 105.06073 105.56812 106.73795 107.84789 108.66045 109.55422 110.29672 111.00710 111.60767 112.06826 111.62535 110.03974 106.55820 100.81294 93.71732 86.87923 77.74584 71.86010 67.17710 62.09123 57.04113 48.78612 42.58738 41.59440 44.50910 47.51388 45.23024 46.42123 43.84264 41.38356 37.30954 35.46802 37.15160 36.12657 35.82379 34.46893 32.35495 30.95740 29.70477 28.37560 26.84434 25.97153 25.68094 25.48136 25.43021 25.34156 25.30751 25.29939 25.29317 25.28306 25.27516 25.26600
25.24900 25.25708 25.26569 25.27300 25.28789 25.31647 25.33640 25.39030 25.42394 25.46165 25.49908 25.49168 25.60693 25.73667 25.85561 26.17850 27.65479 29.20088 30.95750 32.20499 33.50124 36.75516 38.35185 43.08560 46.70168 48.23265 55.00827 60.06231 66.20739 69.38941 71.70304 73.48512 74.54520 80.63152 84.75591 88.45689 92.01391 90.04005 92.04912 95.23083 94.90327 99.33960 105.88579 109.96482 111.79152 111.68716 110.35313 109.43016 108.62897 107.51408 106.40002 105.44895 103.88075 103.51805 102.82115 101.91965 101.76637 101.16296 100.51628 100.63281 100.27467 100.32498 100.17956 100.47461 100.56531 100.64157 100.88493 101.16930 101.87892 102.48661 102.90702 103.43121 104.03436 105.15975 106.15714 107.10897 108.58791 109.29461 110.35629 111.36395 112.30222 112.74052 110.99186 105.90646 98.96154 93.90760 84.46068 76.47551 64.69201 58.59707 52.68618 47.15281 44.89994 48.29391 51.05637 59.38971 57.39008 56.57813 50.88105 47.19467 42.27979 41.47907 41.39254 40.59261 41.94457 39.92383 37.60034 33.85494 30.81758 28.80039 27.42396 26.48347 25.88572 25.59275 25.46833 25.46264 25.40754 25.39509 25.33004 25.30092 25.28723 25.27500 25.27500
25.24900 25.25103 25.26201 25.27458 25.28703 25.31416 25.35609 25.43454 25.48923 25.60922 25.64491 25.70575 25.94306 26.39864 26.66046 26.75899 26.62750 26.98998 29.16775 29.15378 30.18754 30.53156 35.97523 37.96701 40.99046 42.89305 52.14398 58.21894 62.43686 65.97910 71.20471 74.23692 79.11151 82.76360 88.82054 91.76277 97.51214 98.21309 99.38560 101.00705 102.88365 104.23002 107.97053 110.62861 110.87447 110.32353 109.74612 108.41354 107.28203 105.72920 104.63103 103.58728 102.70910 102.05649 101.09629 100.77779 100.22325 99.72509 99.62533 99.34755 99.10510 99.07886 99.07993 98.94453 99.08627 99.30888 99.63049 99.61464 100.20085 100.60966 101.25983 102.11588 103.00580 103.70849 105.04977 105.71018 106.99593 107.75811 109.42794 110.09522 111.49308 112.29774 109.55854 106.19087 96.88457 87.92785 77.08223 70.56027 64.27534 63.51147 59.40337 52.93332 56.59289 59.07009 57.63497 64.54550 61.03347 62.66484 56.87844 50.20307 48.21864 46.91371 48.49429 46.36429 43.02807 40.61665 38.45997 32.96676 29.30139 27.49939 26.38032 25.82942 25.58272 25.79736 25.79238 25.67127 25.57486 25.47345 25.40117 25.33502 25.30285 25.28558 25.28900
25.25000 25.25000 25.26274 25.27349 25.28447 25.29333 25.34913 25.41542 25.50139 25.60273 25.66769 25.98291 26.07080 27.09668 27.51779 27.67628 27.59794 27.14116 26.89709 27.71282 28.23449 28.74828 31.48226 33.94489 37.20231 40.56736 47.82733 51.27161 55.46033 60.33302 63.68428 69.76922 74.86895 82.67486 89.56034 95.37008 99.63394 102.77277 103.73460 107.13428 109.89916 110.00960 111.17462 110.89496 110.29259 109.18613 108.12514 106.77707 105.75348 104.32723 103.52206 102.22280 101.70492 100.73248 100.07076 99.65556 99.22837 98.80226 98.44722 98.28411 98.12396 98.11058 98.13748 98.28484 98.28624 98.39682 98.52904 99.03601 99.06827 99.53992 100.18028 101.04873 101.52846 101.88282 103.13559 104.45434 106.02219 107.04949 107.75671 109.94251 110.58489 111.78316 110.99127 107.53049 93.93771 87.13481 78.29793 76.94626 76.13964 72.12868 66.19985 61.53914 63.11427 66.90906 69.87759 74.23379 71.91422 65.55430 58.68764 55.44144 52.93276 52.82550 51.80747 47.51064 43.98721 38.74768 35.06517 30.58040 28.04150 26.79475 25.95507 25.79045 26.27872 26.19830 26.37017 25.92437 25.81429 25.60484 25.46050 25.35486 25.32620 25.29575 25.29800
25.24900 25.25806 25.26586 25.27836 25.28798 25.31826 25.34034 25.39543 25.44763 25.62836 25.89210 25.99246 26.30249 27.45543 28.50191 29.66125 30.05455 29.65252 28.64981 29.24968 30.33558 30.58049 29.43250 30.83003 33.40955 37.86911 42.31195 43.71529 45.35708 52.47299 57.90144 60.92757 71.97510 76.70585 85.20426 90.89190 97.19050 101.21444 108.17981 110.33825 112.28572 112.24700 111.58020 110.41588 109.38865 107.81315 106.14646 105.47301 104.35673 103.30836 102.56966 101.32383 100.29618 99.46203 99.38049 98.64735 98.34105 97.93161 97.78916 97.72494 97.49882 97.41359 97.34262 97.43396 97.50568 97.67735 97.71797 97.85236 98.27621 98.76263 98.83837 99.31848 100.58799 101.10203 101.92816 103.15183 103.89689 105.84493 107.20627 108.54703 109.80056 111.33375 111.36928 106.99618 102.21250 92.54814 88.96615 85.17904 82.45021 80.19982 75.32927 70.02636 69.46018 74.60929 77.42782 77.33656 73.36027 66.44430 62.08102 58.73024 56.79286 54.91763 50.96195 46.81342 41.47896 36.35451 31.89837 28.80302 27.19563 26.24842 26.17239 26.91862 26.98244 27.44250 27.01875 26.46822 26.10842 25.79099 25.48532 25.37612 25.34047 25.30191 25.32400
25.25000 25.25642 25.26575 25.27974 25.31090 25.38353 25.45551 25.53374 25.71091 25.87785 26.33056 26.67739 27.07244 27.70290 28.86969 30.48840 32.43217 32.51665 31.99376 32.69212 33.17209 32.43371 31.76407 30.30014 31.39783 34.31108 37.68603 39.06312 40.42475 46.26570 46.24059 53.11081 61.36851 71.50483 76.44289 86.67989 87.14458 97.23860 103.85159 110.57668 113.24645 112.72364 110.85570 109.80358 108.73271 107.01920 105.56151 104.49327 102.94155 101.97407 100.55676 99.99551 99.48176 98.79604 98.32333 97.87335 97.48853 97.31187 97.23711 97.14536 97.07096 96.92113 96.93477 96.84559 97.03572 97.12710 97.17480 97.40294 97.53787 97.80774 98.35882 98.71876 99.25475 100.11146 101.03846 102.17592 102.95133 104.32483 105.89627 107.57705 108.72488 110.43502 110.96151 109.06307 107.12179 101.37487 97.20063 91.84329 89.84950 86.26204 78.94757 78.10387 79.72600 81.78271 81.64855 80.13871 74.98211 68.71976 66.03853 60.76546 57.68276 51.69382 47.34536 44.68427 38.23556 34.17832 30.84153 28.80378 26.45486 26.67251 27.55841 28.34565 28.43424 28.32692 27.47360 26.72005 26.16070 25.85505 25.49831 25.40527 25.32705 25.29177 25.31500
25.24900 25.25613 25.26768 25.28336 25.33568 25.46749 25.53766 25.71182 25.90402 26.30987 27.02412 28.00106 28.51926 29.55197 30.56705 32.55285 34.83419 35.52767 34.83935 37.42240 39.44218 38.73830 36.02833 33.61381 34.28897 33.38103 35.21709 36.28157 38.16886 40.68280 42.54314 47.28832 53.42197 61.70277 69.20465 73.38940 82.74639 92.64999 103.72569 109.25780 112.52519 111.78456 110.44851 108.74074 107.42080 106.01729 104.66391 103.37836 102.02731 100.80801 100.11628 98.97314 98.49151 97.94905 97.73724 97.42897 97.15375 96.97190 96.80671 96.62448 96.60424 96.54093 96.58626 96.59639 96.59162 96.72754 96.71751 96.87629 97.20513 97.32692 97.52594 97.92896 98.57021 99.12534 99.48922 100.90433 101.92835 103.66195 104.82777 106.26494 108.11210 109.16964 110.40762 110.70005 110.16875 106.07287 103.92001 103.65490 98.31064 93.91155 84.81174 85.56737 85.12763 83.59168 81.10549 76.68073 73.31870 68.38384 64.14070 57.57598 54.72721 50.17799 43.16306 34.70139 34.93764 30.94914 28.62267 27.33320 27.09537 28.47887 29.04641 29.73672 29.48641 28.36803 27.57993 26.81958 26.27454 25.75948 25.45237 25.36211 25.31129 25.29065 25.28200
25.25100 25.25742 25.26812 25.29325 25.33543 25.50444 25.67672 25.99651 26.37274 26.87121 27.98744 28.79284 30.17820 31.73231 33.49127 35.30821 37.47509 38.60670 40.74803 42.50236 43.63690 42.22907 41.73212 38.38911 38.08348 39.88923 42.24647 40.80629 41.65130 44.15684 48.01593 52.40168 53.75250 58.18043 61.48081 72.74385 83.08919 92.10993 100.33477 108.43183 111.64469 111.01236 109.60525 107.99633 106.70709 104.62917 103.64035 101.70629 101.06140 99.99999 99.12363 98.68813 98.28802 97.51340 97.21604 96.85131 96.69908 96.59494 96.42976 96.39287 96.31794 96.28873 96.22986 96.22506 96.36300 96.37687 96.48303 96.60868 96.76634 96.84693 97.11406 97.46265 97.80099 98.40383 99.06074 99.86154 101.11566 102.42935 103.77341 105.00933 107.00167 108.31093 109.93128 110.77966 111.77154 112.07604 108.69993 106.71196 103.57074 96.07051 95.44527 91.69698 85.95775 82.55339 73.21179 68.36529 64.91340 64.20371 61.39244 53.70639 45.58037 43.65383 37.48324 34.78939 30.29477 28.44073 28.57545 29.34669 29.90572 31.29701 31.46907 31.86267 30.38729 27.98991 27.43853 26.48868 25.89925 25.65219 25.45106 25.37552 25.32172 25.29119 25.28600
25.25000 25.25000 25.26609 25.29386 25.33997 25.51258 25.69402 26.11781 26.38281 27.04988 28.01814 28.86035 30.43998 32.93902 34.33788 35.36719 36.69521 37.57810 40.20796 44.38549 45.65370 48.01787 46.94765 48.19055 47.88120 45.73637 47.20916 48.11081 44.44963 47.27676 54.29938 59.33652 60.86011 67.40901 71.90963 78.20386 82.22058 95.27768 101.10762 108.65592 110.69676 110.20676 109.22786 107.47448 105.76068 103.97514 102.77918 101.67419 100.55360 99.25728 98.77484 97.83582 97.25141 97.01806 96.83574 96.53144 96.38201 96.35470 96.22486 96.11088 96.06645 96.03950 96.05561 96.04306 96.06301 96.08295 96.18049 96.32232 96.45682 96.54079 96.78627 97.10424 97.38992 97.92573 98.41264 99.11666 100.54423 101.50711 102.80031 104.25691 106.24078 107.32865 109.09391 110.29757 112.21784 112.76329 112.16305 108.81164 104.80180 100.02629 96.71786 89.02912 84.46005 75.59180 66.60937 59.98133 57.13882 55.39949 55.34739 48.38887 42.64559 36.48024 35.51577 31.65141 30.65090 30.43164 30.85031 32.03223 33.81181 34.32539 33.14998 32.23823 30.93402 28.84974 26.94428 26.50627 26.12851 25.80118 25.56288 25.41257 25.34373 25.29548 25.32800
25.24900 25.25808 25.26916 25.28317 25.36931 25.48476 25.68560 25.71060 26.12112 26.80465 27.63199 28.32046 29.33813 31.64194 33.30888 33.22351 33.97382 35.50344 37.04781 40.80434 47.14783 48.53119 50.69044 52.15356 53.67588 55.17735 55.34226 53.10866 54.53233 51.57991 54.93166 62.93456 70.87932 78.27993 78.95004 86.38245 92.30982 96.99061 103.32958 109.85020 110.35477 109.51727 107.80633 106.86862 105.20612 103.75133 101.89373 100.91053 99.34065 98.67094 97.94214 97.57365 97.08351 96.81619 96.57710 96.34936 96.18942 96.07013 96.00266 95.93852 95.88698 95.83612 95.85910 95.88223 95.88435 95.95279 96.05004 96.08380 96.15757 96.31867 96.49537 96.72660 97.11766 97.62341 97.94918 98.79620 99.51691 101.00337 102.37213 103.48973 105.34491 106.77668 108.45221 109.59681 110.72965 112.35479 112.04290 108.30391 102.12465 98.48927 89.94678 84.34224 77.75960 70.90599 64.17205 57.34529 55.26887 49.28814 46.76711 44.46600 39.48021 36.92662 34.75219 34.51047 33.81515 35.26658 36.37577 36.88549 36.42727 35.48469 33.57193 32.23230 30.36895 29.22349 27.95963 27.07710 26.41738 25.97123 25.66743 25.45973 25.35477 25.30595 25.35300
25.25000 25.25000 25.26694 25.28584 25.34688 25.41189 25.49664 25.56176 25.66311 26.10986 26.47486 27.33669 27.79718 28.83893 30.27491 29.74834 29.97380 30.85798 32.55637 37.21881 42.34214 45.93107 49.64156 53.91041 56.67436 61.16613 61.71877 62.35378 62.96899 58.84253 61.70483 66.16715 77.24649 81.57725 90.47939 93.40223 99.30821 106.06733 109.23674 110.60461 110.18297 108.80712 107.55422 105.49808 104.12359 102.42952 101.32865 100.11069 99.04680 98.39003 97.68098 97.15567 96.82277 96.53197 96.33754 96.18808 96.04873 95.94202 95.86853 95.79835 95.79929 95.77057 95.76446 95.76106 95.76340 95.79932 95.87667 95.95444 96.02209 96.15575 96.30508 96.49202 96.79844 97.10873 97.62999 98.22518 99.33041 100.24751 101.21886 102.95830 103.92944 106.57152 107.06602 109.03694 110.51524 111.64251 111.52554 107.37409 100.36450 94.99100 86.51570 81.51085 74.18241 70.91902 70.96144 66.17668 61.87014 54.86568 45.77675 41.12339 40.08795 40.49421 39.34678 38.26599 38.90667 38.64733 37.89753 37.22224 35.68232 34.89930 32.07947 30.85650 29.67429 28.65119 28.15505 27.22001 26.58028 26.09452 25.71037 25.48098 25.39991 25.31585 25.36200
25.25100 25.25100 25.26383 25.28212 25.30796 25.33910 25.34974 25.34375 25.45101 25.62956 25.83500 25.93592 26.66560 27.36072 27.70075 28.04774 29.67934 30.64183 32.47856 34.35401 40.77908 43.50311 46.91485 51.96366 57.51770 62.40231 67.14208 69.87299 72.50664 70.98063 70.66207 71.71749 78.36858 90.25905 96.94861 99.45232 106.17264 108.51243 110.82872 110.86735 109.81431 108.54956 106.69449 105.34099 103.43923 102.00691 100.69047 99.29397 98.63098 97.87570 97.09541 97.01474 96.57720 96.32824 96.16604 96.03654 95.91532 95.79957 95.74525 95.68200 95.67526 95.64241 95.63674 95.64290 95.67063 95.66190 95.73437 95.82823 95.87825 96.01704 96.17826 96.40345 96.60109 96.74652 97.32457 97.83833 98.67005 99.57382 100.56308 102.14733 103.47658 105.45361 106.64194 108.42556 110.11202 111.05344 111.05933 108.48273 103.36480 95.90464 90.35981 86.56987 85.20721 78.37401 76.08794 73.48266 66.27564 58.34549 51.29115 44.66905 45.91402 45.95779 44.01029 42.74344 40.14972 38.37852 36.90489 34.19261 32.82697 31.80799 30.42060 28.58008 28.70706 27.89716 27.46696 26.99033 26.25994 25.79116 25.62140 25.46014 25.40475 25.32580 25.44300
25.25000 25.25000 25.26165 25.27437 25.28147 25.30003 25.31251 25.40226 25.52572 25.70783 26.06593 26.41083 26.44953 26.70012 27.40475 28.75506 30.83752 33.73623 34.81284 36.97355 38.22583 42.96829 47.25155 53.89921 60.69196 66.79884 70.04466 74.37998 77.02648 77.95842 76.86013 78.38903 82.73416 92.25104 99.47356 104.46859 109.43661 111.39345 111.56534 110.83349 108.91701 107.80069 105.59204 104.38018 102.75316 101.61086 100.14251 98.85474 98.35529 97.46439 97.06470 96.72452 96.38223 96.22176 95.99774 95.90863 95.81485 95.72904 95.66855 95.62634 95.57633 95.55881 95.55708 95.55960 95.56981 95.60074 95.64095 95.70036 95.77710 95.86655 96.04140 96.14396 96.48612 96.71593 97.00969 97.52506 98.25877 98.87703 100.25950 101.36989 102.68226 104.57333 105.87977 108.11212 109.38559 110.41218 111.04269 110.44872 105.23958 100.35553 99.15228 92.23780 88.99130 84.28467 80.03081 74.75716 64.81355 59.59212 51.58324 49.56501 53.04584 49.31381 47.02633 43.48243 39.56964 36.92508 34.43920 31.94540 30.21634 29.43651 28.21112 27.19945 27.00071 27.46968 26.39231 26.26526 25.80754 25.63691 25.49546 25.43098 25.37625 25.33515 25.42600
25.24900 25.25812 25.26588 25.27378 25.29658 25.32550 25.37150 25.45536 25.72575 26.04010 26.57749 27.17887 27.42783 27.85750 29.18749 30.32504 32.21137 34.66110 40.04982 42.28627 43.48108 46.97755 54.22485 59.20001 62.74141 67.23874 70.84636 73.79898 76.72009 79.89179 80.32241 82.98974 89.57015 93.81140 99.94700 107.12714 110.40437 112.71560 112.13714 110.46107 109.41373 107.42867 105.45456 103.87640 102.44633 101.28843 100.00328 98.58281 97.97023 97.31513 96.99281 96.53627 96.29737 96.07574 95.90780 95.82676 95.70296 95.65427 95.57064 95.53482 95.49703 95.49807 95.49320 95.48212 95.51844 95.53506 95.60380 95.65417 95.73528 95.82080 95.93758 96.03868 96.22700 96.53940 96.86699 97.30455 98.17095 98.65226 99.72725 100.92786 102.01997 104.12907 105.51077 106.95409 109.13542 110.19190 111.52377 111.04316 109.12117 104.77991 101.91161 95.67808 91.33107 86.33798 78.46175 72.95948 65.94148 59.67566 57.56664 57.96825 56.63973 53.64280 48.11963 43.34550 39.34360 35.86530 33.88143 33.29956 30.44570 29.62658 28.28298 27.28559 26.58411 26.04823 25.89365 25.80105 25.67596 25.62198 25.50721 25.40674 25.36612 25.34203 25.35000
25.24900 25.25242 25.26677 25.29518 25.34426 25.36302 25.47852 25.58134 25.79629 26.33318 27.13439 27.99357 28.95039 29.64409 30.92314 33.62310 34.92296 36.90686 41.58899 45.70131 48.23661 50.92735 57.75447 59.98699 60.57066 64.04575 67.35038 69.44973 71.13779 75.08791 76.80236 84.81809 89.28395 95.04899 100.07485 104.64812 110.34618 112.72847 112.01705 110.32461 108.89248 107.27196 105.65080 103.84484 101.88077 100.49467 99.53457 98.38732 97.90507 97.17999 96.77219 96.48738 96.18199 95.97744 95.83826 95.76878 95.66114 95.53852 95.53032 95.47819 95.46036 95.44462 95.42497 95.43419 95.43885 95.48780 95.50849 95.59434 95.64618 95.72917 95.87713 95.99235 96.12494 96.41332 96.77605 97.13923 97.71780 98.38701 99.49832 100.35143 101.86219 103.51792 105.32689 106.54377 108.64966 110.08173 111.72700 112.40261 110.69916 106.19793 101.62975 97.37652 93.72416 87.21462 80.05034 74.39577 70.89276 67.09909 62.92598 60.77725 56.23635 52.66054 47.12944 44.57972 41.31420 38.26607 37.01967 35.35894 32.39036 30.82599 29.04620 28.50786 27.13568 26.69946 26.17355 26.19849 26.12980 25.81617 25.58401 25.50331 25.39698 25.34067 25.33300
25.24900 25.25820 25.26713 25.31670 25.37878 25.49474 25.59841 25.75767 26.06604 26.21638 26.93765 27.54506 28.98941 30.75262 32.36756 34.88413 36.99145 39.48219 42.38216 48.07859 50.02636 53.75305 55.44111 58.08216 57.16455 57.88944 59.91294 61.30194 63.16035 64.14733 70.32303 77.44729 80.50895 88.27639 96.44053 103.69196 109.34946 112.19956 111.63971 110.40635 108.57004 106.92507 105.19770 102.89581 102.08493 100.38271 99.20459 98.17092 97.60954 97.04649 96.65399 96.34513 96.17795 95.89335 95.81012 95.72101 95.60157 95.52185 95.50225 95.43827 95.41041 95.39083 95.38954 95.38749 95.41398 95.43633 95.48348 95.52916 95.62486 95.69785 95.80828 95.91469 96.07587 96.35344 96.64734 96.98075 97.68399 98.14558 99.15129 100.11175 101.75753 103.21479 104.76342 106.70628 108.64387 109.91104 111.83324 112.31397 110.45012 106.27275 101.23550 95.33176 90.72202 82.53494 77.98923 73.15207 70.85725 65.26816 60.13961 55.47348 51.52990 47.05502 43.80243 41.83975 38.94547 37.54710 36.81098 35.67422 33.32940 31.80132 30.05520 29.03986 27.83991 27.43985 27.21485 26.73765 26.37735 26.08422 25.77544 25.54495 25.43232 25.34294 25.42900
25.25000 25.25920 25.27429 25.31439 25.41028 25.53557 25.71620 26.05326 26.36217 26.83809 27.52323 27.93568 29.38281 31.04562 33.79094 36.03028 38.30284 41.38195 44.67830 47.95260 48.83822 49.34843 50.39350 50.36202 49.90068 47.65038 49.87799 51.45197 52.68747 56.80236 62.65256 71.17106 77.47320 86.39419 95.96079 103.87810 109.58958 112.41659 111.39986 109.76949 108.45040 106.81159 105.28791 103.28736 101.35604 100.25914 99.02246 97.95357 97.63018 96.92236 96.61430 96.24535 96.07624 95.90982 95.76671 95.67902 95.56160 95.49930 95.44288 95.40764 95.38793 95.36049 95.36084 95.36836 95.38172 95.41447 95.43828 95.50744 95.56707 95.65771 95.77775 95.90164 96.08025 96.23573 96.52793 96.96092 97.41913 97.92610 99.35176 99.97717 101.21095 103.11687 104.74772 106.21837 107.49557 109.70613 111.60798 112.76144 110.98667 108.95374 101.23380 94.34976 88.10509 81.17368 76.57306 68.05567 61.88044 57.35433 51.48939 45.84921 42.94380 40.16694 38.00821 36.15974 36.08851 34.82293 34.88446 33.70449 31.70439 30.96497 28.77635 27.90007 27.37551 27.27974 27.15018 26.84827 26.55229 25.96423 25.75386 25.54635 25.43479 25.34536 25.47800
25.25000 25.25805 25.28797 25.31758 25.42560 25.58836 25.88893 26.36398 26.69226 27.43329 28.09258 29.43846 30.21300 32.23568 33.72910 36.15067 38.50117 41.01465 42.60631 43.53963 43.14728 46.80343 44.02422 42.77696 42.69519 40.65539 43.23227 47.83285 55.20317 62.14798 66.76208 71.47622 80.59750 87.34475 98.44937 103.84551 109.62560 112.32779 111.48215 110.12517 108.30615 106.56976 105.02274 103.06702 101.46481 100.32882 98.99856 98.18669 97.33557 96.90261 96.53551 96.25306 96.04724 95.88431 95.74281 95.66365 95.54623 95.47929 95.43287 95.37850 95.35698 95.33771 95.33263 95.34198 95.36108 95.39431 95.42268 95.50629 95.55235 95.63981 95.73635 95.86004 96.02890 96.26299 96.42764 96.95455 97.35368 97.96654 99.17542 99.98360 101.01828 102.54863 104.37484 106.59277 107.98701 109.98411 111.19599 112.54852 111.34089 107.83109 102.73370 96.59861 91.73152 84.44914 78.44025 69.83139 63.28830 56.50187 50.46732 45.62774 40.32534 38.40060 34.27168 33.45928 31.38469 30.47839 30.03099 30.58897 29.84606 28.31774 27.73815 26.74616 26.35516 26.52454 26.71717 26.39615 26.25399 25.91078 25.58462 25.49133 25.39038 25.32194 25.41600
25.25000 25.25000 25.28430 25.32316 25.40101 25.60158 25.80270 26.20736 26.68536 27.47874 28.45711 29.50227 30.63420 31.53462 31.93064 32.70424 34.18635 36.20337 36.71925 38.67764 37.02218 37.83377 37.74314 36.22061 38.46708 42.77443 48.66840 49.39753 53.05806 58.52655 65.43809 73.24673 82.79536 88.97358 98.76865 104.76335 110.25633 112.42716 111.39090 110.04980 108.37216 106.91606 105.28204 102.62933 101.31283 100.20899 99.06696 98.01066 97.46539 97.10479 96.47431 96.28393 96.04776 95.87263 95.75779 95.61577 95.55093 95.48016 95.41806 95.37765 95.34589 95.33374 95.32591 95.33263 95.35234 95.39372 95.42537 95.48918 95.55188 95.60654 95.73010 95.86417 96.03765 96.24770 96.48439 96.85310 97.43729 98.03941 98.87796 99.86315 101.15585 102.90310 104.51727 106.45275 107.76355 109.42078 111.08319 112.19157 111.20706 106.29154 102.08015 96.28963 89.00008 77.18016 71.12268 65.97740 62.45509 56.87551 53.23662 47.51511 43.15445 37.59491 34.33807 31.29981 30.71774 29.40487 28.82298 28.46599 27.73281 27.08669 26.89923 26.56548 26.15264 26.06366 25.84146 25.81871 25.85469 25.60635 25.52267 25.41238 25.35808 25.32080 25.31200
25.25000 25.25000 25.27035 25.31442 25.39357 25.49387 25.61687 25.85129 26.07945 27.13397 27.96024 28.56597 29.27722 29.55806 30.03328 30.24280 32.41413 32.56454 32.72033 33.71095 33.01685 34.26576 36.26958 37.18429 44.03581 47.92242 51.84087 58.01823 59.15142 63.11697 70.48847 75.06523 82.51129 91.76205 98.86014 104.28194 110.24926 112.41808 111.24785 109.76669 108.34206 106.90024 104.68803 103.17400 101.64290 100.41044 99.09234 98.06876 97.42742 97.00012 96.51755 96.20182 96.03705 95.83518 95.75205 95.63620 95.56769 95.48023 95.44088 95.38985 95.35774 95.34412 95.33227 95.33995 95.35152 95.38530 95.42989 95.50695 95.55757 95.62377 95.77744 95.86721 96.01054 96.29679 96.52802 96.95386 97.45396 98.15913 98.92462 99.97817 100.93786 102.84273 104.21013 106.55386 108.63449 109.53658 111.31736 112.29595 111.08423 105.93738 99.03942 91.78974 82.40597 75.40473 64.95781 59.97353 53.22387 49.88538 49.82859 44.58853 37.23267 33.95205 34.50644 33.64658 33.61619 31.44476 30.09011 28.51207 27.83160 28.42514 28.68648 28.01290 26.93477 26.32410 25.79629 25.60574 25.53073 25.50843 25.41861 25.36943 25.33415 25.31680 25.30800
25.24900 25.25837 25.26700 25.28914 25.32179 25.36031 25.38661 25.55397 25.74090 26.03287 26.14758 26.93758 27.42865 27.99549 27.44382 27.40613 28.64229 29.40088 29.62604 29.74649 31.18787 31.56868 34.60150 41.12795 47.08721 53.48608 59.20428 63.75893 69.69465 72.25613 76.63530 82.50197 87.85637 95.08913 100.84466 104.75113 109.01398 111.68272 110.66037 109.86135 108.24917 106.87096 104.99959 103.16703 101.67781 100.11574 99.18721 98.06720 97.41506 97.04532 96.57820 96.29613 96.07211 95.88813 95.74407 95.65845 95.58198 95.50478 95.45145 95.40163 95.37830 95.36157 95.35650 95.35637 95.38751 95.39689 95.45233 95.50790 95.57834 95.63966 95.77713 95.89826 96.04555 96.34827 96.55630 96.91880 97.49494 98.24892 99.16617 100.12283 101.61613 103.10790 104.72879 106.71700 107.86311 109.66460 111.70903 112.96687 112.17838 107.46776 102.56225 92.33175 87.30748 82.26447 70.17391 63.12932 57.15674 48.98883 46.48174 42.98164 43.05125 41.20942 42.70012 38.91598 36.99020 33.99037 33.11908 32.03555 31.83543 31.85910 29.91274 29.34201 27.85758 26.95067 26.29149 26.01405 25.74527 25.51204 25.44919 25.38626 25.34987 25.31788 25.35900
25.24900 25.25678 25.26603 25.28470 25.28883 25.32880 25.41785 25.45336 25.43903 25.54642 25.72080 25.91525 26.52312 26.38192 26.91530 27.64425 28.13022 29.26680 30.60059 31.98378 33.84939 35.49877 38.02752 42.83655 49.46299 55.48238 63.23718 68.36204 72.36129 76.02858 81.14112 83.94322 85.38974 94.34434 97.57788 101.62010 106.40082 110.17631 110.85496 109.96291 108.50174 106.52501 105.58050 103.11876 101.93138 100.35232 99.03462 97.99961 97.53307 97.14272 96.58152 96.37342 96.12553 95.95010 95.80785 95.67988 95.60691 95.53758 95.50412 95.43210 95.40271 95.38567 95.38249 95.39260 95.42337 95.43365 95.49476 95.52666 95.60941 95.69659 95.82989 95.95615 96.09542 96.29341 96.68645 97.02294 97.61013 98.42476 99.34563 100.36170 101.61445 103.63158 104.57368 107.28765 108.30822 110.22700 111.25605 113.14075 112.93733 109.46222 102.74817 100.85093 93.15368 88.63957 82.72027 73.91156 61.13792 58.38411 56.06800 53.69354 49.42808 48.60039 47.28165 45.14234 42.27974 39.96860 37.37162 34.39809 33.65524 33.82522 33.16726 30.84857 29.25825 28.67637 27.82476 26.50125 26.11358 25.80414 25.62303 25.55485 25.38431 25.32769 25.42300
25.24900 25.25794 25.26857 25.28572 25.32513 25.44133 25.54345 25.60931 25.72954 25.78734 26.12838 26.54550 26.42938 26.53344 27.96397 29.43731 30.65620 31.58593 33.61637 35.61672 37.99350 40.80932 43.52284 46.94211 51.27083 55.03938 59.92257 64.93396 68.89045 72.63488 76.42713 78.12957 80.92615 84.70354 91.11193 96.11653 102.75684 108.35423 110.14773 110.22689 109.02208 107.14417 105.49823 103.89997 102.01445 100.63172 99.34428 98.55638 97.49342 97.21341 96.73656 96.40328 96.23638 95.98943 95.87428 95.73738 95.63024 95.58150 95.54310 95.48862 95.45202 95.43517 95.41933 95.43040 95.45028 95.48985 95.51728 95.56824 95.65969 95.74628 95.83726 95.97914 96.19390 96.39868 96.81228 97.19350 97.78101 98.42373 99.40692 100.74043 101.84087 103.76282 105.62241 107.27207 108.53992 110.05477 111.79267 112.36244 111.19413 109.23568 104.57876 100.81116 97.08317 89.28895 86.10094 77.99788 70.94131 64.88202 61.98277 58.73202 56.83795 53.03559 50.58562 47.47028 44.49520 41.26377 39.25364 36.75669 35.49076 34.21583 33.20719 32.28909 31.05649 29.75097 28.65396 27.67586 26.95568 26.20360 25.85049 25.54420 25.43563 25.34690 25.41400
25.24900 25.25691 25.26827 25.30725 25.35115 25.43150 25.68886 26.04835 26.09734 26.88507 27.10528 27.62255 28.31634 28.30765 29.56218 30.98549 34.03372 35.54227 36.21925 38.27181 40.41170 42.05661 42.66732 46.71450 49.09621 52.02213 54.47910 56.37593 58.35325 65.27803 67.79792 67.46589 71.70573 79.93186 83.61039 92.54204 99.09150 105.85112 109.29376 110.21319 109.18587 107.37871 105.81233 103.89476 102.32513 101.24395 99.77901 98.58978 97.98609 97.31968 96.86776 96.52481 96.30274 96.06922 95.93301 95.81417 95.73509 95.62666 95.58464 95.52663 95.49339 95.50356 95.50019 95.49570 95.52809 95.53288 95.59613 95.64092 95.70079 95.80390 95.90904 96.09332 96.20199 96.57740 96.80917 97.24071 97.90728 98.94785 99.89266 101.04974 102.35547 103.76322 106.37762 107.76529 108.92260 111.01214 111.99326 111.60823 107.96929 106.21119 101.17849 98.02813 93.42040 87.50875 83.90826 78.62004 72.50122 69.45179 64.51198 60.03314 56.88741 53.91220 49.42826 46.48254 41.33396 38.31767 37.29213 35.31194 33.05409 31.91206 31.28497 30.98621 30.68274 30.04356 28.59157 27.92212 27.19727 26.53134 25.90109 25.61940 25.41665 25.34482 25.37600
25.25100 25.25990 25.26961 25.29636 25.37077 25.46714 25.85826 26.21227 26.48497 27.45269 27.95891 29.04959 29.95086 30.21182 30.95892 33.33691 35.37522 36.87116 37.70146 38.35792 39.16314 39.50647 38.79317 40.39205 40.94918 42.66378 45.18542 49.15739 49.53236 56.41564 59.94337 60.23530 66.34563 73.54639 80.41033 91.04946 98.28598 104.55575 109.94364 110.53337 109.10412 108.06351 106.43343 104.40361 103.03541 101.29179 100.07203 99.33467 98.18797 97.54287 96.99844 96.69869 96.51402 96.19874 96.02651 95.87750 95.77081 95.73667 95.64308 95.60395 95.56782 95.55412 95.54859 95.55655 95.58666 95.61752 95.64449 95.71895 95.79815 95.90424 95.99118 96.14698 96.43602 96.68335 97.07959 97.61560 98.15973 98.90902 100.07608 101.52464 103.40154 104.49731 106.34104 108.04647 109.21552 111.64042 111.91996 109.42456 105.08763 97.79907 94.12644 88.44001 85.74286 81.98222 81.48844 74.94932 70.93468 66.26289 60.72603 57.07865 52.87783 49.14610 43.93277 41.63452 38.71963 35.21727 33.63442 32.23778 30.37133 29.15715 28.70173 29.45924 29.64720 28.78506 28.17058 27.65044 27.02733 26.29193 25.94717 25.67466 25.42615 25.33464 25.38000
25.24900 25.25790 25.26949 25.30016 25.38252 25.50936 25.79176 25.95711 26.53913 27.60643 28.24923 29.52655 30.48382 30.98198 31.66786 33.53473 34.14276 34.72568 35.01666 34.46302 33.48715 33.09053 33.33914 34.90007 36.44390 36.81674 39.88303 43.65175 47.11766 50.79292 56.78318 64.50279 72.46744 74.14961 82.56916 91.92631 99.96413 107.41342 110.18250 110.91800 109.97538 108.11205 106.55698 104.42282 103.23327 102.00024 100.52185 99.46584 98.70974 97.88617 97.31829 96.92203 96.65187 96.37434 96.15984 96.00199 95.91300 95.81071 95.75300 95.69687 95.66732 95.60169 95.63448 95.65884 95.70099 95.72835 95.76508 95.80475 95.88642 95.96242 96.16491 96.31131 96.54949 96.96969 97.27880 97.89423 98.60336 99.50956 100.62128 101.55888 103.55146 104.92541 106.96542 108.70452 110.17393 111.46743 111.32366 109.02177 104.57840 93.06588 86.44340 80.41970 76.55796 71.91792 72.59956 72.91061 67.90856 65.73132 61.37558 59.03094 55.26481 52.52920 50.12986 43.77904 41.07684 37.55470 34.67241 32.92945 31.74176 29.84857 27.69638 27.38245 27.49526 27.62492 27.11701 26.75588 26.48746 26.14156 25.73990 25.53412 25.39350 25.32439 25.39600
25.24900 25.25817 25.26755 25.28175 25.35045 25.49842 25.61439 25.86242 26.18586 26.94263 27.92692 28.65910 29.22349 29.41896 29.96885 30.18878 31.45074 31.41163 30.77822 31.87161 30.56278 31.81196 35.71934 38.28509 39.95492 43.86970 46.82388 49.70281 52.29394 59.05661 65.84069 70.09545 78.99676 81.80318 87.07822 95.59592 102.17729 107.17242 110.77467 110.88583 110.40875 108.65097 106.80378 105.84258 103.84020 102.34763 101.58677 100.20107 98.93957 98.28013 97.60168 97.19024 96.75358 96.54399 96.42336 96.15243 96.00980 95.92387 95.83837 95.80254 95.75172 95.77896 95.75942 95.74495 95.78515 95.81644 95.84713 95.91367 96.09445 96.18353 96.32418 96.52589 96.66518 97.13603 97.78827 98.21338 98.98775 99.72133 101.20979 102.51801 104.44288 105.41545 107.13756 108.94611 109.77443 110.65663 108.10404 107.06350 100.79119 95.21656 85.33310 76.95412 67.85718 62.77318 63.81335 64.23585 64.73101 59.43977 56.17072 55.10506 55.91432 53.97907 52.10640 49.00370 45.10071 40.62959 38.11741 35.26270 34.08799 30.82754 28.97288 26.86257 26.36515 26.24745 26.35276 26.01783 26.01036 25.90984 25.61158 25.46192 25.36444 25.31485 25.34100
25.24900 25.25307 25.26812 25.28475 25.33146 25.37065 25.53576 25.70996 25.85492 27.05462 27.10012 27.21259 27.57227 27.14674 27.22674 28.71904 28.62568 29.17327 28.77229 29.89655 31.68824 34.96206 39.49610 41.46151 47.80512 51.98446 55.41439 59.85240 59.44867 67.52244 72.56257 77.43491 83.65714 89.88256 93.15584 96.21790 102.39858 106.17341 110.05468 110.61041 110.61540 109.06989 107.96949 106.47183 105.05932 103.15104 102.03742 100.85141 99.61348 98.83852 97.91201 97.56656 97.09551 96.78690 96.50713 96.36475 96.14558 96.08510 96.03919 95.93513 95.92570 95.88192 95.87354 95.89759 95.96191 95.94367 96.00807 96.10216 96.20045 96.33199 96.45304 96.79382 97.11351 97.50194 97.98054 98.53803 99.88336 100.70610 101.89362 102.97668 103.26229 101.38368 106.93113 108.03195 108.44559 107.09596 102.48884 98.77508 97.27472 93.35632 87.84268 78.21585 67.93996 59.24680 54.61658 55.30172 53.47672 50.40920 50.73437 49.35928 50.71818 52.52011 51.89047 50.23736 48.70699 44.09868 41.73364 39.33584 35.46870 32.63633 29.81845 27.72592 26.95029 26.13161 25.83647 25.60111 25.53721 25.51874 25.49841 25.45875 25.34859 25.30485 25.32800
25.24900 25.25653 25.26937 25.28436 25.31768 25.36191 25.39627 25.53968 25.78064 26.15157 26.46895 26.24152 26.21309 26.07660 26.40505 27.21194 26.84597 27.77942 29.01066 31.16158 35.79422 39.35166 42.83873 48.60056 51.27269 59.35544 61.72508 65.10185 66.37166 73.19145 78.90255 82.00913 84.72325 87.50565 89.34431 91.56356 95.14795 101.42665 105.06451 109.82453 110.76776 110.14804 108.43550 107.42986 105.94142 104.78976 102.77653 101.79621 100.15402 99.45393 98.53357 97.88769 97.55837 97.21833 96.88645 96.65857 96.42521 96.26994 96.11160 96.13896 96.06833 96.03066 96.05532 96.05934 96.07162 96.09443 96.16426 96.28534 96.36333 96.61338 96.89756 97.10348 97.48043 97.94845 98.52990 99.42720 100.16088 101.59535 102.65224 103.28090 102.27156 98.12656 97.72235 99.91392 97.61089 95.05302 93.51749 85.04821 89.72685 84.53919 82.44123 79.19580 70.00735 64.69453 58.38677 49.29928 47.27202 43.81195 40.88823 39.48708 44.09340 44.66035 46.48942 45.29365 47.43922 46.18650 42.95162 38.65077 35.16095 32.81197 30.00063 28.99817 27.36762 26.72816 26.20635 25.86773 25.56071 25.44963 25.41396 25.36282 25.31144 25.29491 25.32300
25.24900 25.25845 25.26750 25.27458 25.29568 25.31253 25.35201 25.43124 25.58096 25.63209 25.66411 25.53557 25.83744 26.28826 26.81408 28.26933 28.25512 28.78144 31.20678 35.20026 37.17703 41.64934 47.83560 52.79668 56.25469 61.48520 65.05177 70.44917 72.39107 76.15082 79.06779 80.71038 83.34535 81.19840 79.90936 82.89368 88.14601 92.80968 104.05865 107.69632 110.74867 110.73524 109.96629 108.40061 106.77926 105.56599 104.36151 102.98319 101.51097 100.33322 99.60115 98.38954 97.85306 97.50454 97.21823 96.85898 96.77942 96.55025 96.41777 96.42736 96.30170 96.23761 96.20123 96.32514 96.29440 96.38649 96.46476 96.48704 96.75283 96.90024 97.15932 97.52554 97.90662 98.43758 99.07093 100.88945 101.24725 102.45682 103.79536 105.14674 105.33251 105.49199 100.49430 98.16819 86.95884 75.76726 78.07535 65.10728 57.43711 61.05108 74.56821 70.33699 67.40607 65.23835 59.66394 52.53032 44.45046 39.41345 37.99872 35.07593 35.72998 36.84469 41.40327 42.54676 44.75777 45.25599 43.55863 38.15818 34.57886 31.48453 30.12343 28.34008 27.67705 26.87093 26.32754 25.98990 25.71102 25.48841 25.38953 25.30620 25.29568 25.28457 25.28100
25.25000 25.25945 25.26508 25.27493 25.28714 25.29589 25.30691 25.33720 25.38907 25.50600 25.60872 25.92386 26.39998 27.92889 29.34223 30.05727 30.74916 31.39692 35.24362 36.12328 39.07830 43.36687 46.74474 49.34063 54.61187 57.99532 65.21376 69.44404 70.83676 71.75949 72.63450 72.50231 74.08505 71.68108 68.18414 75.72253 83.31969 90.89371 100.68081 107.89809 110.92021 111.50588 110.49703 109.14097 107.79364 106.69313 104.97001 103.85375 102.65028 101.08936 100.11915 99.58734 98.46903 98.02720 97.70350 97.23731 97.01208 97.00621 96.72915 96.63805 96.53418 96.44297 96.48567 96.50465 96.49895 96.62886 96.68157 96.90487 97.08679 97.27958 97.78463 98.09929 98.66669 99.23492 100.23765 101.07275 102.12691 103.17859 104.80806 105.64605 107.59008 108.87731 109.43688 109.54568 108.26627 102.25366 94.57329 84.59089 74.89639 56.99748 53.92420 59.55414 52.94556 56.65296 56.38805 55.55234 50.01308 44.65306 41.92979 34.34042 33.38554 34.12605 33.95946 37.04042 38.89172 40.97027 41.20228 38.01854 35.85328 31.07701 29.97991 28.13598 27.40805 26.40732 25.94795 25.86647 25.67132 25.54368 25.40883 25.33928 25.29956 25.28393 25.27500
25.25100 25.25100 25.26404 25.27408 25.28629 25.28986 25.32170 25.36927 25.46112 25.74685 25.94077 26.55658 27.90706 28.84895 30.07736 31.34549 32.70580 34.22876 35.52786 36.55356 38.14806 40.98418 44.61521 45.80155 49.78816 56.08111 62.87710 65.14769 63.81672 62.25349 66.20812 62.13221 64.15962 63.37459 65.97681 74.37346 83.26841 93.19169 98.55380 107.34089 111.09684 112.18267 111.55601 110.16177 108.57553 107.55276 106.52719 104.52847 103.67950 102.46939 101.22533 100.14036 99.49527 98.52726 98.20128 98.00844 97.67955 97.31333 97.21007 96.97970 97.00918 96.86480 96.85094 96.84087 96.98416 97.14110 97.29352 97.32734 97.56071 97.93950 98.51508 98.65488 99.49578 100.19327 100.83905 102.05687 103.74944 104.35532 106.44476 107.11872 108.50807 109.50120 110.66382 111.65651 110.98998 105.41354 100.06557 90.74275 84.40449 70.50787 50.11259 43.49095 40.39593 49.10310 53.89596 50.87666 48.61965 44.69951 40.38113 33.18719 30.89098 29.84868 29.58325 32.28203 34.47344 36.03176 37.93707 37.33182 35.20191 32.98638 31.01200 28.87552 27.51833 26.67166 26.16945 25.75108 25.53080 25.44982 25.41526 25.33220 25.30245 25.28496 25.29800
25.25000 25.25319 25.26465 25.27658 25.28557 25.30697 25.37397 25.48772 25.74423 26.03320 26.46655 27.21272 28.36160 29.27036 30.85700 32.08586 32.61199 33.02650 33.02651 32.66831 34.40969 36.73501 41.48254 46.23461 49.42533 55.19335 58.96127 59.60172 56.86338 54.81380 54.02461 53.31298 57.08180 62.17713 70.69059 76.03026 84.84388 93.67836 101.61014 104.59940 108.48878 111.74032 112.32401 111.30332 109.61372 108.23784 107.37766 105.74990 104.88358 103.23787 102.44315 101.08766 100.34061 99.99862 99.08996 98.71238 98.24037 97.79966 97.77955 97.47850 97.46216 97.40713 97.48170 97.34141 97.47887 97.53642 97.52065 97.85411 98.13180 98.45104 99.01518 99.80264 100.66637 101.19484 102.55006 102.97092 104.44446 105.60877 107.13877 108.07852 109.42062 110.53524 111.56764 111.96131 110.53633 106.53883 100.95585 93.34481 88.87634 75.54194 66.83738 56.31264 53.03990 41.77495 39.29647 41.60278 41.60335 38.49449 36.85744 34.55965 30.15700 28.58511 27.13373 28.11114 30.47215 33.46842 34.73920 34.62984 32.36479 31.62594 30.42930 29.82986 28.57260 27.50621 26.66492 25.90690 25.65452 25.51856 25.35541 25.31399 25.29179 25.28924 25.29500
25.25000 25.25351 25.26361 25.27727 25.28741 25.32783 25.43106 25.56481 25.79451 26.13981 26.64883 27.27886 28.29060 29.12004 30.21718 30.33467 30.31068 30.07622 30.96197 31.77416 34.92516 37.81241 43.80904 48.38448 52.41512 53.52216 55.30758 53.64029 47.93200 47.94632 46.84726 48.80232 59.50133 65.35806 74.15121 82.30424 88.94655 94.16202 98.02612 101.11814 107.45329 109.99294 112.14550 112.05219 110.80631 109.62111 108.36885 107.40502 105.91208 104.73953 103.82879 102.62039 101.46114 100.61041 100.33336 99.55167 99.20885 99.11979 98.47677 98.64071 98.07959 98.11550 97.94623 98.06861 98.06397 98.21617 98.48897 98.47407 99.01604 99.44135 100.19584 100.72597 101.37947 102.33047 103.23136 104.40359 106.05825 106.16157 107.96118 109.21314 110.16975 111.38661 112.28886 111.16269 107.24975 103.66067 97.72308 91.85889 88.25932 85.01361 75.46434 70.19571 65.85418 57.18838 47.02309 39.62174 33.82212 31.74967 33.00111 30.50005 29.35894 29.91950 29.87906 27.45050 28.43269 30.00483 30.37759 30.08084 29.80475 29.47087 29.12743 28.73499 28.49947 27.42533 27.04136 26.41456 25.88188 25.48749 25.37246 25.31467 25.28881 25.27770 25.27000
25.25100 25.25100 25.26284 25.27758 25.28835 25.33555 25.38782 25.53729 25.77826 26.14231 26.35225 26.86416 27.45565 28.04842 28.53736 28.77039 27.83800 28.30709 29.77254 32.63779 34.77761 41.97302 45.76985 49.04118 50.49608 49.24834 47.88846 45.09687 40.89106 43.97634 49.85840 56.13345 65.23228 73.29983 78.44971 84.88762 87.83054 90.10394 90.41049 92.70303 102.63897 106.27423 111.92693 112.31839 111.82748 110.24158 109.24095 108.36783 106.95466 106.51201 104.78400 103.98873 103.22911 101.83443 101.50516 100.51371 100.27710 99.57166 99.47235 99.19858 99.11584 98.82440 98.94647 98.84599 98.89745 99.21321 99.22805 99.50352 100.12350 100.64859 100.89475 101.74333 102.77156 103.39892 105.01882 105.23979 106.86181 108.05697 108.96006 110.45095 111.52807 112.26664 111.56050 108.43397 103.82991 98.33204 94.57012 87.75485 84.42169 83.27561 80.48653 74.68355 72.07410 64.43842 56.13971 50.04447 40.68580 36.29496 36.89085 35.14193 35.57593 33.55456 31.77962 28.46506 26.78025 27.90921 28.18037 28.64136 27.49006 27.42236 27.16008 27.34201 27.09271 26.95730 26.63867 26.26330 25.87697 25.56052 25.41471 25.33993 25.28839 25.27928 25.27000
25.25000 25.25899 25.26625 25.27177 25.28804 25.33927 25.39355 25.49141 25.64418 25.85123 25.84668 26.26857 26.25597 26.63651 26.54502 26.61102 27.69700 29.26972 31.36697 35.32797 38.99060 42.47685 44.22854 46.01163 46.66215 44.08734 43.61629 39.23713 41.29735 46.27168 55.28981 61.49018 70.13549 74.83678 79.75538 83.57191 84.32104 82.92226 85.77208 92.22543 98.99006 105.84419 110.96711 112.60557 112.77148 111.86355 110.60869 110.12206 108.92548 108.00687 106.22736 105.43296 104.47529 103.63990 102.86375 102.14417 101.17545 101.49251 100.83404 100.33838 100.21620 100.19598 99.98895 100.15597 100.10729 100.18286 100.11060 100.51909 101.00132 101.59711 102.41762 102.76471 104.13200 106.15756 106.35317 107.51315 108.22494 109.52119 109.85825 111.15039 112.15874 111.63468 110.62824 106.49190 98.14993 89.99346 86.44551 82.62113 78.19414 75.44118 75.93372 74.21447 73.33618 69.20648 61.76954 50.81747 47.30490 45.25944 43.97860 42.71204 40.01993 36.51349 34.77067 29.94643 28.00966 26.20700 26.37938 26.26327 26.29103 25.90466 26.07161 25.93082 26.11723 26.20742 26.27596 26.04729 25.77309 25.54856 25.39404 25.34996 25.29236 25.27828 25.26900
25.25000 25.25203 25.26408 25.27286 25.28908 25.32074 25.37063 25.38960 25.49558 25.43123 25.52475 25.51970 25.84003 25.96980 26.21903 27.31795 29.00980 30.30675 33.41287 35.92040 39.60634 40.57943 42.25729 41.39321 41.47967 38.50074 36.74990 36.84661 42.55407 49.62108 56.89394 60.61289 69.94972 71.72566 73.37616 73.71891 73.96599 78.73154 86.12250 94.11874 99.31762 103.81516 108.02762 110.81302 112.68039 113.00111 111.74126 111.04908 109.96963 108.99176 108.30436 106.46590 105.97177 104.81069 104.21513 103.77920 103.22910 102.32395 101.90854 102.17265 101.77278 101.86521 101.52334 101.26705 101.16066 101.40633 102.02240 102.26444 102.45690 103.02142 103.60043 104.76218 105.77654 106.50296 107.81735 108.64159 109.48733 110.40836 111.20543 111.57360 110.49705 109.39947 107.33958 101.63618 95.18934 86.33621 79.82874 75.93566 71.67926 68.66707 63.72261 68.12448 69.45653 66.98390 63.56275 57.90889 53.62177 52.64912 51.17525 47.97789 44.78947 41.15527 36.57443 33.55530 30.58977 28.77053 27.40784 26.94311 26.33397 26.25798 25.79941 25.51535 25.52117 25.60786 25.66157 25.71465 25.64284 25.47809 25.41127 25.32550 25.29407 25.28028 25.27100
25.24900 25.25125 25.26210 25.27459 25.28928 25.30217 25.31898 25.33401 25.35519 25.39430 25.57891 25.69326 25.89839 26.09912 26.67417 27.72185 28.59742 29.71141 33.04730 35.04911 37.17915 37.65037 34.65522 35.33975 35.55052 34.51329 34.91953 39.43315 46.81602 51.08011 55.30367 58.14316 58.85386 62.64887 62.35878 67.04541 73.94984 83.17660 86.84612 90.96044 95.60057 99.65563 104.23406 106.20446 108.96944 112.17391 112.33579 111.90516 110.93139 109.89142 109.20872 108.53324 107.54563 106.41833 105.58538 104.19723 104.60287 104.46257 103.64931 103.40894 102.98649 103.47847 103.24010 103.06978 102.89168 103.13937 103.23590 103.46215 104.13186 104.36788 105.06406 106.25595 107.29158 108.11229 109.09433 109.58174 111.07657 111.41460 111.28886 108.54983 107.81718 103.23683 102.84068 99.74075 95.26389 87.29019 76.26645 67.73240 63.77625 62.62738 57.93727 58.57722 60.83219 60.33606 64.10232 61.78583 59.37458 58.24003 55.53447 51.87740 48.01064 42.72205 40.77933 38.42154 34.14296 32.72994 30.75186 28.31228 27.90547 27.45702 26.76739 26.17408 25.61762 25.39344 25.46278 25.43617 25.43467 25.44739 25.38083 25.31494 25.28948 25.27247 25.27200
25.25000 25.25225 25.26344 25.27383 25.28095 25.29347 25.29739 25.32588 25.40428 25.55690 25.69783 26.04704 26.40622 26.82223 26.93739 27.66267 28.17192 28.77178 31.23539 33.03001 34.61714 34.11064 31.68058 31.29863 32.52512 33.26363 37.35721 43.02120 47.52660 49.28303 49.94128 48.43373 52.33105 55.90053 63.48916 70.13867 76.51697 84.06998 85.09102 82.96915 86.58915 93.80781 96.45900 103.71760 106.55861 109.56688 109.57517 111.27090 111.24397 111.24991 110.53341 109.59378 108.69347 108.45287 107.35743 106.73142 105.97740 106.16622 105.68996 105.28522 104.80411 104.87189 105.28687 104.85379 105.32293 105.43007 104.93751 105.38271 105.71850 106.86566 107.02510 107.66038 108.44786 109.35079 109.72909 111.52658 112.31774 112.07361 110.31113 107.33962 101.45372 99.78877 94.72354 94.04760 88.93467 82.05873 73.19238 66.09307 59.33557 55.37704 53.29771 50.93167 51.18390 56.31087 60.62958 61.11569 60.21757 58.57923 56.94591 50.80436 47.37499 43.40228 41.27913 37.59132 36.47978 33.75880 32.12153 30.97548 29.53826 28.75193 27.58318 26.74886 26.14382 25.96796 25.45452 25.41359 25.36316 25.34761 25.33784 25.30799 25.28687 25.26952 25.26900
25.25000 25.25919 25.26629 25.27495 25.28081 25.28996 25.29935 25.33460 25.41941 25.60045 25.78689 26.07469 26.46530 26.70443 26.93215 26.96568 26.93209 27.55867 29.49117 30.67932 30.63379 30.36864 29.60505 30.60740 32.70182 36.40007 39.60551 41.17356 44.48069 45.68147 44.02029 47.72808 53.09869 57.92665 67.36417 73.54767 80.31847 82.25392 82.33118 78.00650 78.75355 87.89862 93.97168 99.71070 100.24181 100.86635 105.18963 106.44150 110.08972 111.89464 111.68881 110.90108 110.12393 109.53765 109.07882 108.66067 108.11208 107.34447 106.82746 107.23133 106.62389 106.56608 107.11498 106.96057 107.01655 106.72978 106.82227 106.96432 107.28473 107.43000 108.20637 108.30141 110.14185 110.49388 112.59279 112.63791 112.32492 111.54769 108.18884 101.20987 96.21905 90.03662 87.89914 88.03153 86.41705 78.64493 69.78978 60.57324 54.92768 50.44754 47.23041 45.89920 43.07889 46.18676 52.70035 53.03888 57.09175 57.39619 52.48555 47.40926 42.86625 39.08260 38.84820 37.08834 34.83801 33.74685 31.79615 31.04002 29.59168 29.26272 27.99926 27.51197 26.73265 26.30435 25.77126 25.53039 25.32910 25.32334 25.29992 25.29415 25.28523 25.27863 25.26900
25.25000 25.25805 25.26670 25.27222 25.28064 25.29150 25.31338 25.34320 25.42500 25.64112 25.76639 25.97076 25.95915 26.06482 26.45908 26.23728 26.04195 26.45795 27.31088 28.61837 28.42253 28.88151 30.20463 32.97123 34.84188 36.73474 38.30768 38.51766 38.45741 39.81410 43.24081 45.55941 57.79999 64.44094 70.10991 75.08944 78.82152 76.93399 72.94911 71.89282 78.52440 87.59382 91.17133 90.03275 90.40764 91.98332 98.54458 99.82663 106.55836 110.92096 112.51753 112.19287 111.77998 110.81897 110.33034 109.99140 109.60384 109.16392 108.68765 108.29410 108.42271 108.47603 108.79243 108.94963 108.43562 108.20931 108.74863 108.43747 108.65607 109.42012 109.95996 110.10570 110.47633 111.48860 112.69330 112.78669 111.83678 109.43895 105.26639 100.98325 92.87268 85.66367 81.65416 80.90154 79.60354 77.84360 69.54278 63.15268 57.89681 49.63674 46.82526 41.89677 39.86832 41.26368 43.52270 48.63626 51.45660 53.20226 48.70303 43.69343 38.61819 35.07151 34.07004 33.19355 32.35010 31.06097 30.71176 29.07543 28.99701 28.48279 27.97515 27.15565 26.69113 26.27197 25.77368 25.59194 25.40224 25.34608 25.31119 25.29308 25.28654 25.27663 25.26700
25.25000 25.25973 25.26556 25.27180 25.28299 25.29091 25.31614 25.35727 25.40579 25.49313 25.63163 25.68930 25.66730 25.72876 25.60261 25.75666 26.20011 26.84830 26.83405 27.25987 27.53122 30.00253 31.03178 33.13836 33.98328 34.67435 35.18784 33.34913 36.07950 38.52641 46.41936 50.44306 60.99301 65.47053 71.95248 72.17839 67.79910 67.48544 65.80327 69.31878 80.71174 85.36379 84.16632 81.89792 80.92726 83.75404 89.19970 94.39671 101.72102 108.13879 111.20965 112.07936 112.38584 112.20917 112.43581 111.67284 111.17055 110.69422 110.43052 110.28409 109.94928 110.07761 109.95436 110.42381 110.66226 110.08023 110.47770 110.38792 110.52802 110.81798 110.92608 111.31840 111.59615 111.62861 111.66188 111.33078 107.70033 104.05038 98.68276 96.36708 91.32250 81.64230 74.03885 73.87755 77.16179 76.89736 72.37922 70.33856 62.25446 58.40410 52.02913 45.79166 38.12841 36.24236 38.93868 43.52829 48.05698 50.11189 48.43302 44.56431 39.51545 35.11365 31.75746 30.40672 29.40367 28.08500 28.00851 27.83260 27.35092 27.45095 26.86927 26.86256 26.40528 26.07350 25.72969 25.54438 25.42051 25.34514 25.32217 25.29440 25.28699 25.27863 25.26900
25.25100 25.26073 25.26569 25.27504 25.28614 25.29485 25.30987 25.34859 25.37677 25.41365 25.48737 25.50122 25.46596 25.52035 25.59303 26.04696 26.68059 27.06076 27.65349 28.08995 28.82803 29.82996 30.29584 30.96928 30.79795 31.20201 31.81368 33.94743 40.31992 42.17652 48.51159 55.64919 61.40614 65.77759 67.76597 66.69094 61.45571 59.14506 66.11823 76.07229 80.73011 83.64572 79.64263 73.18717 71.27440 74.92821 82.48390 86.40263 96.28115 101.32766 107.95310 109.79906 111.13624 111.85118 112.80303 113.26067 112.77731 112.43042 111.78577 111.75396 111.47613 111.45556 111.73635 111.79939 111.82331 111.87458 111.34851 110.99221 110.85795 110.82539 110.37181 110.54163 110.55582 109.47409 107.05340 107.37853 106.49787 101.64646 96.33184 89.98775 85.75653 81.95857 68.19286 70.38247 68.81339 71.01459 70.64324 69.35425 64.74030 61.33032 51.93277 46.17439 40.21099 35.10319 34.81627 37.74415 43.33174 45.21210 46.59454 44.72350 41.65249 37.11460 33.34451 31.85010 29.44626 28.00539 27.00543 26.63667 26.33045 26.06200 25.90998 25.96224 25.90995 25.76577 25.64933 25.42405 25.36798 25.32804 25.30804 25.29520 25.28461 25.27823 25.26900
25.25100 25.25109 25.26376 25.27631 25.28269 25.29319 25.30709 25.32370 25.35594 25.38324 25.40120 25.40026 25.45662 25.67173 26.21201 26.41354 27.53724 28.21812 28.49093 28.75932 28.96576 29.01174 28.37986 28.51243 29.20204 30.82597 34.03542 37.57552 42.52823 47.38623 52.53674 56.86115 61.39940 62.05546 58.17791 57.20214 53.82002 55.53597 65.39771 73.51683 77.64022 78.29571 74.86663 68.76482 63.48157 63.84031 74.87038 83.93082 93.19485 102.29222 103.46937 103.92066 105.69554 108.45416 110.29180 113.02978 112.95544 112.93616 112.89898 112.69264 111.80354 111.77282 111.60730 111.54340 111.27583 111.75136 110.61860 110.06213 108.58153 108.99380 105.74558 105.03193 105.15692 106.18311 102.38506 99.33999 100.08149 96.89163 92.24145 85.47256 81.55217 78.72044 68.14228 61.47474 64.78918 66.33726 65.61788 63.22368 62.10471 60.16075 50.60574 48.49303 41.22046 35.30539 32.64884 34.72342 39.90892 39.55392 42.33630 43.11215 42.37906 39.61736 35.94548 33.27745 31.10415 29.37045 27.88262 27.35775 26.47681 26.12474 25.70697 25.56266 25.60886 25.62551 25.50760 25.37354 25.35195 25.31887 25.30537 25.29338 25.28229 25.27623 25.26700
25.25100 25.25100 25.26370 25.27196 25.28608 25.29470 25.30250 25.31873 25.33873 25.35762 25.35991 25.40208 25.56069 25.81760 26.27326 26.88462 27.66962 28.05610 28.25858 28.52589 28.58252 28.02327 27.85394 29.56428 31.74318 34.07851 37.08603 40.57557 44.60216 47.50975 53.15676 55.00928 56.37497 56.51709 52.01463 49.00069 47.15957 55.31932 66.35154 73.05900 72.14190 71.48530 66.16434 59.27230 55.01397 64.44522 71.66176 85.88938 93.58296 98.99566 99.50710 100.39777 100.95609 104.06819 107.00219 110.00335 110.06636 110.48832 111.08018 109.58216 110.22234 108.37954 106.41890 107.69227 108.10541 108.91196 106.95163 105.84355 101.74259 100.44169 100.82939 99.07058 96.76015 97.64651 93.70632 92.89295 95.36510 94.91844 93.14746 81.44168 76.51310 74.73543 70.42505 61.69073 55.89750 56.25591 54.93761 53.24781 55.16724 56.54274 53.61569 49.38884 41.99304 34.68754 31.76810 32.83268 32.27942 34.16658 36.44668 37.79219 40.20239 40.37431 37.45255 34.66786 32.94535 30.02450 28.79590 27.68704 27.35027 26.63500 26.03401 25.62482 25.46985 25.39656 25.40368 25.36461 25.33212 25.31375 25.30380 25.29383 25.27720 25.26772 25.26700
25.25000 25.25887 25.26507 25.27157 25.28425 25.29396 25.30211 25.31481 25.32495 25.33446 25.35542 25.41491 25.54852 25.73296 26.05642 26.74537 27.14574 27.34037 27.04528 27.27450 27.56982 27.12078 28.23615 30.94376 33.14715 36.40587 37.47924 39.94020 43.04729 47.99874 50.53311 51.08489 48.19397 48.50273 44.42690 43.88015 51.18143 57.49746 65.34537 68.13660 62.83597 60.07793 59.98828 55.82818 52.95542 60.44281 69.03036 82.83750 89.89211 92.31854 91.73749 91.84158 96.61747 97.66721 101.39707 103.43484 103.86914 104.19847 105.93610 107.82313 104.42334 100.03530 99.76860 100.57009 103.39257 102.15218 101.55421 98.19558 96.60411 92.06328 90.03453 86.56154 89.62033 89.92643 88.47816 83.87134 85.73863 89.91384 89.26647 80.95770 73.99921 71.94620 68.20124 64.30880 57.33847 51.93511 47.93820 45.70285 46.71463 50.04494 50.25262 47.56341 41.84982 37.50228 32.28875 30.49656 30.38516 30.67581 33.52033 35.33731 37.13131 36.99308 35.84406 34.28431 32.39763 29.72304 28.35042 27.87322 27.26602 26.53191 26.10331 25.72571 25.57115 25.39973 25.34993 25.32942 25.31329 25.30408 25.29524 25.28948 25.27677 25.26590 25.26500
25.25000 25.25987 25.26539 25.27165 25.28148 25.29312 25.29988 25.31180 25.31719 25.32745 25.35869 25.45339 25.59326 25.78397 26.08166 26.48518 26.35733 26.25309 26.02525 26.03093 26.57027 27.25339 29.60298 31.62550 34.38879 35.96614 36.54647 37.76254 41.01947 44.80108 44.45283 42.92289 42.78072 41.66149 40.03569 45.59436 53.66842 59.56983 63.50097 58.13097 53.88899 52.42126 48.36365 47.64212 57.12643 60.91395 73.04689 79.34434 85.40474 85.45791 86.48975 85.69642 86.63277 92.42987 96.61385 97.70937 98.22556 99.02299 101.56759 103.46556 101.31571 93.21869 88.99436 90.22671 100.65305 99.05185 93.40403 89.84963 89.13491 85.86992 79.59237 76.92548 77.36860 78.13439 80.34070 76.88798 79.33823 85.92462 87.00939 79.28709 76.08728 64.67838 59.11086 61.74786 59.85367 55.64433 50.80521 45.92229 41.29064 42.68720 44.66534 45.21134 41.94963 39.07569 35.33617 31.80147 28.87262 29.19724 31.06143 31.82251 33.32102 34.11796 33.10186 32.03897 31.57808 29.21413 27.79933 26.79703 26.51100 26.15499 25.91678 25.72832 25.49715 25.42251 25.33328 25.31801 25.30865 25.30196 25.29335 25.28783 25.27785 25.26681 25.26600
25.25100 25.26074 25.26699 25.27136 25.28035 25.28758 25.29533 25.30712 25.31324 25.32781 25.35556 25.44296 25.50694 25.76421 25.97780 26.15159 26.01489 25.72879 25.69923 25.93674 26.47928 27.78785 29.69827 32.53636 32.98903 34.18177 33.68223 36.06514 40.00855 42.49311 39.92274 36.42597 35.86535 36.36304 41.39552 47.55035 55.96910 57.83703 57.73087 51.74661 48.24826 42.91850 44.33568 46.14128 59.90475 66.69991 73.45477 78.32779 81.25287 82.69834 83.75813 79.46654 82.95026 88.05118 93.02650 92.17137 91.24170 90.93983 92.57954 93.45566 96.25943 88.45740 81.82025 83.27344 92.06917 96.20707 91.70763 79.19696 75.76054 75.08125 71.17120 67.46801 66.88231 72.54453 73.00643 70.11763 73.06052 80.02072 82.90708 78.98699 72.47339 61.41474 56.01608 56.63876 57.04235 56.01494 54.70542 48.93479 42.56050 38.18948 39.41499 39.44549 40.54491 39.50894 38.12419 33.58864 31.03652 27.69340 27.88872 28.62786 30.47843 29.78489 30.66802 31.00085 30.43436 29.21010 27.67983 26.60400 26.04893 25.79234 25.60584 25.57965 25.47612 25.40320 25.34693 25.31665 25.30859 25.30315 25.29587 25.28842 25.28041 25.27563 25.26600
25.24900 25.25874 25.26604 25.27092 25.27879 25.28734 25.29383 25.30424 25.31639 25.33093 25.35712 25.40326 25.49613 25.62077 25.69468 25.64779 25.61672 25.55751 25.68618 26.20396 26.85053 27.87131 29.39472 31.18348 31.40361 31.37187 32.06481 35.04036 38.24191 38.74350 36.77311 33.33568 35.27323 38.16880 45.49869 49.07901 55.97173 56.75599 55.14610 43.18877 40.62164 40.54452 45.23460 54.93614 63.06533 69.25294 72.68984 72.91821 71.85597 75.62354 76.30406 74.46724 75.50453 83.49895 87.11400 83.14965 84.88186 84.84116 87.91464 91.61026 89.88801 83.59987 75.70319 76.37565 88.46077 90.09092 87.10275 78.17851 67.16448 69.03697 62.94361 57.48642 57.12996 62.19188 64.43620 64.27897 65.45925 73.16208 79.38930 78.20328 69.84942 62.72158 56.03406 48.37366 48.77811 53.02420 53.14173 51.33682 43.88059 38.64443 34.41116 34.93284 36.41026 35.52241 36.59680 34.76291 32.24635 29.47635 28.03058 27.20292 27.47877 28.16958 28.27016 29.32998 29.24286 28.58451 27.63581 26.68113 25.99892 25.67093 25.48575 25.40244 25.38990 25.36766 25.34435 25.32391 25.31173 25.30421 25.29510 25.29039 25.28174 25.27578 25.26600
25.25000 25.25000 25.26343 25.27085 25.27903 25.28724 25.29353 25.30427 25.31542 25.32681 25.34177 25.37414 25.42771 25.48255 25.54510 25.56802 25.43960 25.49821 25.81202 26.24477 27.10572 28.12764 29.02749 29.92501 30.08704 29.81002 31.86069 34.23958 36.70592 35.21191 33.64705 31.27284 33.53385 38.78654 43.38453 50.56378 53.14624 51.21940 46.26430 39.00946 36.71965 42.65336 48.76914 58.47884 64.65788 67.12389 66.72086 63.49748 66.26875 68.25702 68.02248 69.94980 71.08044 78.39049 82.21872 76.97847 75.64268 76.62916 80.13512 86.75652 85.71509 77.38266 72.40419 73.88911 79.53148 84.59768 83.57375 72.49205 61.79362 58.97749 50.63223 49.42149 51.52907 55.71602 55.56968 53.84850 60.77689 70.14698 76.89921 77.55441 72.61829 62.23408 55.50236 48.39350 42.91986 45.73705 50.73011 50.18851 44.96665 41.46764 36.68363 32.39365 31.09355 32.57269 34.07046 34.32822 33.05065 30.50591 29.30263 26.95485 26.47458 26.30493 26.62479 28.07511 27.54726 28.08003 27.47121 26.71471 26.12564 25.65637 25.52480 25.38079 25.35569 25.34259 25.33172 25.32251 25.30965 25.30481 25.29517 25.29002 25.27956 25.26819 25.26600
25.24900 25.25013 25.26182 25.27299 25.28138 25.28594 25.29584 25.30568 25.31227 25.32074 25.33534 25.35941 25.39198 25.43867 25.44952 25.42349 25.43747 25.58775 25.80723 26.21532 26.73495 27.16584 27.67245 28.06336 28.64592 29.17726 31.94524 33.23729 33.56070 31.24555 31.18670 30.27600 32.69385 37.63976 43.29170 46.21470 46.59071 45.79234 40.82960 35.88367 35.55735 42.45557 49.65284 59.92605 62.88235 60.10906 60.72147 56.44116 59.10131 62.61504 62.36590 60.52632 65.48568 73.72613 77.84570 71.03665 69.64379 71.12916 73.00528 76.60226 74.98006 71.14998 62.35649 62.22485 72.98354 75.22203 80.26628 74.21111 61.53517 52.14224 46.43464 44.83064 44.03659 47.00196 47.30085 52.38682 60.57541 70.40479 74.51895 76.17754 71.38104 61.85499 50.89292 45.26275 41.23140 42.54246 46.52240 47.72920 47.26152 42.66845 39.33453 33.74506 31.50710 29.37593 30.90250 32.21481 32.91243 32.04201 30.05610 28.17463 27.20742 26.50283 25.84840 26.16356 26.69060 26.95960 26.63180 26.30198 25.92660 25.71025 25.54682 25.40622 25.36335 25.33683 25.32820 25.31883 25.31048 25.30370 25.29619 25.28824 25.27815 25.26700 25.26700
25.24900 25.25894 25.26234 25.27224 25.28158 25.29002 25.29753 25.30659 25.31348 25.32146 25.33004 25.35189 25.36855 25.37928 25.39422 25.40202 25.45612 25.63110 25.80027 26.05728 26.33535 26.50077 26.61436 26.94851 27.92299 29.51712 30.91799 32.72463 32.52400 29.54123 28.57426 30.76468 35.15463 38.98893 42.73891 43.37964 41.45822 38.81971 35.76942 32.72548 35.68206 43.02075 49.93508 58.40876 59.53070 56.62752 49.04962 50.25280 54.17122 56.31399 52.56765 59.34819 65.16703 72.05815 72.17550 66.28223 62.14063 68.70960 72.10085 68.31507 68.02160 66.65027 61.87315 56.22867 63.03171 72.76896 78.35534 73.73795 66.49698 57.71428 47.70559 41.69145 40.43918 39.55300 42.47798 51.33547 58.75500 66.96190 70.74036 72.86946 68.61553 65.43376 55.05707 47.87819 41.09598 36.93222 41.18045 44.28721 46.37150 45.31724 42.47730 37.72038 33.18000 30.20564 28.36637 29.95874 31.45615 32.02658 30.80895 29.43988 28.00153 26.96862 26.13262 25.73486 25.97184 26.18162 26.10523 26.02329 25.76343 25.56518 25.47992 25.39211 25.35093 25.33742 25.32688 25.31816 25.30905 25.30340 25.29424 25.28852 25.28024 25.27591 25.26600
25.25100 25.25100 25.25855 25.27737 25.28323 25.29075 25.29863 25.30494 25.31553 25.32217 25.33225 25.34485 25.35613 25.36537 25.37610 25.40824 25.48603 25.60344 25.66704 25.72936 25.78748 25.92175 26.89715 27.57618 28.91384 29.86499 30.85440 31.60104 29.93755 28.50285 28.82071 32.80072 36.98252 39.87068 40.55249 40.44923 35.54623 33.38657 31.78173 33.66694 38.09387 43.69182 50.75596 56.08200 57.06457 48.72813 43.80003 47.25890 47.55022 50.14954 48.22729 54.99875 62.97891 68.47155 68.53576 59.47744 57.79115 66.00064 67.80633 65.96146 59.12454 58.11847 54.56790 53.68020 64.35093 72.55158 76.11001 74.67190 65.54459 57.24327 48.50039 40.53032 36.99481 37.43366 42.15249 53.09419 57.82976 64.40568 66.82452 68.12508 66.23325 62.96787 57.48722 49.36482 42.29962 35.47267 34.52910 38.56198 42.66191 43.13243 43.17178 39.45924 34.20891 31.38229 28.06387 27.59750 29.61066 30.31166 31.01108 29.77778 28.69183 27.56009 26.50755 25.86288 25.59970 25.71463 25.69710 25.62709 25.58944 25.51819 25.44734 25.38804 25.36240 25.33754 25.32946 25.31926 25.31039 25.30329 25.29388 25.28803 25.28042 25.27592 25.26700
25.25000 25.25002 25.25970 25.27414 25.28143 25.29117 25.29766 25.30424 25.31324 25.32292 25.33242 25.34314 25.35027 25.36156 25.37161 25.40311 25.42459 25.46174 25.49920 25.50743 25.64211 26.00351 26.71725 28.03454 28.71710 29.41772 29.53346 29.25264 28.57152 28.17873 28.12712 31.82517 35.25354 37.25858 38.30875 35.83880 32.68249 30.01193 30.85968 35.58239 40.41199 46.22228 51.77539 53.32609 48.88256 43.38186 39.09991 42.09201 43.46117 41.11658 46.09369 54.27483 62.26051 67.73450 65.82575 57.73091 52.96914 58.48887 63.79787 61.00733 57.73579 50.94198 46.95499 46.73642 53.85640 62.65173 75.00687 74.46842 66.54465 58.59343 48.35350 41.90727 35.25058 37.10056 43.90802 49.17798 53.33094 55.95734 59.86438 62.56612 63.08616 58.76079 54.40728 48.41450 41.37810 35.99821 31.96651 34.38965 36.32050 40.57033 42.01583 39.75338 35.56746 31.16286 28.13319 26.60431 28.14111 28.97824 29.49692 29.42486 28.92966 27.60254 26.82804 25.93486 25.69336 25.47975 25.47868 25.44658 25.46079 25.44519 25.39859 25.37026 25.35315 25.34020 25.33177 25.32157 25.31132 25.30325 25.29800 25.28508 25.27822 25.26904 25.26700
25.25000 25.25983 25.26531 25.27496 25.28018 25.28967 25.29481 25.30367 25.31193 25.31949 25.33103 25.34016 25.34817 25.35522 25.36663 25.38038 25.39516 25.39568 25.43269 25.52347 25.74423 25.97859 26.95825 27.49530 28.60223 28.72196 27.85527 27.77797 27.96369 27.29227 28.42175 30.40391 34.18388 35.87505 33.67521 32.51822 28.81753 28.96827 31.95763 34.97830 39.62472 49.86244 50.79833 50.11224 45.80565 39.86789 36.60505 39.32894 37.36097 37.43499 44.69772 53.27582 59.40176 64.02026 61.81527 56.43863 50.88461 54.44092 60.74341 58.12379 50.99714 42.85080 41.65010 46.60575 52.00239 57.74279 66.10663 70.94606 65.91306 55.34740 49.48361 41.85687 35.29826 33.37121 38.99130 47.45334 50.41683 52.60602 54.69269 55.43511 58.32047 55.49039 49.62573 44.55270 41.09929 36.62812 31.53810 30.29699 33.09278 35.51044 38.80490 38.74484 34.70724 30.30295 28.43418 26.49852 26.83195 27.47870 27.68177 28.34617 28.04570 27.28201 26.80008 26.07542 25.75203 25.54244 25.40370 25.40178 25.38584 25.37590 25.36913 25.35590 25.34624 25.33835 25.32823 25.32101 25.31420 25.30289 25.29404 25.28563 25.27560 25.26804 25.26600
25.25100 25.26083 25.26583 25.27521 25.28111 25.28849 25.29449 25.30283 25.31371 25.32061 25.33018 25.33641 25.34401 25.35266 25.35793 25.36632 25.37118 25.41568 25.46876 25.65090 25.86223 26.22804 26.58148 26.84761 27.74155 27.34200 26.85350 26.54203 26.37269 27.19832 29.74949 31.64865 33.18834 33.00178 31.32040 29.41607 28.29047 28.37420 31.94880 35.30296 41.42074 46.81528 48.33355 46.87871 42.54824 38.26873 32.44490 34.71730 34.36744 37.49499 44.51630 52.88492 58.72832 60.46098 57.77107 50.32459 46.01387 51.51953 56.03936 57.21918 52.70839 42.24905 38.67557 38.59031 46.23168 52.07392 65.78279 67.55933 62.38236 53.94083 48.73816 41.01302 34.76094 32.62269 36.90859 44.37929 46.72698 47.40274 49.32400 51.17020 53.30764 52.63686 46.55873 43.20941 40.85320 35.03826 31.30405 29.23895 29.71513 32.99126 35.55171 36.97893 33.23035 30.88213 28.82920 27.18692 25.98260 26.19975 26.47853 26.95101 27.34044 26.87871 26.45625 25.98874 25.71777 25.56696 25.45434 25.40627 25.38421 25.37055 25.36292 25.35437 25.34431 25.33672 25.32943 25.32010 25.31147 25.30428 25.29474 25.28359 25.27552 25.26404 25.26200
25.25100 25.25100 25.26222 25.27397 25.28149 25.28787 25.29583 25.30182 25.30901 25.31926 25.32597 25.33321 25.33868 25.34635 25.35277 25.36392 25.37671 25.42720 25.47650 25.57896 25.83137 26.04806 26.24223 26.34813 26.27219 26.13819 26.14785 26.12432 26.81551 27.77978 29.46898 31.48600 31.14889 30.33520 29.51421 27.54460 27.78640 29.81662 33.55574 39.49816 43.41535 46.39051 45.49560 42.74655 39.79603 35.56512 31.39369 32.10819 32.33577 34.77224 43.49657 49.90006 57.28491 56.09017 50.75495 46.96150 43.19403 48.50264 53.79455 53.74302 48.44287 39.41385 35.99961 37.75831 44.74670 53.41466 62.49209 62.81348 55.96371 51.30388 44.29055 39.88183 35.03354 30.62227 35.53406 42.71092 45.27420 43.74967 45.13463 46.49113 50.26957 47.22757 43.96645 39.04892 36.39555 33.28088 30.73786 28.48998 28.19758 29.98904 32.51493 34.89144 33.46976 30.86828 28.36506 27.13301 26.37264 25.77457 25.77274 26.22443 26.54474 26.50573 26.13281 25.72363 25.57804 25.48227 25.45234 25.41535 25.38626 25.36746 25.35792 25.34942 25.34227 25.33536 25.32716 25.31974 25.31101 25.30561 25.29572 25.28681 25.27710 25.26722 25.26600
25.25100 25.26097 25.26444 25.27416 25.28006 25.28552 25.29264 25.30134 25.30758 25.31358 25.32232 25.33123 25.33931 25.34413 25.35316 25.36058 25.37080 25.39625 25.43319 25.55468 25.60614 25.81134 25.81084 25.89843 25.72569 25.62804 25.74432 26.78613 27.77704 28.85110 29.38556 29.15375 28.77110 27.74421 26.84600 26.75749 29.62172 31.99575 35.88297 40.41049 44.09999 43.41855 40.18837 37.81367 33.93282 32.28627 29.78135 30.08329 31.54929 33.10455 47.61045 50.19727 53.44363 51.37108 47.04799 40.27818 40.90796 44.76132 49.83787 48.61179 42.45116 37.56599 34.44573 35.16309 41.83439 54.34560 58.25120 59.61398 51.41495 46.15121 42.00212 36.25542 32.67227 29.85490 34.91041 39.82337 43.33467 41.01060 40.59967 41.78869 43.43058 45.43361 42.66050 36.86566 34.00413 31.76459 29.22741 27.36738 27.88349 29.61802 30.22670 31.48855 32.50683 30.63644 28.96052 27.80323 26.49108 25.87593 25.62311 25.88985 26.24412 26.15305 25.93156 25.68650 25.52601 25.45111 25.41649 25.40393 25.38026 25.36889 25.35974 25.34912 25.34123 25.33391 25.32694 25.32076 25.31200 25.30280 25.29655 25.28779 25.27987 25.27576 25.26600
