25.25100 25.25102 25.25827 25.26580 25.27176 25.28083 25.28601 25.29541 25.30152 25.30692 25.31433 25.32120 25.32492 25.33034 25.33583 25.33911 25.34187 25.34458 25.34385 25.35309 25.35460 25.35687 25.35576 25.35639 25.35731 25.35141 25.34926 25.35217 25.36617 25.40447 25.45134 25.38856 25.41560 25.50382 25.67113 25.88211 26.31449 26.97864 27.62550 27.56686 26.72540 26.06461 25.80554 27.50454 28.79764 30.77567 31.40891 30.16323 28.62557 27.54173 28.87912 31.03210 31.86400 31.37803 29.66002 27.06633 28.76104 31.41524 32.36212 31.31270 29.71982 28.00340 29.70533 31.47896 35.35359 36.36513 36.04658 36.10867 34.25507 31.60022 27.97322 26.37989 26.67600 28.32614 30.43036 32.66749 32.43022 31.04512 30.41704 29.14941 27.29768 26.19610 26.79879 28.12460 28.64901 28.38331 27.60387 26.98908 26.35693 25.64089 25.51756 25.60213 25.58181 25.57484 25.48178 25.41369 25.36625 25.35484 25.34888 25.34778 25.35333 25.35218 25.35347 25.34988 25.34833 25.34769 25.34244 25.33756 25.33016 25.32568 25.31923 25.31007 25.30231 25.29427 25.28942 25.28146 25.27392 25.27081 25.26573 25.26171 25.25676 25.25300 25.25300
25.25100 25.26095 25.26227 25.26499 25.27519 25.28177 25.29210 25.29628 25.30357 25.30825 25.31651 25.32149 25.32758 25.33379 25.34042 25.34238 25.34916 25.35041 25.35622 25.35822 25.35865 25.36244 25.36294 25.36628 25.37192 25.38152 25.36644 25.35346 25.38670 25.44925 25.50935 25.50166 25.47279 25.57126 25.95603 26.30001 26.61554 27.90123 28.80062 28.53448 27.78992 26.07720 26.32554 27.76924 29.86156 32.20613 32.21384 31.02165 29.60561 29.37614 30.88687 33.16467 34.03816 32.83259 29.95443 27.72074 29.13897 32.62036 33.94950 33.20810 30.93639 29.19873 32.48714 34.30654 38.61872 39.65501 40.36879 38.29211 35.57928 32.50278 28.76499 27.07569 26.85666 28.53838 33.04196 35.02744 35.46298 34.43514 32.44750 29.37610 27.55883 26.97324 28.32643 30.12077 30.37388 29.56584 28.52276 27.55560 26.83285 25.77424 25.63583 25.83675 25.84414 25.78461 25.54927 25.45387 25.36769 25.37255 25.37281 25.36653 25.36393 25.35970 25.36281 25.36298 25.35536 25.35264 25.34868 25.34504 25.33793 25.33225 25.32321 25.31770 25.31041 25.30251 25.29289 25.28733 25.27773 25.27398 25.26864 25.26250 25.25873 25.25400 25.25400
25.24900 25.25895 25.26404 25.27247 25.27808 25.28660 25.29210 25.29784 25.30508 25.30903 25.31670 25.32259 25.33080 25.33609 25.34347 25.34781 25.35248 25.35621 25.36144 25.36604 25.36997 25.37228 25.37065 25.37272 25.38303 25.40188 25.41212 25.36307 25.38590 25.45029 25.60823 25.70871 25.52656 25.59094 26.12295 26.68844 27.66020 28.93649 30.33373 30.03280 29.33032 27.10370 26.25754 27.63158 29.97828 32.62243 34.13493 33.03839 31.75699 30.63489 31.49013 34.56751 36.14436 34.68440 31.16763 28.91378 28.76633 32.33064 35.58494 36.59751 35.87547 30.60297 33.82883 38.07684 41.86952 43.43775 43.52087 41.28438 35.63420 31.29522 28.09691 26.61997 26.90784 30.13652 33.09226 36.89831 38.36397 36.48664 33.68207 29.64937 27.36914 28.65133 29.89329 31.54035 32.34550 31.05077 29.28299 27.75333 26.42899 26.20380 26.21082 26.35978 26.37753 26.01843 25.62079 25.46431 25.37734 25.41431 25.39955 25.38412 25.37479 25.36858 25.37049 25.36781 25.36764 25.36422 25.35565 25.35327 25.34360 25.33891 25.33022 25.32112 25.31511 25.30948 25.30120 25.29257 25.28540 25.27906 25.27373 25.26734 25.26112 25.25600 25.25600
25.25000 25.25995 25.26508 25.27350 25.28054 25.28835 25.29414 25.30146 25.30638 25.31318 25.31997 25.32593 25.33507 25.33985 25.34592 25.35078 25.35794 25.36635 25.36679 25.37222 25.37615 25.38062 25.37903 25.38961 25.40724 25.44703 25.49805 25.52089 25.43134 25.47350 25.65352 25.84036 25.89565 25.79987 25.93791 27.86262 28.56145 29.99638 31.46235 31.19769 31.24677 29.14890 27.23019 26.61488 29.70357 34.74935 37.22803 36.80503 35.10702 32.61708 31.17374 35.13094 37.51310 37.42739 33.89759 30.61232 29.40531 32.45637 36.21336 38.76109 36.35979 32.91280 35.92230 41.74831 45.77836 48.40113 46.53092 40.95610 34.26013 29.48001 27.33769 26.65433 27.32961 30.44099 34.13987 38.40007 39.67386 38.44754 34.98246 31.41194 28.28124 29.90488 31.66470 33.60266 34.50377 32.76438 30.02170 27.43500 26.71193 27.48693 27.40166 27.07655 26.58031 26.04321 25.68580 25.47165 25.39799 25.50841 25.50812 25.48412 25.40885 25.38484 25.37744 25.37780 25.37424 25.36950 25.36462 25.35659 25.34840 25.34207 25.33638 25.32697 25.32002 25.31498 25.30447 25.29763 25.29108 25.28332 25.27714 25.27031 25.26309 25.25700 25.25700
25.25000 25.25013 25.26272 25.27418 25.28130 25.28840 25.29627 25.30181 25.30790 25.31246 25.32122 25.32825 25.33639 25.34154 25.34577 25.35411 25.36240 25.36880 25.37402 25.38179 25.38810 25.38945 25.39762 25.39611 25.41420 25.49689 25.59505 25.65470 25.68800 25.64758 25.62244 26.00056 26.28010 26.26512 26.38661 27.73465 28.93363 30.99458 33.02759 34.68417 33.32628 29.94022 28.48706 27.54127 29.55421 34.02183 38.78890 40.13644 38.86239 37.49692 34.08477 35.30764 38.93428 39.61258 37.31255 31.20997 30.77653 36.27369 39.34856 40.87143 38.66877 36.16876 39.69115 44.47561 48.55266 50.52087 46.62650 41.54944 34.82406 29.94198 28.06179 27.49567 27.59721 29.58912 32.07718 37.63798 40.33391 39.51967 34.63395 31.05335 30.06507 33.25353 34.59212 36.61195 36.10848 33.35964 30.44197 28.72845 28.19385 28.43973 28.06678 27.43468 26.83066 26.06410 25.51469 25.49068 25.54602 25.64276 25.63142 25.51676 25.43551 25.40155 25.38561 25.38515 25.38201 25.37676 25.36981 25.36236 25.35615 25.34876 25.34043 25.33431 25.32487 25.31852 25.31198 25.30169 25.29499 25.28785 25.27898 25.27378 25.26601 25.25800 25.25800
25.25000 25.25990 25.26550 25.27241 25.28129 25.28847 25.29513 25.29840 25.30661 25.31547 25.32045 25.32974 25.33647 25.34167 25.35072 25.35589 25.36521 25.37277 25.38204 25.38794 25.39894 25.42334 25.43294 25.41242 25.42688 25.47656 25.60276 25.78977 25.91666 25.84059 25.62137 25.85520 26.36079 26.92754 27.39445 27.36669 28.82323 31.74903 34.15657 36.30352 36.22724 32.42047 28.62970 29.19600 30.49863 35.59562 40.47680 44.98335 44.46551 41.76383 38.60782 37.47665 39.95580 40.63022 38.94933 32.73252 33.65271 38.36915 42.04605 43.42101 42.21924 36.86140 40.84959 46.44955 51.76469 50.90463 47.27304 38.62166 33.96119 30.41912 31.36158 30.53089 28.93742 28.97847 32.00709 36.78834 41.20906 41.12997 36.62636 32.64079 34.73056 35.53373 37.51571 38.57583 37.35436 35.00132 29.83237 29.13554 29.27032 29.35124 28.52563 27.11095 26.28132 25.90383 25.58463 25.77467 25.99605 25.90238 25.81361 25.58633 25.45969 25.41041 25.39407 25.39341 25.39061 25.38352 25.37968 25.36686 25.35806 25.35053 25.34215 25.33668 25.32776 25.31951 25.31292 25.30432 25.29815 25.29072 25.28327 25.27348 25.26822 25.26100 25.26100
25.25100 25.25100 25.26292 25.27387 25.27847 25.28611 25.29316 25.30177 25.30880 25.31626 25.32459 25.33139 25.33866 25.34401 25.35155 25.35942 25.36792 25.37643 25.38585 25.39519 25.41345 25.44631 25.53651 25.57809 25.54986 25.50700 25.54293 25.77677 26.09892 26.24596 26.05518 25.77194 26.24021 27.32322 28.50257 29.54270 29.64629 31.45100 34.38145 37.55087 37.40595 33.62408 29.51273 29.44455 32.53850 37.19829 41.52730 48.04922 50.66829 47.15363 44.19075 43.15336 43.52901 43.76493 38.49858 33.27363 35.59653 41.80977 47.82251 49.06672 44.01770 40.83850 41.95350 48.17469 54.24705 51.99346 46.07825 39.02616 32.95635 30.59577 33.41063 33.75131 30.58168 29.99623 32.49661 38.08403 41.01101 42.62797 39.99695 36.50022 36.69854 41.16950 41.64038 41.15511 37.27637 34.32001 30.50708 31.23883 31.20096 29.80540 27.48503 26.17495 25.89320 26.24646 26.43739 26.59769 26.59227 26.47642 25.89038 25.72620 25.46093 25.42332 25.44011 25.43519 25.41880 25.40024 25.38644 25.37393 25.36395 25.35273 25.34598 25.33596 25.33167 25.32150 25.31440 25.30543 25.29783 25.29112 25.28530 25.27724 25.26969 25.26400 25.26400
25.25000 25.25933 25.26406 25.27468 25.27906 25.28641 25.29244 25.30088 25.30923 25.31721 25.32552 25.33296 25.33905 25.34630 25.35269 25.36288 25.36600 25.37935 25.38838 25.40327 25.42124 25.48271 25.65868 25.68601 25.76452 25.83874 25.62868 25.90103 26.26046 26.78354 27.13200 27.03763 26.48124 27.64145 30.05210 30.48964 31.11311 32.08250 35.11580 38.69176 38.29025 34.48727 29.59865 30.18074 33.97354 38.69176 44.74364 51.00719 53.83376 51.98660 50.50563 44.57728 46.45108 45.16948 42.16360 33.55483 38.12044 44.53482 50.35767 53.04791 48.36023 42.77080 43.00953 50.78609 55.67616 51.76832 44.36676 39.06129 32.78312 33.54979 36.48032 36.72845 34.23111 31.03653 32.94122 37.47077 42.55278 44.65019 41.59980 41.09176 43.56448 46.32133 47.01632 43.22874 37.84276 34.78100 33.76100 32.94378 31.32947 29.58293 27.16288 26.48463 26.60227 27.66486 28.10719 27.38739 27.39282 26.76668 26.14871 25.77560 25.53050 25.55868 25.56729 25.55596 25.47721 25.43692 25.39377 25.37808 25.36451 25.35731 25.34739 25.33861 25.33095 25.32394 25.31370 25.30618 25.30008 25.29010 25.28408 25.27828 25.27069 25.26500 25.26500
25.25000 25.25018 25.26217 25.27469 25.28154 25.28832 25.29414 25.30012 25.30719 25.31483 25.32377 25.33180 25.33834 25.34519 25.35347 25.36261 25.36709 25.38208 25.39828 25.43628 25.49614 25.53444 25.76891 25.98163 26.34937 26.09913 25.86649 26.24771 27.04065 27.80521 28.00384 28.16582 27.45513 28.14009 29.99443 32.03880 32.69645 33.32694 36.10881 39.51403 39.62578 36.59517 32.90794 30.47372 33.03106 39.17959 44.28329 53.73735 57.38068 55.96186 52.41516 47.91920 49.36928 47.01140 42.15654 36.26440 40.32352 49.24531 53.78529 55.60188 51.90059 47.59009 46.90682 54.11948 57.22166 49.50021 42.64249 37.72971 33.34538 36.54143 41.13512 42.16278 38.05403 34.25263 35.47746 38.80230 44.17550 47.53755 44.62529 46.43656 48.70802 51.37334 47.97577 45.43332 38.30381 36.10313 35.13016 33.43922 30.13477 28.43132 26.83538 27.18655 29.07775 30.15530 29.95385 29.38920 28.54082 27.84494 26.70979 25.93008 25.75520 25.80911 25.75341 25.68447 25.56717 25.49060 25.41235 25.37986 25.36981 25.35779 25.34878 25.34143 25.33198 25.32287 25.31452 25.30704 25.30157 25.29458 25.28576 25.27649 25.27190 25.26600 25.26600
25.25000 25.25995 25.26667 25.27554 25.28165 25.28863 25.29621 25.30024 25.30889 25.31474 25.32121 25.32987 25.33365 25.34117 25.35082 25.36379 25.37132 25.38070 25.41491 25.47843 25.54300 25.67514 25.84276 26.23908 26.75004 26.84349 26.38317 26.13010 27.47141 28.61891 29.96954 28.95459 27.44774 27.65976 30.10928 31.84941 33.48951 35.81229 37.24813 41.15047 42.18119 41.23264 34.44970 32.86678 34.09563 38.46642 45.06549 55.55315 59.77035 59.27874 58.05311 52.76381 53.46279 48.78370 43.42174 39.97886 45.71365 50.96073 57.26904 60.14950 56.10155 51.56809 47.79061 56.87823 57.54924 50.46185 44.46993 36.24366 35.49449 40.89392 44.66353 43.01003 40.81861 34.73942 37.99592 44.27101 47.36844 51.57053 49.28296 52.19346 52.29416 54.47551 52.13219 46.23913 41.05167 38.60585 37.24372 32.43692 30.38740 27.32073 27.55982 28.96669 31.41162 32.27198 31.79169 30.62558 29.31148 27.95091 26.81012 26.07498 26.17450 26.31554 26.07963 25.89545 25.65487 25.51450 25.40790 25.38198 25.37116 25.35913 25.35070 25.34142 25.33508 25.32470 25.31894 25.30985 25.30201 25.29415 25.28916 25.27985 25.27420 25.26626 25.26600
25.24900 25.25895 25.26623 25.27524 25.28124 25.28881 25.29809 25.30609 25.31095 25.31887 25.32189 25.32883 25.33244 25.34281 25.35196 25.35708 25.37530 25.40813 25.44562 25.54345 25.66955 25.95164 26.20494 26.75881 27.26658 27.81671 27.13256 26.50491 27.33914 29.32989 30.86045 31.08780 29.62703 28.03199 29.35705 31.61995 34.63367 38.33688 39.92008 42.25286 44.74171 43.94017 39.57380 33.06519 34.35051 37.18012 44.29385 52.94088 60.39947 63.99746 62.75615 58.48620 56.72547 55.16748 47.25389 44.49415 49.56638 54.89182 61.88102 65.02200 61.61308 54.95631 52.21249 58.71298 60.67047 54.16104 45.43182 39.09950 39.62548 42.46427 48.59126 48.74235 40.49268 38.61244 42.11134 46.40719 54.20937 56.40255 55.21728 55.25428 59.51257 58.84283 53.23003 46.88741 43.13285 40.18911 36.31873 32.47550 28.52505 27.49996 28.32494 31.30601 33.44101 35.11916 33.25063 31.05833 28.68382 27.58580 26.83730 26.63862 26.90128 26.69280 26.48266 26.10907 25.74674 25.55739 25.40161 25.38961 25.38089 25.36930 25.35357 25.34539 25.33683 25.32885 25.31780 25.31268 25.30477 25.29614 25.28913 25.28431 25.27871 25.27692 25.26700
25.25000 25.25995 25.26381 25.27428 25.28373 25.29011 25.29765 25.30596 25.31574 25.31868 25.32469 25.33097 25.33585 25.34591 25.35641 25.36526 25.37998 25.42608 25.53817 25.66103 25.82561 26.16794 26.57736 27.22678 27.96895 28.94364 28.74327 27.97215 27.45331 29.63484 31.92390 33.02750 32.30081 30.76084 30.10535 30.40391 33.86193 36.65158 40.39036 44.23133 47.48352 46.42704 42.65074 38.27260 35.51317 39.39848 44.27247 53.75780 60.39344 65.56675 66.07789 63.28250 62.14480 61.35995 51.70368 46.16229 49.93919 59.67944 66.32245 69.07111 65.50961 59.38561 55.68438 61.64158 62.11893 54.05091 45.70326 46.40132 45.49321 44.27628 50.91670 49.60305 43.83977 38.44699 40.88883 46.92767 52.13432 57.15543 59.15490 61.04585 63.15314 60.91917 56.38178 48.71074 44.17390 40.68768 35.66141 31.09722 29.31143 28.96376 31.43619 34.16482 36.30043 36.66202 34.29386 30.58687 28.36928 27.70738 27.50675 27.52687 27.45273 27.42973 26.67118 25.92577 25.66062 25.49297 25.44086 25.46011 25.42433 25.39138 25.36749 25.34887 25.34097 25.33327 25.32251 25.31608 25.30874 25.30194 25.29266 25.28526 25.28137 25.27592 25.26600
25.25100 25.25100 25.26155 25.27406 25.28124 25.29024 25.29900 25.30717 25.31701 25.32205 25.32849 25.33503 25.34142 25.35561 25.36502 25.37657 25.38160 25.41297 25.59321 25.86368 26.17606 26.59505 27.19290 28.20264 29.49385 30.19008 29.56406 28.44060 28.46079 30.20956 33.31516 35.43468 36.02299 34.42632 33.74372 32.24533 31.62797 35.83080 41.73868 46.43374 49.75849 51.73634 50.25167 43.50321 38.94330 37.97651 44.50465 50.97491 60.03350 66.19778 70.70621 70.00218 67.75123 66.12939 60.46890 49.45135 53.54853 60.21257 67.27103 73.57554 71.47577 67.13739 61.67172 64.70993 60.83841 53.03054 51.47034 55.02102 50.32125 47.66076 55.47247 54.79170 49.02190 45.81992 43.65870 42.84356 49.09604 59.18303 64.67622 68.71768 68.45013 63.17208 59.97883 52.23021 44.96691 39.99278 32.79840 30.77970 29.68688 30.74601 34.32279 37.61165 39.59003 37.89786 34.00635 30.85364 30.18611 29.06470 29.55989 28.99474 28.52448 27.50565 26.61453 25.80168 25.58448 25.56766 25.53074 25.54875 25.46722 25.40548 25.37760 25.35348 25.34447 25.33530 25.32678 25.31938 25.31042 25.30226 25.29331 25.28504 25.28103 25.27593 25.26700
25.24900 25.25890 25.26515 25.27381 25.28245 25.29085 25.29892 25.30785 25.31527 25.32163 25.32680 25.33708 25.34360 25.36080 25.37661 25.39909 25.43132 25.43693 25.50379 25.87915 26.20347 27.12701 27.80349 29.29038 30.84152 31.94025 31.51343 30.48381 29.05630 29.83382 32.29799 36.47657 38.16578 39.16755 38.02289 34.35679 31.74684 38.27755 42.95909 47.60002 55.86361 56.62465 52.78480 48.14708 42.16854 40.80280 44.69217 52.16915 60.30334 68.36409 73.61539 76.27297 76.47808 72.98871 66.16444 56.93359 54.71968 63.04921 73.93827 76.28751 76.10153 68.94282 65.26479 68.42077 65.84946 59.45668 66.51998 64.15359 58.54002 54.86174 59.63530 59.34107 56.38432 53.62475 51.35531 46.10264 50.42602 60.98449 68.27712 72.11826 72.19473 67.36099 60.93687 52.77977 43.81873 37.74817 31.86191 30.53861 32.59065 35.23186 39.88641 40.27752 42.04159 37.46291 34.18580 33.74506 33.12131 32.19828 31.88741 30.24560 28.79727 27.40052 26.50861 25.75061 25.90384 25.89652 25.78198 25.66131 25.51428 25.42513 25.36984 25.35439 25.34322 25.33550 25.32685 25.32070 25.31098 25.30364 25.29398 25.28572 25.27438 25.26703 25.26700
25.25000 25.25990 25.26483 25.27646 25.28317 25.29262 25.29606 25.30442 25.31200 25.32014 25.32738 25.33557 25.34653 25.35552 25.39410 25.44512 25.52448 25.55924 25.51113 25.80428 26.19936 27.50962 28.45687 30.29763 32.10191 33.79358 33.08860 32.91987 32.12285 31.99882 31.92796 36.03067 39.17311 42.09756 41.10342 37.15732 36.18482 40.05776 47.35987 51.86088 57.29097 60.77394 60.74868 56.91123 50.07792 44.75407 41.90536 49.38416 56.71018 66.35900 73.85048 76.35893 79.97676 79.69273 72.62990 63.63173 58.32539 66.47826 74.51977 81.38448 78.36043 74.76351 73.29275 74.13089 68.50176 64.34474 73.47098 73.17845 66.77144 58.69070 64.06921 66.33551 64.18449 63.07787 55.49341 50.56029 59.11640 67.97764 71.54775 74.79423 74.96061 70.35591 61.19628 50.74507 43.00158 34.75315 32.01968 31.96314 35.01969 40.47847 43.74996 46.76619 45.87092 41.00599 37.90721 37.61663 36.72675 33.60909 33.07598 29.94951 28.61949 27.17642 26.18883 26.09845 26.30388 26.13036 25.98714 25.80985 25.59314 25.42361 25.38398 25.35252 25.33812 25.33241 25.32497 25.32006 25.30836 25.30218 25.29352 25.28440 25.27332 25.26206 25.26200
25.25000 25.25993 25.26559 25.27417 25.28151 25.28999 25.29579 25.30235 25.31145 25.31887 25.32547 25.33571 25.34275 25.35986 25.40369 25.50884 25.60261 25.73097 25.80550 25.72147 26.40190 26.99891 29.20310 30.69456 32.82625 35.05052 37.41431 36.34289 35.10061 35.27939 33.57308 34.48977 37.83887 42.63771 44.32548 39.83506 36.92753 41.05825 48.46330 55.83445 59.51702 64.59417 65.84196 61.41494 59.03331 51.99320 46.24617 48.25225 51.29311 62.56925 69.52354 76.46463 82.48444 83.61737 76.99614 69.46405 63.32565 67.16465 79.18420 84.52869 81.63130 78.18698 79.35777 79.61448 74.70683 69.99511 78.41158 75.79439 67.65376 66.89883 72.99921 72.64672 73.16464 68.40882 58.67756 55.14726 64.60501 72.11677 80.08652 80.18104 77.17445 68.82424 60.01978 51.91572 44.28188 36.03082 33.54895 35.91653 40.08203 42.96105 48.24639 50.34780 47.63594 44.21043 41.34880 38.98721 37.56877 35.49640 32.69094 28.78000 27.26113 26.18777 26.19307 26.47121 26.67053 26.49590 26.14768 25.79482 25.61105 25.43200 25.36392 25.34976 25.33538 25.32807 25.32234 25.31385 25.30689 25.30134 25.29196 25.28617 25.27599 25.26504 25.26500
25.25000 25.25063 25.26409 25.27221 25.28071 25.28969 25.29687 25.30302 25.31189 25.32096 25.33084 25.33776 25.35387 25.35884 25.39008 25.52822 25.76612 26.12183 26.18948 25.89268 26.04245 26.73617 28.19475 30.00912 32.38370 35.57569 38.13150 40.61334 40.28318 39.85205 40.13515 38.44792 37.58815 41.69825 46.34820 47.34645 43.25193 40.61930 45.85733 55.93581 62.93788 67.54437 69.31794 68.96342 62.35884 59.08635 57.25904 54.18169 52.18861 61.18750 70.96605 81.11513 87.15012 87.68825 85.46073 78.01267 67.71583 70.30804 81.33345 86.97369 86.06397 82.54959 85.19695 84.36211 80.16033 80.65223 83.36859 78.13771 72.90412 77.86595 79.84511 81.75301 78.14684 71.09333 63.31426 58.97900 67.16539 74.77107 83.89605 83.23279 76.31019 66.76074 59.19205 48.74445 43.09192 36.48199 33.94403 34.85739 43.18047 48.39311 51.28248 51.22702 49.89875 50.47114 46.32468 42.15049 38.26160 33.98880 29.91992 28.07652 26.96983 26.54149 27.45087 27.15247 26.84747 26.35263 25.86542 25.57435 25.48567 25.43880 25.39683 25.37002 25.33735 25.33239 25.31865 25.31372 25.30634 25.30080 25.29085 25.28666 25.27867 25.27383 25.26400
25.25000 25.25973 25.26670 25.27207 25.28133 25.28995 25.29800 25.30418 25.31363 25.32179 25.33300 25.34640 25.36129 25.39109 25.45388 25.57939 25.86395 26.20548 26.60911 26.87074 26.10375 26.43526 27.22895 28.04023 30.19394 34.29807 38.60956 41.04530 44.76951 43.71667 44.40654 42.71779 41.15947 41.63290 47.74766 49.28877 48.56848 46.44816 46.19908 52.52927 62.89223 67.24527 73.97078 75.20105 75.38318 67.73221 62.63614 62.44804 56.89677 59.86103 73.04007 79.31530 88.74852 91.18513 86.94509 83.10648 74.80545 75.50268 85.18705 90.09332 90.43402 90.12577 93.46287 90.48406 84.74234 87.53850 85.06298 80.15100 80.98776 84.52578 86.88594 84.31031 78.36121 71.38795 64.94050 62.14102 70.82711 80.21583 85.06661 84.63535 77.33506 67.53569 56.86821 49.66069 41.18443 36.30537 35.52415 39.48302 45.21926 51.96010 56.58783 57.62040 54.42436 51.14758 46.06869 40.74486 35.51617 33.60074 29.55401 29.80300 29.27143 28.29835 28.00391 27.09027 26.79416 26.27837 25.93212 25.82766 25.57132 25.55126 25.45927 25.40552 25.35705 25.33657 25.32792 25.31581 25.30924 25.30208 25.29158 25.28520 25.27595 25.26600 25.26600
25.25100 25.25100 25.26244 25.27419 25.28319 25.28919 25.29867 25.30634 25.31383 25.32692 25.33895 25.36768 25.40835 25.48115 25.48852 25.66474 25.96493 26.43513 27.20759 27.47793 27.06468 27.02838 26.67614 27.20115 29.80931 32.73959 35.46336 41.33445 46.59434 46.90946 48.22783 47.72941 47.16310 45.02341 46.92418 52.21419 54.66547 51.17846 45.48152 49.09037 59.41848 66.98538 75.78231 81.28738 80.91778 78.01798 71.93934 68.26553 62.56874 60.15848 72.29699 74.51434 88.06280 93.00569 91.59812 85.94769 82.92140 80.89433 87.01745 94.23963 93.96628 94.95091 96.63594 92.88930 90.60132 91.82756 90.21505 89.88290 91.74350 94.42908 89.81072 84.97067 79.43863 78.82996 72.53836 69.02731 71.43485 85.19044 87.15320 83.08788 74.21806 68.91430 56.63389 48.08123 40.39790 38.81933 44.25170 46.60999 48.78659 56.35551 60.92440 60.24292 56.50151 50.98143 45.30079 38.47137 33.86400 33.10581 31.91990 31.51990 30.35269 30.01171 28.42390 27.10657 27.11075 26.80439 26.51061 26.10601 25.84294 25.71626 25.52873 25.40843 25.35395 25.33920 25.33582 25.32382 25.31304 25.30395 25.29519 25.28878 25.27529 25.26739 25.26700
25.24900 25.25455 25.26218 25.27472 25.28218 25.29264 25.30027 25.31039 25.31614 25.33455 25.37445 25.45421 25.52717 25.58845 25.62323 25.74898 25.82803 26.29374 27.23552 28.32812 28.79313 28.55782 28.15538 27.60568 28.54892 30.69953 32.86508 40.29914 43.99620 46.53318 50.56644 51.90582 52.79364 51.60600 49.45743 54.45794 57.24221 56.28590 49.44175 50.06339 57.67263 66.29501 76.69044 84.56392 85.84142 84.19254 78.84511 74.13215 69.28417 67.35610 69.64686 76.59520 89.26179 96.53727 97.29780 95.15313 88.35081 87.57788 90.79051 99.07867 101.26088 101.68980 102.12767 97.25452 96.82118 98.37211 97.17233 94.45270 99.22292 99.99468 96.95816 89.94816 86.81141 84.41652 78.70415 76.71757 83.88850 88.83020 88.82498 80.79356 71.23750 59.11926 51.17206 48.22043 48.38671 45.63475 50.86937 54.71586 56.24457 64.43420 66.09298 63.10157 57.78374 49.81426 42.77452 37.74350 37.03980 36.07247 35.58680 34.57114 33.18902 31.75455 28.18364 27.62397 28.45798 27.68433 27.17746 26.60321 25.99166 25.79589 25.53430 25.44236 25.35596 25.35354 25.35323 25.33313 25.31571 25.30587 25.29608 25.28700 25.27620 25.26639 25.26600
25.25000 25.25555 25.26252 25.27571 25.28067 25.29051 25.30260 25.31059 25.33000 25.34729 25.41984 25.56585 25.66016 25.86913 25.99210 26.12947 26.19470 26.16387 27.24314 28.18127 29.43467 29.86832 30.08820 28.95139 28.06027 29.72586 32.15033 34.62366 40.41766 42.42677 45.82995 51.76383 57.10601 56.97311 53.28562 57.75624 61.20964 62.11365 60.84491 57.53433 58.53151 64.15106 75.45064 81.82071 89.48274 90.10061 88.02731 81.97259 77.56456 71.40343 76.40667 80.55457 90.34442 97.79863 101.89582 101.04170 96.44088 95.95160 97.11858 102.38593 105.77603 105.37208 105.78262 104.75345 103.29172 105.71160 103.50904 102.50287 103.27207 103.45417 99.36899 97.59882 93.92714 89.68870 84.84456 84.80200 90.73491 92.26567 87.70463 80.72531 64.52127 58.18188 58.78276 55.83598 50.62047 49.02571 57.13489 64.04933 65.97736 68.18330 68.84969 60.89622 55.63951 49.06835 39.51330 38.16487 41.37830 40.50804 37.91787 35.14537 32.77227 30.02426 28.86219 29.60609 29.78750 28.94850 27.90976 27.14035 26.02657 25.83548 25.56695 25.43029 25.40940 25.41930 25.37881 25.34741 25.31839 25.30492 25.29923 25.28922 25.27939 25.27320 25.26600
25.24900 25.25740 25.26307 25.27174 25.28273 25.28971 25.30327 25.31780 25.35250 25.39917 25.47035 25.69857 25.93503 26.35026 26.50276 26.52667 26.83109 26.51044 26.46304 27.64674 29.45402 30.66728 31.77387 30.89396 30.28852 29.75374 29.96924 30.79892 33.01668 34.63959 37.55849 51.61183 54.63304 59.28001 57.41404 59.69007 64.97569 67.81003 67.94860 66.70088 63.71508 62.77048 74.38211 84.17766 90.73713 95.16930 94.67981 89.45636 84.45035 79.33940 83.03397 88.73168 92.42259 100.58164 105.89018 106.60977 101.77437 103.02579 105.79915 109.42678 109.44668 110.39991 111.35383 110.64908 109.85888 110.93039 108.23557 107.92305 107.44182 105.48989 102.02278 101.97721 97.60322 93.97935 89.35465 91.62749 96.64063 96.89372 89.48716 80.80179 71.18095 65.89090 64.08199 57.64876 53.47624 53.50518 66.00407 72.95040 75.41573 72.22986 67.39028 57.76009 52.67126 44.80737 43.01764 43.73145 42.82993 40.90649 36.39973 34.29809 32.06031 31.23307 30.86491 31.14041 31.13754 29.88719 28.04699 26.65562 26.03407 25.59282 25.53326 25.60040 25.56832 25.54875 25.43964 25.35590 25.32159 25.31292 25.29764 25.28795 25.28222 25.27521 25.26600
25.24900 25.24948 25.25862 25.27099 25.27859 25.28829 25.29959 25.32054 25.35747 25.40807 25.54994 25.78050 26.11801 26.74720 27.18740 28.31336 28.38962 28.30764 27.86951 27.50361 28.02312 31.44265 32.83205 33.83078 34.51793 34.71140 32.93985 33.96502 35.61257 35.93984 37.51843 42.06423 53.72722 59.56177 64.32608 63.71977 68.91545 73.70161 74.17610 74.68892 69.47150 65.44474 76.38694 82.77310 91.26599 98.93723 99.40552 96.29831 93.44090 88.21134 91.72958 94.63888 99.73570 104.40494 109.53511 110.85930 109.46227 110.04399 113.50632 113.91955 113.88643 115.44746 116.19114 115.42825 115.66420 113.08037 112.75902 113.34075 112.67454 108.92527 108.59329 106.41576 103.95747 101.12518 98.94668 100.07326 101.93282 99.33847 89.14289 77.46714 74.72788 75.27270 69.95230 61.04669 59.30254 70.67715 75.14903 79.16764 79.17847 72.61751 63.14209 55.18131 50.34612 50.64683 50.74454 49.41299 46.13273 41.85428 36.78802 37.67114 36.05524 34.86008 32.98817 32.55538 31.15393 29.03202 27.09642 26.23659 25.88196 25.88227 26.07427 25.95544 25.85414 25.70501 25.53035 25.40551 25.34172 25.31076 25.29780 25.28796 25.28039 25.26700 25.26700
25.25000 25.25048 25.25810 25.26959 25.27698 25.28766 25.29678 25.31412 25.35419 25.44177 25.58697 25.88865 26.41269 26.96515 27.56982 28.68955 29.61108 29.61181 29.32675 28.55429 27.58900 30.72431 32.77929 34.84849 36.62620 38.08119 39.62519 39.11623 40.56424 43.29647 41.48995 41.71017 50.03009 57.86207 65.17511 68.42649 70.16832 75.40535 79.28418 80.90781 76.88115 73.78873 74.55008 81.23674 92.18103 97.17815 101.94903 103.02955 98.00156 93.51982 97.53822 99.36346 105.42150 109.41713 112.13625 114.85899 115.45680 115.64086 116.59138 117.38425 117.21897 117.10529 117.17961 117.48613 117.32245 117.14701 117.39215 116.54729 115.55614 113.58367 111.56868 110.91578 108.85279 105.71338 105.32512 104.24974 105.24618 101.39743 92.02610 84.60499 84.59793 79.49714 70.48818 70.49847 72.79101 79.28988 83.14834 84.42163 80.89409 71.59819 62.84271 60.34336 58.14770 58.78325 55.70068 51.98996 47.41138 45.01565 42.00363 40.20040 38.51113 36.94490 33.30833 31.90574 30.06180 28.69949 26.92886 26.25125 26.69299 26.86233 26.44238 26.45774 26.03285 25.72214 25.50699 25.44143 25.34504 25.30958 25.29735 25.28810 25.28297 25.27604 25.26700
25.25100 25.25148 25.26046 25.26724 25.27703 25.28835 25.29268 25.30441 25.33167 25.38398 25.55919 25.77176 26.01166 26.79993 27.61722 28.64523 30.42208 31.65061 31.25413 30.90987 30.70457 29.95973 30.65890 33.43820 36.52562 40.32617 42.67387 44.07363 47.50789 48.63860 51.77272 48.75343 46.31146 54.14093 62.80062 71.07377 76.31912 82.22848 84.52341 87.09856 84.04865 80.93572 79.59872 81.02924 88.16587 94.98876 103.15198 105.84763 104.16781 100.71901 105.37289 106.74120 111.04244 113.90102 116.44282 116.46087 116.35897 116.25938 116.50347 116.31012 116.63968 116.58899 117.02240 116.23996 117.06161 117.76449 117.74712 117.80725 116.96054 116.17563 116.41951 114.52124 113.85734 112.81296 111.77994 111.18039 106.69853 101.27948 95.21649 90.70770 90.49635 84.86276 77.88812 77.69665 78.94818 85.62612 86.52966 85.69419 78.43394 71.78381 68.50505 68.50690 65.58623 62.48538 60.16041 50.79054 48.31368 46.35505 43.41950 41.77557 37.98713 35.22970 32.65843 29.49444 28.96410 26.97396 26.72698 27.05653 27.42375 27.57209 27.20967 26.66517 26.12155 25.78346 25.49570 25.38516 25.33288 25.31299 25.29874 25.28796 25.28230 25.27577 25.26700
25.25000 25.25000 25.26105 25.26830 25.27890 25.29229 25.30249 25.30607 25.32588 25.34618 25.40233 25.55051 25.83811 26.09601 26.58224 27.89466 30.10597 31.72005 32.86359 33.74524 34.12492 36.47813 35.02777 33.95048 34.05444 38.35647 43.43898 48.56972 50.59121 56.84530 57.94221 54.70271 52.76608 51.01925 56.54494 64.89209 74.57121 83.42782 87.57548 90.47503 94.01296 90.08752 91.06772 89.01345 89.84606 95.85239 102.10045 108.40228 109.17130 109.68323 112.20804 112.22361 114.21673 114.87836 115.72407 114.78743 114.60981 115.20264 113.57881 114.16253 113.65216 113.01054 112.78528 114.15013 113.36266 115.06328 115.66024 115.30204 115.62953 116.09043 116.25888 116.41113 116.91826 116.59017 116.18480 111.84134 109.99688 106.28044 101.51582 95.51018 95.62669 84.96101 80.64328 87.95636 90.68185 92.55895 91.20353 85.57517 79.26457 76.63685 75.35804 74.60561 70.11974 66.31901 61.85547 54.43001 51.72559 47.75700 42.09137 37.40895 35.76461 32.20857 29.18901 28.24819 27.68934 27.37725 28.26140 28.71375 28.27978 27.67046 26.64680 26.38241 25.86018 25.56089 25.36708 25.35102 25.33084 25.31565 25.30662 25.29165 25.28233 25.27595 25.26600
25.24900 25.25864 25.26323 25.27220 25.28015 25.29217 25.31069 25.35219 25.37316 25.40845 25.48347 25.59556 25.78608 25.97812 26.35798 27.35024 29.17210 31.87937 35.06197 35.96689 38.30395 40.24611 41.21891 38.97559 39.44527 37.50160 41.57028 49.33539 55.37831 59.75831 63.38664 62.11843 63.08218 59.97732 57.22064 60.82472 74.65370 84.87471 90.89314 96.40017 97.34907 98.07484 97.64754 97.32415 96.45162 97.16260 104.32094 109.85012 113.39790 114.42814 114.70888 114.40319 114.37369 114.27689 114.02474 112.38495 111.38385 111.18514 111.47877 110.17002 110.52921 110.51571 110.45458 110.62108 111.41968 111.46221 112.08856 112.01551 111.91393 112.56969 114.25784 115.37903 116.38602 117.19365 117.47088 116.30913 112.12209 109.20527 105.62027 101.30308 95.84042 88.73125 89.39433 91.89775 97.34243 98.28609 93.07966 88.25896 85.27970 80.19330 76.80687 74.73935 70.64366 66.60815 58.69375 54.65461 49.69514 44.41437 39.33616 35.04684 32.02137 30.43177 31.12115 30.26447 29.64553 29.77971 29.67703 29.34178 28.29970 27.15384 26.28306 25.90524 25.82177 25.56459 25.53999 25.43719 25.38865 25.34557 25.30809 25.29081 25.28163 25.27415 25.26600
25.24900 25.25076 25.26214 25.27321 25.28206 25.29626 25.31833 25.38658 25.45199 25.58134 25.80627 25.94229 26.41834 26.37394 27.38870 27.93220 28.58087 30.78249 34.82337 37.32299 40.12747 44.67988 46.30523 47.35894 45.75485 42.93200 41.67904 46.00946 52.11109 60.36881 65.26512 68.44765 69.95201 69.01816 65.42472 63.23118 72.48125 81.80988 90.79777 95.61934 100.21114 101.80367 101.49717 103.94939 105.48663 107.60933 108.23450 112.64185 115.43714 115.88344 115.20370 113.67495 112.46968 112.13485 110.91524 110.17337 109.06750 109.24103 109.51931 109.29871 108.62310 108.68933 108.56492 108.44360 109.18830 109.17713 109.22308 110.16698 109.85470 110.47563 111.15165 112.16292 113.39832 114.25761 115.87687 117.31979 116.02029 113.26743 111.71480 103.61061 99.24771 98.79622 99.42680 99.67181 102.17378 99.41570 95.51017 91.66184 86.84148 80.16346 72.18082 69.09425 66.19351 60.15776 53.72348 48.72130 44.28627 41.43100 35.22173 32.88315 34.69665 34.84552 34.05848 33.53229 31.97499 30.65141 29.48529 28.29295 27.43053 26.83316 26.64832 26.75135 26.72533 26.01868 25.81861 25.51461 25.45141 25.34419 25.30775 25.29082 25.28182 25.27490 25.26600
25.25100 25.26064 25.26620 25.27443 25.28492 25.30241 25.35721 25.44313 25.52539 25.72501 26.04301 26.49135 26.90120 27.49849 28.65815 28.82378 30.95696 31.66905 32.82673 37.16561 39.80751 45.63271 49.85123 51.20917 50.42984 49.12336 47.75166 48.52739 49.91909 55.40046 62.45775 70.22513 76.99801 77.47351 75.71586 71.34233 71.90425 80.20095 88.21112 90.79624 98.60294 106.32828 107.95744 110.15052 110.05033 111.49124 112.46508 114.45198 115.58909 114.82004 113.59754 112.31294 111.15431 109.75791 109.41743 108.60896 107.97605 107.68896 107.05365 106.95348 107.23271 106.60320 106.57695 107.05293 107.52652 107.13260 107.18008 107.97744 108.28439 108.85345 109.50952 110.23032 111.02344 112.37236 113.75372 114.88724 116.01065 115.33576 113.20823 110.22987 106.45328 104.69158 106.22860 106.36410 105.89019 103.07193 96.93614 92.71228 84.50963 77.84616 68.62611 65.83194 57.70237 52.29386 46.75369 41.72823 38.53061 36.70240 35.34803 39.02744 39.72177 39.87943 39.06626 35.01749 31.24844 30.43596 28.97184 28.70565 28.79925 28.57710 27.96819 27.75083 27.21035 26.54710 26.01782 25.60354 25.44772 25.34892 25.31329 25.29349 25.28267 25.27531 25.26600
25.25000 25.25956 25.26617 25.27840 25.28829 25.29848 25.32978 25.41389 25.51421 25.77150 26.13720 26.68248 27.41933 28.30155 29.21588 30.45046 32.46918 33.66395 34.78033 36.12190 40.70115 45.56893 49.66238 55.80668 57.89316 57.57159 57.11587 57.70967 56.80403 55.93686 61.82739 70.20100 78.41692 82.87407 81.52423 78.22245 78.19574 78.46913 82.70721 88.62553 98.98470 106.64396 111.03461 112.22988 115.12226 115.54670 115.46093 115.67488 114.68530 113.14832 112.33425 109.51295 109.21034 107.93099 107.25649 106.61459 105.76973 105.70788 105.63208 105.25368 104.82802 104.58518 105.58247 105.26796 104.71208 106.00804 105.32689 105.69265 106.92356 107.34838 108.16220 108.41676 109.04060 109.90106 112.09416 113.07635 114.64147 115.50494 115.08014 114.60978 112.00200 110.74944 110.37500 110.30966 107.20457 101.99587 96.33622 88.76453 82.40348 77.55744 70.12430 67.38345 57.48043 53.46593 45.18569 39.83465 40.26376 38.81525 40.48520 43.05107 42.08508 43.06030 38.50276 36.73860 32.58668 30.78478 31.37660 31.68146 29.91876 30.66482 29.53518 28.83413 27.69582 26.83304 26.07527 25.68981 25.50208 25.38070 25.32230 25.29821 25.28279 25.27579 25.26600
25.25000 25.25935 25.26620 25.27532 25.28545 25.30468 25.32091 25.35236 25.40602 25.54733 25.77645 26.24172 26.57816 27.13028 28.20004 29.22496 33.12732 34.55832 35.96664 38.88167 41.97170 45.18396 50.51593 55.80290 60.02455 61.41381 65.06966 68.10801 67.26469 67.61034 67.41520 69.05264 77.13417 85.33466 88.45897 89.09818 87.17606 88.46517 88.34556 90.08030 96.36995 108.33284 112.39872 115.89566 116.86484 116.40729 115.78296 114.36089 112.49484 110.35002 109.26317 108.46024 107.17754 106.61220 105.68375 105.15914 104.20305 103.56457 103.26703 102.96088 102.77177 102.86282 102.17203 102.84731 103.19422 103.73515 104.15641 104.42607 104.41625 105.46202 105.87603 106.11674 107.60222 107.56874 109.68735 110.72004 112.55472 113.51564 115.30534 116.55780 115.77947 115.75657 114.32450 111.84488 105.69087 102.63725 94.58082 88.13530 82.17723 79.20378 76.70562 69.91368 61.00866 51.48366 46.11054 43.83991 48.61325 46.65081 46.26656 48.77492 47.45166 42.98035 37.40653 36.29827 36.73038 35.12499 35.13860 33.99447 34.17776 32.03131 30.42056 28.73468 26.85574 26.33015 25.91374 25.72539 25.50914 25.36896 25.33755 25.29398 25.28399 25.27510 25.26600
25.25000 25.25000 25.26362 25.27228 25.28896 25.31531 25.34039 25.38686 25.39774 25.42491 25.42003 25.69117 26.23054 25.99779 26.99052 28.33304 31.57809 32.96687 35.16417 38.22534 40.45165 45.88880 50.14660 56.20018 59.76408 63.44520 67.67492 70.56288 73.42846 72.44687 76.12185 76.19120 77.42614 85.97350 90.38279 93.74106 93.28529 94.53227 93.94781 94.23913 99.94332 108.38975 113.25021 116.37582 116.73224 115.98967 112.92301 111.99012 110.01577 108.87596 107.99142 106.88756 105.87166 105.06142 103.92648 102.49438 102.53430 101.80224 101.78139 101.24248 101.38601 101.44242 101.21615 101.45605 101.22766 101.22898 101.43064 101.75425 102.49662 103.25952 104.16201 104.98767 105.45315 106.66916 107.97771 108.96662 110.17574 111.11482 112.10525 114.98593 116.53071 117.23243 116.31326 113.68353 108.60894 102.20964 97.17183 89.59512 84.61875 80.43397 74.55215 69.21608 59.91785 52.05739 50.60354 53.89535 57.44328 54.51829 55.10205 51.43398 48.11192 42.66106 40.30910 42.48754 41.09305 40.63528 38.82817 35.94698 33.97522 32.17747 30.20159 27.86809 26.47271 25.95449 25.61967 25.53349 25.37411 25.30928 25.30312 25.29761 25.28353 25.27516 25.26600
25.24900 25.25708 25.26570 25.27347 25.29579 25.34299 25.37243 25.46676 25.53212 25.61021 25.68743 25.67019 25.87557 26.11917 26.33649 26.89287 29.30045 31.74676 34.35983 36.17033 38.25149 42.65757 44.96182 50.78219 54.80723 57.10187 64.40488 69.70120 76.16924 79.65311 82.12633 83.66171 83.55261 88.87735 92.72346 96.55621 100.67045 101.12065 102.54683 105.80905 107.82991 111.01858 114.73042 115.49393 114.97533 113.78761 111.44499 109.98369 108.98128 107.69296 106.37430 105.25251 103.51251 103.11383 102.37833 101.42030 101.25449 100.61020 99.92879 100.05086 99.68262 99.74082 99.59250 99.90106 100.00043 100.06584 100.30473 100.58537 101.34665 102.05045 102.51569 103.07064 103.69493 104.89982 106.07313 107.22064 108.95885 109.51772 110.78320 112.76326 114.89834 116.93159 117.00573 114.20860 108.53865 104.35147 96.45527 89.57740 78.66793 72.17500 64.98419 58.49511 55.42691 59.25377 62.25610 71.05232 68.51798 67.09361 59.70690 54.64458 48.59343 47.61907 47.65916 46.78938 48.47690 45.93761 42.94693 38.08468 33.85189 30.83709 28.78434 27.30758 26.33083 25.82588 25.59499 25.57668 25.47532 25.44743 25.34804 25.30577 25.28830 25.27500 25.27500
25.24900 25.25103 25.26217 25.27575 25.29045 25.34054 25.41596 25.56110 25.66714 25.90617 25.98088 26.08227 26.49997 27.29798 27.75278 27.89424 27.64662 28.26231 31.68408 31.66790 33.56897 34.15692 42.13790 44.83765 48.59702 50.82858 61.15543 67.66011 72.27049 76.25777 81.40065 85.08435 89.40193 91.60308 96.78010 99.34989 105.53666 106.50862 107.54084 110.35320 112.75761 113.91313 114.96121 114.09990 112.74040 111.19070 110.35145 108.76747 107.52076 105.70241 104.39961 103.20297 102.24249 101.54520 100.54030 100.21570 99.63315 99.11284 99.00757 98.72013 98.47440 98.45061 98.45192 98.31515 98.45905 98.68059 99.00026 98.98099 99.59736 100.04876 100.73818 101.63468 102.56430 103.32549 104.87574 105.68508 107.13382 107.99484 109.79253 110.73623 113.05280 115.51704 116.26345 115.40550 109.26594 101.87732 92.03105 85.47837 78.73848 77.23695 72.33983 64.72414 68.50830 70.92371 69.55256 76.14110 72.46213 72.97713 65.50864 57.65140 55.31254 54.00947 56.05325 53.68007 49.95833 47.09957 44.24276 37.03417 31.99360 29.22644 27.17558 26.24265 25.81523 26.17727 26.14182 25.91191 25.74481 25.56557 25.45438 25.35950 25.31279 25.28558 25.28900
25.25000 25.25000 25.26316 25.27461 25.28833 25.30409 25.40552 25.52864 25.68930 25.88439 26.01042 26.56125 26.72456 28.47750 29.17563 29.43451 29.26094 28.51192 28.14666 29.49752 30.38461 31.29372 35.70161 39.29673 43.44426 47.61665 55.86029 59.76212 65.22452 70.65098 74.48414 82.01097 88.26100 94.38146 99.45685 104.52450 107.58290 110.07025 110.77981 114.20655 116.33510 116.46158 114.32001 112.21037 111.12130 109.68597 108.41864 106.87344 105.70844 104.09822 103.16190 101.73294 101.17438 100.14837 99.46547 99.04511 98.60855 98.16937 97.80396 97.63781 97.47716 97.46334 97.49082 97.64023 97.63802 97.74634 97.87739 98.39212 98.43603 98.92446 99.59768 100.50403 101.00439 101.38763 102.77657 104.22969 105.99142 107.14743 107.95195 110.47879 111.42623 114.97823 116.26540 115.96055 107.10286 101.55068 93.99942 91.77051 89.76950 85.62069 79.28207 74.08616 75.34699 78.83066 81.42436 84.47168 81.68818 74.63200 66.62272 63.11813 60.87143 60.95195 60.02097 55.48108 51.51599 44.90307 40.13448 33.92444 30.18670 28.13061 26.52696 26.17884 26.97445 26.82727 27.05433 26.28886 26.10765 25.76863 25.55073 25.39037 25.34569 25.29575 25.29800
25.24900 25.25806 25.26721 25.28259 25.29539 25.34342 25.38327 25.48305 25.57777 25.86083 26.33343 26.52381 27.06371 28.97805 30.66655 32.43226 33.08616 32.57865 30.94559 31.91818 33.65944 34.15397 32.45340 34.49424 38.12663 44.27542 49.52545 51.39844 54.32442 62.72628 68.90494 74.18829 86.25361 90.65985 98.05492 103.13071 107.61922 111.11355 115.27756 116.78744 117.75182 116.67655 113.55418 111.26954 109.63330 107.97528 106.08555 105.35206 104.07516 102.92240 102.12733 100.78111 99.69680 98.83288 98.75148 98.01104 97.70476 97.28830 97.14230 97.07774 96.85128 96.76511 96.69304 96.78326 96.85570 97.02590 97.06680 97.19914 97.62592 98.12272 98.19487 98.68843 100.01524 100.55589 101.41381 102.72550 103.55126 105.76879 107.26004 108.79167 110.67111 113.49666 115.16970 115.17834 112.66129 105.75847 102.74587 98.67477 95.36593 92.84088 88.04460 82.59944 81.73860 86.21486 88.20671 86.92259 81.84932 74.26952 69.91767 67.01672 65.34342 63.57099 59.62473 54.98117 48.70455 42.16318 36.08295 31.41964 28.76430 27.07525 26.86296 28.01554 28.09165 28.75482 28.04239 27.13289 26.55949 26.05993 25.59205 25.42365 25.36668 25.30191 25.32400
25.25000 25.25642 25.26681 25.28553 25.33083 25.44170 25.55587 25.68436 25.95682 26.19468 26.93157 27.50045 28.16183 29.28476 31.10413 33.56284 36.44768 36.74959 35.95552 36.95749 37.77863 36.96291 35.97646 33.76274 35.41881 39.70120 44.23417 46.24274 48.74236 56.40402 56.77180 66.35998 75.45626 85.99632 91.56123 100.66840 101.39444 109.09400 113.88417 117.57606 117.69715 115.75749 112.22140 110.53043 109.10286 107.04353 105.34777 104.15306 102.48085 101.46946 99.97860 99.39212 98.85666 98.15344 97.67826 97.23125 96.84834 96.67135 96.59493 96.50408 96.42996 96.28174 96.29267 96.20606 96.39207 96.48374 96.52995 96.75323 96.88389 97.15249 97.70456 98.06668 98.62150 99.50898 100.46816 101.66614 102.49334 104.04233 105.83550 107.79633 109.15613 111.52469 113.23879 114.14906 115.04004 112.19650 109.02271 103.82009 101.09272 97.65614 90.77487 89.92457 91.20057 92.56628 91.93689 89.48867 83.08406 77.70237 75.34315 70.77312 67.68725 61.56973 56.22909 52.84202 44.88089 39.41841 34.72808 31.54133 27.46893 27.75971 29.06668 30.18149 30.24800 30.07748 28.71847 27.52597 26.64023 26.16689 25.61690 25.47092 25.34325 25.29177 25.31500
25.24900 25.25613 25.26758 25.29000 25.36720 25.56658 25.67734 25.95477 26.25012 26.85970 27.93406 29.35567 30.13189 31.60208 33.31241 36.17606 39.39846 40.73892 39.99084 43.49388 46.13052 45.36099 41.96229 38.63115 39.76191 38.59164 41.31810 43.13209 45.94811 49.71275 52.65929 59.10826 66.97954 76.63815 85.33517 89.73760 98.21420 106.38645 114.28405 116.89679 116.94331 113.80150 111.28428 108.97799 107.60586 105.97390 104.38600 102.93789 101.49861 100.22897 99.51435 98.33407 97.84313 97.29775 97.08970 96.78833 96.51685 96.33586 96.17353 95.99582 95.97622 95.91405 95.95565 95.96455 95.96127 96.09497 96.08593 96.23891 96.55787 96.67748 96.87160 97.27172 97.91875 98.48611 98.84963 100.30932 101.39117 103.28724 104.64727 106.27900 108.36601 109.57955 111.34685 113.14292 115.45669 115.25851 113.39167 112.67917 107.52745 103.82017 95.98295 96.43178 95.73884 94.10539 91.70850 87.39258 83.73492 79.09318 75.02605 68.61151 65.37490 60.15287 51.80216 40.79036 40.74725 34.91899 31.25471 29.08358 28.54260 30.65880 31.40757 32.20458 31.73599 30.07155 28.86270 27.68282 26.83044 26.02530 25.54515 25.40408 25.31934 25.29065 25.28200
25.25100 25.25742 25.26944 25.30594 25.36727 25.62320 25.88834 26.39314 26.97879 27.72333 29.37862 30.52395 32.45509 34.63270 37.12373 39.66809 42.83788 44.60739 47.64348 49.81863 51.27760 49.71609 49.21476 45.03800 44.64707 46.99429 50.48901 49.36503 50.72869 54.02613 58.66362 65.12244 67.97962 73.39728 77.41584 88.99863 98.79173 106.09103 111.84776 115.56645 114.86688 112.52726 110.26302 108.25965 106.76689 104.36236 103.24804 101.16099 100.48249 99.38355 98.48508 98.03967 97.63501 96.86352 96.57196 96.21679 96.06942 95.96758 95.80680 95.77129 95.69873 95.66976 95.61172 95.60626 95.74102 95.75572 95.85942 95.98061 96.13381 96.21349 96.46931 96.80869 97.14681 97.74832 98.40763 99.21123 100.52255 101.92912 103.40391 104.79399 107.06341 108.53587 110.42451 111.84481 114.98904 116.82203 115.90445 114.35044 111.68368 105.39649 104.68584 101.42212 96.29475 93.28851 85.11121 80.97017 77.12799 75.55187 72.49524 64.79300 55.80937 53.31162 45.35302 41.25326 34.29967 31.17253 31.28352 32.35662 32.91907 34.79463 34.91639 35.10771 32.94010 29.42630 28.60184 27.15887 26.24437 25.88042 25.55536 25.43312 25.34153 25.29119 25.28600
25.25000 25.25000 25.26789 25.30744 25.37641 25.64264 25.93241 26.61163 27.02389 28.04465 29.48729 30.74932 32.94138 36.42699 38.41007 40.04955 42.05681 43.28749 46.78042 51.90698 53.50961 56.52348 55.40040 56.76113 56.32543 53.70434 56.18063 58.08372 54.21422 57.66822 65.42117 71.79555 75.47839 83.40538 87.67795 94.01496 97.88746 108.60961 112.59339 114.86754 113.30397 111.11132 109.72260 107.67947 105.68962 103.64612 102.31131 101.12815 99.96032 98.62503 98.13432 97.19290 96.61187 96.37853 96.19958 95.90333 95.75834 95.73259 95.60755 95.49663 95.45307 95.42624 95.44181 95.42876 95.44911 95.46936 95.56553 95.70428 95.83656 95.91720 96.15182 96.45905 96.73948 97.26750 97.74726 98.44760 99.92898 100.94564 102.32813 103.92503 106.17313 107.44664 109.45386 111.04612 114.61890 116.59534 117.34718 115.55667 112.44554 108.42959 105.67196 99.10540 95.08009 87.26306 79.03572 72.73151 69.81794 67.36417 66.98016 59.51229 52.62949 44.38410 42.74489 36.92414 35.26194 34.52715 35.01183 36.30384 38.54502 39.10015 37.04915 35.59700 33.58938 30.54641 27.84490 27.19854 26.64814 26.16874 25.75500 25.49155 25.37512 25.29548 25.32800
25.24900 25.25808 25.27120 25.29109 25.42197 25.60869 25.94235 25.99484 26.67122 27.72661 29.00840 30.06189 31.57058 34.89333 37.30812 37.54253 38.55777 40.62194 42.63982 47.40642 55.10748 56.86741 59.38517 61.02531 62.67798 63.96626 64.74953 64.04482 66.18241 62.64615 66.18677 74.60727 82.67918 91.61109 93.59452 100.10269 105.45375 109.58079 113.42157 114.67551 111.76509 110.18252 108.05535 106.93527 105.08600 103.43228 101.38813 100.34397 98.71703 98.03410 97.29998 96.93288 96.44665 96.18259 95.94794 95.72576 95.57006 95.45414 95.38908 95.32704 95.27552 95.22483 95.24766 95.27050 95.27307 95.34095 95.43739 95.47105 95.54378 95.70053 95.86997 96.09333 96.47492 96.97004 97.29017 98.13367 98.86963 100.42757 101.88413 103.10021 105.16721 106.80017 108.89307 110.10441 111.90612 115.12483 117.04001 115.12370 110.64789 107.39154 100.06376 95.32426 89.48838 83.24210 76.96673 70.28304 67.86228 61.38790 57.92490 55.26773 48.75348 44.90997 41.97167 42.21918 40.42638 41.82191 42.69182 43.01417 42.13381 40.73304 37.50767 35.51268 32.72162 31.13979 29.38320 28.13421 27.11075 26.39894 25.89412 25.55662 25.38701 25.30595 25.35300
25.25000 25.25000 25.27008 25.29599 25.38986 25.50111 25.65191 25.77533 25.95249 26.68567 27.26343 28.61168 29.34781 30.98570 33.25017 32.61164 32.88576 34.23092 36.60687 42.76136 49.14422 53.45911 57.49518 62.19211 65.55515 70.29141 71.16189 73.47518 74.86997 70.77788 73.93994 78.15058 89.07319 93.45834 102.42963 105.40812 110.16474 115.07001 115.64629 114.68239 111.24748 109.30108 107.76921 105.38990 103.84742 101.99941 100.79857 99.51809 98.41799 97.74878 97.03890 96.51791 96.19021 95.90536 95.71541 95.56994 95.43382 95.32892 95.25695 95.18761 95.18839 95.15974 95.15395 95.15087 95.15324 95.18849 95.26563 95.34371 95.41070 95.54065 95.68543 95.86731 96.16720 96.47063 96.97999 97.57170 98.69923 99.66328 100.68870 102.55345 103.62177 106.70360 107.31732 109.39935 111.57440 114.05605 115.34393 114.29056 109.13598 104.74053 97.53604 93.20774 86.61024 83.37419 83.08501 78.41807 74.13815 66.99299 56.95983 51.25478 48.55391 48.45499 47.06491 45.34511 45.72431 45.11963 44.47444 43.27238 40.76240 39.79221 35.86255 33.83365 31.75447 30.49663 29.81087 28.40465 27.39289 26.58922 25.95889 25.58839 25.45566 25.31585 25.36200
25.25100 25.25100 25.26536 25.29050 25.32910 25.38632 25.40876 25.39990 25.59059 25.90350 26.24632 26.43375 27.64125 28.82266 29.41498 29.97310 32.54510 33.98826 36.61123 39.03446 47.22121 50.39654 54.06986 59.32899 65.30969 70.86146 76.04134 79.93344 83.37263 82.60053 82.96661 84.15844 90.50757 101.00002 106.93560 109.30609 114.68038 115.69812 115.61377 112.49955 110.05200 108.75201 106.74575 105.17157 103.02957 101.49982 100.11884 98.67012 97.99142 97.22880 96.45448 96.37664 95.94938 95.70679 95.54898 95.42274 95.30402 95.18940 95.13467 95.07149 95.06485 95.03243 95.02729 95.03349 95.06056 95.05097 95.12365 95.21844 95.26781 95.40447 95.56285 95.78287 95.97642 96.11817 96.68067 97.19281 98.03750 98.97677 100.01287 101.69392 103.14167 105.44184 106.81247 108.77334 111.08686 112.88805 115.38723 114.65978 111.58985 105.47427 100.66828 97.11627 95.81313 90.05194 87.12828 84.27563 77.62665 70.12274 63.01285 55.52492 54.65297 52.57265 49.91938 46.99301 43.61557 42.12238 42.25536 38.76314 36.49340 34.65865 33.20248 30.46755 30.46285 29.40147 28.77240 28.05528 26.88026 26.09523 25.81306 25.55192 25.46652 25.34381 25.44300
25.25000 25.25000 25.26267 25.27536 25.28291 25.31513 25.33899 25.51445 25.74007 26.06526 26.71136 27.33602 27.40530 27.92629 28.94826 31.11532 34.28009 38.42469 39.87035 42.47118 43.99828 49.59022 54.29967 61.44194 68.24749 74.14544 77.49926 82.51683 86.60158 88.79986 88.95697 90.54529 94.41977 102.63490 108.45200 112.63122 116.29656 116.57890 113.75819 111.59042 109.04222 107.94631 105.46761 104.05347 102.26755 101.06215 99.53749 98.21448 97.70883 96.81742 96.42299 96.08994 95.75763 95.60290 95.38446 95.29691 95.20483 95.11911 95.05810 95.01561 94.96545 94.94801 94.94650 94.94865 94.95876 94.98919 95.02939 95.08960 95.16696 95.25627 95.42962 95.53090 95.86465 96.08714 96.37165 96.88039 97.62100 98.25308 99.69092 100.85305 102.25194 104.33881 105.85329 108.33721 109.93567 111.37334 114.35008 115.33189 112.76861 108.68904 107.29024 101.51017 98.72387 93.89381 89.66985 84.79205 75.71099 70.73676 62.99637 60.27548 61.74696 56.28598 52.53635 48.00565 42.40641 39.54723 37.05972 34.25531 32.55119 31.06439 29.55588 28.11063 27.87172 28.68034 27.04052 26.85250 26.12230 25.83847 25.59601 25.49933 25.41281 25.35274 25.42600
25.24900 25.25812 25.26916 25.27726 25.30815 25.35801 25.43984 25.58935 26.09911 26.64769 27.53825 28.59288 29.20922 30.28258 31.86208 33.45485 36.22206 39.66751 46.56293 49.22039 50.39613 54.44064 62.31830 67.46572 70.66775 75.06519 78.75878 81.85029 87.31317 90.69855 91.79362 94.52828 100.36988 103.90689 108.88397 114.44410 116.48891 116.43538 114.32581 110.83951 109.52034 107.51528 105.28732 103.47872 101.92932 100.72372 99.39279 97.94027 97.32137 96.66918 96.35208 95.90747 95.67529 95.45977 95.29503 95.21534 95.09298 95.04410 94.95925 94.92267 94.88463 94.88596 94.88107 94.86966 94.90627 94.92275 94.99190 95.04326 95.12534 95.21084 95.32688 95.42687 95.61192 95.91500 96.23270 96.66225 97.52980 98.01416 99.11498 100.35732 101.51185 103.77809 105.30493 106.95342 109.42690 110.83454 113.96604 115.29393 115.05586 111.82772 109.30077 104.05856 99.87413 95.01447 87.66985 82.71070 76.44579 70.73554 68.41767 68.33488 65.65761 61.92075 54.66898 48.78026 43.20189 38.14730 35.48526 34.92312 32.08372 31.58995 29.77433 28.36609 27.25520 26.40425 26.19353 26.06157 25.88009 25.79315 25.60940 25.44915 25.38301 25.34203 25.35000
25.24900 25.25242 25.27017 25.31363 25.39292 25.42553 25.63192 25.79986 26.17154 27.05059 28.28551 29.61616 31.12591 32.78795 34.79650 37.97650 39.77671 42.45166 48.32453 53.22383 56.08144 59.13209 66.45866 68.95797 69.99727 74.71464 77.84570 80.71221 83.55647 86.89634 88.82426 96.08353 100.12948 105.20855 109.50757 113.04587 116.71360 116.22754 114.30785 110.96479 109.30221 107.47614 105.55615 103.49578 101.35850 99.90731 98.91748 97.74828 97.25992 96.53859 96.13945 95.86167 95.56440 95.36368 95.22600 95.15730 95.05076 94.92633 94.91801 94.86457 94.84675 94.83094 94.81081 94.82037 94.82485 94.87466 94.89556 94.98367 95.03668 95.12028 95.26704 95.38068 95.50927 95.78991 96.14368 96.49953 97.07135 97.74282 98.86665 99.74534 101.31294 103.07813 105.12536 106.60692 109.03869 110.74831 113.89532 115.77717 115.78859 112.83758 109.02023 105.38313 102.19219 96.26696 89.14237 84.33071 81.62145 78.14755 73.77279 71.21835 66.28896 62.04146 55.28863 51.95134 47.35321 42.57423 41.63016 39.56878 35.85445 33.66242 31.15294 30.49341 28.30035 27.58839 26.68759 26.77283 26.65486 26.12355 25.74018 25.60959 25.43393 25.34067 25.33300
25.24900 25.25820 25.27070 25.35093 25.45540 25.65780 25.83790 26.10721 26.56251 26.75831 27.82628 28.66801 31.00585 32.96845 35.14303 38.85439 41.83628 45.23763 49.11491 55.88461 58.14408 62.44660 64.35848 67.39760 67.53666 68.96092 71.10723 73.14040 75.68192 76.59432 83.01649 89.94870 93.21862 100.36035 107.19587 112.88740 116.45134 116.46938 113.62427 111.36131 109.02600 107.14560 105.10329 102.46890 101.59445 99.79401 98.58041 97.52958 96.96671 96.40991 96.02558 95.72485 95.56173 95.28144 95.19819 95.10961 94.99058 94.90914 94.88910 94.82345 94.79499 94.77528 94.77413 94.77190 94.79911 94.82213 94.87060 94.91788 95.01558 95.08913 95.19964 95.30421 95.46132 95.73157 96.01860 96.34513 97.03858 97.49842 98.51435 99.49632 101.21204 102.79017 104.54140 106.82106 109.17703 110.81984 114.03457 115.73752 115.80593 112.84544 108.99705 104.28619 100.49351 93.38887 89.42415 84.98335 82.45734 77.14973 71.41658 66.01454 61.36713 56.39789 52.72982 49.75017 45.59590 43.32008 41.95627 40.63560 37.41633 35.40976 32.93144 31.43755 29.56778 28.94337 28.56668 27.71837 27.08280 26.58854 26.07214 25.69029 25.50084 25.35085 25.42900
25.25000 25.25920 25.28188 25.34445 25.51610 25.73523 26.01752 26.58108 27.08351 27.79373 28.76922 29.19215 31.08458 33.30237 36.92732 39.75461 43.24580 47.61009 51.67770 55.65156 56.79755 57.57651 58.83964 59.36136 59.20677 57.32529 60.00426 62.53757 64.22632 69.13646 75.68594 84.55172 90.61708 98.91816 106.94195 112.97636 116.66906 117.02830 113.28943 110.31641 108.74039 106.89812 105.19260 102.93050 100.82618 99.67036 98.39073 97.30880 96.98395 96.28735 95.98652 95.62743 95.46232 95.29875 95.15587 95.06808 94.95014 94.88591 94.82773 94.79166 94.77161 94.74357 94.74415 94.75204 94.76588 94.79993 94.82469 94.89593 94.95702 95.04909 95.16944 95.29153 95.46580 95.61716 95.90224 96.32595 96.77798 97.28180 98.72864 99.37377 100.65944 102.68802 104.52430 106.25829 107.79103 110.37418 113.54923 115.86076 116.01948 115.04212 109.43427 103.97631 99.09719 93.08564 88.98343 80.81222 74.41284 69.38287 62.37985 55.42566 51.57496 47.87186 45.18802 42.56780 41.91243 39.87603 39.96922 38.26909 35.30320 34.22127 30.99210 29.65298 28.88869 28.73368 28.49221 27.92816 27.39877 26.40271 26.04896 25.69934 25.51577 25.37354 25.47800
25.25000 25.25805 25.30229 25.34623 25.51168 25.76845 26.26110 27.04633 27.58437 28.72435 29.69381 31.66684 32.71488 35.48077 37.76599 41.62812 44.44059 47.44666 49.42522 50.58939 50.15582 54.66954 51.74164 50.27546 50.71771 48.41631 52.08648 57.89911 66.94037 74.74290 79.58008 84.46708 93.01389 98.87635 108.23321 112.47361 116.38844 116.10075 113.30886 110.66295 108.56455 106.60456 104.82235 102.65919 100.93880 99.73709 98.36311 97.54120 96.69069 96.26650 95.90894 95.63406 95.43337 95.27333 95.13226 95.05315 94.93441 94.86527 94.81738 94.76146 94.73931 94.71947 94.71424 94.72443 94.74476 94.77951 94.80895 94.89484 94.94191 95.03083 95.12757 95.25070 95.41644 95.64445 95.80454 96.31895 96.71466 97.32675 98.56056 99.38892 100.45578 102.06729 104.08152 106.65492 108.21221 110.59621 112.64188 115.40159 115.99400 114.83895 110.90823 106.11869 102.48824 96.28075 91.07007 82.02663 75.76172 68.62285 61.92443 55.70002 48.89595 46.30977 40.10250 38.81804 35.40009 33.81836 33.12246 33.80034 32.59184 30.24868 29.33072 27.76528 27.14225 27.45042 27.76880 27.16832 26.90481 26.31635 25.76569 25.60969 25.44082 25.32633 25.41600
25.25000 25.25000 25.29999 25.35852 25.48173 25.79908 26.13133 26.78735 27.54574 28.79461 30.30599 31.86974 33.58323 34.92511 35.98556 37.11676 39.07516 41.46978 42.12637 44.61830 42.67617 43.91139 43.97500 42.11430 45.38036 51.04689 58.66264 59.67941 64.21400 70.50946 77.72056 85.43160 94.24615 99.67431 107.98107 112.72848 116.47826 115.91936 113.16374 110.53640 108.64195 107.02002 105.14457 102.17960 100.77186 99.60557 98.43159 97.36496 96.82121 96.46482 95.84966 95.66423 95.43337 95.26112 95.14735 95.00512 94.93918 94.86644 94.80234 94.76051 94.72761 94.71496 94.70687 94.71427 94.73545 94.77868 94.81160 94.87753 94.94175 94.99724 95.12084 95.25428 95.42528 95.62960 95.85967 96.21874 96.79704 97.40068 98.25543 99.26614 100.59719 102.44187 104.21419 106.41703 107.91754 109.78569 112.30381 115.10409 116.60078 114.56499 111.08965 106.68284 100.97381 91.98891 84.87328 78.64996 74.58659 69.79563 65.71727 58.37230 53.10554 45.28849 40.19116 35.44702 34.39703 32.27922 31.27100 30.58622 29.39512 28.33548 28.02867 27.47608 26.77493 26.62505 26.24253 26.18017 26.23022 25.80299 25.65934 25.47384 25.38384 25.32080 25.31200
25.25000 25.25000 25.27847 25.34573 25.47030 25.63049 25.83411 26.21526 26.58761 28.26133 29.58690 30.59188 31.76003 32.34730 33.20822 33.52926 36.44234 36.59825 36.86464 38.28738 37.39190 39.16948 42.20218 43.56101 52.62042 57.42512 62.24629 69.27662 70.62436 74.90566 82.51567 86.98407 93.87365 101.96832 107.93471 112.40180 116.28235 116.43923 112.83228 110.27778 108.60959 106.97528 104.46046 102.76775 101.11759 99.81556 98.46024 97.42476 96.78475 96.36427 95.89363 95.58440 95.42285 95.22375 95.14139 95.02548 94.95613 94.86675 94.82622 94.77336 94.73994 94.72579 94.71348 94.72175 94.73394 94.76931 94.81586 94.89597 94.94773 95.01435 95.16768 95.25701 95.39876 95.67933 95.90441 96.31964 96.81540 97.52337 98.29951 99.38150 100.37036 102.37242 103.89453 106.57985 108.91668 109.80856 112.58680 115.08520 116.78768 114.35207 109.41919 103.81207 96.24640 90.07536 80.36879 74.21957 66.54866 61.98071 61.66930 54.71739 44.50415 39.65468 40.08177 38.70830 38.56957 35.27490 33.14197 30.70187 29.57967 30.47677 30.89952 29.84533 28.08629 27.04148 26.13724 25.80926 25.67847 25.63723 25.48304 25.39828 25.34004 25.31680 25.30800
25.24900 25.25837 25.27035 25.30288 25.35004 25.41218 25.45820 25.73903 26.05630 26.54065 26.76105 28.08378 28.92586 29.89588 29.05072 28.98959 30.89021 32.01846 32.36981 32.65518 34.79041 35.42668 39.86594 48.84407 56.44393 63.80532 70.12743 75.02354 81.26488 83.95298 88.29619 93.73866 98.50440 104.75992 109.61457 112.79274 115.79300 116.60836 111.86128 110.44555 108.48070 106.92415 104.79894 102.76239 101.16025 99.51465 98.55703 97.41759 96.76835 96.40515 95.95234 95.67728 95.45732 95.27607 95.13302 95.04723 94.97041 94.89225 94.83752 94.78606 94.76163 94.74422 94.73904 94.73898 94.77148 94.78122 94.83876 94.89634 94.96878 95.03060 95.16779 95.28811 95.43412 95.73062 95.93373 96.28723 96.85882 97.61787 98.55408 99.54012 101.09849 102.68291 104.49958 106.78427 108.13949 110.22032 113.43361 115.96681 117.54570 114.98291 111.39995 103.84003 99.82696 95.71805 84.89241 77.82522 70.95076 61.34047 56.66366 52.11880 51.97646 49.29129 50.83130 45.80139 43.04955 38.83632 37.70221 36.11275 35.80744 35.77305 32.79749 31.87475 29.48660 28.00902 26.95910 26.49479 26.03659 25.64278 25.53685 25.42925 25.37140 25.31788 25.35900
25.24900 25.25678 25.26723 25.28842 25.29165 25.36280 25.52935 25.59998 25.57044 25.75041 26.05320 26.39887 27.43860 27.20430 28.07128 29.24380 30.04409 31.98036 34.17644 36.00782 38.59892 40.79977 44.46566 50.89061 59.06170 65.89783 74.25783 79.64934 83.87822 87.67716 92.59898 95.22104 96.53600 104.32686 107.45505 111.06971 114.77638 115.42788 112.36821 110.53581 108.83976 106.55360 105.48023 102.71953 101.43293 99.76314 98.39452 97.34278 96.87540 96.49414 95.95364 95.75210 95.51031 95.33793 95.19675 95.06886 94.99559 94.92579 94.89175 94.81797 94.78709 94.76936 94.76628 94.77697 94.80905 94.81958 94.88287 94.91581 95.00021 95.08792 95.22112 95.34646 95.48281 95.67692 96.06076 96.39044 96.97322 97.79742 98.74270 99.79436 101.10515 103.28164 104.32753 107.43248 108.57828 111.08459 112.76450 116.29544 118.19513 116.26053 111.36609 109.78059 104.02149 100.71203 94.94579 87.39940 76.04180 72.20365 67.07060 64.39019 59.58821 57.80199 56.25497 53.27149 49.67821 46.77962 43.40784 39.62698 38.51858 38.70343 37.62250 34.11313 31.54096 30.60280 29.30969 27.24659 26.62837 26.13026 25.82786 25.71495 25.43195 25.33054 25.42300
25.24900 25.25794 25.27060 25.29281 25.35729 25.55679 25.74246 25.89628 26.14329 26.20043 26.75409 27.42046 27.23339 27.41767 29.69703 31.98448 33.85096 35.46541 38.80305 41.44964 44.25707 47.87115 51.50633 55.93259 61.09471 65.39173 70.57165 75.97338 80.41492 84.39554 88.28193 90.12790 93.00110 96.79955 102.53659 107.57157 113.08301 115.04158 113.63675 111.10939 109.46983 107.26108 105.36347 103.57322 101.51193 100.05289 98.70619 97.89961 96.83234 96.55887 96.10090 95.78077 95.61892 95.37765 95.26341 95.12673 95.01905 94.96995 94.93154 94.87641 94.83824 94.82071 94.80452 94.81628 94.83705 94.87798 94.90620 94.95825 95.05073 95.13769 95.22838 95.36860 95.57825 95.77749 96.18074 96.55597 97.14097 97.79109 98.80173 100.18624 101.34192 103.43476 105.53014 107.48420 108.90059 110.74771 113.60306 116.21458 117.70190 116.20318 112.69076 109.46957 106.28417 99.04929 96.08928 89.65622 82.63488 76.79361 72.77465 69.03003 66.77403 62.29129 59.13129 55.48015 51.89383 48.26637 45.72760 42.70983 41.09633 39.26216 37.65017 36.06970 34.12234 32.16513 30.56072 29.09222 27.97100 26.76959 26.19842 25.69584 25.51578 25.36779 25.41400
25.24900 25.25691 25.27024 25.32955 25.39836 25.52630 25.95679 26.56410 26.78740 28.04421 28.35443 29.14368 30.23823 30.21575 32.10467 34.23177 38.75686 41.03353 42.29668 45.05495 47.37170 49.57135 50.48589 55.67005 58.53387 61.80852 64.63174 66.91284 69.31977 77.02551 79.94113 80.06005 84.76976 93.11915 97.03998 105.32829 110.37317 114.00861 113.88138 112.41688 109.61080 107.53402 105.68777 103.55287 101.83526 100.68239 99.15273 97.93309 97.32340 96.66460 96.22793 95.89802 95.68392 95.45693 95.32209 95.20347 95.12415 95.01535 94.97362 94.91529 94.88094 94.89106 94.88773 94.88373 94.91731 94.92234 94.98657 95.03181 95.09180 95.19465 95.29809 95.47745 95.58476 95.95004 96.17602 96.60068 97.26341 98.31941 99.28828 100.49263 101.87908 103.40213 106.41479 108.07643 109.41883 112.33250 114.52155 116.55141 115.89385 114.17194 110.26976 107.85393 102.71767 96.93362 92.79973 87.84681 80.53467 77.59122 72.83093 68.15065 64.60417 62.09837 57.02938 53.75029 47.66409 43.92392 42.94949 40.44533 37.35208 35.74855 34.76798 34.19211 33.58223 32.61069 30.48168 29.47536 28.35432 27.29472 26.27412 25.81306 25.47684 25.35099 25.37600
25.25100 25.25990 25.27245 25.31309 25.42820 25.58032 26.19185 26.75867 27.24223 28.83988 29.67962 31.32910 32.75007 33.15971 34.24158 37.68202 40.61746 42.82032 43.94976 44.26851 45.28258 45.85049 45.34047 47.69118 48.48765 50.65635 53.93923 58.93780 59.57201 67.74113 71.89983 72.76616 79.57551 87.25387 93.94969 103.38370 109.25800 113.46011 114.44797 112.92348 109.40548 108.19578 106.35942 104.07058 102.57866 100.72693 99.45541 98.70053 97.53658 96.89328 96.35809 96.06686 95.88834 95.58438 95.41428 95.26612 95.15940 95.12488 95.03217 94.99314 94.95659 94.94250 94.93678 94.94581 94.97735 95.00872 95.03563 95.11004 95.18871 95.29329 95.37784 95.52858 95.80943 96.05197 96.43997 96.96758 97.51266 98.27602 99.47574 100.99502 103.01053 104.21517 106.31001 108.29948 109.72534 113.73237 114.51896 115.99323 114.19455 108.61926 105.07335 100.82381 98.16740 92.93645 90.90247 83.54421 77.91029 73.23116 67.70630 63.68576 59.43917 55.46121 49.79535 47.27577 44.02655 39.66984 37.66050 35.85283 33.22706 31.41800 30.72445 31.91230 32.11485 30.75661 29.84984 29.07601 28.10060 26.91796 26.34997 25.90518 25.49208 25.33464 25.38000
25.24900 25.25790 25.27292 25.31979 25.44676 25.64295 26.08426 26.34862 27.29101 28.96943 29.99008 32.00779 33.56918 34.37014 35.39449 38.07940 38.93409 39.77020 40.11139 38.87315 37.49173 37.32641 37.99375 40.32113 42.59276 43.24341 47.43126 52.36494 56.83801 61.41319 68.47649 76.69160 85.24264 87.38418 95.36133 103.56348 110.18366 114.96732 115.17813 113.24055 110.99988 108.33359 106.57378 104.09129 102.77509 101.46660 99.92250 98.84176 98.07575 97.24195 96.67395 96.28319 96.02121 95.75436 95.54551 95.38923 95.29976 95.19836 95.14163 95.08606 95.05678 94.99063 95.02396 95.04915 95.09331 95.12134 95.15727 95.19586 95.27604 95.35057 95.54691 95.68823 95.91927 96.33087 96.63682 97.24826 97.96178 98.88701 100.03960 101.02902 103.19442 104.73968 107.09709 109.10615 111.08808 113.91784 115.98801 116.21853 113.38818 105.12841 99.45569 94.08498 90.35276 85.49802 84.69262 83.74647 78.49583 75.27372 70.53778 66.98414 62.89589 59.86275 57.75900 50.20785 47.41117 43.12379 39.29193 36.93129 35.29133 32.46037 29.13501 28.67296 28.84469 29.01452 28.23231 27.69378 27.27405 26.69214 26.01927 25.67719 25.44311 25.32439 25.39600
25.24900 25.25817 25.27011 25.29148 25.39751 25.62882 25.82079 26.21840 26.73938 27.91652 29.48322 30.73090 31.67171 32.02138 32.86492 33.18060 35.03768 34.99419 33.99785 35.47044 33.68097 35.75927 41.59690 44.96598 47.13696 52.10995 56.29114 59.81233 62.76331 70.38666 77.51243 82.20620 91.04649 93.96666 99.04335 106.19241 111.35832 114.72616 115.62497 112.62601 111.56910 108.86470 106.81134 105.69453 103.44641 101.82954 101.03872 99.61022 98.31288 97.63936 96.95029 96.54284 96.11862 95.91717 95.80208 95.53649 95.39553 95.31039 95.22639 95.19148 95.14160 95.16941 95.15013 95.13610 95.17795 95.20978 95.23974 95.30379 95.48066 95.56723 95.70298 95.89793 96.03268 96.49262 97.14156 97.56924 98.35437 99.10536 100.65401 102.04363 104.25301 105.43505 107.35407 109.49785 111.39945 114.52690 115.53955 115.07644 110.59218 106.40264 98.19740 91.03328 82.36681 76.85888 77.77050 76.54978 76.62068 70.74995 67.65351 66.07981 65.67682 63.27998 60.55153 56.90230 52.76099 47.68536 44.08884 40.20174 38.50977 33.92591 31.21833 27.86376 27.09173 26.86649 27.03897 26.50314 26.50167 26.32314 25.81811 25.56530 25.39972 25.31485 25.34100
25.24900 25.25307 25.27266 25.29646 25.36875 25.43439 25.70441 25.99225 26.22325 28.11324 28.20726 28.42521 29.09111 28.40606 28.54031 30.92928 30.79220 31.63023 31.03092 32.79623 35.39093 40.34545 47.00067 49.47825 57.06650 61.83954 65.83653 71.21987 70.62675 79.02544 84.18759 88.90471 94.96894 100.69436 103.73117 106.31019 111.35359 114.34609 115.70038 114.54989 111.90064 109.26609 108.00444 106.36932 104.82415 102.70218 101.54356 100.30256 99.00896 98.20305 97.25415 96.90646 96.44777 96.15118 95.88378 95.74552 95.52900 95.46891 95.42390 95.32258 95.31525 95.27209 95.26472 95.28923 95.35408 95.33627 95.39766 95.48855 95.58382 95.71251 95.82899 96.15949 96.46998 96.85013 97.32844 97.89806 99.27799 100.12615 101.41500 102.61199 104.72750 106.22406 107.94154 110.12723 111.77063 113.71055 113.70365 110.88069 107.94645 104.97594 99.82080 91.49692 81.76314 72.83580 67.17477 67.29616 64.66135 60.95312 61.85973 59.84224 61.05324 62.72188 61.58266 59.22550 57.07046 51.15172 48.18534 45.00697 40.11793 36.52743 32.52547 29.34015 28.15551 26.72612 26.22977 25.82374 25.70856 25.67040 25.63483 25.56505 25.38066 25.30485 25.32800
25.24900 25.25653 25.27412 25.29593 25.34804 25.42024 25.47585 25.71337 26.10526 26.69145 27.21199 26.89617 26.86450 26.63751 27.18584 28.54135 27.96636 29.36949 31.27240 34.51645 40.97253 45.75377 50.90743 58.12855 60.87418 69.31065 72.09052 76.30347 77.62596 84.22077 90.06776 93.30489 96.03102 98.75313 100.48702 102.66465 105.97947 111.52929 113.72427 114.48233 112.61231 110.85904 108.53540 107.48128 105.89216 104.58669 102.35824 101.31238 99.56520 98.83121 97.87078 97.22174 96.89851 96.56864 96.25404 96.03337 95.80348 95.64974 95.49487 95.52287 95.45576 95.41976 95.44369 95.44858 95.46162 95.48444 95.55065 95.66609 95.74128 95.98535 96.26268 96.46276 96.83243 97.29402 97.87626 98.80902 99.57148 101.07577 102.20939 103.87673 105.63409 107.14471 108.60095 109.86267 112.61915 113.42326 113.25259 106.05060 104.01676 98.25374 94.92785 91.70456 83.23480 77.20433 69.83495 59.97854 57.68475 53.10841 49.41917 47.60506 53.20256 53.81899 55.55006 53.72161 55.69452 52.74681 47.90787 43.22135 39.33563 36.54840 32.75279 31.41144 28.84463 27.79523 26.90647 26.31324 25.76586 25.56413 25.49512 25.40843 25.32410 25.29491 25.32300
25.24900 25.25845 25.27101 25.28160 25.31303 25.33294 25.39962 25.53543 25.77903 25.85988 25.92220 25.71363 26.20489 26.95977 27.85364 30.23271 30.28142 30.96533 34.33874 40.03503 42.68712 48.52354 55.73731 60.88188 65.11695 70.32162 73.93190 80.07846 82.52554 86.73968 89.76454 92.64002 94.91977 93.22151 92.48427 95.55298 100.98304 104.93110 113.27796 114.36140 114.18124 111.85894 110.75161 108.66834 106.85706 105.51658 104.13902 102.58714 101.00046 99.73666 98.96720 97.72778 97.18933 96.85203 96.57656 96.22855 96.14817 95.92328 95.79390 95.80436 95.68337 95.62122 95.58523 95.70540 95.67818 95.76934 95.84465 95.86320 96.12045 96.26403 96.52099 96.88301 97.25771 97.78610 98.42728 100.34591 100.73386 102.02346 103.47306 104.96866 106.55251 107.98439 109.37501 110.71898 112.68805 112.68960 109.24090 103.15374 95.18712 90.65922 88.70572 83.63625 80.71591 77.77164 71.11328 63.27700 54.12216 47.61701 45.25603 41.35795 42.24003 43.68088 49.32428 50.41515 52.49734 52.04276 49.28603 42.21183 38.18382 34.34604 32.61728 30.21718 29.20170 27.99701 27.09707 26.52442 26.03993 25.64808 25.46675 25.31325 25.29955 25.28457 25.28100
25.25000 25.25945 25.26673 25.27910 25.28981 25.29840 25.31899 25.37387 25.45932 25.65669 25.82595 26.33141 27.09534 29.46332 31.71837 32.95828 34.12513 35.07531 40.15860 41.26941 45.14293 50.26040 54.13501 56.36007 61.90934 65.47829 73.20404 78.28446 80.46960 82.07239 84.49851 85.31973 86.51347 84.38012 81.40313 89.10254 96.42597 102.85131 110.23910 114.92968 115.86855 113.50789 111.63630 109.76135 108.09069 106.76549 104.78369 103.52646 102.21331 100.53297 99.50572 98.95191 97.81262 97.36847 97.05083 96.59548 96.37428 96.36793 96.09822 96.00941 95.90889 95.81915 95.85894 95.87846 95.87544 96.00496 96.05718 96.27443 96.44920 96.64099 97.14680 97.46359 98.02601 98.59670 99.63894 100.52727 101.68269 102.81718 104.62676 105.56169 107.74964 109.58197 110.95597 113.49778 114.33558 113.15676 108.13296 102.33556 96.41314 86.32500 79.27142 76.00303 72.12532 72.02309 67.96022 66.76678 60.56410 53.72412 50.04627 39.88584 38.77741 39.70993 39.32755 43.40519 45.89099 48.41953 47.30865 42.90034 40.08844 33.81346 32.29070 29.69856 28.61015 27.11998 26.38031 26.28597 25.95505 25.74379 25.50543 25.37941 25.30635 25.28393 25.27500
25.25100 25.25100 25.26474 25.27504 25.28940 25.29213 25.34267 25.42022 25.56812 26.04044 26.36319 27.34180 29.40722 30.84786 32.76215 34.82771 36.95669 39.15888 40.73006 41.98670 43.86087 47.19283 51.07782 52.15276 56.56108 63.54137 71.02420 74.40055 73.95416 72.97081 78.00615 74.50230 76.62229 76.00184 79.02808 87.33035 95.76599 103.91255 108.03727 114.83515 116.84836 115.90364 113.88720 111.28966 109.03609 107.65661 106.52989 104.28344 103.32586 102.00835 100.67696 99.53169 98.86144 97.86888 97.54241 97.35349 97.02963 96.66903 96.56805 96.34193 96.36868 96.22599 96.21360 96.20518 96.34771 96.50740 96.66129 96.69370 96.92201 97.30195 97.88851 98.03024 98.88862 99.59580 100.26683 101.55644 103.42249 104.10982 106.49913 107.24240 108.78724 110.07472 111.95930 114.70283 115.87702 114.22353 109.66792 102.56477 97.09649 87.99830 77.52843 70.68010 65.22362 65.35593 65.78471 61.58809 58.71449 54.04671 48.41683 38.35076 34.83198 33.27242 33.31993 36.92142 40.77817 41.40810 43.32265 42.41642 39.43617 36.53088 33.82308 30.78747 28.76460 27.46385 26.68106 26.03052 25.68894 25.56538 25.51397 25.36765 25.31584 25.28496 25.29800
25.25000 25.25319 25.26491 25.27818 25.29020 25.32226 25.42584 25.60320 26.00831 26.47399 27.17275 28.36610 30.12045 31.51032 33.99507 35.97679 36.82618 37.44517 37.23372 36.59605 38.85316 41.85439 47.52910 52.96303 56.69919 63.27681 68.01068 69.17297 67.13527 65.30125 64.67722 64.26901 68.80675 74.49221 83.17966 88.38117 96.32366 103.66220 110.05914 112.60031 115.37935 116.67750 115.16915 113.06571 110.31928 108.55746 107.56495 105.64893 104.66478 102.83548 101.97917 100.53115 99.73951 99.37660 98.43903 98.05915 97.59016 97.15159 97.13067 96.83009 96.81201 96.76000 96.83578 96.69729 96.83522 96.89818 96.88638 97.21576 97.49257 97.81628 98.39771 99.21797 100.11593 100.66381 102.08463 102.53522 104.18480 105.50892 107.28586 108.33396 109.93952 111.63663 113.67279 116.26245 116.47318 114.21694 110.09393 103.85531 100.06777 89.32007 83.30592 74.65418 68.42013 60.14555 55.90328 54.11965 51.96346 47.65555 44.15481 40.68252 34.76866 32.10303 30.30175 31.52395 34.82651 37.52762 39.31753 39.11934 35.99907 34.96720 33.23914 32.32794 30.50383 28.80715 27.45636 26.25634 25.85735 25.65611 25.40458 25.33453 25.29696 25.28924 25.29500
25.25000 25.25351 25.26368 25.27887 25.29387 25.35627 25.51405 25.72038 26.08018 26.63563 27.46049 28.46107 30.03895 31.32936 33.08500 33.37440 33.38418 32.96753 34.23752 35.33171 39.65587 43.31712 50.55243 55.74818 60.28475 62.05814 64.57097 63.17111 57.11001 57.37512 56.15787 58.72680 71.08417 77.48558 86.35636 94.01990 99.85449 104.17228 107.32340 109.90602 114.71847 116.30678 116.54744 114.50200 112.09018 110.18742 108.60831 107.49537 105.85432 104.52429 103.49848 102.16906 100.92124 100.01411 99.72584 98.92002 98.57563 98.48589 97.83232 97.99723 97.42818 97.46648 97.29869 97.42278 97.41922 97.57482 97.84729 97.83211 98.38158 98.82569 99.61922 100.17960 100.86630 101.87160 102.83541 104.12779 106.01543 106.14046 108.27807 109.74077 110.96445 113.22781 116.18528 116.84048 114.75061 112.11224 107.50459 102.60342 99.36264 96.54302 88.24399 82.64729 78.35450 69.56737 60.42894 52.33111 45.89107 41.99269 41.63792 37.50726 35.21109 34.76763 33.60890 30.35395 31.43142 32.83724 33.37001 32.98112 32.48857 31.93428 31.40113 30.78932 30.45965 28.73087 28.05046 27.04670 26.20489 25.60183 25.42488 25.33564 25.29429 25.27770 25.27000
25.25100 25.25100 25.26311 25.28005 25.29570 25.36968 25.45328 25.68848 26.07025 26.65304 26.99794 27.82902 28.78292 29.76925 30.56203 30.94106 29.52073 30.24141 32.47491 36.53769 39.45964 48.46122 52.96750 56.70765 58.37585 57.75511 56.41969 53.19029 48.33179 52.31886 59.38265 66.35078 76.60933 85.23043 90.21258 96.22848 98.84000 100.91741 101.25474 103.17794 111.03931 113.68084 117.10938 115.56379 113.77392 110.89706 109.53414 108.58522 107.10259 106.58791 104.60190 103.67903 102.80616 101.31149 100.96870 99.92393 99.67835 98.94887 98.84990 98.56737 98.48189 98.18152 98.30605 98.20518 98.25669 98.57570 98.59180 98.87254 99.51546 100.07221 100.35113 101.26081 102.34852 103.04038 104.86995 105.07536 106.94357 108.35686 109.25894 111.32870 113.53844 115.05632 116.77335 115.86738 112.65730 108.22603 105.10525 99.44974 96.45341 95.01806 92.38739 86.78259 84.13899 76.39616 67.71353 61.00609 51.09368 45.71680 44.79732 42.52039 42.05086 38.82333 36.11549 31.27399 28.93798 29.98529 30.22019 30.84200 29.01349 28.85319 28.44251 28.71834 28.40380 28.12904 27.49904 26.83713 26.20836 25.71518 25.48993 25.37394 25.29280 25.27928 25.27000
25.25000 25.25899 25.26656 25.27327 25.29704 25.37875 25.46556 25.62170 25.87168 26.21106 26.21145 26.91086 26.90735 27.56185 27.43295 27.55537 29.32008 31.76167 34.77626 40.18286 44.88549 49.23237 51.34908 53.41200 54.15996 51.68389 51.31126 45.92766 48.74147 55.01775 65.45108 72.02614 81.20045 86.44713 91.09593 94.19394 95.45580 94.50452 97.13588 102.65685 108.12175 113.27055 116.89884 116.99449 115.65216 113.66465 111.46742 110.78471 109.30929 108.27660 106.22101 105.24217 104.15267 103.25642 102.42662 101.65592 100.61535 100.95045 100.26763 99.74650 99.61389 99.59557 99.37688 99.55088 99.49221 99.56747 99.49185 99.91317 100.41675 101.05984 101.95056 102.34292 103.84806 106.16360 106.38715 107.73979 108.45701 110.22884 110.38164 112.56411 114.85827 116.54256 116.93149 114.52150 108.63818 102.06397 98.54242 95.13178 90.99264 88.09755 88.10532 86.32386 85.41236 81.17558 73.73633 61.75311 57.95514 54.97385 52.64444 50.92553 47.48741 42.54023 40.08096 32.98073 30.35534 27.90358 27.84311 27.44822 27.30608 26.64568 26.80978 26.50871 26.80025 26.87662 26.94824 26.51179 26.05643 25.69906 25.45689 25.38863 25.29880 25.27828 25.26900
25.25000 25.25203 25.26414 25.27293 25.29745 25.34791 25.42986 25.46001 25.63155 25.52386 25.67916 25.67639 26.22406 26.46054 26.90981 28.74936 31.39024 33.32257 37.62100 40.97572 45.76661 47.06613 49.03912 47.87140 48.02763 44.56188 42.52718 42.78701 50.31592 59.02083 67.28334 71.15224 80.89179 83.31711 84.76250 84.68345 85.98026 90.52529 97.24060 104.11361 108.16950 111.63796 115.09980 116.85477 116.84644 116.49800 113.79747 112.47716 110.58009 109.33134 108.49630 106.39586 105.82389 104.58593 103.90611 103.40501 102.82275 101.83914 101.40596 101.68854 101.25877 101.35637 100.99904 100.72185 100.59634 100.83615 101.47602 101.72232 101.95132 102.57869 103.21925 104.53345 105.72144 106.61508 108.07821 108.97304 109.70836 111.28509 113.17400 114.73183 115.94707 115.96835 114.82777 109.99983 105.09800 98.64403 93.29216 89.10675 84.83156 81.46636 76.04361 80.18065 81.24760 78.47444 75.44156 69.47040 65.34746 63.08571 60.64317 56.95136 52.96251 48.26182 42.26823 37.83064 33.53807 31.06668 29.06685 28.32980 27.30638 27.05675 26.30589 25.86642 25.83074 25.89512 25.92231 25.96951 25.84723 25.58444 25.48196 25.35017 25.30156 25.28028 25.27100
25.24900 25.25125 25.26217 25.27524 25.29388 25.31794 25.34642 25.36622 25.39749 25.46610 25.79088 25.99072 26.36220 26.73643 27.76478 29.42838 30.73053 32.36154 37.03765 39.77722 42.64397 43.39213 39.44308 40.25623 40.69174 39.35447 40.14804 46.16127 55.76403 60.83836 65.62659 68.48674 69.57705 74.11986 73.76711 78.48136 85.81403 94.40021 97.63533 101.10464 104.95991 108.32813 112.60006 114.31126 116.13796 117.63710 116.47846 114.54804 112.34600 110.48708 109.43484 108.73940 107.68464 106.45237 105.43873 103.90046 104.34675 104.16233 103.27501 103.02398 102.55974 103.10129 102.85337 102.67040 102.43515 102.68573 102.76708 103.04711 103.77397 104.06052 104.85550 106.24938 107.48402 108.45043 109.56962 110.05593 112.49378 113.41276 115.02629 115.01330 114.76056 111.47064 111.32645 108.59995 104.47249 97.17280 88.74800 81.53661 77.14666 75.24774 69.93331 69.61210 71.41556 71.04595 75.17511 72.27972 69.83616 67.70773 64.45934 60.89671 56.40960 50.07670 47.33131 44.05847 38.31687 36.47446 33.74474 30.20102 29.55112 28.82309 27.70605 26.78479 25.91196 25.55988 25.61533 25.54229 25.52260 25.53383 25.43091 25.33344 25.29533 25.27247 25.27200
25.25000 25.25225 25.26353 25.27463 25.28291 25.30452 25.30744 25.34517 25.47458 25.73621 25.99084 26.61591 27.24115 27.95222 28.14923 29.24839 29.97460 30.84036 34.37995 36.94257 39.23827 38.65028 35.30822 34.78236 36.61734 37.76929 43.56989 51.09986 56.83809 58.80785 59.35757 57.32329 62.08318 66.41306 74.76927 81.89221 88.03874 94.99013 95.82415 93.73066 97.04754 103.58565 106.21974 112.18783 114.39599 116.50239 116.42058 116.17912 114.88302 113.12313 111.34380 109.99634 108.98022 108.68248 107.45785 106.77116 105.96287 106.13085 105.56358 105.13517 104.61514 104.65385 105.13532 104.67233 105.21142 105.30431 104.69578 105.22222 105.60389 106.91909 107.13631 107.93862 108.81378 109.76242 110.23272 113.43195 115.05151 115.78048 115.82288 114.92246 110.76112 109.07284 104.56181 104.07449 99.52280 93.24550 84.35485 78.13189 71.93110 67.50187 64.57763 61.15409 60.56673 66.52533 70.94504 71.18463 69.38644 65.87326 64.99252 59.44116 55.49561 50.43645 47.72984 42.84553 41.38151 37.89048 35.68390 34.09130 31.98345 30.76871 28.95686 27.64254 26.69704 26.42799 25.58866 25.51144 25.40351 25.37444 25.36336 25.32220 25.29104 25.26952 25.26900
25.25000 25.25919 25.26636 25.27535 25.28116 25.28945 25.29977 25.35410 25.49033 25.79949 26.12900 26.63377 27.31031 27.67431 27.99002 27.97763 27.97880 28.96293 31.87165 33.61801 33.56466 33.33495 32.30860 33.84839 36.94540 42.25589 46.70544 48.66380 52.85702 54.27246 51.90106 56.63273 62.89221 68.50124 78.71738 84.94642 91.24727 93.04596 93.08576 89.04476 89.93964 98.16379 103.71388 108.87241 109.73295 110.80085 114.11047 114.66721 115.87270 115.04196 113.38797 111.96261 110.54413 109.67381 109.54585 108.97088 108.43746 107.54443 106.83617 107.36416 106.68669 106.57464 107.19993 107.08775 107.20863 106.85247 106.83927 106.96413 107.31468 107.53774 108.45143 108.58740 111.02629 111.71392 115.23610 115.89913 116.09650 116.95257 115.24508 110.37558 106.59777 101.16636 98.88747 98.81488 97.30388 90.32158 81.49621 71.81694 65.85639 61.31045 57.32839 55.48932 51.55709 55.10184 62.37686 62.66724 66.43766 64.54401 58.33480 54.13781 49.52890 44.83010 44.50851 42.21556 39.18971 37.81252 35.16440 34.13355 32.04710 31.54458 29.61587 28.84911 27.62258 26.93713 26.08197 25.68943 25.35348 25.33568 25.30330 25.29891 25.28606 25.27863 25.26900
25.25000 25.25805 25.26668 25.27225 25.28079 25.29348 25.32306 25.36714 25.49665 25.85913 26.08084 26.44787 26.42472 26.58143 27.21558 26.81674 26.53784 27.22634 28.57131 30.65198 30.37872 31.20674 33.26547 37.39145 40.06158 42.73389 44.88228 45.03791 44.83016 46.55817 50.90016 53.85157 67.95222 74.90585 81.01904 86.17667 89.63716 87.80840 83.94151 82.85456 88.98057 97.42293 101.64889 101.50812 102.42603 104.02141 109.58002 110.90715 114.72644 116.70959 116.20797 114.75340 113.69765 111.87448 111.34663 110.75172 110.33691 109.75828 109.02880 108.59037 108.73783 108.76985 109.09354 109.50622 108.91574 108.53812 108.94840 108.52823 108.76458 109.74607 110.64921 110.87755 111.52002 113.49959 115.84552 116.81056 116.93074 115.56395 112.67537 109.59190 103.27111 97.25591 93.33747 92.36797 90.90263 89.19715 81.29400 74.77283 68.99812 59.69482 56.34102 50.29045 47.47270 49.04976 51.65912 57.94782 60.84967 61.01755 54.92556 49.28248 43.72902 39.49640 38.23818 37.10714 35.88081 34.06539 33.58859 31.21555 31.14102 30.36376 29.59779 28.31941 27.56997 26.89120 26.08726 25.79037 25.47230 25.37412 25.31986 25.29426 25.28674 25.27663 25.26700
25.25000 25.25973 25.26554 25.27171 25.28315 25.29210 25.32628 25.38858 25.46579 25.61691 25.85801 25.96250 25.92253 26.02032 25.80729 26.07601 26.81645 27.89906 27.87357 28.56183 29.03004 33.07158 34.56835 37.66960 38.88898 39.85601 40.55552 37.92399 41.46323 44.45058 54.31900 59.35062 71.16198 75.81823 82.68188 83.16386 78.86099 78.54363 76.78891 80.09070 90.76767 95.51016 95.85363 95.03720 94.58804 97.38975 102.11216 106.68750 112.46945 116.08837 117.03602 116.95734 115.70499 114.73609 115.13092 113.47581 112.74221 111.80921 111.22482 111.33364 110.62958 110.75224 110.35623 111.68688 111.92652 110.84581 111.19895 110.98886 111.38845 112.22526 112.45135 113.75980 113.68544 115.09326 117.10726 117.12021 114.51427 111.50411 107.23393 105.48532 101.45452 93.18370 86.25500 85.66927 88.49129 87.52548 83.39210 81.33814 73.42234 69.22116 62.15800 54.88250 45.02592 42.41857 45.86269 51.81930 56.95523 58.48302 55.86935 51.03889 44.84120 39.59300 35.21982 33.24446 31.74014 29.74167 29.60342 29.35691 28.60008 28.75811 27.85829 27.85636 27.11212 26.56738 26.00874 25.70579 25.49974 25.37190 25.33553 25.29466 25.28694 25.27863 25.26900
25.25100 25.26073 25.26561 25.27478 25.28611 25.29655 25.31693 25.37647 25.42294 25.48446 25.61087 25.63631 25.57344 25.66882 25.79491 26.58075 27.62633 28.25744 29.24801 29.98572 31.22290 32.86425 33.60084 34.57039 34.22250 34.79499 35.75515 39.11023 46.83376 48.77469 56.05264 64.44043 71.56949 76.31367 78.63190 77.79053 72.36803 69.88785 76.76988 86.19069 90.74315 94.54383 91.99615 87.04731 85.79464 89.08473 96.49406 100.71686 109.09313 111.56933 114.96880 115.93795 116.50283 116.72908 116.73129 116.51358 115.63693 114.90705 113.67326 114.04425 113.29647 113.65802 114.54246 114.20720 114.40454 114.44954 113.16904 112.83228 113.40536 114.03743 114.91729 115.78990 115.67082 115.93622 114.73033 114.68236 113.53875 109.56156 105.20422 99.96137 96.53149 93.35464 80.47590 82.32601 80.58580 81.71771 80.31209 79.77121 75.45484 72.10209 61.77077 55.24755 47.76732 40.77192 40.12324 44.14392 51.42773 53.64824 54.87026 51.89243 48.12436 42.66329 37.63640 35.68347 32.04555 29.74007 28.07423 27.47137 26.97637 26.53650 26.29498 26.38591 26.30026 26.05529 25.86575 25.50008 25.40873 25.34398 25.31537 25.29674 25.28461 25.27823 25.26900
25.25100 25.25109 25.26356 25.27605 25.28259 25.29414 25.31266 25.33789 25.38813 25.43093 25.46010 25.45754 25.55602 25.93442 26.86454 27.20867 29.07919 30.21075 30.67100 31.13266 31.50779 31.62287 30.54478 30.74978 31.77798 34.09702 38.48162 43.57874 49.74412 54.64461 60.27707 65.00576 71.28144 73.18098 69.09346 67.92806 64.13484 65.90804 76.13402 83.97196 88.49966 90.29038 87.67277 82.30565 77.90406 78.74988 90.32896 98.38425 105.36039 109.72444 110.89996 111.50828 112.90520 115.02835 116.11835 118.00381 117.72175 116.99653 116.39786 116.12563 116.47335 115.64923 116.05375 116.37583 115.76787 115.67187 116.41543 115.64537 115.14741 115.09903 114.27009 114.01869 113.87527 114.39348 111.65442 108.78710 108.75219 105.62500 101.70917 96.00968 92.56882 90.06139 79.94859 73.33235 76.28977 77.69013 75.61070 73.02835 72.47821 70.81431 60.50795 58.06037 49.17170 41.00111 37.03452 39.96804 47.11587 46.58879 49.38741 50.11731 49.22231 45.82417 41.39347 37.82675 34.49397 32.02440 29.49786 28.67987 27.22405 26.65949 25.96270 25.72335 25.79711 25.82077 25.62403 25.41172 25.38002 25.32953 25.31081 25.29489 25.28215 25.27623 25.26700
25.25100 25.25100 25.26364 25.27191 25.28650 25.29582 25.30522 25.32837 25.35777 25.38628 25.38663 25.45808 25.73675 26.18491 26.97188 28.00740 29.34048 30.00119 30.34391 30.79858 30.90178 29.98104 29.63340 32.24247 35.34721 38.50737 42.22162 45.75274 50.54202 54.26071 61.15531 64.13760 66.91256 67.48467 62.35176 58.77392 56.60677 65.61989 77.21415 84.17185 84.28427 84.16421 79.07144 72.33695 68.28914 78.80857 86.06307 98.73515 103.36238 106.74885 106.90887 108.68653 109.16356 111.75325 113.90625 116.11108 116.24758 116.49971 116.67335 116.42675 116.72824 115.90801 115.32400 115.83032 116.01293 116.48973 115.11957 114.70109 112.43986 111.13326 110.81171 109.83309 107.95498 108.20323 104.93772 103.87353 105.18183 104.15137 102.46893 92.29170 87.77116 86.34103 82.14921 73.33219 67.28443 67.47835 65.50659 62.85414 65.25252 66.98229 63.78708 59.37766 50.47363 40.13939 35.67686 37.25639 36.48456 39.03215 41.89822 43.25423 46.37520 46.67078 42.68451 38.62467 36.54251 32.59190 30.88885 29.17337 28.64045 27.50436 26.51349 25.83008 25.56962 25.44547 25.45541 25.39593 25.34648 25.31893 25.30530 25.29401 25.27684 25.26772 25.26700
25.25000 25.25887 25.26517 25.27191 25.28503 25.29486 25.30323 25.31771 25.33258 25.34157 25.37480 25.47967 25.71177 26.03237 26.59354 27.76876 28.48016 28.83816 28.33421 28.72672 29.22442 28.44789 30.18578 34.19361 37.27794 41.28301 42.56233 44.47362 48.28401 54.53835 58.11284 60.38747 57.92118 58.41174 53.21799 52.53248 60.95817 67.98216 76.63746 79.96243 74.92818 72.62207 72.60446 68.24867 65.21878 72.90551 81.61976 94.69864 99.91353 101.00231 99.72912 101.60535 105.75722 106.62896 109.33896 111.01898 111.50421 111.77271 113.17810 114.94467 112.92767 110.55970 110.77438 110.91481 112.60039 111.79563 111.83105 109.79875 107.97811 104.77781 102.43469 99.68271 102.58699 102.37820 100.74884 96.48635 97.56908 100.10913 98.96576 91.50064 85.22166 83.63938 80.00084 75.99500 68.42627 62.40571 57.56078 54.60053 55.79699 59.76955 59.96330 56.26024 48.65877 42.89632 36.13169 33.66599 33.56468 33.81289 37.72479 40.07240 42.49323 42.21744 40.24476 37.81617 35.31374 31.85531 29.96971 29.34656 28.44687 27.32733 26.62595 25.99876 25.74037 25.45291 25.36928 25.34004 25.31739 25.30513 25.29556 25.28922 25.27649 25.26590 25.26500
25.25000 25.25987 25.26548 25.27198 25.28205 25.29382 25.30069 25.31181 25.31721 25.33345 25.38178 25.54150 25.77948 26.09312 26.59134 27.31110 27.12684 26.96205 26.56741 26.58180 27.53650 28.66135 32.27215 35.14383 38.82284 40.49411 40.76337 41.80533 46.00427 51.34600 52.31773 51.06243 51.26733 49.85045 47.61316 54.47461 63.80437 70.31453 74.81245 69.61839 65.27125 63.78021 59.13475 58.43135 69.06599 73.13084 85.19945 90.88725 95.13474 94.67807 96.58252 96.98661 97.40053 102.07225 105.46261 106.43325 106.96180 107.62942 109.70466 111.48356 110.29914 105.04461 101.91233 102.82228 110.57656 109.09404 105.24257 103.09215 101.87411 99.27878 93.85167 91.42312 92.30134 92.51891 93.62096 90.32374 91.97569 96.77153 96.92221 89.85116 86.99206 76.22369 70.62341 73.35688 71.12991 66.26521 60.82140 54.99076 49.27036 50.93699 53.42447 53.73304 49.16646 45.29471 40.33281 35.47718 31.10485 31.46700 34.14511 35.33148 37.51198 38.42126 37.02713 35.38184 34.39075 31.02620 29.03174 27.62198 27.22349 26.68750 26.30974 26.00136 25.61371 25.48975 25.34084 25.32035 25.31026 25.30229 25.29405 25.28823 25.27791 25.26681 25.26600
25.25100 25.26074 25.26696 25.27126 25.28031 25.28778 25.29564 25.30718 25.31328 25.33295 25.37631 25.51863 25.61929 26.02885 26.38629 26.72120 26.54074 26.03273 25.98760 26.44036 27.46281 29.62214 32.48315 36.42732 36.85267 37.98802 36.88742 39.75252 45.05794 48.95413 46.89190 42.75371 41.89326 42.68132 49.18233 56.73597 66.37361 68.70691 68.78482 62.41316 58.43674 52.12012 53.94564 56.40411 71.59359 78.45061 85.21341 89.57568 91.45007 92.49414 94.39960 91.48619 94.18078 98.19939 102.50965 101.85783 101.15896 100.86297 102.28203 102.94840 106.00320 100.25300 95.28884 96.43492 103.33238 106.66014 103.49534 93.69768 90.28533 89.48352 86.30117 83.01915 82.88138 86.18658 86.37276 84.13916 86.11705 91.69448 93.42114 89.74773 83.74325 72.98137 67.32869 67.84948 68.16688 66.72618 65.14736 58.54003 50.82519 45.11670 46.73215 46.74644 48.01484 46.26890 44.41163 38.15313 34.38144 29.21435 29.49087 30.66905 33.50077 32.46180 33.68395 34.02124 32.89775 31.10701 28.89562 27.31007 26.46567 26.08236 25.78832 25.74800 25.57615 25.45534 25.36360 25.31778 25.30885 25.30373 25.29667 25.28907 25.28069 25.27563 25.26600
25.24900 25.25874 25.26589 25.27070 25.27848 25.28739 25.29388 25.30423 25.31651 25.33602 25.37597 25.44803 25.59308 25.78508 25.90868 25.86732 25.82843 25.71362 25.87194 26.81002 28.06131 29.70573 31.91670 34.29293 34.36942 34.01457 34.60111 38.63601 43.29346 44.56494 42.75275 38.10840 41.13296 45.19260 54.29714 58.55824 66.44598 67.57321 65.82564 51.91556 48.74087 48.67945 54.70944 65.85297 74.39577 80.67278 84.25031 84.37136 82.47183 86.39851 87.67685 86.69430 87.44775 94.30590 97.48241 93.87954 95.60218 95.50913 98.25738 101.21963 100.67820 95.89028 89.33641 89.52504 99.51108 100.97084 98.61896 91.49521 81.94878 83.66771 77.75369 72.71709 72.44335 74.38529 77.97259 78.46899 78.75347 85.33770 90.37940 89.06875 81.12531 74.24624 67.10565 58.56041 58.77246 63.45671 63.40894 61.27335 52.34699 45.60103 39.82874 40.53079 42.59854 41.12240 42.51599 39.91013 36.23395 31.99249 29.71514 28.40316 28.83296 29.98735 30.10915 31.64286 31.38277 30.33834 28.90519 27.44429 26.39321 25.87746 25.58173 25.44719 25.42808 25.39452 25.35870 25.32768 25.31205 25.30468 25.29575 25.29097 25.28203 25.27578 25.26600
25.25000 25.25000 25.26311 25.27038 25.27846 25.28706 25.29340 25.30401 25.31546 25.32941 25.35152 25.39824 25.47347 25.55654 25.66819 25.72028 25.49274 25.59771 26.09205 26.78814 28.25925 29.90158 31.18510 32.38933 32.47548 31.75645 34.24936 37.76912 41.94766 40.71416 38.63238 35.12343 38.50731 45.81425 51.67592 60.27727 63.28101 61.19153 55.33000 46.35162 43.37331 51.05604 58.33312 69.36208 75.92947 78.74438 78.62145 75.09640 77.36890 79.86361 80.23172 82.36994 83.39890 89.89814 93.16737 88.13249 86.84904 87.88734 91.32942 97.21552 96.67686 90.30912 85.95403 86.73599 90.89261 96.04198 95.50383 85.86159 76.13673 73.06676 64.37248 62.88030 65.18598 67.88845 68.83783 66.57407 73.86160 81.95442 87.59497 87.89364 83.32830 73.35513 66.34186 58.48472 51.77018 55.03858 60.79845 59.95166 53.59482 49.22532 42.77675 36.74150 34.81694 36.95971 39.15352 39.47689 37.48657 33.57679 31.68754 27.99659 27.22118 26.94863 27.47005 29.75213 28.89603 29.63815 28.70863 27.53046 26.59572 25.84929 25.63974 25.40984 25.36954 25.34955 25.33636 25.32406 25.30977 25.30492 25.29538 25.29027 25.27975 25.26819 25.26600
25.24900 25.25013 25.26165 25.27267 25.28104 25.28582 25.29594 25.30565 25.31234 25.32147 25.33923 25.37144 25.41616 25.48831 25.50556 25.46020 25.48581 25.76122 26.13437 26.79547 27.61156 28.25140 29.00424 29.55541 30.38684 31.21082 35.27504 37.11394 38.32698 35.02408 34.97029 33.53939 37.27029 44.20244 51.49851 55.06037 55.36380 54.57406 48.50306 42.01885 41.60425 50.57230 59.24129 70.74594 74.23415 71.82724 72.52550 67.31710 70.53520 74.70402 74.68334 72.86941 77.79266 85.54407 88.97775 81.98174 80.69124 82.29603 84.53927 88.27208 87.08799 84.40014 75.86033 75.32880 84.67060 87.18028 92.44304 87.24762 75.44784 65.45467 58.92618 57.00943 54.84346 58.32136 59.07876 64.56215 73.22030 80.85886 84.22165 85.57067 81.78796 72.60159 61.07790 54.43184 49.50594 50.90359 55.63802 56.91296 56.26233 50.52630 46.28219 38.63676 35.36932 32.10870 34.46727 36.45465 37.43427 36.00715 32.80277 29.89685 28.40531 27.27291 26.18833 26.69477 27.54342 27.96155 27.43459 26.89377 26.28124 25.93274 25.67120 25.45066 25.38371 25.34089 25.32839 25.31896 25.31032 25.30361 25.29629 25.28854 25.27836 25.26700 25.26700
25.24900 25.25894 25.26244 25.27274 25.28219 25.29071 25.29842 25.30744 25.31406 25.32176 25.33020 25.35659 25.38049 25.39490 25.41146 25.41972 25.52151 25.83464 26.12177 26.52179 26.95479 27.18730 27.34112 27.86880 29.36046 31.87685 33.99749 36.81503 36.72394 32.22270 30.73852 34.18950 40.45122 45.87057 50.63034 51.36953 48.86919 45.61653 41.61722 37.42394 41.61490 51.16981 59.52222 69.16940 70.63140 67.74032 59.00451 60.58871 65.69259 68.50639 64.24700 71.61319 77.61781 83.85176 83.13171 76.88805 72.51946 79.68856 83.69512 80.52451 80.42832 79.74001 75.10640 69.03137 75.69307 84.98020 90.49878 86.51258 79.98196 71.00341 59.64859 51.94436 49.98173 48.82950 52.46275 62.64775 69.51937 75.97723 79.11618 81.85646 78.63732 75.63560 65.17100 57.31763 49.11127 43.51915 48.89081 52.47502 54.98261 53.74336 50.18960 44.02152 37.75390 33.34099 30.46624 32.98666 35.36914 36.14009 33.98052 31.84590 29.64618 28.03183 26.68392 25.99589 26.37989 26.72796 26.60520 26.46356 26.02220 25.69495 25.55954 25.42541 25.36313 25.34305 25.32736 25.31845 25.30923 25.30325 25.29427 25.28895 25.28057 25.27591 25.26600
25.25100 25.25100 25.25848 25.27793 25.28414 25.29186 25.29977 25.30603 25.31628 25.32257 25.33245 25.34509 25.35978 25.37222 25.38015 25.43743 25.57845 25.78687 25.89049 25.98109 26.05419 26.27660 27.84444 28.91223 31.00954 32.46806 34.08001 35.27371 32.83436 30.59058 30.96731 36.60305 42.37034 46.56052 47.48038 47.42868 40.95352 38.12082 35.87286 38.63325 44.64864 51.78355 60.45042 66.76834 67.79708 58.15725 52.59498 57.91912 58.50981 61.51661 59.21780 66.78340 75.74267 80.10288 79.02128 69.18828 67.61723 76.55020 78.93320 78.19979 71.34370 70.46930 66.96830 65.67486 76.71806 84.47009 88.06531 87.04416 78.64513 70.18910 60.02125 49.98114 45.01701 45.46516 51.65292 64.37544 67.66244 72.81532 74.86189 76.59778 75.63255 72.69870 67.41525 58.93887 50.54245 41.54268 39.97807 45.14631 50.32775 51.01517 51.05474 46.26349 39.14307 35.13568 29.94041 29.21312 32.53462 33.53628 34.48023 32.47890 30.72186 28.96997 27.29977 26.21872 25.75502 25.94754 25.92901 25.80833 25.74046 25.61587 25.50455 25.41443 25.37697 25.34008 25.33033 25.31971 25.31087 25.30360 25.29410 25.28869 25.28079 25.27592 25.26700
