26.17241 25.60298 27.34715 24.48689 25.77163 26.79445 23.58135 26.88792 26.50489 25.00369 24.23245 25.07006 25.31842 23.47701 25.76456 22.99103 26.39628 25.71705 25.94062 24.11273 26.24256 24.74571 26.29314 27.14685 27.37528 28.79478 30.34971 29.91060 26.67182 28.36460 27.42450 29.11694 31.10295 33.04817 31.04625 31.15098 28.40112 31.76113 35.70088 37.51284 41.18312 45.87942 44.77625 41.96114 36.78709 30.72338 32.29597 37.33378 38.22836 48.21116 49.39437 57.98094 57.90581 57.20196 49.05241 43.23715 38.16402 45.38291 52.64078 60.16140 59.55376 57.12497 53.00229 54.71243 48.94015 42.85045 50.71128 50.63945 43.84272 39.29430 42.59373 48.98134 45.62970 46.26037 40.82900 37.06319 40.26619 49.51230 53.74336 56.72667 56.71463 54.03105 41.98728 34.14695 32.85391 28.55925 27.95857 28.82158 27.75542 34.26681 34.99500 36.01673 37.12751 33.33484 31.76196 30.03464 30.16075 27.84087 27.43169 26.11128 27.27464 24.51729 26.94296 24.99493 26.84892 24.40934 25.57460 25.75522 23.86330 26.82043 26.24884 27.14625 26.80330 26.83345 25.44105 24.76690 26.22746 24.82352 24.34611 26.56722 23.21071 25.04447 25.17685
25.51746 24.38983 23.79277 26.17663 26.09331 26.72905 26.70974 27.46293 23.92240 22.60491 23.41990 25.53942 26.40846 23.71119 25.47435 25.65891 25.81902 23.72021 26.82812 23.74986 27.64752 24.89546 28.18836 23.32803 25.76898 31.45351 32.33097 30.74656 30.91609 29.93433 30.33576 29.35865 31.84722 36.74307 33.56729 29.81560 27.35709 33.73397 35.77537 40.84657 43.15759 51.76464 49.16839 45.70590 43.87998 36.97315 35.02859 36.89079 35.24880 45.38342 50.92560 54.82877 61.54150 59.76398 53.66959 49.20762 43.43340 45.18704 54.87882 61.50024 60.47533 58.29915 60.15971 56.32390 49.89769 48.71067 55.05035 52.85667 46.04131 48.03872 48.92558 50.06616 53.69706 45.44190 41.51308 39.68994 46.99318 51.02332 59.08729 59.39037 58.26524 48.85633 42.22839 36.04543 32.98194 31.18801 26.04168 29.87019 31.12905 34.07569 37.77934 39.94143 38.47274 35.15729 34.41939 33.06889 31.89873 30.65324 29.64572 27.58837 25.98098 25.62332 27.38472 27.29597 26.45629 25.68957 26.44512 23.90681 27.40828 28.63328 23.17955 25.48335 25.24289 25.52982 27.30081 24.65203 26.29444 24.59329 25.99417 27.24309 24.09793 24.36841 23.92658
26.85539 24.15448 25.50259 26.17708 24.00073 27.84574 26.04420 24.73570 26.84701 23.09475 28.48621 24.58304 28.55503 24.98341 24.24168 24.28340 24.77968 25.56633 26.41515 24.43967 26.67111 23.63287 25.86969 26.24803 30.14679 31.62618 30.61853 33.38413 33.74346 32.26438 32.47382 34.87488 31.02246 35.48814 36.47733 35.81677 33.61869 32.31249 34.22283 40.78779 46.33868 51.04285 49.37385 51.29387 45.21343 41.20734 41.52760 39.47215 35.34308 42.31863 51.64904 58.07864 64.00796 64.66252 63.04853 55.37875 46.08357 46.80935 57.81681 67.03990 67.57401 63.21292 65.38044 61.66060 53.53869 56.31977 56.85243 55.45176 51.64649 56.38728 58.64161 60.06460 58.81983 48.62176 43.80388 41.45728 48.30486 52.56497 60.90305 61.42382 56.50226 48.00040 40.69683 34.75393 32.12000 29.49008 27.40482 31.73703 31.78347 39.44952 37.17820 39.06651 41.21726 38.37284 34.32489 33.35880 33.22590 29.06858 27.31062 26.07247 25.30732 26.81932 25.42862 26.54046 28.70243 24.40592 24.90281 26.75623 25.38915 23.48315 24.71171 22.54057 25.63934 25.25081 25.51332 25.20878 25.90775 27.44178 25.00949 25.02963 24.41103 25.11309 24.70595
26.29340 23.86625 23.67390 24.81887 24.56859 24.49615 23.31774 24.92811 24.73308 24.86868 25.64926 24.68770 25.00072 24.16127 26.90988 27.40261 27.18282 25.58232 25.44191 22.59005 26.57166 25.09963 26.10433 24.13216 25.63504 29.46944 32.03705 32.29218 35.03207 34.54915 35.83899 32.78135 33.44882 34.31776 37.20328 37.77152 33.48856 34.94962 33.08464 33.36389 43.26520 47.31929 53.09281 56.03400 55.87995 50.82244 44.37411 44.51528 40.52332 40.77279 51.72590 54.76124 65.45154 65.95936 61.53820 60.68619 52.85158 53.71052 60.10059 69.32028 71.94542 67.81277 72.69329 66.59724 58.22282 63.57673 60.42916 55.91845 58.88261 62.10354 63.25015 61.10959 55.26962 48.63562 44.00901 43.20568 48.89304 59.14065 64.63566 62.83434 54.83810 44.97099 38.48418 32.36120 32.07535 31.34830 27.63170 31.05306 35.01760 39.11372 40.91134 45.66830 41.44455 41.78303 33.47522 33.29282 30.64489 27.45185 25.93975 28.12625 29.06155 25.45910 27.31534 27.59455 27.47472 25.42108 25.28346 27.18692 27.59457 25.04490 27.20478 25.55629 24.02771 24.51696 25.14081 26.35681 26.19800 25.40394 25.81386 26.63641 23.93981 26.80532 25.01149
24.63124 27.09030 24.79887 23.34200 24.11669 24.72828 23.97128 22.69567 25.49812 27.02713 28.02763 24.49016 23.74954 25.33782 27.04705 25.65767 25.90696 24.64422 23.78194 23.99535 28.90986 26.91819 26.13332 25.30263 27.91903 29.71796 28.68776 33.56719 35.22993 34.46074 35.29004 38.19263 35.03762 36.34558 36.92568 41.80058 41.20227 37.99150 32.02202 35.55070 41.64198 47.71653 57.28806 61.35589 59.29932 59.57665 53.52730 46.36737 40.69865 42.40182 53.24560 52.71076 63.86202 70.57619 69.27881 62.90851 57.42914 57.48803 63.66841 72.61945 74.90669 76.47512 74.84416 67.27239 63.82458 70.12623 68.30451 65.27413 68.57700 72.91852 64.75961 62.07816 56.21420 56.09476 48.83413 47.58002 48.87363 60.96299 63.72114 59.76921 48.72029 49.36812 38.42598 35.48708 29.60577 31.35400 30.02730 34.35651 33.22641 41.44950 45.81773 45.22839 44.21038 39.78699 35.93955 31.64390 27.65545 28.22696 28.48036 27.57977 27.15847 25.13450 25.20364 25.61914 26.03667 28.22291 26.68226 25.87082 26.30286 28.50179 25.76649 26.38769 25.88568 23.88896 24.71848 23.69034 26.67975 27.12513 25.52966 26.08476 25.76850 27.71260 24.43286
24.64854 24.67132 22.72039 22.10414 23.93337 24.56866 25.35408 26.29293 25.42466 26.43717 23.88406 24.07512 24.04830 25.92591 25.68597 25.83207 27.80965 23.09397 25.98510 26.78798 24.91689 27.52156 23.70850 27.37543 24.63203 24.93850 28.36290 30.94085 33.75028 33.06155 36.37777 38.14355 37.95373 40.95789 39.00307 42.08978 40.04268 42.69558 35.02412 34.74775 38.46495 47.50838 51.74049 65.98260 64.03066 62.98232 58.13883 53.96440 47.61062 47.83136 48.84414 54.16125 67.09509 74.56412 75.18893 68.20781 65.88724 60.27626 65.52151 78.73498 79.78728 81.64793 81.14645 71.91653 71.79492 74.33500 74.70499 71.74865 78.02297 78.35556 73.05118 65.08087 59.78183 57.37979 54.26181 52.17941 60.42011 65.45589 65.59457 55.72311 48.89580 39.75531 36.63458 33.66545 32.25435 34.61179 33.74015 36.63544 39.99662 44.52100 49.02143 46.79726 41.12170 37.42624 33.45123 30.12593 30.78756 29.02058 27.61697 28.43288 30.48102 27.43105 27.95029 27.42741 23.45343 26.49578 26.56600 25.52272 26.01191 24.03418 25.70195 22.77669 26.16136 26.45893 27.05850 27.91356 26.98643 25.52491 24.94671 24.39378 23.49405 26.88318 26.51618
26.43424 26.78463 24.25277 25.42808 25.86222 24.41745 25.86027 24.97000 26.11735 24.59866 26.65511 27.12275 25.02771 25.25417 24.34004 25.57631 24.90472 23.97160 28.08038 26.43789 26.36892 29.77749 27.81681 27.12791 24.97051 25.45198 29.35605 30.24656 32.74377 32.33449 32.98347 37.75917 38.70543 41.77459 41.94965 44.88995 47.01863 43.38172 42.51423 40.49136 39.38721 44.50347 52.82857 59.72823 66.19745 69.11142 65.83316 61.90968 55.49150 47.53916 53.47308 56.44706 64.89895 72.77136 80.39864 80.29640 70.83713 68.60264 73.51035 80.25928 87.46144 85.93885 87.11921 82.43922 81.36602 85.62882 82.48632 80.77094 82.70684 82.75589 76.44014 70.29721 68.54244 63.35502 59.82823 60.13409 66.14987 68.64384 63.19751 53.48687 42.83711 38.54062 38.46360 36.20956 32.46450 31.53858 37.58467 43.57497 43.93906 51.32556 47.10881 46.09434 41.50841 38.45487 32.29702 31.35784 33.05768 30.33446 31.28401 29.88534 26.70158 27.87650 24.69634 28.03230 24.74365 24.14988 24.98217 25.74875 25.83789 24.86173 25.86965 25.70297 25.58424 26.60085 26.37823 23.53684 24.76234 24.85219 23.55726 26.74099 25.08388 24.66594 26.07897
27.81906 23.64683 26.10634 23.27589 27.42122 22.72723 25.63312 25.19317 25.67228 24.44117 25.06037 24.78532 23.37306 26.16837 24.70662 27.30814 24.55832 25.32083 24.75678 24.42904 26.72731 27.72794 25.81559 26.00792 31.12201 25.98021 26.43748 25.50326 28.04595 27.98783 28.94003 36.61180 40.35076 42.08686 44.63778 46.55892 51.30987 48.88157 47.85795 48.33770 44.72321 44.93395 53.39438 63.41342 67.92104 74.91250 73.48511 67.05263 59.09229 54.95572 55.10114 60.39643 65.10000 75.44695 85.51627 87.53466 77.41268 77.92516 83.75468 89.91157 91.97522 95.88470 92.47507 86.89347 87.78765 89.83370 88.03548 89.46337 86.03898 84.82491 79.58603 78.01657 73.00280 71.16506 63.79725 68.15514 72.36949 72.61760 64.11894 54.84676 47.40053 42.83003 40.02440 34.87940 36.81716 35.38150 43.92650 48.59969 53.71741 51.97406 48.47079 41.78607 39.50147 35.20214 31.71616 33.77900 35.28458 31.65236 31.95885 30.52139 28.22130 27.12194 25.87736 29.55946 29.85050 26.52472 26.88033 25.92140 26.33665 25.77340 23.60193 24.55797 24.08068 27.00503 22.69977 25.47736 25.66645 28.12899 24.48775 22.77467 25.03188 27.36595 26.62974
25.09382 26.48111 24.38913 25.89920 24.33373 23.57049 24.03742 26.30316 22.65268 26.72944 26.53351 26.83312 26.48195 24.78569 24.99537 26.08516 27.13118 24.75590 25.77047 24.98846 26.69879 30.19376 28.17727 28.16163 28.44758 29.88977 27.01785 28.59641 30.54717 28.81364 29.42503 33.12231 36.51449 42.02664 45.04692 49.42549 55.93608 58.83175 55.08902 52.89402 46.57561 42.13637 52.65249 58.98243 67.50106 77.56404 79.76095 71.98804 68.92278 62.34469 64.69071 67.03834 72.79253 78.51827 89.70590 91.41639 87.86993 86.93729 93.84239 96.64294 98.00517 100.20276 102.51650 96.66357 101.32196 96.31457 93.75944 97.22962 96.67072 88.53192 88.06326 83.41657 79.30585 76.49971 76.40194 76.95939 76.69917 75.99138 61.18001 49.75777 49.03981 45.87522 44.67019 39.63074 37.73743 45.77513 52.03106 55.83949 59.29521 54.97592 46.87598 42.66988 38.68485 37.16783 40.20153 39.42387 36.96611 33.88270 31.79697 32.29131 29.09151 28.80553 28.98750 28.08365 28.31835 27.75741 26.52688 25.09157 23.57226 24.33724 25.99426 25.55761 24.64176 25.46958 23.62054 24.43014 24.54684 27.83420 23.77968 25.58703 26.97314 25.86633 25.11489
21.85463 26.70806 22.82807 28.09058 24.79714 25.55785 23.38440 23.70089 25.10324 25.66263 27.32640 26.11049 26.38772 26.86638 26.33692 27.29877 27.10855 28.74218 27.15269 26.53827 24.90188 27.15712 30.35331 29.69560 29.77776 30.17417 31.87148 32.33662 33.70920 30.68585 28.92187 32.27623 32.99091 39.50349 46.41647 49.62934 55.18847 59.02016 61.75224 58.71561 54.57118 50.91379 52.54968 56.38185 69.27294 74.03050 80.91496 82.71846 72.74406 67.55534 72.40043 73.61750 77.16653 87.06062 89.68976 96.03592 97.76108 94.14005 101.08013 103.51630 105.31126 105.89032 105.21952 102.36346 103.85279 105.28263 104.27204 101.40910 100.38851 96.39409 90.87814 91.41555 87.22706 83.70658 85.27718 82.92645 82.97519 76.30191 63.74712 56.10505 58.46140 53.55851 45.51446 45.37151 46.83203 52.15253 57.20669 62.88755 60.69687 54.12978 48.83166 44.65922 43.45234 44.80543 42.14060 40.22778 38.50902 38.40440 33.13091 31.51077 32.94286 29.85770 25.45990 27.31440 27.54357 26.26732 25.21810 26.00089 25.15246 24.57041 25.70181 26.06018 25.27215 24.35539 24.82952 24.29491 25.31502 26.59907 26.13221 27.09986 24.85402 22.87471 25.68281
25.16602 25.90848 25.13126 23.74440 26.25736 25.88566 25.87951 24.95954 26.37393 25.34679 24.82172 25.59744 24.92418 25.02476 23.47342 26.66897 28.01726 29.61439 27.39232 28.88631 27.11475 24.53302 28.12428 26.78455 28.40342 30.55520 32.08528 33.07892 36.75856 35.27780 37.09763 34.28025 31.75111 36.91271 41.52818 52.03355 54.63739 63.49517 69.70211 67.08811 61.78132 56.52671 55.10852 54.60857 63.41331 72.96999 81.74698 82.94189 79.73447 74.27329 80.72442 85.86473 88.04509 89.77124 95.16939 101.48549 104.31067 102.19710 105.04506 106.81505 109.62689 109.42454 110.06886 107.21679 109.32690 106.39948 107.74942 105.10964 103.35972 102.60604 99.82103 96.10586 98.06717 94.46709 92.78581 90.88559 80.24398 75.41349 68.14675 61.05400 63.03017 56.98288 50.47443 48.58064 51.11298 55.30597 61.61457 64.56394 61.65061 56.32556 51.50775 50.01955 48.30894 47.37316 45.42946 41.37126 39.87752 38.38941 33.44335 31.65939 30.62236 27.05395 28.20693 25.79823 25.23453 24.87539 25.73929 24.18015 25.54867 25.89990 23.92614 25.79134 23.52573 25.81894 24.06753 26.70359 24.50492 26.69832 26.84112 23.81216 24.29825 26.63455 26.00518
26.30289 27.80729 24.97044 27.15479 24.50836 25.33346 23.27700 23.00211 25.31690 26.87191 27.42037 25.80143 25.21675 25.61543 26.92625 27.28864 24.88214 27.81727 28.68579 31.70195 29.69132 31.05845 30.88790 29.76440 28.08516 31.96567 33.09418 34.69589 34.55648 39.14005 40.26463 40.52687 36.81838 37.10988 38.07897 44.43848 51.40893 61.84618 67.90074 71.50864 74.95792 67.46452 65.71582 64.45235 65.31718 70.08449 79.81764 86.44219 84.61642 87.05860 91.43181 90.66544 94.15430 96.40638 103.02809 102.88550 104.22523 106.67702 108.12024 109.15234 109.12350 109.91176 109.14990 109.51985 108.94814 110.64590 108.24929 109.39996 105.93226 105.05958 106.20239 104.89660 103.03968 100.89883 99.89123 90.53855 87.63700 80.97251 75.51171 65.25646 65.94547 55.29348 51.64383 61.00839 64.06796 66.56081 73.76045 68.57186 63.81366 58.05545 56.27828 57.77205 54.07556 50.12948 46.20587 40.76825 39.55086 37.00517 32.50037 28.85663 29.08144 28.63429 27.11376 26.38504 24.42697 25.04532 26.21558 27.76789 24.95159 25.10679 27.05200 25.83274 26.00277 26.25551 21.64192 25.24871 24.99346 24.68581 23.67646 26.69246 25.72393 25.26216 25.53825
23.98971 24.72769 25.26530 24.44241 26.94091 25.40095 25.53274 25.72234 25.37096 26.42861 25.20622 26.65922 25.45806 26.55790 25.08916 25.81206 24.94169 28.17581 28.26218 29.70488 31.96821 33.06325 34.47982 29.70291 30.31785 31.86209 32.60202 37.20318 38.91355 43.40492 47.03135 46.80188 43.95324 43.16080 37.30854 41.38403 49.52862 61.05591 66.21765 74.01054 77.37970 74.84436 75.06931 74.36114 70.26656 73.03457 79.68163 88.05155 90.95666 96.63325 98.37254 98.97887 101.28784 104.14107 107.96757 110.28737 108.05790 111.12413 109.45285 105.79264 108.69615 106.79157 106.08155 109.61103 109.11665 109.94486 108.28687 108.44212 108.72706 110.39795 108.06941 108.46668 105.16516 105.83415 105.87236 101.00337 92.29900 84.45790 80.72754 74.31199 65.04726 58.06679 59.63128 63.75248 71.04399 78.33949 78.17258 70.84504 63.44576 61.27267 57.39192 54.21857 52.07798 46.88705 41.60917 39.50824 37.18674 32.46829 29.55748 28.99294 27.78204 27.07858 28.85173 25.54746 26.99353 27.72153 28.69941 27.31350 25.05425 25.97544 25.83144 26.23153 24.38724 25.56564 25.40971 25.14482 25.21898 24.40293 25.78949 24.51746 24.34478 24.26815 26.61511
25.98135 27.37417 24.62036 24.00862 24.14335 25.35958 22.50278 25.18239 26.19724 25.94379 26.24890 26.45813 25.92545 25.17794 26.48338 26.76710 26.96853 27.71857 28.20365 32.78144 33.63789 33.50836 36.84114 36.80431 32.99329 34.56111 33.84293 35.78814 38.29184 42.00602 46.88354 48.36669 47.74830 47.79829 45.49614 42.18925 48.43663 55.98896 63.73893 72.72542 79.64766 81.83367 81.30811 83.38160 84.18566 85.15974 85.24568 91.62450 98.53215 101.11126 103.98461 102.92132 104.95037 107.22937 107.71768 108.44962 104.71171 107.28249 106.83288 110.46737 107.58592 107.80551 107.46014 106.80125 105.96539 106.31904 105.09611 109.50296 106.28391 107.49687 107.13268 105.91159 108.76754 109.40343 104.95150 104.56739 100.16739 89.10594 89.27332 74.30064 68.50104 67.77778 74.17116 73.47978 78.64869 77.88967 80.36604 72.48369 67.81427 58.12302 51.54000 48.63930 45.50153 43.55837 38.61699 34.74525 33.88540 29.14689 26.74456 29.64096 28.44465 28.68608 28.67758 29.59578 26.95615 29.97418 26.34611 23.91139 25.63218 26.84888 25.03549 25.95206 25.25067 25.28754 24.63396 26.51582 26.52893 26.56205 25.23449 24.57068 24.49020 25.43811 24.74805
27.00370 25.24669 26.65982 25.11284 25.37204 22.46809 24.85618 24.80410 25.96908 26.85849 26.25056 26.05122 24.86345 24.58599 25.01338 24.55192 26.83506 28.81013 30.07256 31.30986 32.64503 36.32183 39.24344 39.96719 39.32865 35.81300 38.34934 37.07952 38.92572 40.55358 44.67117 49.50012 55.47318 53.53501 53.26029 46.88227 46.12553 54.27558 60.61502 67.55345 74.42809 87.70376 86.06709 91.57494 86.96543 90.91801 91.91673 93.46403 103.24796 104.56639 108.48763 106.84392 106.96662 107.30544 108.43232 106.43917 104.48249 105.45932 103.74693 104.93522 104.33357 101.09884 103.00282 104.98128 104.75406 104.67035 105.38934 104.31058 106.81696 108.05606 107.52249 110.01429 109.19452 107.20284 110.46319 105.52704 105.48152 95.66142 91.10371 82.64495 79.22144 78.90176 84.98691 87.66106 83.15458 86.25447 76.72956 72.22104 63.56149 53.97743 48.94575 44.24635 42.18874 37.17890 32.08728 31.35706 31.36578 29.08517 30.07666 30.02362 32.06206 30.40826 30.85078 30.14885 27.95764 25.48577 27.66136 26.50756 26.32944 27.85667 25.83186 27.19581 24.83021 23.69781 26.00200 27.33864 25.41416 24.96484 25.85017 26.42850 24.91942 24.15327 26.78857
26.07055 24.94715 23.19337 25.86675 23.80606 24.91083 25.59431 24.25921 24.89229 26.79170 26.94987 26.07541 27.46124 26.38688 25.84361 28.84719 30.09837 30.32905 28.27211 32.26083 36.11185 36.05651 38.52510 42.12955 45.03018 41.26864 42.21861 42.42449 40.38953 40.56921 44.24389 51.83227 57.03839 58.54642 59.81644 54.81440 53.87066 52.13249 57.43481 62.94412 76.14489 85.44391 92.29207 93.65673 97.89242 97.60493 102.01002 102.34091 107.69205 106.42797 106.16253 105.72245 106.60146 105.15756 106.71026 102.34511 104.38522 102.11793 103.53457 103.02484 103.04861 102.27670 102.19585 104.06566 103.94499 101.61935 101.49634 104.95714 104.56301 104.91862 104.38674 105.32372 108.89717 109.04726 109.48168 108.56138 104.82269 100.33322 96.25043 92.79753 87.98742 87.00935 91.23942 92.50247 88.92992 84.49116 76.12127 67.93873 60.30602 54.87244 48.33365 43.30699 37.97287 38.05908 32.22876 30.51247 30.54837 30.25754 32.67698 32.43875 32.59287 33.16198 30.61720 29.83535 26.87516 26.19692 28.89267 26.59453 28.80462 26.33594 29.52121 25.87308 25.67815 24.73500 25.86047 27.82248 24.24266 26.43322 25.43365 26.45460 25.97019 26.98269 25.44840
27.02239 26.42474 24.94908 25.82406 25.36092 24.18622 25.09548 26.42302 26.36033 27.92619 25.51291 23.17476 26.46879 26.56860 26.50163 27.89280 26.78365 30.38583 29.09958 33.05480 34.86265 35.82523 37.92723 39.93373 44.67032 45.83976 45.80946 49.55464 50.25438 49.79178 46.80704 51.74004 58.77588 63.65181 67.77529 65.43116 60.78512 61.66447 62.12725 58.68377 72.25839 87.08128 94.95631 96.81156 104.78438 104.05724 105.96226 107.79905 105.90600 106.30189 104.88658 105.99386 104.95942 105.45451 103.57792 101.84207 102.13237 102.13860 101.49816 101.92194 100.47121 100.35951 96.96734 102.13650 103.90486 104.02834 104.73475 103.04966 102.47347 105.68459 103.11779 103.42097 104.27673 107.88716 108.86516 108.46675 108.13664 106.93324 101.12177 99.41152 97.09013 97.37935 98.84446 94.41375 87.79700 80.67216 74.03889 68.01932 58.36890 56.86909 52.29307 51.46314 41.95791 35.79109 32.59148 30.94462 33.90751 33.20562 32.88149 37.32921 34.94159 33.93103 29.84057 28.25718 29.17536 30.05643 30.56642 27.62293 27.21834 28.40214 24.40607 27.39580 26.02164 25.36485 25.14548 25.38476 25.24817 25.10445 26.47453 25.31760 26.85636 24.92592 26.58239
25.40846 26.59971 24.12217 24.24351 24.34989 26.77705 24.83305 24.18974 25.83500 23.24469 24.56329 27.08590 24.76277 25.92321 25.13781 25.18520 25.21708 29.04141 29.27864 31.73071 32.72946 35.73927 37.98095 41.57658 47.07116 47.64272 50.10203 51.59155 54.40401 53.20726 58.06550 55.08490 59.69205 66.81692 71.92832 71.74118 68.25878 68.97641 69.32643 65.14522 69.22974 81.89520 90.80436 100.41807 104.44513 107.39498 108.94574 107.62222 108.53429 106.98459 105.22693 105.05111 105.37692 102.11844 103.14777 101.33249 99.92672 100.49602 102.02215 100.95619 98.92429 100.83463 98.88028 99.86203 100.16428 100.35127 100.10129 100.63910 101.78429 104.48589 103.95246 102.90714 101.22848 105.40535 107.66665 104.86006 108.56958 109.40820 107.33415 104.74097 105.91325 101.75044 103.24469 98.16581 89.46221 83.93448 74.80482 68.41492 58.58935 56.65418 49.69587 47.32602 39.63065 38.51038 34.67086 38.40648 40.60697 36.55490 41.37947 37.56453 36.47703 33.87281 32.20094 32.35806 31.66275 33.26366 32.51016 30.43247 29.50148 28.84393 26.30353 24.78797 26.36188 23.07555 26.50493 23.97521 25.89755 27.29377 24.39345 27.28956 26.08295 24.13787 24.43439
25.00268 24.21016 27.20780 23.46822 24.33495 24.01346 23.32215 25.34071 28.42676 25.07945 22.88876 24.40797 25.19368 24.10364 26.64895 26.28165 26.12328 26.08056 28.26160 27.77943 29.62226 33.89014 31.89525 37.69558 38.77300 41.77163 47.76819 52.82921 55.92268 59.10479 60.23004 65.86530 67.64407 72.51468 76.42343 82.04617 81.27117 79.29527 77.70087 82.45652 80.54039 85.35322 93.36064 99.57665 105.49918 108.86240 108.80982 107.38039 105.98185 102.61499 102.97914 102.22939 99.48380 102.00006 101.36444 100.05305 100.09991 101.10758 100.01053 97.05711 96.21538 98.81070 98.35669 98.87900 101.18887 99.42507 97.89860 100.09469 101.70480 100.60381 100.09722 102.54899 99.41481 104.02334 104.36567 104.02564 103.86089 106.83134 108.32576 106.43040 107.60100 104.56867 103.99014 93.50182 87.58043 80.05720 69.22392 63.30986 52.63311 48.74556 42.64316 41.06124 38.42679 39.60195 41.91476 47.67289 45.86575 48.89383 43.45668 41.43457 37.00944 36.03415 35.96938 35.28742 37.94880 34.70914 34.67673 30.87092 26.99501 25.33436 24.68520 26.60828 25.19915 22.48560 26.32556 25.76538 24.56947 26.14531 24.70066 27.91518 25.88055 26.24251 27.05191
24.71779 27.57990 26.57277 25.58113 24.73837 25.78127 25.69732 25.74341 26.31904 24.29690 27.19318 27.81357 25.56615 24.92164 25.65587 25.05538 25.57626 25.72176 26.62933 27.78170 29.79243 27.93198 33.82721 34.72261 36.45809 38.54805 46.16479 51.45073 54.29490 55.78693 63.12921 62.41683 69.32878 73.45470 81.77767 84.11114 86.75998 86.48134 89.61986 88.42689 90.86427 88.63822 95.18462 101.77194 103.36549 106.27456 107.45100 105.95009 104.09299 104.31110 104.34866 102.35152 103.14589 101.58426 98.11052 98.66372 99.24126 94.83757 96.92750 99.58662 98.76753 99.55677 99.02762 100.39870 98.83263 97.97308 100.18402 98.70957 99.74613 99.86009 98.45955 98.74238 101.41143 102.16363 101.77927 104.68156 106.74749 105.45222 106.82694 110.87186 107.64517 106.36759 98.92484 94.84389 81.44786 71.24123 63.34081 57.01427 52.41919 51.58183 50.12056 44.84461 45.11823 48.20821 49.67801 52.51825 51.21967 53.27302 48.40429 42.06711 41.69686 40.44807 42.86034 40.49518 36.77939 36.37208 33.95451 30.49715 27.88062 25.32337 27.41495 24.51383 25.86103 25.81585 24.40353 26.81632 26.97684 25.22561 26.00252 24.69312 25.24025 23.74400 22.80663
24.50750 23.37168 23.17025 27.98361 24.55848 27.23862 24.66639 24.36190 24.52804 24.41003 27.96322 25.55374 26.06052 24.82024 26.90540 24.44339 27.71194 24.45271 26.33584 25.58792 27.94403 27.82011 26.22539 30.45744 31.84672 36.87807 41.02336 43.13030 48.20850 51.54477 51.55615 59.87987 63.05672 67.86178 75.38710 85.16960 91.28723 93.62505 92.56905 97.93015 99.61170 98.60587 104.97919 107.50916 106.93574 108.67586 109.09279 104.51096 103.80454 103.11657 100.20644 100.95480 98.56723 100.27430 98.11568 99.23477 98.41601 98.09169 96.54290 99.08311 102.73398 97.00495 96.83960 97.00524 99.25103 95.97378 98.88013 97.85993 97.47039 98.90586 98.09073 97.83976 99.39207 99.98160 101.32651 100.86397 100.90097 106.15645 108.07227 108.22733 107.62452 106.94858 101.95086 96.10102 78.86220 71.03715 61.18918 63.60053 61.91856 58.02126 54.47142 49.97999 50.31396 55.86444 60.80304 63.89389 59.68887 58.00065 51.84934 49.09090 45.46961 44.16504 46.32104 39.67000 40.23729 36.36818 31.85430 29.27660 29.04843 26.26576 24.58276 27.05912 26.62416 27.08915 25.83651 26.93815 26.53030 23.73089 25.13911 27.26222 26.23647 27.10491 25.93120
25.83846 25.10668 24.35104 23.89709 26.01885 25.58749 22.19477 24.34513 26.44543 25.69488 24.56618 25.73265 27.44423 25.35084 25.97789 26.66403 25.43025 26.42558 27.65329 26.73030 27.66904 26.87282 29.87175 29.85329 29.43501 32.17290 39.27383 37.34891 38.18755 45.26012 48.41890 50.12186 58.60218 63.61305 70.15797 75.48928 84.55918 88.89212 97.84698 100.44510 103.01642 105.77146 105.89443 109.89526 107.33552 107.00699 103.00863 102.46899 102.53612 100.08545 97.47845 100.58051 97.10698 98.52173 99.37335 96.76400 98.31868 101.52043 95.10840 96.00643 96.69497 98.09615 98.40949 97.11806 96.75677 96.25681 98.67034 96.84817 95.50448 97.88824 95.73293 96.49555 100.07374 98.27927 98.52086 99.16592 102.55351 104.34836 105.55739 106.56100 106.98705 105.25406 106.46063 93.96586 87.45027 79.05200 72.69094 70.49030 69.85382 66.38856 61.68411 58.60011 58.17419 63.36082 68.70136 68.40492 65.01070 59.42626 54.16465 51.73598 51.84470 50.66289 43.82232 39.70702 37.82559 33.16594 29.59557 27.60361 26.46325 27.18871 26.16305 26.78461 26.80958 26.03183 27.02318 26.98467 28.39566 25.97925 24.62915 27.57917 25.82190 26.50761 24.96254
25.15143 28.08456 25.41299 25.14298 24.25786 25.34047 25.29526 27.18314 27.16484 22.93384 25.58866 26.43817 24.51044 26.96046 30.46514 28.93930 30.87743 29.74856 28.38166 30.04786 30.10426 30.49460 29.19428 28.59358 29.59305 30.47678 32.77187 34.13836 36.02615 36.95244 39.41009 44.04347 51.84742 58.05819 63.34114 71.50308 69.82123 83.38851 91.20465 100.14003 104.16696 105.96349 107.12279 108.93909 106.37081 105.09175 103.61022 102.73496 102.95160 99.82328 97.17367 98.86150 101.37683 96.27727 97.54039 96.59763 97.10731 97.87686 96.52251 94.98070 97.05387 98.33488 97.48916 97.35256 97.93230 97.65296 96.55541 97.14650 96.93100 98.30630 95.05195 99.30542 100.13358 98.76943 99.41820 100.32729 99.41542 101.93129 103.67958 106.90557 108.12861 108.37657 105.04105 98.87976 93.19871 87.89455 82.26016 78.30947 77.61202 73.42380 67.83030 68.35763 69.06386 71.77045 69.56752 69.87215 65.07029 60.79217 56.77105 50.32177 49.73972 43.87713 41.61493 37.66436 35.36131 31.51307 29.23217 28.82371 25.71695 26.28853 26.42122 27.15590 26.30739 26.48259 26.50457 26.51242 25.41502 27.18533 25.53288 24.78671 26.14073 24.49976 26.96763
23.98058 24.20672 27.50368 26.29511 24.40662 26.88151 25.52850 25.20977 26.52011 24.90069 26.42802 26.10603 25.56533 27.81528 29.22822 29.14202 29.42686 31.89251 32.32826 33.36408 35.34103 33.27196 33.12198 30.75312 33.71306 30.66227 30.47692 32.25188 33.82453 34.75093 34.13983 37.55661 43.12999 48.84048 56.38250 57.66240 65.88044 74.70361 90.04310 99.07382 106.01118 110.67971 108.63453 106.20727 103.61172 106.13188 102.51220 100.27812 100.62915 100.54887 99.10604 98.27109 99.69967 97.64887 98.32576 95.38311 95.86341 95.55460 98.42165 95.95265 98.38743 96.22247 98.40622 96.50608 96.96024 98.89790 97.50905 98.92673 96.08691 98.04041 97.33253 96.90211 98.42290 99.03422 98.21379 99.61952 100.24800 100.16260 103.16117 104.76626 106.04297 105.17528 105.22203 102.76901 100.37990 93.30421 92.16200 90.09874 86.46590 82.62901 73.57623 74.52520 73.33044 72.05781 69.36755 65.98749 63.89428 58.35175 53.90493 47.45431 46.64368 43.88939 39.16748 33.81008 33.09555 29.83991 26.95658 26.10276 27.58067 26.29424 25.67128 28.09814 26.03869 26.59476 26.86740 26.04294 27.14025 23.84366 23.93200 26.59230 27.51609 24.86532 23.93726
24.67158 24.76247 26.61129 25.40275 23.36371 25.27398 23.92344 27.16182 25.39773 26.51204 26.36968 28.29913 28.25170 30.66546 31.01135 31.53099 33.63687 34.77050 35.32550 36.37470 38.11020 36.63176 35.56288 32.28431 33.35211 34.67352 37.46344 35.06412 36.27114 38.99977 42.59897 42.10463 44.69332 45.59330 48.79298 58.50324 65.37935 76.17731 85.60734 96.40338 105.50991 107.17869 108.97108 106.24891 103.28916 101.77958 102.23583 99.13191 101.72041 101.03671 99.63066 99.20741 96.81644 97.95518 98.81536 97.78129 93.54675 97.10206 98.89986 97.97461 97.79657 95.76326 96.33244 99.22427 97.13860 97.77389 97.29381 96.69338 99.25086 97.04331 95.11931 98.06211 97.80368 98.48224 98.07438 97.91378 100.65878 100.92859 99.52970 102.97633 103.95585 107.62157 111.11534 108.45494 105.61941 107.00304 99.96209 95.31485 94.65877 83.44684 87.55237 81.93451 75.52636 73.17612 62.17113 56.19414 53.17321 53.13058 51.76320 44.12006 38.22451 38.15052 32.52522 31.79399 30.09583 25.98327 26.90093 27.33236 26.99472 27.59162 28.68384 28.83588 31.29561 27.04090 26.09997 25.63662 25.15222 26.26795 23.75624 25.28435 25.31922 24.73652 26.42140
24.38936 24.63476 23.06676 26.90989 24.97771 26.40786 23.05136 26.33643 25.80513 26.65394 24.70992 30.02925 29.07689 31.52819 29.52491 33.42499 35.44173 34.99119 33.94703 39.26663 40.52863 41.43287 41.35958 40.50791 40.74834 40.08621 41.37440 42.14263 37.74634 41.58046 44.03668 49.21444 49.17221 53.77586 57.87346 63.13254 63.91643 78.97424 84.27039 97.40599 103.93663 106.86853 108.08452 105.61379 104.88252 102.25152 100.44721 98.94695 101.10075 100.13118 98.35253 98.34775 95.96205 97.04499 95.19853 95.60935 95.80231 98.52498 96.83850 96.19607 99.29102 96.75412 99.26626 94.99281 96.38560 96.82436 97.86393 96.46878 95.97880 97.30984 98.01661 96.72247 96.38006 98.09653 97.46277 96.34433 99.29559 100.63507 100.58346 102.74309 101.86523 105.79508 107.19096 104.95564 108.90132 107.77279 106.23584 98.61590 95.43954 88.70683 85.79656 75.40567 72.37771 65.96547 52.74596 48.78658 48.27352 47.46512 46.37131 41.53809 36.60372 30.77259 30.67154 28.30313 29.81010 28.08848 28.50149 28.74333 31.36342 29.92026 29.99561 29.56028 30.05794 28.33703 27.14487 23.78133 27.07617 24.54636 26.48755 24.42284 23.44420 25.61207 28.14054
24.73527 25.11943 23.76801 24.64704 23.50892 25.95976 23.71824 24.60866 25.58754 28.30337 26.23914 28.30342 28.05137 27.57957 30.94166 32.32527 30.76963 32.67913 33.89845 36.71326 40.85126 42.35138 44.30732 45.59803 47.22291 49.10213 44.16372 44.65710 46.11567 44.18677 48.96579 51.21639 62.01249 65.37857 65.04535 71.28133 77.32374 80.28937 87.23633 98.39534 105.94543 107.64623 105.75037 103.79177 103.51129 101.84221 99.35182 100.22285 99.67459 100.47561 97.73697 98.21707 96.89974 97.41862 97.96253 97.71369 95.27741 95.92694 98.14593 98.47195 96.34945 95.97758 99.96187 95.26026 94.63272 97.61520 96.72138 95.14854 98.02189 96.76446 98.62455 93.45724 95.73127 97.97603 97.95864 96.09470 101.07365 101.68345 99.54053 100.21933 100.97616 105.25524 106.55828 107.95218 108.31848 107.33271 107.87240 98.89943 89.21944 85.78525 80.06792 72.04205 65.15652 60.70737 53.09749 47.69679 46.50602 39.58231 39.57741 37.61679 33.57904 32.02051 31.59691 32.29160 30.21804 31.53340 33.74726 33.93527 33.10380 31.09687 29.93032 31.90177 28.27125 27.19573 28.03426 28.06124 23.44439 26.27148 26.51212 25.48666 26.97143 23.74902 24.69315
26.68048 26.88793 26.29881 24.26521 25.50094 26.46753 25.77471 24.98785 26.12106 25.89661 28.70865 25.24093 25.41167 25.85178 26.40608 28.06163 28.54928 28.62056 28.24886 32.72616 37.26689 40.04682 44.02024 45.92429 48.27851 53.09238 52.46450 52.65205 52.76081 49.41722 49.95461 56.27944 63.67406 69.55314 76.02889 77.78726 85.11033 93.21613 97.59597 100.66546 105.65964 108.88349 106.64758 103.84955 104.11096 102.22598 99.27061 97.74815 100.18755 97.35110 97.26741 96.91649 97.62395 97.53458 97.59493 98.82063 96.36788 94.90821 95.61550 97.32828 98.24221 96.19193 98.28780 98.31342 96.95127 100.15202 96.49823 97.76733 94.83575 98.23310 95.78012 98.14014 97.61364 96.87372 97.23086 97.59616 98.47218 98.05966 101.75528 100.46160 103.97731 103.32155 105.01459 106.94861 109.77976 108.80514 105.49339 98.66908 88.96841 82.02969 75.96048 70.17734 62.92009 57.84302 58.12491 55.70047 49.47073 44.08335 38.68240 35.22214 34.31266 33.95639 33.04197 31.04552 34.60021 34.03299 34.42260 34.27894 31.61246 33.93342 30.05647 27.27050 28.40734 26.06556 26.22500 25.26802 25.84208 25.06230 24.26331 26.20053 24.18219 25.89854 24.90625
22.10999 27.37575 22.98756 24.77662 25.08693 23.71934 26.16621 27.94009 26.41831 24.60445 24.69481 26.14870 22.24405 27.03874 28.11814 25.89585 28.61624 28.53389 30.09879 30.87857 36.03711 36.96680 43.22825 45.69187 50.27376 55.34207 59.27371 61.84482 62.36803 60.58350 60.10289 61.61938 69.38693 78.04913 84.63442 87.65285 95.86872 96.12101 103.00100 107.18739 109.11992 108.62108 105.27224 104.95437 103.09616 100.02547 100.86157 103.76651 99.10138 96.43859 96.00020 98.50019 95.48147 97.41522 98.09493 98.39784 95.08928 96.24792 97.26720 98.30291 96.81982 98.65773 95.93702 98.41279 97.91202 96.97871 96.22057 98.65109 97.45368 97.73178 95.14356 94.44042 100.66125 98.07639 97.72130 97.90929 97.12925 96.87690 101.02280 98.67916 102.64224 102.04756 103.34147 104.07925 109.13897 108.71912 103.71896 99.73125 93.03775 84.52973 77.89183 76.03351 72.67552 68.10263 64.04142 62.93832 56.79426 46.13284 39.97467 37.94738 39.23968 37.99892 40.60500 37.61075 36.70847 33.93929 32.87233 32.83749 31.78685 29.01437 28.96192 29.15428 29.60693 26.83227 27.30093 28.53338 26.02206 23.65878 26.74231 25.83563 25.24613 25.42368 25.53281
25.38161 24.64734 23.45726 23.22032 27.45079 26.43107 26.71048 23.50951 25.84155 25.90081 26.75745 25.44010 26.39803 26.67566 26.36798 27.84825 28.50807 30.20919 32.39098 31.79574 33.47781 39.13362 41.69265 48.50607 53.02803 59.67241 61.91128 63.69029 64.92621 67.46423 67.91042 69.29915 72.88749 82.34601 89.96187 95.60721 100.73276 103.24264 106.85231 109.03537 106.20063 104.68509 102.10204 102.53834 100.67177 99.29042 100.30169 96.68069 97.89704 97.93188 96.37687 95.96677 98.29954 97.50407 98.18688 97.47618 94.61720 97.50760 96.15560 94.65462 96.24467 97.42399 98.01057 95.54413 99.92479 95.10966 96.57568 97.70772 98.51924 96.05997 97.15627 97.10517 96.74960 96.76932 97.72278 97.34064 98.07114 98.02319 99.78824 99.03183 102.56368 102.82358 103.65021 104.80404 106.63001 107.33292 104.40105 103.44324 95.63416 90.02505 88.19085 81.06232 77.53615 72.37018 67.27034 63.47985 54.58090 49.63678 42.89472 41.70619 44.62485 43.63527 44.15943 39.33916 35.13083 32.46996 31.22681 28.85906 27.98046 26.87007 28.30831 26.48668 26.50098 26.19634 25.71172 27.77017 22.62186 23.63130 25.71363 24.32847 27.14202 28.16421 25.87344
24.69597 24.79503 24.47664 27.79453 23.68015 25.03988 27.97354 24.50607 21.34625 28.47480 28.30324 24.11190 26.15996 27.14859 30.06537 27.96533 29.51972 31.15175 34.29347 39.39689 38.57295 41.70604 47.06367 51.45391 56.64471 57.46304 64.82827 64.65951 63.59286 68.66788 70.00873 72.33979 80.41473 82.51909 92.16532 96.57188 102.61093 106.43913 105.47380 108.56524 108.25708 102.81368 103.69049 102.23444 103.55562 102.25366 99.31125 97.32870 97.70125 99.26958 96.15915 96.32803 97.84506 96.04357 97.57436 96.14265 96.08881 97.84922 99.79258 97.27607 96.42747 96.28710 98.26029 97.13782 96.83165 96.92376 97.21114 98.97190 99.19151 96.48850 97.52843 98.67040 99.21435 98.09447 96.72218 97.44703 97.83561 99.96783 97.53072 100.65835 101.27497 102.18295 104.28786 104.33386 107.38913 108.58070 106.65165 103.98854 102.08483 95.23204 91.76557 85.29373 83.69584 73.73944 65.96719 62.89921 54.05558 50.49223 49.19528 48.51199 48.43216 43.81517 44.26472 38.35041 36.65644 34.40397 32.82083 32.06094 29.89159 27.86208 26.05261 28.67268 25.20222 27.96844 26.88711 26.34290 25.75404 26.26920 25.01087 22.88383 27.42034 26.03800 25.24419
24.01319 26.83744 24.26761 23.21630 24.05690 23.95619 25.75017 24.71847 24.23671 24.62999 24.44226 25.99144 28.63641 27.43206 29.83467 30.51320 31.53275 32.46627 35.74656 39.98931 42.85072 45.88397 52.32490 51.23570 52.46145 54.37415 55.90013 59.52506 60.42827 65.60737 64.71696 72.54506 76.78059 81.92226 87.79250 92.98003 100.64767 106.40599 107.02058 108.30872 105.46824 104.54340 104.91758 100.81089 100.06716 100.30089 97.66240 99.17721 99.83666 95.62802 96.60152 98.30200 97.03919 97.30722 98.89815 98.23970 96.62552 94.88433 95.21544 98.47152 96.14472 98.35777 95.76373 98.76994 95.68077 95.90169 94.41396 95.87983 97.97278 93.82190 92.84391 96.14963 94.67205 96.17050 95.92061 95.98438 95.61493 98.54617 95.45626 98.20411 99.56363 102.44793 104.45280 103.93434 106.10929 106.48918 108.41528 107.62101 102.35671 95.42416 91.44345 88.39357 82.47054 73.71225 65.85436 61.71892 59.38617 57.00025 54.45534 50.56025 46.71541 46.43381 41.76149 40.88641 38.65608 35.15419 34.42825 34.89410 30.51891 29.12420 30.17679 27.18402 25.21654 26.53860 24.88007 24.91183 25.08403 25.61496 26.31555 26.67336 24.33597 23.42475 26.07925
25.59755 25.70109 22.38017 26.37733 24.75121 26.07315 27.56233 26.08261 26.56336 26.34704 25.88639 26.46822 26.04442 28.92149 32.77113 31.86406 32.04780 35.83574 37.38500 43.52846 42.14601 46.17353 49.12583 49.19853 45.69963 47.65971 51.31410 49.51491 54.58768 55.22624 58.00629 66.11820 66.26602 72.56464 84.36703 92.35795 99.98115 107.85283 107.79132 108.26858 109.17812 104.05170 104.63919 103.32459 100.08756 98.57161 98.20587 96.13207 97.53348 96.41838 96.43944 98.22478 97.26641 97.37253 94.99746 96.47188 96.47592 98.17873 97.60362 96.69364 97.70050 96.42382 93.88481 97.49929 95.70527 97.78000 95.16326 96.90946 97.05038 93.80229 93.66524 94.57189 95.09819 96.65123 97.22025 96.96448 100.09210 98.96448 99.82272 97.38982 101.60025 100.92894 103.92821 105.90950 106.45563 108.12880 108.63300 107.13524 104.69550 99.02774 90.86090 87.92429 79.53121 72.74921 67.61883 64.61543 58.30450 54.85984 47.98145 48.72692 43.70038 40.94751 37.80708 36.31552 31.92371 32.47425 33.79931 31.48615 31.08548 29.70841 29.17543 28.14961 26.94893 25.65202 23.83327 26.64512 26.88286 27.10610 26.68367 24.38885 25.52003 25.04511 25.47963
27.44867 26.09211 26.02172 25.63444 25.39187 25.93426 27.60338 25.85710 25.19986 25.98276 29.44061 25.79737 27.35159 30.47821 31.22256 34.06422 33.67507 35.83999 38.57445 40.17866 43.37058 43.20175 43.56941 43.22171 41.67112 39.77550 44.17186 41.08897 43.73233 46.36732 49.45252 59.12649 66.51596 70.58347 80.62526 92.45773 98.58859 103.44093 108.55602 106.91542 105.49295 104.15034 98.74990 101.27708 99.80475 96.45957 98.37599 96.54842 99.33650 95.76435 96.74018 95.43497 97.68815 96.53057 95.66710 95.72008 98.21421 97.46150 95.72527 96.30759 97.70976 96.70512 98.16568 96.59930 97.90261 96.12938 93.65396 96.25781 93.80115 92.02484 92.87983 91.12730 92.13956 95.03456 97.69426 98.76540 99.35426 97.78354 98.63534 97.03792 100.16668 100.17978 102.48979 104.63030 106.30328 109.43138 108.34510 109.25607 102.61384 100.40604 89.18950 84.98654 77.68017 67.78435 64.89802 55.44324 51.31433 46.93567 44.12158 40.51402 36.56553 35.36279 32.81006 32.19327 32.65872 31.16828 32.74596 30.31048 29.43025 28.75824 25.20934 24.72442 27.70164 27.15316 25.04153 27.63441 26.76894 27.59774 26.98630 25.32356 25.39013 25.41853 25.63456
23.44696 26.10601 23.98863 25.15395 23.73378 23.36649 26.10119 26.98950 26.96359 27.72945 28.50050 29.02857 29.92744 32.69465 31.58429 32.81000 32.52155 37.74966 37.32588 38.34362 38.16162 39.29127 37.97712 36.59534 37.53021 34.36613 37.20731 39.71086 44.57345 51.78601 56.58669 62.02144 69.03395 73.53095 85.79436 91.69790 100.06400 105.83755 108.36505 105.39725 107.36850 105.14476 104.15338 103.41777 101.88923 98.56550 97.48565 96.47512 95.05759 98.21283 95.98875 95.20838 97.24181 97.16265 97.37251 94.64609 96.59116 97.19100 97.97554 96.64070 97.98212 96.55911 97.28023 94.50835 95.96798 97.00342 93.99501 90.99102 89.24636 92.97241 88.74676 88.88786 91.20337 94.62611 96.36632 98.49676 97.88834 97.05200 98.33892 101.05128 98.08313 101.65150 100.50187 102.83889 105.32262 106.19715 108.20134 108.38466 104.84128 97.86029 90.37876 84.14362 79.73244 71.96300 66.67955 56.63395 53.12477 47.15217 40.28398 37.36474 36.35267 33.19226 32.96440 28.71763 28.48574 28.13029 26.70357 27.36161 29.45274 26.46180 25.51013 26.64108 24.99357 25.96369 26.46512 24.68255 24.89709 24.06191 26.06869 24.98327 23.16075 25.16415 24.66074
26.77369 25.99951 26.24156 25.93210 25.66715 24.76788 23.52453 25.71826 25.62736 26.58439 28.34055 29.33326 27.17920 30.41826 29.13069 30.02255 32.54382 33.95993 32.39431 32.81870 35.10817 34.68994 34.23074 31.52983 36.42336 38.09205 42.68886 41.78496 45.11372 49.40105 54.72910 64.26963 70.08218 79.59988 87.05293 93.36720 103.70054 107.24730 108.81111 108.56296 105.53716 102.17987 103.90546 98.91505 100.73718 97.57160 99.71695 97.48369 96.92664 97.38974 98.06912 97.66440 97.28468 97.90122 98.94670 98.35898 99.04616 96.49866 96.15124 95.79881 96.88160 99.28323 96.69204 94.78103 95.03502 91.29597 93.10575 94.13464 87.72081 87.31299 79.30212 82.26720 87.35650 93.88501 91.59056 98.12328 97.42729 99.00202 98.89126 98.30957 97.97722 103.24284 102.69560 103.53133 105.39675 109.64877 108.33537 105.53555 101.68682 94.76067 87.30772 80.91316 74.52177 61.22411 60.42937 53.69766 53.12916 47.80962 46.43508 39.33963 36.04914 36.12661 31.03132 28.41083 28.16076 26.41082 26.88478 28.50038 26.52436 25.78825 24.92109 27.13794 26.99905 23.26843 25.47609 24.63094 24.39838 27.06633 25.53223 24.40409 24.02594 25.83573 23.48406
23.27613 24.29691 24.91089 23.90219 25.85891 25.70273 26.94358 24.21288 25.59928 24.97132 24.43654 25.48078 28.46697 27.63175 27.26188 28.52316 28.52736 31.53593 31.25671 29.45264 30.86408 29.66671 33.25521 34.67804 39.76166 40.85319 46.84918 46.94352 49.27912 49.96986 58.63330 63.28757 69.49583 81.72264 87.62520 94.09336 102.45770 106.21107 108.35801 108.02984 104.80707 103.38479 100.22960 99.87589 101.36321 100.66072 99.19068 97.21339 96.53368 99.36083 97.43135 97.26968 97.17168 96.99617 97.05534 96.59932 94.96676 98.28351 99.03183 96.83247 98.20815 96.84593 94.18752 94.79087 96.00740 92.56281 87.91799 93.22874 94.39978 88.34575 72.74242 74.31067 82.04183 89.48860 91.48289 94.08155 97.93535 97.66849 96.94981 97.97744 97.91551 98.29152 99.88302 102.89959 105.36095 108.45234 108.24987 107.96191 102.60870 92.96965 86.74503 77.04636 65.73660 62.71806 52.87909 49.46048 41.76122 40.32678 41.50384 39.16065 32.34920 29.99554 32.58165 31.46860 31.23333 29.12510 27.52555 27.83306 25.42013 25.19620 25.52896 26.17814 26.79052 24.66277 27.20476 27.66916 25.49354 25.44299 24.45842 26.14708 23.79149 26.37901 24.99474
25.49931 24.95998 23.78972 26.28414 25.43934 24.00322 23.93031 25.51809 24.57808 23.66736 25.74067 26.12411 25.55280 26.62727 26.95099 26.46977 28.43658 29.01217 28.22158 27.94968 28.55001 29.94979 33.73978 39.46705 38.76848 44.43930 48.93094 54.40649 58.05385 60.78247 65.74324 70.38491 74.80750 81.75281 91.31826 95.00568 98.70726 104.17639 108.23503 107.42748 105.03231 104.52535 101.70585 99.98323 99.77268 97.69759 99.36449 94.32342 96.63495 98.37696 97.05470 97.74407 95.11478 96.39686 97.55828 96.23340 97.92972 97.82059 98.94888 95.68501 97.09520 98.04336 98.00659 95.49449 95.68012 93.49161 90.14345 83.48930 85.94875 88.55639 73.10816 77.71438 85.55813 92.97229 93.53794 96.97417 95.94666 97.50647 96.76005 97.38401 99.85674 102.16140 101.66998 102.47216 104.34038 107.08431 108.73648 107.15561 104.82669 96.55007 91.59087 77.09856 73.41476 69.87622 58.12445 50.72255 48.31284 40.31010 38.83749 36.53578 37.39182 32.38792 38.15696 36.35867 33.39816 32.78612 31.87398 31.55790 29.91813 27.24761 28.13190 28.32803 27.73186 26.12722 27.29371 24.39640 24.98574 24.03394 25.81343 25.09768 25.87232 24.55358 25.09666
27.69198 24.49461 25.92149 23.60593 25.12171 25.94195 23.16221 25.05283 26.38289 24.71682 24.92653 25.56681 24.41407 26.22809 25.36252 26.24272 27.61104 29.31313 30.23943 30.67553 29.74319 32.27954 31.89450 38.66697 44.03038 48.40662 52.64254 60.86619 63.40147 65.67311 70.61784 71.12448 73.48818 80.87935 84.19225 89.22413 95.65715 100.96873 106.38183 106.20249 109.31062 104.61354 102.88480 101.77330 100.27724 97.65485 96.59678 98.46111 99.00703 97.31281 95.04664 98.42835 97.15147 96.75233 97.20824 100.05266 99.78885 98.83519 97.44200 96.02939 94.46700 97.19227 98.80181 97.02153 95.28825 95.29916 95.41695 89.12444 79.24370 76.76898 67.84148 66.47729 80.25199 88.39810 92.94419 93.37667 94.81610 98.11994 98.67085 99.64951 99.35433 102.29669 99.59983 103.82632 106.29354 108.48067 109.81236 107.21219 106.50685 101.05742 91.93603 91.63068 81.42180 75.76752 67.21783 60.84150 48.18140 45.75461 46.14874 42.08806 44.38493 42.12946 38.57586 38.98921 35.20150 35.50296 34.49162 31.64137 32.18809 31.47703 30.44184 28.59770 27.77701 28.36563 26.33099 25.55242 25.82246 24.89290 25.08944 27.75275 24.54041 25.20676 25.54107
19.50755 23.79524 23.43170 24.20862 25.88212 26.26836 25.53842 23.82566 26.51934 26.21821 25.79822 25.09103 27.14909 26.94414 27.41882 27.32455 28.31236 30.53210 30.40804 31.46760 32.21849 35.65214 38.78506 43.13703 43.14878 45.77599 53.54122 55.58130 55.93195 61.34943 65.68353 68.44741 69.61915 73.35930 77.70282 79.84029 88.64370 95.95129 102.92257 107.77226 107.97520 106.20210 103.12249 102.39203 102.81808 99.33147 99.84754 96.25443 97.88734 97.77366 96.98160 94.49662 96.33131 98.21896 98.69021 96.44347 99.01675 97.46093 96.17923 96.77322 97.63958 99.60674 96.57908 96.53766 97.28501 93.82285 94.63966 91.91025 79.84613 70.50532 68.44471 66.63626 68.30231 74.44969 79.83877 86.10517 91.98161 94.57371 96.98341 94.90925 98.80932 103.75788 101.36475 105.69794 106.53392 108.83073 108.25056 105.99876 101.10969 101.90768 94.95641 90.20567 85.12615 78.55758 73.03280 64.93229 60.28921 54.63917 52.84005 51.23030 46.94281 47.51019 43.90286 40.35944 37.78744 36.21468 33.65812 30.89295 30.74462 32.86317 31.25073 29.37953 31.24212 28.50858 26.99540 26.49237 28.07025 27.11092 25.62248 24.48081 23.52257 24.63573 25.09983
25.17203 25.38909 26.65756 24.60760 25.97958 26.77258 25.33777 27.22813 26.75998 25.86211 25.57070 25.91508 26.69255 28.82522 28.68717 29.38572 26.54871 32.05993 30.95721 33.20036 33.53956 37.33148 36.29564 42.91188 41.89764 47.15027 44.31888 45.98320 47.43476 57.82162 57.18938 59.05475 58.30383 66.19802 68.13868 78.52788 85.18942 89.85777 102.04626 106.49602 106.02045 105.44458 103.42600 102.61861 99.34567 99.57540 98.74333 97.74058 96.98084 95.58063 95.91805 96.32528 97.52502 98.28548 99.60751 97.10014 96.62190 97.84756 95.74114 96.58997 96.67041 96.99800 97.36643 95.67244 96.76238 94.50054 87.57082 84.20076 79.12898 78.23302 85.26119 84.49535 71.95226 60.21110 66.32947 77.59532 84.88015 85.67421 92.18730 90.81992 95.97264 97.17263 100.89540 103.67094 107.25914 108.42103 107.33599 102.85856 96.57953 96.52939 92.35509 87.52975 84.85937 76.55269 74.07523 69.21829 64.12266 64.69871 57.57427 51.44321 49.67391 46.29086 41.35219 39.08252 37.99525 36.48381 35.62490 32.51073 29.97450 27.61802 29.30010 30.79425 27.12526 28.82138 28.99123 26.45053 26.81802 27.62680 26.08165 25.57563 25.98633 25.59774 26.06472
22.60626 23.70492 26.32308 26.40946 25.43280 24.08589 27.99165 25.55497 24.74925 26.02429 28.52539 28.80796 27.01888 26.41511 28.50226 30.51176 32.64760 33.28043 34.14862 33.78314 34.71006 35.60990 33.73453 32.45458 33.75173 37.19402 39.87847 39.39611 42.88607 45.09385 49.62218 51.37509 54.35082 62.95176 65.21732 76.05381 84.55405 91.02957 102.15445 101.67782 107.35880 104.92351 104.48334 102.23410 103.40002 99.55139 96.61793 99.95039 99.96331 97.21388 96.76185 97.77807 96.39246 97.71024 97.24116 96.17791 97.19394 96.28207 97.21887 98.18547 96.69462 97.02040 96.79720 96.38527 93.66375 91.33192 87.09628 85.41256 83.84142 88.39645 91.29991 90.72343 85.18683 74.90314 70.81977 58.75899 74.44364 81.27313 81.32802 75.00092 87.29357 95.03379 102.01838 104.62102 107.39251 107.86904 105.28802 98.98111 92.79318 83.57557 83.78750 76.68116 72.26808 72.39304 69.40716 64.27049 64.66707 60.15126 55.57574 51.14407 46.26320 44.30893 39.30872 37.99197 33.01278 33.31561 30.82804 30.21163 28.25083 27.71196 25.88362 27.69536 25.63056 28.81887 27.04161 25.42932 26.98506 24.48170 24.92263 27.81472 25.51287 25.65869 23.44469
25.59242 25.38050 24.79273 26.49497 25.43180 25.56181 25.81810 28.42024 25.74231 28.71828 27.88120 26.82946 27.66296 31.57423 30.49798 32.71744 31.04561 32.59249 30.55398 32.41349 29.39344 31.74935 30.34210 30.71467 32.69058 33.24816 34.76429 35.77969 37.81677 44.03507 46.41666 54.25134 59.81325 61.75091 69.23700 76.81878 84.99279 95.62023 101.06417 106.08404 107.68474 105.42544 103.17142 102.05201 101.53773 98.71168 99.61169 98.47977 97.04231 97.79138 96.07482 97.51540 99.18852 97.33031 97.76057 95.04602 94.97643 96.95021 98.83610 94.41310 94.09689 95.66171 95.71285 96.11459 98.66628 96.45947 91.62659 94.69766 86.25424 86.18267 94.83823 94.46235 91.33608 92.51438 84.27368 62.72916 64.51673 67.81998 61.06281 63.56320 82.55932 90.84055 94.59469 100.87737 105.85729 101.49471 100.63718 95.37186 93.02118 79.40168 74.25574 69.08953 64.42870 61.17186 61.27662 62.53480 58.67046 56.96162 51.42275 52.58203 50.36688 48.83182 45.56912 38.68049 35.91994 33.25296 32.26562 31.72825 30.12263 29.57271 27.43782 27.46211 26.47026 28.36813 25.70038 25.45506 25.66755 23.86314 25.19296 26.56807 26.41017 25.42588 24.99840
25.30970 25.25899 23.55237 24.77438 25.37517 26.43088 26.61252 26.12009 26.36002 27.73377 26.93673 27.39684 29.25575 28.00992 30.36150 29.29666 29.62764 27.33223 29.82031 31.15783 27.38554 29.07954 30.05662 34.57930 35.90229 38.36281 38.97047 41.67963 42.62670 51.18888 55.22308 57.27710 66.69465 71.44397 74.94782 84.21408 88.79724 97.76587 103.78942 106.98643 108.66443 106.18476 105.84802 103.93163 102.00385 101.14676 100.49390 98.28691 97.15288 97.80229 96.06667 97.40836 97.31264 97.58625 97.07959 97.30197 99.50083 98.38459 96.52331 96.32956 98.60656 96.24722 97.96040 96.10226 95.97677 95.07339 95.37932 94.21042 92.46113 91.26483 95.75006 98.56283 94.91859 94.38875 77.82771 67.93037 61.27435 61.12455 57.44767 58.81170 77.41067 81.77594 82.85190 91.88481 93.27829 93.45108 92.16983 87.78537 79.64309 81.49040 69.62730 62.69074 56.32978 51.81411 52.71964 54.36690 51.53818 50.05557 45.87685 44.65052 47.54234 46.18923 45.73224 43.46902 39.57864 34.58166 32.96994 32.20338 32.39868 32.03693 27.86796 25.75887 24.77226 26.26287 25.04157 25.13181 27.12081 26.43248 27.20027 24.75979 23.78638 24.20664 26.29856
25.51688 25.24309 26.81626 24.96617 27.11993 24.29535 28.57384 27.43861 26.48614 27.27695 27.27442 27.51959 26.07381 27.51240 26.59542 26.70153 28.24420 27.73987 27.66976 26.54112 30.89206 31.31562 34.34093 35.36600 40.35563 43.97607 42.93794 50.68995 48.76530 55.97452 62.61368 66.47640 71.73768 80.69972 82.33451 84.76005 91.32877 96.36434 100.05284 102.67898 103.45456 106.27723 105.46786 103.41190 104.51259 100.26779 99.66116 100.40118 97.36373 97.26635 99.48767 96.03152 98.67553 97.28599 97.93411 97.57718 97.27074 99.04685 97.67479 95.23509 96.81923 96.97782 96.00594 96.16354 95.32659 96.50686 97.27292 94.98629 92.62191 94.37024 93.62432 97.11394 96.85111 91.40504 88.26427 81.72760 76.50322 71.81027 58.69308 51.54715 61.04201 55.98239 65.61942 69.08665 79.24020 75.43333 68.48904 68.67748 71.74942 71.37605 68.76601 64.87882 53.96819 50.96993 45.00697 45.60214 44.30765 41.43189 41.40498 40.03097 42.36157 42.92734 43.36822 44.18586 41.31984 38.41608 37.63673 36.24658 34.74557 29.17758 27.55037 27.57439 26.59436 27.64247 26.80485 25.09498 26.75766 26.61893 24.71754 25.93805 26.11711 27.04598 24.25583
24.88446 22.75708 22.34006 25.50604 25.89894 24.17015 26.14387 22.45072 24.76814 25.82698 24.35964 27.21952 26.94176 26.51346 25.62403 27.63383 22.64252 28.36257 25.32155 28.44142 34.01037 33.32283 37.81054 41.83567 42.22224 51.71044 54.57575 56.81269 57.11450 62.44133 66.20629 69.46877 72.01899 75.98449 78.33452 80.52419 82.47092 91.40599 93.55193 101.12446 105.53707 106.89194 107.40110 105.72423 104.38019 103.71981 102.89323 99.45958 98.11440 99.53843 97.98884 96.35565 99.60766 96.52523 97.27619 97.31962 97.13548 97.79404 96.36299 94.64191 98.41635 96.44873 95.26818 95.96936 95.47465 95.98417 96.22151 97.68589 95.46726 96.98151 98.25673 96.24749 96.16837 96.29782 96.28290 93.01380 90.71279 78.37296 71.73797 60.23673 51.55670 42.73301 46.53532 52.82369 58.97669 55.81784 54.46830 46.75493 59.66519 57.79254 59.33451 58.78921 57.71006 51.41215 47.81223 41.53118 39.20588 36.43722 35.13357 36.65384 37.25839 35.27366 39.68861 37.06574 39.95544 39.49274 39.70059 34.87906 32.70573 30.83538 27.95847 28.88528 28.76048 25.54971 24.61282 25.64801 24.95494 24.92753 24.84193 24.56440 25.84926 23.10454 24.39594
25.41877 25.70051 24.31851 24.70141 27.26698 25.78453 23.90734 22.98866 24.58917 24.51356 26.07085 22.82331 26.65376 23.83923 26.91209 25.47454 27.17210 26.14755 28.03501 32.34967 31.65138 38.76518 40.07004 44.60521 48.49787 52.29748 57.04671 61.88552 62.06015 66.51044 67.91397 67.00228 71.61149 71.03124 69.11115 70.60447 72.83331 79.27765 91.41968 99.51401 103.69927 108.71549 108.27640 106.14507 103.17358 104.62958 100.57436 100.15689 100.42521 97.81427 98.48094 98.38496 98.24708 97.32116 96.95427 96.23271 97.73546 98.86592 96.20924 99.29564 97.92613 97.01373 97.79996 97.69930 95.09309 97.28913 98.60254 95.61853 96.58080 97.19979 97.48753 94.83946 95.72983 95.49905 97.73504 97.11996 96.27105 90.00013 85.72359 76.83735 60.53954 58.95633 55.20197 52.44393 43.76018 36.76657 41.00448 34.69968 31.96595 37.38980 45.79705 49.95351 47.00693 49.57823 50.51592 43.07651 38.44080 32.85208 33.41785 31.18211 33.31702 33.72960 34.29211 35.13600 38.88517 40.07982 38.77670 31.69892 32.99067 30.90037 28.41196 27.22395 25.26775 24.95926 27.85785 25.23696 24.23121 24.22017 25.65177 27.90070 25.11208 23.65037 22.91823
22.11354 26.13390 27.03234 25.82386 24.97476 26.40866 24.59281 25.10537 24.29670 23.81099 26.12044 23.91525 26.00476 26.88060 28.15199 27.80943 25.79201 29.68016 31.36351 33.30111 33.24282 39.41351 38.60436 41.47120 49.13435 51.15776 57.18894 58.31601 60.77637 61.97698 62.05924 61.24737 64.41567 61.13185 58.52995 63.42512 68.93029 75.84864 89.47832 98.91250 103.41454 108.16521 107.84345 107.51564 104.16223 103.63915 103.15678 102.82566 101.51563 100.25756 98.40254 96.79700 97.78608 97.57477 96.52638 98.70859 99.36957 98.36656 95.14255 97.17354 96.85319 96.41189 97.08006 99.32979 95.18157 94.95238 97.27950 99.19934 97.12285 99.24138 95.08827 96.73802 98.10935 94.71478 100.74309 99.42303 99.47976 97.94830 94.89184 85.44035 84.39559 84.36523 76.29425 74.10444 72.16323 67.41284 55.77253 46.60295 44.65437 38.58360 34.40052 38.53497 36.28928 38.41062 43.63155 45.73884 41.28297 38.67897 36.08360 32.74922 27.74549 30.26557 28.58699 30.82281 33.80877 36.73173 37.49851 33.34566 33.71687 29.37537 26.85358 24.18168 31.10275 26.24132 24.82293 24.29303 25.05561 25.58323 25.72962 26.91533 25.06874 25.22513 25.91269
26.90422 26.46862 23.75782 26.39080 24.76020 26.06515 28.28468 24.07547 23.45282 26.57041 23.69774 24.85741 27.74041 27.72667 28.49158 29.73301 29.36841 32.86621 29.98402 33.86325 32.16598 35.95486 39.94522 39.96191 44.14821 50.90123 54.53509 55.82256 55.14151 54.63339 55.59211 54.42752 54.68149 51.17825 53.78695 62.80658 69.72617 81.93237 89.08545 97.43561 101.17445 104.49928 107.26648 108.29933 105.62662 104.84142 100.96410 103.58565 101.38042 101.51492 99.91822 98.25227 98.10574 99.31173 97.09576 98.74659 97.99651 97.53772 95.06635 98.05407 97.09779 100.23442 95.38106 97.34506 98.00216 96.75082 96.07164 96.22119 98.57657 100.10826 99.93937 98.61800 99.13198 100.49366 99.55272 98.78383 101.64560 104.83187 100.61895 94.63968 93.16855 96.96082 93.83023 89.12682 91.76031 77.15328 73.49431 63.45208 59.17602 44.80984 32.58180 29.59975 28.34209 36.43704 37.32034 39.43710 41.61948 36.80143 35.78040 29.83633 27.26248 26.94498 27.20575 29.40500 31.06663 30.52397 33.84044 35.22412 30.70889 31.28107 30.92938 27.77772 26.60861 24.75297 27.53575 26.67918 25.19304 23.83002 26.80556 26.44026 24.35741 24.24391 25.09146
25.69272 25.72551 25.80823 25.77007 24.22593 26.19829 25.42786 25.50676 25.79268 24.34386 26.21076 26.68575 27.01718 27.54113 29.83210 29.68733 30.46167 29.47701 27.22130 32.53664 30.97374 32.15267 36.17790 38.49470 43.88746 47.11603 50.86191 52.07794 50.47684 47.49181 45.75453 43.18510 47.33422 50.47747 59.91035 63.63481 71.95817 81.30205 90.72565 95.06074 98.72794 105.15531 107.33030 108.74450 106.06392 107.35503 103.78522 101.18259 101.46924 102.35441 102.81649 100.39906 97.92896 95.73382 97.90494 98.46162 94.63225 98.24295 98.87186 97.20946 99.54728 97.13602 98.06445 95.54535 96.60124 97.18443 97.97322 99.78211 96.87750 99.27081 96.78438 98.02809 99.94834 98.90703 98.24365 99.69889 103.06808 101.39946 100.88834 104.08519 103.23974 105.21659 104.94014 101.69388 99.87615 94.65833 86.83091 75.63932 69.45466 50.99301 44.87867 38.54700 35.17878 33.01508 30.37652 30.43091 32.44537 29.07523 29.70634 29.87186 27.48939 25.55624 27.60822 26.53387 25.82431 28.68755 30.61514 32.53292 31.46163 30.77491 30.90211 27.02886 26.33692 26.76254 24.86988 24.98166 27.05249 23.41677 23.07217 25.60771 26.34762 24.07262 26.23307
25.37691 27.01609 25.67192 24.46174 25.90954 25.41978 26.04469 25.85223 25.79073 25.34142 26.63242 26.87927 24.92450 27.04422 27.54993 28.67827 29.74607 26.91383 29.85180 29.43343 32.05954 35.63827 39.39848 42.85781 45.15180 45.84448 47.53503 46.13105 41.32552 41.25823 40.90214 42.81284 50.78750 54.58300 61.90252 72.78730 77.93362 83.21572 86.53713 89.02225 99.45843 102.15093 105.78234 107.37850 109.99292 107.17460 108.12602 103.68986 102.02656 102.51458 103.53698 100.85275 99.90163 100.62972 98.47640 99.75704 97.80270 96.35000 98.17967 100.14714 98.03927 94.91614 98.03788 99.93201 98.36619 96.96863 98.39801 97.01430 100.40938 97.81186 99.45528 99.01164 101.21384 100.12672 101.72159 102.75715 104.28969 102.45997 107.09935 106.79135 107.88821 106.73639 104.26261 101.95465 97.97594 92.67154 87.54647 75.67843 69.86453 67.93095 55.17382 51.66157 49.88487 39.94296 34.26212 32.87710 29.03745 28.06426 27.96574 25.44537 28.15284 27.52301 27.97136 25.92005 27.00471 26.98530 27.96619 30.16073 27.19065 27.10533 25.87403 26.77059 27.06424 25.49760 26.01352 24.35532 23.43180 24.29471 25.33837 24.79849 25.56110 24.95675 26.32510
25.02567 23.36995 25.64409 26.91793 24.98509 23.95467 27.25252 24.26817 27.14345 24.42165 26.33619 26.17668 27.95051 26.58321 28.15706 27.04336 25.05747 26.72915 27.42617 31.18669 29.51225 37.11530 39.66654 44.08713 44.44921 42.82316 41.00587 38.51071 38.07261 36.79080 42.07439 49.44975 55.95172 62.03399 70.79358 75.04854 76.61320 79.35702 79.16586 80.33869 92.46387 95.43837 104.87526 107.30518 109.93704 107.62589 107.64225 105.43941 104.87428 104.38934 102.03290 101.63868 102.05425 98.48273 98.92139 99.64104 99.09476 98.31571 100.55165 97.70471 97.79950 100.30971 98.96221 98.32753 98.13365 96.71495 96.49632 97.78636 100.19343 99.17973 99.65968 98.14352 101.95246 101.06127 102.18743 101.70187 105.94732 107.07225 106.24501 107.84999 106.91822 109.29923 104.91873 98.54532 93.32892 85.69377 85.29463 78.10197 74.88884 69.68134 66.98719 61.04250 56.96682 51.58573 43.94008 37.54681 32.41354 30.33992 31.79158 30.89795 31.05360 27.71586 29.38388 27.91821 25.08346 25.97838 26.39965 27.12203 26.04816 25.22607 26.61686 27.83774 28.01266 26.15017 24.93691 25.42427 26.32188 26.35341 26.32208 25.57938 26.82740 24.54723 24.45611
26.11747 24.29209 26.84745 25.01548 22.96547 26.32660 26.50526 25.82627 25.27167 25.31741 25.77851 27.15325 25.05819 26.55784 27.23496 27.82112 26.56035 28.99756 29.35154 31.83804 35.10065 37.09732 38.42381 40.17537 38.53417 36.78938 36.50718 32.98559 34.53286 38.75892 45.81852 51.09636 59.59340 61.92303 66.47095 71.42049 75.37531 72.72567 72.35030 79.94095 87.27426 99.35259 103.68454 108.91504 110.01008 107.09710 108.16534 107.39521 106.79989 105.74138 103.36148 103.38265 103.24881 100.67847 101.71678 100.18895 99.24075 99.33000 101.00875 98.22678 96.76894 98.56820 98.08033 98.12172 100.49309 101.43936 99.92077 100.92561 100.34608 97.82090 101.37876 102.02056 102.47393 104.69018 106.70212 107.06124 106.99226 106.72604 106.41196 108.14866 109.13503 100.24472 101.90629 96.89846 86.20252 77.86872 72.21284 71.01673 66.46398 67.07600 64.05883 63.72189 60.34829 57.54484 49.65453 39.35630 35.74404 34.44824 36.16729 36.47861 35.04880 30.01574 29.39461 31.36841 26.76172 25.14086 25.92498 25.89949 26.53007 23.17121 24.86558 29.47587 26.96519 24.68149 25.83886 23.13439 26.47986 26.46831 24.99593 22.66120 27.50481 24.41245 26.32351
26.41032 25.38197 25.76218 25.72060 26.24935 25.77169 24.01754 22.88716 26.23456 25.27220 26.21400 25.64552 25.89007 23.87501 25.71683 25.12907 27.38397 30.51925 29.67795 31.73314 35.83765 33.65708 35.22231 35.68565 35.18130 36.42164 32.26541 33.19720 37.57558 42.19660 48.20291 52.34361 60.02986 62.13732 64.08429 62.15824 63.67128 66.02459 73.08173 85.24628 90.70646 94.23783 100.08657 102.13788 105.67959 108.47353 108.08538 107.56112 106.75604 104.81577 104.79906 103.98808 103.98534 101.54919 100.52677 103.36839 100.30318 100.39533 99.80871 101.08476 100.03505 101.12367 99.40057 101.59802 100.48398 98.36444 99.73223 100.52929 101.81797 101.90746 99.94404 102.76255 104.29786 106.28061 104.78348 106.64518 107.42019 110.16757 108.02244 106.59482 99.25895 102.21979 97.34280 90.66360 83.08550 73.23784 66.07953 62.66480 58.22752 62.20266 56.90350 59.92113 59.05350 57.04134 52.31425 46.43152 41.24488 44.79559 43.89983 40.02775 38.55557 36.00767 31.61684 31.22636 30.89442 27.61019 26.14569 23.06485 25.14646 25.39305 25.58720 24.50827 26.60808 26.48053 27.08201 26.11512 23.26462 26.14272 25.12894 25.78599 25.35362 24.54171 26.41358
24.15381 25.76205 26.26305 23.85912 25.22088 24.51736 26.20376 24.03228 23.66872 24.98408 24.67267 25.34662 27.30114 24.78667 26.00264 26.07201 26.73367 28.87673 29.94663 32.69590 33.14329 35.36793 33.86883 31.86797 30.83041 31.27836 30.96263 34.08375 39.35506 43.54135 44.50050 48.42581 51.19601 49.25967 51.98889 58.03951 65.11969 71.09709 76.24901 81.92490 84.76169 90.95928 96.32622 97.95721 98.94561 104.38599 104.00781 106.55927 107.94045 106.18234 108.43822 105.57796 104.83736 104.20359 103.78758 102.52672 99.87748 102.98687 98.17861 101.31163 101.30248 100.44402 101.74053 101.15050 101.31993 100.41732 101.38124 100.88699 102.09085 100.44305 101.49339 105.67799 103.74696 107.21189 106.43547 107.66687 108.01112 109.88502 105.79536 100.15124 97.94316 91.23300 93.12389 88.70408 86.73202 75.33755 64.02494 55.78583 52.09971 51.14248 51.94505 50.64759 52.95683 51.95745 52.69365 51.20925 47.72761 47.43208 50.76048 45.22406 41.08738 36.41993 35.53704 32.50630 29.50035 30.16288 28.09415 23.01946 27.24157 26.32570 26.58630 25.60299 27.27897 26.75378 27.53414 25.15489 27.32715 22.82411 26.24409 23.83282 25.43013 25.17025 25.57585
25.46341 23.70983 24.78659 24.75092 22.20926 24.71216 25.00101 23.30192 26.08171 26.73972 25.02023 26.08466 25.56353 24.21026 29.11163 25.61596 28.35701 27.84131 28.41034 30.78119 29.78820 30.17428 29.79318 28.19963 30.62083 30.69727 33.87756 36.32378 40.77373 43.12227 42.43049 41.69197 45.56853 48.14378 53.84986 59.42440 65.01291 70.75998 71.71052 74.78660 77.11470 84.04987 83.88995 92.15072 95.74061 99.41222 99.78071 102.25270 105.45536 107.31631 107.59889 106.46215 105.96731 104.38663 103.29669 106.56587 101.70338 101.84162 102.57860 104.33050 103.11138 102.60906 103.95625 100.41938 103.82026 102.31595 101.57831 102.19490 104.07094 104.12503 103.63876 105.49217 106.78856 104.87174 107.13621 108.78356 112.02075 107.91842 101.32033 95.41598 90.21716 88.96447 82.66897 81.01711 77.85987 71.29181 60.98980 56.98411 49.97428 44.48271 46.29843 44.86582 45.17535 48.16339 51.85140 51.92762 53.14051 50.54264 51.00750 42.65718 39.75256 38.01854 36.78171 32.49709 33.49988 33.19372 26.42641 29.13147 29.10973 25.11841 27.53862 26.06923 28.48484 28.00411 26.33027 26.88286 24.47689 27.06153 25.50564 23.09565 28.17979 27.76631 25.79630
26.10045 28.16393 24.99640 26.21614 26.75613 25.75362 25.07924 27.01777 26.23677 28.22149 25.76688 26.17003 25.66164 25.66439 28.67386 26.09993 27.21607 26.23348 26.85883 29.75605 27.38532 30.25506 28.50694 28.23504 27.91777 33.03156 33.32970 34.91050 38.21044 39.10250 39.66360 37.62157 46.37348 50.42341 55.92089 63.17257 71.71203 70.92325 70.84297 66.70594 67.84080 78.06842 85.32126 88.02406 90.70015 87.01344 89.91191 95.18533 99.54333 108.86109 108.50901 109.21455 107.99899 107.15117 106.23621 106.40284 106.12072 104.47398 106.09539 104.53795 103.16266 103.11951 105.46209 104.71243 105.73491 105.09963 105.33576 105.12271 107.48093 104.85875 105.88889 105.75585 107.71018 110.27009 109.51829 106.14918 104.55072 104.28900 98.39527 91.90260 82.52943 77.12635 77.36868 76.65617 70.60378 67.19536 61.03348 51.56079 45.63021 40.25515 39.77163 40.24752 40.02466 42.23070 43.38905 45.77458 49.02554 48.37260 45.71166 42.11919 40.43165 34.54917 35.63922 32.72500 30.95429 32.50634 29.61667 30.87102 27.93621 26.92527 26.86544 26.34645 25.07044 24.79808 24.89443 25.91967 26.69628 22.79130 26.84508 24.61064 26.03694 22.99646 24.55277
24.33800 25.70636 24.69556 26.95744 26.03125 26.02690 23.73268 27.17323 24.61383 25.70922 26.34793 26.07187 26.17795 24.88036 25.54587 25.82852 26.38360 26.13859 27.16264 28.69224 28.05791 27.49577 26.32085 30.95374 32.95355 30.42614 33.96858 34.59142 32.90020 35.08980 36.82053 39.87873 47.77449 56.04256 59.74219 65.23760 69.17423 66.20862 62.11418 62.80702 67.56376 79.42748 79.79973 77.48242 74.40089 74.02492 87.03802 85.50823 94.30010 100.69538 105.42533 107.23182 109.03907 107.11666 108.31405 108.77546 108.91240 107.70425 106.21366 106.64426 106.88600 106.53468 106.93026 107.23674 103.97461 105.25762 107.18249 107.49184 106.82843 105.73170 105.26172 106.81994 112.46292 107.19821 108.05751 106.92360 105.52938 100.50583 96.23352 90.87644 80.62963 73.59418 70.51574 70.63250 68.88197 65.66387 60.74611 51.48618 50.03604 41.47830 37.46629 35.79408 34.14132 39.36329 38.05516 40.24747 42.96702 44.27310 42.43075 40.77113 35.78466 30.97414 30.99824 30.46269 30.09745 29.98209 27.73144 28.47096 28.54905 27.18822 27.90404 28.33511 25.85246 26.86771 26.75820 27.16015 26.69884 25.72406 25.93100 25.72731 24.21034 24.92935 24.52148
23.41350 26.84956 25.39599 23.84162 24.46586 28.13772 23.67740 25.43668 24.36560 26.10564 25.73847 24.36294 26.53656 25.31252 24.67239 25.05314 23.73844 27.40649 27.68242 26.43616 26.79764 29.65391 28.18159 29.90710 29.35316 30.69920 30.67689 31.03905 31.95154 31.70757 37.55542 41.40521 53.02033 55.90608 59.69188 62.79817 58.77474 59.24108 57.65088 60.51846 71.14495 74.20262 71.32106 67.85747 65.30211 70.20272 73.24380 78.84899 87.75927 94.70335 102.48974 104.89156 108.61182 110.83832 108.61200 110.93917 109.44783 110.63275 109.86672 105.80108 106.97545 107.67351 107.99257 107.30036 108.66507 107.66193 108.87279 106.01157 107.56426 107.09373 107.99685 105.80068 108.16493 103.85617 104.51288 105.62307 95.29607 92.70650 88.69085 84.88660 80.60788 69.57319 60.92241 64.40201 67.21499 65.75880 63.16112 61.83664 53.33880 53.05917 45.68645 38.51201 33.53874 32.47479 35.69486 36.49757 41.40731 43.05786 40.43763 40.40783 35.17528 31.38850 29.44236 28.23327 27.38315 28.72129 26.28540 27.31726 27.75426 26.65492 26.80218 25.58766 27.98341 24.75782 24.95168 24.92229 27.31062 24.13284 26.10858 23.66878 28.93043 23.76452 24.56305
26.03467 25.95686 24.48878 28.23945 24.30788 26.40218 24.75252 23.34850 22.95675 25.18514 26.09215 20.77142 27.31459 25.34777 27.03948 26.20016 26.14654 24.87057 25.56761 26.81188 26.24326 27.34657 27.75882 30.75975 26.47183 28.78040 29.81750 31.00386 36.41140 37.16403 41.70198 48.36029 52.11845 56.46058 56.82019 57.67829 49.84045 49.17603 57.02270 65.44872 70.89455 70.85438 67.41296 62.15201 55.24547 57.99146 66.15055 70.02989 79.20686 87.23925 98.58178 102.45639 103.73092 103.00176 107.07629 110.73510 108.98167 113.22167 109.92584 107.15878 109.60338 104.51138 108.05268 108.27247 108.38982 107.58566 106.51376 104.77747 105.58201 103.79189 103.26856 103.80555 102.78141 97.77899 96.44750 97.54742 96.74672 95.08023 87.08031 79.83680 73.24305 69.23798 57.18685 58.60004 58.99427 57.80104 59.17955 59.74877 52.58871 53.49917 42.40833 39.65936 34.86156 32.33013 30.27996 33.25167 37.24952 39.40465 38.81456 42.90576 36.80592 34.27691 31.61178 30.02514 29.31102 25.29363 24.59108 25.00743 25.54619 27.98162 25.28690 26.17875 25.61557 27.55161 23.32334 25.56730 24.84984 25.46958 24.92687 26.03278 25.13669 25.88238 24.10318
25.59709 25.23583 22.11074 27.34424 24.79489 24.94098 25.31957 25.63404 26.02481 24.18111 25.07234 26.48665 26.11086 26.62580 24.04565 29.78134 25.63899 29.32513 29.33904 26.91764 28.20107 26.80179 26.64380 29.59413 26.81052 30.53321 30.82058 33.44772 34.07674 40.61556 43.92494 48.66842 52.10348 53.20197 47.82531 48.03757 47.01017 47.85878 55.28267 63.47047 65.92039 65.67791 63.22817 57.81156 50.49621 49.63062 58.79192 67.38730 77.94390 94.02250 95.83321 94.10158 94.16292 98.45342 102.93943 107.47732 107.69849 108.30176 106.72124 106.88167 103.92195 106.19230 104.53555 105.52179 106.99989 106.95037 101.54081 99.67901 99.52467 97.28899 93.27720 92.05605 94.40360 96.06005 89.80573 87.94860 89.47749 88.68346 79.90371 75.26073 72.36003 68.48059 58.60567 50.90516 53.75734 55.83607 56.18534 53.43332 52.84878 50.49070 42.66635 43.32616 35.25005 30.87157 28.08213 31.24383 36.01260 35.04520 38.70909 36.77720 38.11369 33.94499 32.22160 31.20610 29.68742 30.54498 26.67389 26.06294 26.45127 26.63614 25.32342 24.84942 26.71754 27.34562 25.38321 26.10408 24.15522 24.15922 24.13915 24.62624 26.18184 24.94734 26.10325
27.25509 24.49343 24.52519 25.84648 24.58977 23.37952 27.92507 26.04031 25.34368 25.74275 24.02091 25.31421 24.20481 26.64580 23.73411 22.81619 25.67745 26.52806 27.37895 24.78517 26.78642 28.67741 25.88611 27.08850 26.79984 30.47961 34.83842 35.22511 42.89822 43.39542 44.16782 49.34315 47.21612 46.72148 43.41836 43.43216 41.66625 46.75604 56.55598 63.04957 62.71463 61.44665 53.11450 50.11177 43.16567 53.85642 60.61269 72.07062 81.84576 88.73607 88.57962 90.32083 91.95914 91.97861 99.12461 103.28430 100.55410 102.49662 104.06572 98.48203 101.15070 97.85129 91.78407 95.40447 96.27258 98.04373 96.66336 95.99072 84.52497 84.61189 89.22287 86.80539 83.57040 86.30430 80.42995 79.00625 83.95573 85.23178 83.39654 69.71169 66.27821 62.12791 58.34324 51.63991 45.10696 47.85012 47.37882 46.67556 45.89063 47.19596 45.11079 41.40011 37.51975 31.64726 27.54979 29.86454 29.97033 29.55297 32.30747 34.24586 33.13452 36.06649 34.89794 32.85560 27.89973 27.47859 26.47002 25.46968 25.82260 25.08499 25.78925 24.87637 25.57427 26.10699 25.81222 26.09427 25.39734 24.42410 25.44025 24.94128 23.93211 26.31916 23.25524
22.46396 27.70574 27.44289 25.77374 24.86835 26.23729 25.33480 24.10298 25.00780 24.44072 27.21225 26.34281 23.18278 26.52659 24.52671 25.84624 24.63253 25.21190 23.99070 26.44934 27.32312 25.12149 26.16185 29.74656 29.70714 33.86190 33.74868 35.73298 37.24440 41.47517 42.78753 43.65153 39.12801 42.45155 38.27233 36.21953 43.26736 47.51341 55.20395 55.92141 52.19344 50.00346 48.62760 44.73040 44.82123 50.50993 58.27242 70.73964 78.76978 81.87887 80.12626 80.15014 87.66316 85.10937 89.93727 93.26904 95.98849 94.03424 99.98990 99.41640 92.34567 87.02352 85.76074 85.60257 92.83702 87.42325 87.83971 83.40680 81.83434 74.87880 73.78086 73.09633 75.57576 75.93206 73.83611 69.59574 71.89584 78.42846 79.00116 71.67647 64.35129 61.98606 57.38486 53.63400 48.92959 44.05525 38.34998 38.57529 41.44529 40.54106 43.37856 40.97533 34.89762 33.09824 28.22508 27.66283 30.33721 31.15158 28.87318 31.72522 33.28130 35.52605 31.92569 31.38823 31.31681 29.76767 29.80606 24.46713 24.39132 25.80338 25.11503 25.90018 25.51060 21.50520 26.19492 25.51388 26.68409 24.92826 24.90308 24.92449 24.52474 23.52212 25.40029
24.86651 25.69609 24.31044 26.46841 23.67230 25.60268 23.53359 27.76112 25.07615 26.66953 26.70015 25.48842 27.01187 24.73478 24.93458 23.44638 25.75950 27.46356 24.07055 23.62971 26.43835 24.09138 28.49723 27.96203 30.91931 34.74470 34.28262 33.41700 38.29914 39.45258 38.17446 35.93182 37.93810 37.75530 34.30789 40.55582 47.99289 49.25712 53.91109 48.36122 43.62431 45.71097 38.98138 39.71419 45.68886 50.70625 62.74212 68.31568 74.46394 76.21832 74.08592 72.69380 74.60986 79.99568 84.34475 88.06434 86.74261 86.74732 90.77924 91.19609 89.76525 78.73231 73.92628 74.77105 88.08360 86.94763 81.52482 73.64414 75.21297 74.43478 64.93627 62.37094 61.74189 65.71663 68.08267 63.83535 67.91816 74.68852 73.82004 68.54429 65.67533 53.62660 50.90107 51.81077 51.62602 45.74304 42.39683 38.18938 35.12376 37.84089 38.50068 39.97185 35.99943 35.08205 33.98591 30.04039 29.35298 25.03664 31.03880 27.84758 30.35220 32.37802 28.87139 30.28152 29.86980 27.59632 26.85861 28.13028 26.86748 25.41066 26.27515 27.12721 26.07166 27.04944 27.78395 25.41340 27.27816 24.73944 25.00659 22.97008 22.49324 25.38607 26.41188
24.87131 24.58464 25.88456 27.18582 26.95434 24.34714 25.09225 25.42029 24.85974 25.55300 27.03512 25.60913 24.57844 25.49041 24.81626 25.68313 24.29996 25.49936 28.03745 24.18448 26.00514 28.12212 27.64916 28.52940 29.95797 34.09874 30.08041 32.88350 36.73706 37.77657 34.64082 32.89741 32.77671 30.97941 32.99287 41.30001 46.58393 47.17323 50.27601 42.50478 41.53150 35.87857 38.09489 37.30371 49.53085 55.14897 62.32923 68.28873 70.89830 74.30931 72.22903 65.45182 72.13307 77.27898 80.41254 82.67834 78.84598 81.38012 81.29668 81.70366 83.50747 72.91272 68.69321 68.82450 77.60606 83.28055 78.67019 65.21830 63.02170 60.70723 56.55435 52.35868 52.87084 57.53766 60.90951 59.02625 62.19692 66.92546 70.30785 67.80467 62.43559 53.84498 46.77257 47.37335 47.92333 45.92055 46.60723 41.61927 39.24240 34.59477 35.20191 35.91695 34.84284 34.61493 35.70884 29.77858 28.70273 28.35343 27.21461 28.90244 28.32126 30.34870 31.50708 29.97160 27.54099 26.46296 30.18525 25.02938 29.05139 26.17579 24.18952 25.02630 22.60369 24.52462 24.68302 26.98425 24.83769 24.54159 21.40227 24.79105 24.92210 26.17447 24.06601
22.80082 22.35714 25.65049 25.54748 24.97671 26.55406 25.08376 26.96846 23.61186 26.23921 25.26907 24.09792 24.69192 24.18077 27.18586 26.89324 25.64507 25.48963 26.99263 27.68592 25.70022 27.01960 29.25447 26.96665 30.15297 31.78218 30.57812 33.34187 34.71727 33.07465 33.73899 29.94706 30.45709 32.05979 38.62111 41.20307 46.86647 47.43573 47.98336 36.81141 34.85915 35.89572 39.13686 46.48237 54.30077 60.00142 62.23213 64.49582 66.12480 66.84530 65.42441 61.60405 64.29266 68.39650 75.57904 71.27791 74.43810 71.24637 76.26631 80.03954 77.37607 68.65152 62.67963 63.38019 74.85014 77.98090 74.35506 64.94457 54.40478 57.96639 51.36804 48.27947 47.26592 53.15919 52.02136 53.58409 54.00081 61.25677 66.91499 68.22007 59.06196 54.16591 47.07837 37.26836 41.52655 45.06556 46.04187 43.78712 39.58187 35.59414 28.39882 34.14198 33.85512 31.79004 32.82888 32.43118 31.48210 30.16073 28.21529 27.22080 24.68258 25.93412 28.66672 26.16286 28.54955 25.65868 25.87819 27.81022 25.73961 26.75096 27.52764 23.70235 25.29354 27.18405 24.50163 25.33757 26.72565 24.83493 25.77220 26.41488 21.56260 23.34933 25.09884
28.21667 24.48617 24.86402 25.79110 26.14639 22.56967 21.36464 25.52980 25.08826 23.45671 24.50030 25.85266 23.50579 28.16623 24.00080 25.14765 24.15362 25.54099 27.20424 25.00794 26.74896 25.37962 29.01590 29.52293 28.69525 28.70641 31.06322 29.38123 34.68875 31.54119 30.91260 27.79747 28.74196 33.08077 36.31500 42.68600 44.95912 44.88465 42.17325 34.51793 31.92494 36.05908 43.69543 49.09321 53.48462 58.16407 54.15292 56.97766 56.50651 60.80567 57.57297 59.83093 57.59749 65.62607 71.60541 69.32301 65.21231 62.77611 69.36105 76.63718 71.87958 63.42581 58.99545 62.78515 68.16935 75.03365 69.76935 61.92866 49.02077 45.65650 41.83447 39.93250 42.66798 45.81508 45.50047 44.08345 52.47014 58.56117 63.25818 67.67732 61.05614 51.55898 47.05312 41.40817 35.11145 38.66586 41.52679 41.84426 37.54016 34.17509 32.95880 27.63562 28.18380 30.12200 32.73809 31.22047 31.74070 27.83690 30.26592 24.44832 24.20341 25.23647 26.38574 28.04441 25.51038 25.78438 28.21874 25.06018 24.31202 24.74249 26.27586 22.92831 26.49743 22.61828 28.72971 25.23857 24.54248 28.80039 24.03810 26.55549 26.98623 25.06366 26.19643
26.92065 24.65611 25.81805 26.22260 25.66444 24.31407 25.90609 25.26926 24.01418 25.78554 25.75076 24.36246 26.22624 26.85360 27.99406 25.34728 24.44789 25.84375 23.26894 24.69906 25.44653 26.56529 24.42730 25.30303 29.43272 28.88587 28.89633 33.50720 29.19621 29.72640 27.27344 27.40927 30.42307 35.21851 35.78661 37.95001 41.21106 38.50866 36.74838 33.41868 31.45219 34.85899 44.84994 51.42104 52.76998 52.31937 51.20869 47.41247 51.88750 53.76654 50.65775 49.43717 53.50772 62.60508 65.55233 60.52380 58.51206 60.28924 62.71478 62.44034 64.03106 58.34701 51.22617 53.49511 59.17687 63.09584 67.51692 62.69563 48.13345 43.09336 38.59873 36.56225 37.94269 39.04943 39.42325 45.37213 48.80481 61.19770 64.79248 66.09215 59.70925 52.15918 44.36331 37.67996 36.89968 38.08524 39.62065 40.97473 39.13996 36.94407 34.61084 29.25432 30.44860 27.43854 28.10418 28.95607 30.04093 29.50918 27.90510 26.49296 27.49511 25.77399 25.29479 28.43295 27.85702 24.92509 25.69045 27.48082 29.34603 26.48255 27.10971 26.48947 24.99895 25.56553 27.01296 24.62338 27.57436 25.72346 26.47877 27.00978 25.09340 26.53819 25.01293
25.86139 23.07092 25.48404 26.25175 26.32312 27.45526 25.02567 25.23080 24.74944 24.44481 25.76396 23.48614 26.52476 24.59791 25.48607 27.15951 25.79680 27.28610 23.93132 25.45658 26.43165 26.06146 24.87669 28.94054 27.18934 28.28149 28.07655 29.90304 28.07218 29.50617 25.11561 27.80346 32.33905 36.71312 38.87199 38.40605 37.76666 32.13545 30.43077 31.75107 31.76608 35.56779 43.40829 49.12495 51.97148 48.14828 43.21147 45.32518 47.46485 45.47149 43.93484 50.88933 54.40357 61.37749 63.06822 58.07071 54.97533 59.93001 62.00894 59.31526 58.93667 55.46366 49.73650 47.56180 51.82170 60.68957 67.03062 60.37034 56.14211 46.07141 40.16819 35.06506 34.17141 32.89098 36.29876 42.36108 48.29456 56.85117 60.39504 60.36237 57.95017 55.13348 45.27345 41.50049 35.09447 33.85703 36.58125 37.78598 39.60080 36.06029 36.75171 33.56083 30.66329 25.81310 28.43372 28.08006 30.27528 27.11596 30.55694 30.05425 25.85362 25.01475 26.85867 25.65109 27.76118 25.62550 24.70760 27.84191 25.71966 22.05434 25.62579 24.48937 25.09266 23.93743 22.81798 25.14353 25.27838 21.96591 24.88292 27.62426 24.45772 26.19110 25.38744
25.42188 25.80519 25.18908 26.21563 24.25528 25.47309 25.25540 25.41944 22.70490 25.00332 26.26519 23.60473 24.17155 24.79574 23.58502 25.06505 25.51314 27.56674 25.91111 22.49475 25.25799 24.64685 25.68330 28.53142 26.46913 28.37413 27.85888 29.75998 26.87150 28.25748 24.47581 30.99994 33.69441 34.91341 37.13437 34.68734 31.10736 30.03928 28.75704 32.19253 32.76209 38.33749 43.58514 47.52697 48.16563 43.33586 39.50571 40.03545 39.21368 41.82751 40.48962 45.17109 52.39668 59.01982 59.39029 50.78561 49.46638 56.49255 56.79785 55.56113 52.09173 48.33504 46.05022 45.20543 53.50357 61.13284 63.33209 62.69116 52.36627 46.32333 39.45615 34.47021 32.30689 32.53000 34.92127 43.88480 49.05501 54.99738 58.13883 59.65881 57.32639 54.66974 50.26045 42.92762 34.98144 30.07226 31.51996 31.32316 37.45720 37.30647 39.41349 33.63725 31.01253 28.33304 26.50517 27.43200 29.74496 28.07907 29.78949 25.92533 26.76996 28.84578 26.36731 25.62521 26.68235 25.62283 25.57700 28.30775 24.16122 26.32115 26.63821 25.21710 26.48967 26.64453 25.99229 28.15934 25.49789 26.81698 27.73450 27.95727 24.66426 24.21788 26.55012
23.46944 25.32200 27.30863 22.01506 26.25290 23.25932 24.14661 25.14891 25.38776 25.23789 25.12053 26.28394 26.08396 25.10660 25.36127 23.85970 24.25415 28.03238 26.27960 28.54677 25.83701 23.72748 26.72023 26.66463 28.43213 27.60414 28.15899 28.51995 28.97791 26.55740 25.82809 30.37978 30.21511 32.42855 34.12389 31.83572 30.90693 29.00970 29.85184 30.42682 38.05540 40.35614 43.04643 44.91859 43.96680 38.88628 35.95263 35.58279 36.77279 34.97503 37.76996 46.70446 51.66413 56.98103 55.36698 51.48409 46.27655 48.13122 51.12787 52.71355 47.69058 43.49723 40.47499 38.47684 44.23072 53.62063 62.41016 62.22944 56.07439 49.48704 39.54476 35.28421 31.22517 32.48849 37.07867 41.64339 44.51687 50.14393 54.22191 60.21145 56.62522 51.77082 46.94688 41.08877 34.42195 32.60659 30.13149 30.57448 32.06359 33.38794 36.68010 34.07227 29.87632 29.62582 27.12164 25.46062 28.23862 27.30716 28.91287 25.60895 28.54725 25.42346 27.98398 25.45650 25.00137 25.85051 25.38685 24.63302 27.65726 26.96577 22.45710 24.96194 26.28961 25.49055 23.95543 26.46249 25.67859 26.71605 26.45111 25.04056 25.44257 25.15334 25.38271
24.36871 25.15176 27.80675 24.53468 25.56882 24.40318 25.70457 25.71849 23.50896 24.19594 22.86127 25.26555 24.95100 22.76408 28.11934 22.30865 25.80151 26.00337 25.22450 25.40957 27.10443 22.77792 27.58240 27.02790 26.20674 27.93845 24.81681 26.54375 26.04293 27.56888 28.12895 30.96349 30.70819 33.66758 32.85949 31.28254 28.66202 27.12539 28.69309 30.55911 32.91623 43.74630 43.66034 44.57335 39.73881 33.94358 33.79129 35.21670 32.00192 31.85524 38.08959 44.57390 49.38031 55.23160 55.03847 47.47164 43.91055 49.67170 56.77384 48.47603 42.46581 33.52922 36.22669 38.19797 44.63402 49.66402 56.02868 59.50896 56.35953 48.22837 43.17501 37.49660 29.70141 31.26971 33.66306 38.41738 41.08971 46.38598 47.10449 49.00864 51.28943 47.77148 43.63910 39.03632 35.37920 32.89150 27.06703 29.95326 31.45315 32.82805 35.92101 34.48850 31.85700 25.52195 28.93663 24.89436 27.54504 27.14314 26.51650 25.52494 26.92398 25.78135 27.31603 24.40494 26.00141 26.99075 26.06052 24.40444 24.60645 26.39065 24.71725 24.61688 24.05990 27.04781 26.53599 26.88987 24.65218 25.78463 24.39667 23.98596 25.19750 26.65255 25.71561
24.18618 22.78184 23.36931 25.87818 28.27412 26.37727 28.01881 27.83116 24.63181 26.64205 24.48812 25.65022 24.47585 28.37730 25.63533 28.08116 22.97849 23.30920 23.67121 25.11839 22.93878 26.48331 27.17232 27.49982 26.88157 27.55195 24.98124 25.03714 25.94192 27.00158 27.30452 29.68637 30.81390 32.53054 28.33786 28.24004 27.63200 29.24949 31.72191 31.23773 37.18914 40.99781 41.71302 41.51264 37.21065 34.68458 30.34307 32.35107 28.78108 34.74641 36.72010 44.84375 48.74996 52.63532 51.46288 41.94689 37.75898 45.40033 50.61734 49.89592 43.10995 35.89630 35.14392 35.03545 37.97200 44.32265 55.88339 61.39139 55.48094 44.62282 41.00038 36.41179 31.78171 30.41165 29.41544 35.13047 39.02321 40.33976 43.39612 46.96316 43.98585 45.91848 41.44790 38.25807 34.81503 29.24618 27.38352 26.21749 27.89927 31.06194 31.64744 33.99862 29.45057 29.56031 26.65604 29.48443 26.49539 25.46490 25.90309 28.12918 24.65556 25.91560 26.41723 25.42958 27.39100 22.61180 25.26784 24.19270 26.46118 23.14305 26.23857 26.69798 26.14769 24.02496 24.44306 25.55347 25.75799 24.87454 22.93812 25.53079 23.90006 26.99766 24.12901
24.24454 23.39096 27.09600 25.02218 24.60176 24.28068 25.73467 23.59364 23.91239 23.62620 24.07865 24.91283 25.98421 26.19162 26.11593 24.72581 23.82762 23.98197 25.31331 28.22007 25.97580 25.66605 25.87290 27.30995 24.23112 24.15874 24.20030 26.78801 24.46872 26.99402 29.27816 29.82132 28.14179 31.86675 28.61968 26.71443 26.42079 27.83588 31.15840 36.17050 35.85540 38.71330 38.72841 38.75446 34.81832 32.77731 28.62021 29.69448 26.51187 31.48803 37.44594 44.44787 46.91673 47.99374 45.29745 37.94774 36.93209 44.23741 46.01061 47.06600 40.36619 34.21073 30.53567 32.29606 36.69265 45.49388 52.71932 54.09169 49.71446 43.64607 39.33670 35.91185 32.52925 28.29427 31.83245 36.70322 39.83053 40.03278 40.34446 40.24076 42.38649 36.81558 39.33416 35.21438 32.17231 30.19204 29.35773 27.22748 28.57197 27.26409 31.59681 31.32862 29.68137 30.99997 26.56525 25.24403 26.06126 22.75859 28.00606 28.64872 26.01027 26.14542 26.49764 26.86779 25.56660 25.23339 26.38551 24.01168 22.86107 24.39702 27.42019 26.05353 26.12715 26.33102 23.59330 25.72261 22.85809 27.03737 24.93953 25.34180 23.56717 25.55732 26.04864
24.82762 26.29998 24.29166 24.34950 23.59762 24.93915 26.94152 28.01359 25.72171 25.65026 25.33485 23.85302 25.51299 24.32268 24.79876 24.84239 23.51372 24.78444 27.20470 26.29003 26.14796 26.13045 24.18909 23.67648 26.57401 24.21199 25.11008 26.81446 26.95737 24.90059 26.66699 27.99919 31.19660 26.34862 26.04238 26.29735 30.43629 27.60276 32.54078 36.83352 37.68996 39.18275 37.60873 33.32612 28.67017 31.19467 28.29786 28.80349 28.65771 29.46928 38.78807 42.32655 44.76589 42.48548 41.13543 35.09605 37.07470 40.51578 42.13475 41.14111 35.89259 33.43376 33.14635 30.36341 34.76345 46.67796 48.64970 50.41872 42.57604 40.08498 33.97787 33.20838 28.78145 27.74789 31.10770 34.76090 35.56963 38.28977 35.25726 39.00013 38.18696 38.01060 37.24737 31.71789 29.01726 29.09738 27.03259 24.72062 27.91221 26.38241 29.87701 29.64061 30.14892 27.96051 26.89748 25.17376 26.06450 26.65550 25.04379 27.33508 25.38337 24.52610 24.59101 25.83560 24.17882 25.69286 25.07830 25.61715 24.24121 25.78508 25.06967 25.61214 26.14528 24.54678 24.25314 22.35259 25.68122 25.29747 25.42805 27.42797 26.29838 25.63129 24.78524
23.82138 27.10789 22.45321 25.25772 26.18850 27.38065 26.36224 24.62070 24.99828 24.89127 26.47340 23.10309 26.13024 25.35856 24.37372 25.97861 25.89645 25.24981 25.01614 25.90778 24.95521 25.40727 23.05631 26.24196 26.18439 24.63595 28.21346 26.64706 24.79689 28.22879 27.84073 25.88011 26.26247 25.96373 26.31154 26.09752 29.53935 27.92233 33.02635 36.26819 39.37095 35.30462 35.01213 29.78332 31.66121 24.81210 25.27245 26.22429 27.98605 31.27509 37.59985 43.27806 42.81537 39.88088 34.59651 32.71100 34.18098 37.81763 39.79183 40.67902 34.70981 29.87126 30.04366 30.08925 39.79491 44.13023 47.92565 50.14375 40.58954 38.84391 32.83601 32.43030 29.44201 26.65882 31.38182 33.36240 36.06324 37.35070 34.11640 34.47383 33.89563 34.66548 34.43692 35.24329 30.59196 28.55164 26.60875 26.51774 27.12169 25.87599 26.08567 27.89442 28.28094 28.66002 29.29425 26.95368 26.70362 26.91493 24.63194 25.25727 26.29413 25.08177 25.90598 24.35454 25.45719 26.71992 24.75884 26.86102 26.20761 27.64881 22.68417 25.29066 25.57249 26.49426 24.68886 26.20224 25.48302 23.07610 24.37133 25.34289 25.75282 23.56082 25.61063
25.16631 23.25616 25.48705 25.50106 28.30053 23.90031 25.00241 25.14937 24.16828 22.52008 23.45723 24.64844 25.95477 26.22731 24.37815 24.51560 26.46119 23.86345 24.37850 25.73475 27.46175 23.74571 24.94471 26.13798 24.72692 25.75865 27.52384 26.16498 26.19699 23.90913 25.93593 26.95055 25.91272 27.44072 27.24810 26.71399 30.34913 31.70361 32.37854 35.11854 32.92437 36.16544 31.78876 28.07168 28.80579 25.51920 25.55458 28.70488 32.02597 32.22903 36.35963 41.37902 40.85000 39.78663 34.77799 31.04797 33.15649 34.68582 40.02608 32.68699 31.65081 31.85862 30.68246 28.65298 37.78446 44.39570 47.28483 45.53858 38.63897 34.57071 29.87792 28.60632 29.04816 26.83578 29.85969 33.50492 35.91112 34.21798 29.81628 30.81171 34.54315 33.83130 31.75020 30.54993 31.51558 27.38346 25.81095 25.50900 24.70369 25.50814 26.45573 27.71810 25.93201 27.40991 28.88016 26.79009 27.44720 27.72237 24.84695 26.59315 26.33424 25.16253 24.53826 26.09992 25.80641 27.31777 23.52296 25.88762 24.10196 24.87627 24.91777 26.39529 24.45344 25.25170 23.55804 26.12082 24.78354 26.14543 26.52698 26.22251 26.47975 24.34523 26.10467
27.86958 24.65993 25.66948 23.57911 26.74225 27.18885 26.15109 24.65888 23.56225 26.11846 25.96638 24.95687 26.59393 26.41852 26.72170 25.35478 26.81851 24.30088 26.35890 25.73417 26.64935 25.59606 24.22288 23.42397 24.84708 24.27087 24.28919 26.10889 25.90207 26.71805 26.37000 24.35449 26.81927 26.11025 28.10402 27.19867 29.96623 30.12694 31.35119 32.65330 32.03853 32.66944 29.82564 28.37591 25.33851 27.47768 29.23944 29.11360 31.10553 36.49523 35.08900 38.06839 38.84403 36.80876 33.09059 30.68883 34.20871 34.38066 36.27510 35.62417 30.26319 29.71216 28.94992 29.22454 36.62976 38.91141 43.25156 43.07945 42.72603 32.84522 32.06644 26.00370 27.28679 27.20530 30.21087 32.00307 32.02781 32.91317 29.59149 31.95900 28.85440 28.80998 31.66741 31.98052 28.21394 26.35657 27.42398 25.32492 27.11720 28.04573 24.44422 27.05577 24.69181 26.14749 27.74090 25.80597 27.86810 29.28502 25.12022 24.70771 25.93492 25.82861 25.29432 25.32463 25.81342 24.43740 25.79034 26.00700 25.05498 26.19984 26.89162 24.69915 25.98865 25.55694 26.82689 25.98216 25.41710 25.57135 25.39441 25.43595 24.64876 26.28036 27.77316
24.28982 22.82763 24.52881 25.30203 24.28902 24.57014 23.74523 25.54416 23.17106 25.96120 24.14103 24.16240 24.26806 26.76246 22.08402 24.15258 26.38799 25.38037 25.00280 25.93188 23.71379 25.71495 25.56017 25.37705 24.33433 25.74072 23.35442 28.04967 23.81414 24.68695 25.43156 27.36084 25.02325 25.19971 26.59804 29.65819 28.62627 29.07249 27.93544 34.47608 33.83207 33.59268 29.98487 28.83432 25.70042 27.17841 29.08238 30.40346 29.81412 37.09131 39.38364 36.86430 33.74620 32.41888 28.95194 29.63435 34.11274 35.88532 34.72127 30.63104 30.40138 25.87868 29.00297 29.09847 35.56971 39.28737 43.12148 42.16974 40.55458 36.83167 32.00129 30.54215 29.72551 26.81265 29.81203 28.36511 30.45203 35.03196 31.51437 29.53090 30.80504 26.40703 27.97859 29.30303 27.51488 27.34625 28.54229 28.24797 26.96704 25.89855 24.33085 26.58250 27.73488 24.09035 27.09124 27.61828 26.50005 24.21071 26.37378 28.22800 26.73891 25.16116 27.32785 25.30099 24.05244 25.82371 25.36595 24.06480 23.82949 25.77130 22.84390 25.37379 24.44071 24.54360 25.72617 23.37262 26.38754 27.52339 26.12439 25.26728 24.73364 25.13259 23.49707
24.17102 24.90899 26.57707 25.94438 25.73522 26.37096 25.22127 24.65769 26.56249 23.91371 25.06792 24.84122 26.17563 26.00621 26.85426 24.71542 24.32732 24.79721 28.11464 24.81205 27.84179 25.04416 25.86464 24.69416 25.22451 22.71360 24.62739 24.17355 22.71854 25.57020 25.75890 26.82880 25.49630 26.70811 25.23717 26.13838 28.69958 27.18960 29.23378 30.59060 33.59130 32.95520 29.01036 24.60038 26.09139 25.57830 26.71179 28.89773 31.69417 32.33231 37.21390 34.22560 33.05786 32.62113 30.91298 27.60979 28.68365 33.94037 34.26695 29.68662 25.52648 28.70714 29.50691 32.00367 37.25098 39.53674 41.76775 40.35874 39.08702 36.21248 32.60512 29.61196 29.62799 23.44582 27.01865 28.27713 29.59623 30.96684 30.82414 33.18077 29.27164 26.79627 28.28617 28.47413 30.85257 28.42457 27.65725 27.60902 26.46619 24.71391 26.80479 26.83700 26.90522 25.85729 27.38259 26.60389 24.68092 24.13508 25.06594 25.66005 26.93820 25.22826 24.84759 26.15225 24.83359 25.15003 22.64192 26.17560 25.98334 24.31007 25.77768 23.70158 27.16751 25.19218 25.65389 26.83015 25.58885 24.88985 26.00648 25.37451 24.50810 25.33939 24.31145
24.71874 24.87081 27.21506 24.93783 26.23532 24.86078 24.37169 25.52796 26.20929 26.22783 24.37712 24.79775 25.57607 28.77858 26.99746 24.65425 25.50162 27.19500 27.59041 25.72247 25.09973 27.05978 22.35437 25.43532 26.73084 24.99673 25.39056 25.35881 27.07462 25.99206 25.24764 23.88226 26.73677 23.22288 25.13619 24.44677 25.46586 26.86013 28.44051 31.85436 30.18183 30.66709 25.93477 28.91570 25.72162 25.60407 28.94932 30.31024 34.19865 33.36786 32.22171 32.87247 34.37743 29.73629 26.96344 28.08016 31.33555 29.59994 30.80262 29.09266 27.69144 29.36175 28.91577 32.69661 37.27003 40.83604 37.89786 39.78985 34.94614 34.37530 31.58755 30.55773 28.25884 24.18625 27.69178 27.11853 29.26284 30.32009 28.82357 31.07630 28.22268 25.43937 26.83463 28.94727 28.82274 28.10164 29.66189 27.00567 27.04102 26.16898 25.04306 24.85142 23.42324 26.18938 27.47177 25.30786 26.61990 26.84334 25.74562 24.61080 26.52024 26.07899 26.35723 23.53122 25.57352 27.38944 24.78771 26.20859 23.74833 22.90958 25.67977 24.07873 26.98617 25.06826 24.58133 24.17595 24.51736 25.76166 22.88043 28.67115 24.39883 26.05461 25.07130
22.21348 22.89282 26.60775 24.50487 26.54374 25.18418 25.33882 24.77750 25.07322 23.10612 25.16709 23.72841 25.19719 26.89758 24.68549 25.49521 26.12997 22.38003 25.56766 26.20626 26.34673 23.72540 25.67131 26.58828 23.95063 25.92474 24.23343 27.14257 25.30430 24.20437 25.75955 25.36339 23.36525 25.44422 25.49771 26.00577 27.18430 28.96204 28.62235 27.97959 27.90198 28.27758 27.03732 26.16082 24.15617 28.63363 25.67268 26.98286 30.08575 31.34011 28.94766 33.82868 29.72497 29.35783 28.19603 29.08297 30.72359 30.96494 27.82251 29.84323 27.45841 28.47946 29.31017 31.22802 37.02839 38.25794 37.90313 34.33574 32.78272 31.51474 33.81813 30.14069 28.77050 26.36947 26.84409 26.20792 27.81789 29.57777 30.47900 29.87089 28.69402 27.25085 25.32064 24.87951 30.08254 26.23181 25.84889 26.82818 26.87249 27.65803 27.90675 24.93316 24.16744 24.23483 25.88256 24.42628 26.10204 25.83581 25.47070 25.04324 24.59223 27.36788 25.65544 25.09747 25.68126 24.89992 26.77575 24.14210 25.48314 26.06035 25.56172 24.29622 24.17094 24.72255 25.47088 26.53239 25.62622 24.68296 25.83519 23.30606 24.41545 23.64037 25.30826
25.85332 24.07920 25.06199 24.24916 26.65580 27.54624 25.30375 26.27853 25.25371 24.80727 24.59110 23.00893 25.55443 23.47401 26.54959 26.17320 26.31080 26.70070 26.53884 24.91254 23.99063 26.62699 25.90517 23.27446 27.22342 26.55131 25.71587 27.55359 25.32067 26.44517 22.31770 27.02970 24.88200 24.12421 24.78579 23.60971 26.35734 25.33483 27.87742 28.23302 27.75742 26.95392 24.81038 24.87665 26.71689 25.85055 27.88517 29.22313 31.44458 29.55136 29.01427 31.64617 28.64910 28.42522 26.62159 30.49107 30.03075 31.15047 28.82570 28.71508 27.22089 29.59159 30.08859 32.10038 32.05836 35.83725 34.74517 33.23661 32.11843 31.14117 33.11504 29.43505 28.01609 27.79901 25.30423 26.24388 24.76674 27.42574 27.16546 29.69897 27.69612 25.70665 25.96458 26.42336 24.00632 28.83081 25.84361 25.35175 26.90541 25.90002 25.22716 25.62478 22.77113 26.11371 24.87510 25.18761 25.43486 25.04038 23.49769 22.91413 24.42449 25.68152 26.08646 26.93082 24.16422 24.94706 25.16237 24.03528 25.33923 23.22126 26.03332 24.07224 27.30699 25.38279 25.87677 23.87892 24.69868 26.06212 23.85536 24.78350 28.17759 25.97216 23.96978
27.08195 25.30498 27.55603 25.72201 25.61755 25.07566 24.96223 23.94623 26.07413 24.39754 26.25809 26.85044 26.02861 25.41937 24.38529 23.94484 25.95841 26.55949 26.44939 25.64184 25.45814 26.26555 28.27850 26.10629 26.15275 22.77768 24.54919 26.38621 24.62070 24.76657 26.06304 27.26306 27.07759 26.51044 25.29593 27.79083 26.81573 27.10603 27.73360 27.46738 25.63990 27.84510 26.58383 26.53766 24.97146 25.00790 27.08380 28.51330 28.75941 27.15534 25.96718 27.58375 27.32821 28.46808 27.84404 28.81690 28.46703 28.98406 29.99738 27.38961 26.69479 26.42182 29.45938 30.97184 31.87504 36.03124 36.71760 33.70181 30.20641 28.72209 31.17238 29.31419 28.29898 27.31978 27.53537 26.86025 27.03667 23.90931 26.72557 26.84045 26.97039 27.69048 26.37605 25.82332 28.23230 24.85286 27.94739 25.95553 24.71479 28.56969 24.25524 26.06030 25.21220 24.85026 24.38926 26.97246 25.39543 26.45740 24.50298 25.22124 26.50549 24.29715 23.61421 23.01779 25.55560 26.66336 23.99001 24.26617 25.71772 26.38956 26.83771 26.08161 23.88921 26.98258 24.17548 27.08237 25.28531 26.25249 24.01088 26.53667 22.95206 25.62785 24.86082
24.24636 24.32122 26.31540 26.76893 25.34764 24.86931 24.23752 24.79526 24.04831 25.89152 25.21166 26.40607 26.64190 27.55358 27.51645 26.61970 25.70784 26.12599 23.85301 24.84502 23.88883 24.60509 26.05732 24.04774 25.36676 25.14950 26.88239 27.31404 27.19460 23.81472 25.09135 25.15287 22.68576 25.09590 23.99132 23.56631 27.43955 26.39401 26.56235 24.30638 26.39969 24.06750 24.77752 27.38777 25.74157 24.16100 27.93027 26.21470 28.09694 27.88533 26.80772 26.21015 24.56651 25.58129 30.17919 27.42327 30.04385 30.50327 25.79332 26.31083 25.97149 26.59720 27.92496 31.41911 32.73411 33.93659 34.61472 32.59283 31.42942 28.07540 26.81946 29.47962 26.70776 28.00327 25.46502 23.91515 25.26685 24.95960 25.85073 26.68088 26.47805 27.23077 25.69460 26.10684 26.10282 26.43456 24.75262 28.08818 26.73582 25.59490 26.33986 24.96908 28.23512 25.45446 25.53704 24.82208 24.11062 24.36256 26.05459 26.43430 23.61125 27.57714 23.93491 26.02610 25.32146 24.58920 24.41248 24.31004 24.82393 26.56783 24.64799 24.82017 25.51108 27.63842 25.27959 25.04538 23.98671 26.31061 24.73846 27.73565 24.84574 25.78767 26.20510
