24.73506 26.38950 26.57656 23.74099 23.25522 25.59428 24.05757 26.44119 23.97908 25.90756 25.73050 26.45934 24.85330 25.27850 28.35007 24.08864 26.57471 23.32746 24.82541 24.24518 26.02276 24.35858 27.94718 23.43723 24.11619 25.97595 23.71139 24.80994 22.39725 25.20546 25.39538 24.15157 26.30250 26.81272 27.53286 25.47455 26.11193 24.64053 26.48668 23.19314 24.41962 24.39681 27.34014 26.20149 25.94045 24.32031 25.27172 25.33359 25.78918 25.37055 25.30047 24.65100 26.00762 24.12384 25.67674 25.19522 25.85426 24.42894 25.45234 24.56652 23.89139 23.47017 25.43779 25.76594 23.59462 28.11968 25.56172 26.23150 26.62939 24.35820 24.59333 26.01028 25.63706 26.63748 28.45051 24.36611 25.06035 27.44019 26.77885 27.18255 24.58905 23.79081 23.95232 27.15166 25.68132 23.98038 25.75593 25.67827 24.39449 24.83739 24.47975 27.08191 24.95137 23.91143 23.73507 25.21024 23.88725 26.96647 26.76188 27.09076 27.43185 25.65005 27.30512 26.99125 26.56616 25.06270 23.82069 26.67419 24.42824 26.60230 25.11072 25.70798 26.39435 24.23010 25.44465 25.82744 22.69087 23.16307 28.33510 26.71980 24.91311 26.70051 29.58056
25.77504 23.33251 24.23005 25.57057 26.18091 25.55437 25.16398 26.38816 26.50977 26.74117 25.64464 26.05900 25.52124 25.91456 24.85572 24.14638 23.66165 26.04042 23.94880 24.63040 25.51629 26.95990 25.92729 23.24755 23.30501 24.20189 25.35601 25.51565 25.23185 28.27692 24.96021 23.94708 26.01732 26.21876 26.34889 23.02742 24.54041 23.87779 25.25826 24.58569 28.80829 25.25234 24.22862 25.64116 24.89241 26.69996 25.91102 25.06242 25.92289 24.64948 26.18074 25.15998 26.55551 25.29147 25.61105 25.31087 23.77025 25.42553 25.94128 25.47611 27.02453 27.32422 28.50639 24.58330 24.41524 24.35585 24.51354 24.35602 26.53895 26.59577 26.64865 24.49994 24.84952 23.81021 24.16232 27.99420 25.07381 27.44572 24.33042 24.32732 26.57231 25.76030 23.94739 24.51534 24.25624 27.45261 26.26012 25.73634 24.47554 25.06636 24.26507 26.39277 24.41525 25.23040 22.83610 26.54454 25.86735 24.59981 23.85289 26.91282 24.46906 25.02506 24.57772 24.90320 24.03973 24.25541 27.24075 24.92317 23.21555 24.91592 25.78675 26.52357 26.76379 22.69146 25.17682 24.49825 26.44026 25.25495 25.13609 24.12083 26.30724 27.27043 25.22958
25.04074 26.28190 25.50803 26.05024 25.11137 24.41940 23.83107 25.01887 26.55991 23.57229 25.56395 25.21819 25.92251 26.94110 24.38737 25.19553 26.53770 24.33667 26.31595 24.51328 25.81984 25.57005 24.78622 25.89995 23.99807 25.18308 27.21541 24.99400 23.26823 24.33041 26.27656 25.47127 23.77101 26.57481 25.78205 24.35302 27.28442 26.67811 26.69429 25.18125 26.03025 24.63249 25.41696 25.41020 24.59266 25.58817 24.69171 23.16082 27.39030 27.51138 26.23670 26.26497 25.59453 25.14701 25.87764 24.36954 26.81727 25.46111 26.22211 26.16529 25.36800 26.04360 24.83705 24.16472 24.08163 23.53036 25.64924 26.86824 25.63049 23.42266 25.30118 25.93324 22.94907 25.88522 27.40599 26.59341 25.37688 25.70774 21.70862 23.81756 25.65460 25.54813 25.49169 26.91605 24.97148 24.81047 28.17769 27.09810 27.25553 24.23633 26.56448 25.38307 25.83224 24.41700 24.83909 27.09160 27.12004 24.05134 25.58244 24.87853 23.28948 23.79483 25.11534 26.20203 24.37226 26.19775 23.22636 24.86070 24.11103 24.70168 24.90613 24.96683 25.77612 25.48361 24.49419 26.12355 24.44365 24.72619 23.40573 24.74750 25.19905 24.91105 27.16634
27.01521 23.88815 25.31997 24.25310 24.54258 27.26152 22.26107 23.07239 25.09903 24.07781 25.38833 23.68311 22.29948 24.06774 26.28154 24.00020 25.97367 26.65485 25.00873 26.10385 23.94995 26.32216 24.62523 24.18118 22.16527 26.29168 25.54428 26.08348 24.38131 23.96127 25.08479 23.50770 25.82577 23.15213 24.71238 25.46106 25.67774 25.10650 23.50622 25.65067 24.60976 22.43757 26.21162 23.42668 26.62050 26.96949 25.76383 25.93261 27.72548 26.76337 25.66614 26.63207 25.91990 26.56139 24.86733 23.83101 26.70117 26.32913 23.84903 24.22505 25.20029 26.30645 27.71742 24.20367 27.37566 25.88261 25.59751 26.18057 25.10227 27.58174 22.58887 22.76326 25.03224 24.83710 25.88706 27.63446 25.77471 25.58151 24.75892 25.00071 23.76889 25.86161 27.64190 26.65204 23.82743 26.40389 24.80769 26.85389 26.20047 25.05734 25.04524 23.84655 25.63822 26.99118 27.32901 23.54139 25.08737 26.92633 24.03029 27.04795 24.67228 26.02003 24.16413 25.83827 23.58177 25.67255 23.85977 24.60641 24.90350 22.91042 26.32339 25.93220 27.33265 24.91171 23.39077 25.03934 24.60620 26.24994 24.26000 25.42063 24.38345 27.83015 24.11247
25.96288 24.88916 24.31079 26.05059 23.63733 23.49154 25.77507 26.38114 23.07152 24.91765 24.29165 27.21082 26.19908 26.89664 26.35768 25.64508 24.12930 24.82554 23.53580 25.45233 27.61689 23.32461 24.65734 25.88581 24.48398 25.19171 26.16726 26.12353 27.15764 24.35755 24.34103 23.44799 23.27422 25.42141 24.09993 26.99768 27.54411 25.36874 26.79788 23.88574 24.45005 26.76025 24.73824 27.33715 27.28436 25.65833 26.48383 23.76062 26.58431 24.54752 24.93239 30.02110 22.89234 25.03213 24.63228 24.55288 26.28516 23.31659 25.92156 25.21253 26.11926 27.23077 27.32408 25.09177 26.39190 25.46517 25.53186 27.68459 22.67561 28.55434 26.31560 24.53667 26.69955 25.03979 27.68584 25.70253 26.43053 25.12865 24.55612 28.31427 21.81425 25.69553 26.80639 25.16172 24.78318 25.91133 24.71607 25.77095 22.32181 25.04385 24.22216 26.49419 26.64238 25.79000 26.33136 26.35802 26.82189 25.07795 23.17426 27.48700 25.59126 25.38594 25.66608 25.86203 23.85695 25.67297 24.83510 21.76400 27.49925 23.61699 26.28478 23.14706 27.04059 25.39682 23.30055 24.30801 25.27652 24.91415 24.95544 23.02727 25.94489 26.55377 26.01460
25.75249 25.03589 26.43041 23.49423 26.32852 24.41499 26.25015 26.34296 24.45506 26.93571 26.53315 26.73690 24.04123 26.44108 25.16973 24.41337 25.96609 24.61423 24.16843 24.97514 24.43008 24.48413 26.52700 25.68506 24.09192 24.90804 24.81040 24.84112 26.61920 26.46674 26.73242 23.94983 24.19123 25.57589 25.44294 24.24440 27.34890 26.94068 28.30594 23.84888 25.69554 26.02642 25.03912 24.87530 27.62020 27.49331 24.93417 23.33605 25.43129 24.23211 24.52830 26.19932 24.52026 25.62523 27.68757 24.14235 24.45612 24.52661 26.35232 28.87482 25.83626 23.96584 24.94092 25.00523 24.20380 25.74404 25.79567 26.84044 26.81507 25.83730 24.45719 25.28160 25.12935 24.15896 27.04293 24.27442 27.59291 26.76060 26.67416 25.44243 24.06620 27.05391 25.60900 26.39698 27.39019 25.43062 27.20060 25.83368 25.43753 27.55952 24.38618 25.90435 27.08044 25.60528 25.61281 28.51170 26.07208 27.71161 25.39059 25.11749 25.70199 24.76458 25.63012 23.91161 24.09003 24.65912 26.28933 24.30643 24.74205 26.76185 25.36317 24.65946 24.17364 24.99864 25.72910 25.52565 24.58859 24.76837 25.09404 26.24696 26.35761 24.19596 25.77424
23.59857 23.40785 26.09162 25.67477 24.80248 26.23744 22.46552 26.36963 26.33520 27.62776 25.56041 25.74811 25.56588 24.08891 26.19657 24.68075 24.68476 25.63497 25.80154 26.13611 25.41222 25.98379 23.87882 25.55009 25.89078 25.12579 24.37933 27.23239 24.77780 24.38310 26.73705 23.35294 26.22521 26.05516 23.80087 25.38277 24.11833 26.65866 27.82581 22.97327 25.60353 28.30906 25.40732 23.31645 28.11797 27.49114 27.75427 28.87378 25.08033 24.50349 26.96616 26.26679 25.21386 26.23109 26.06395 24.02699 29.24178 24.97581 28.22832 25.92839 25.60232 25.65396 25.22761 28.00404 25.39074 26.08799 27.72234 26.23026 28.89045 27.23559 24.96027 24.29817 26.65544 26.80537 26.92042 27.02285 25.04610 26.83482 26.21828 28.03811 26.95473 24.99046 24.07741 26.24787 26.57345 26.12528 24.78208 26.25104 27.21824 24.59023 25.63553 25.67332 22.86687 26.22843 24.81606 25.56367 25.05063 26.58233 27.03964 23.49837 25.90289 25.24294 26.01016 28.46303 27.76489 24.18419 22.86823 25.47798 24.58326 25.41452 26.13337 24.65210 25.09370 23.26928 24.38533 25.34274 25.88762 25.51250 26.20168 24.50304 24.99233 21.60828 26.12965
25.31771 24.75773 25.68080 24.42690 25.60482 25.79525 25.15134 26.68170 27.06981 26.08339 24.94929 23.48083 26.01057 22.18033 26.18169 24.32551 24.47749 25.78121 26.10597 22.16903 24.89661 25.12737 25.32984 26.13490 23.35447 25.40749 26.43444 25.28708 25.31189 25.39041 25.08390 24.69421 24.91150 25.42139 25.49053 25.14614 26.08204 25.40038 24.00742 25.11068 27.11834 26.82282 25.14126 25.54445 23.82718 26.24588 27.53884 27.37683 27.50623 26.27042 25.88574 27.80762 26.72722 26.55329 26.23741 26.93697 26.52509 28.73244 26.82725 27.21334 27.64400 26.53921 26.60599 26.43006 30.90069 28.75474 28.48758 29.69615 27.25355 27.78718 23.24236 26.51075 26.52973 25.91421 28.89968 28.20419 25.72067 27.95839 26.28875 24.58282 27.37822 22.89738 26.24823 25.16304 26.34499 26.12786 25.93267 25.73619 24.78965 24.91406 26.25977 27.39561 25.33957 24.17065 24.05437 23.74590 26.64792 28.13976 25.81590 27.68981 25.86026 27.45516 26.45858 24.72999 25.69715 26.24734 26.37386 26.58581 24.25283 26.49755 26.87877 24.59276 25.40501 26.42789 26.67475 25.82708 25.42803 26.68531 24.30093 24.07504 23.23408 27.61948 24.88201
23.21957 26.99822 24.79881 26.57783 25.60750 26.24352 25.15271 26.88426 28.82852 22.53023 25.42154 25.01104 25.47890 25.51658 26.90671 25.76635 25.09497 26.43146 24.17457 24.26414 26.54899 25.77972 27.30733 24.18963 26.26533 24.13936 27.64750 26.44915 25.02154 25.12846 26.18873 24.76409 25.24596 26.23642 24.93429 24.20716 24.98047 24.51684 25.65299 25.68254 27.32550 25.38327 26.48866 28.98549 25.43591 27.15061 27.30730 26.54821 28.09046 26.73725 28.06757 28.21790 30.11447 27.32778 28.26222 26.14852 23.64634 27.01760 29.75346 26.73813 25.19061 23.16936 26.96834 28.95287 31.05131 30.28719 31.45593 29.88266 28.94373 28.34130 27.87660 26.20660 25.19192 26.43460 27.83671 28.82599 30.04951 29.15788 27.88069 25.22938 24.73523 25.18818 25.56938 25.95713 27.93243 27.25728 26.36461 26.92267 26.01304 24.96114 24.07106 28.29397 25.21602 25.49421 25.14837 25.00736 25.08062 26.33251 27.73046 25.41865 24.06385 24.97796 23.64354 25.85011 25.26942 26.00344 27.14935 27.13805 23.94934 27.42540 24.14579 24.48685 26.77723 26.99024 25.74660 22.82503 24.65414 21.39141 22.62378 23.51437 25.68225 25.76197 25.75132
25.42645 26.04821 23.21280 23.84145 27.11940 24.50357 25.44073 26.54248 24.50709 25.35087 27.76809 25.00203 26.12414 25.56125 27.16778 26.05619 25.41369 26.88406 26.91521 27.72672 25.72031 23.34397 26.31810 25.75468 23.65606 24.05699 27.04327 26.36594 22.84264 28.08954 24.31795 24.58522 23.33757 25.95470 27.78110 26.92408 26.12549 26.98212 25.25680 24.22195 27.76286 23.58046 26.87549 26.38004 29.16881 25.65615 30.85578 27.10657 28.44130 27.59580 26.07212 28.05261 26.61990 27.59569 27.17756 26.78999 25.30854 29.30066 27.63118 26.53999 27.42062 25.77402 29.45656 30.13243 31.44938 30.93817 33.36960 33.11115 31.18581 27.16895 26.20415 25.53316 25.48391 25.16113 28.79697 31.79788 30.37496 28.97086 27.73514 29.21582 27.24626 25.60090 26.54516 29.11428 29.97542 26.88198 26.69099 26.81057 24.90044 25.61177 26.70846 25.05005 27.38897 26.20258 27.16525 25.41339 24.41610 26.40454 25.09961 24.73482 24.47597 26.02677 21.67801 26.79224 27.34113 24.15542 25.75375 26.10255 24.14516 25.22468 24.95915 28.35416 27.19495 25.15813 24.76285 23.31374 25.87715 26.72637 26.18216 24.80531 25.53020 25.06310 23.05500
24.01433 26.47163 24.05333 23.96407 26.29123 24.89438 23.39021 24.04873 26.69361 23.55449 24.01812 24.79581 25.19365 23.21380 24.55367 25.71466 25.32910 25.32631 26.37736 23.45155 24.51788 24.47173 24.50794 26.59441 25.50830 24.80228 25.72660 23.72958 27.68424 26.68719 25.63981 27.75759 25.41573 25.43083 26.14314 26.91067 26.27103 26.80671 28.46185 26.77220 27.93116 25.65190 25.57956 26.39585 26.73336 29.43146 29.00171 28.30547 30.90238 26.88632 28.47532 29.31418 29.54506 30.58710 27.80814 27.85401 26.17806 25.77746 30.80094 31.73357 31.78199 27.88982 30.69626 32.55210 35.40674 34.98795 34.10442 33.04128 30.35353 28.94003 25.18474 24.62026 27.24649 26.99670 27.22452 30.99566 30.96337 30.05754 27.75103 25.98145 23.72932 29.45112 27.77589 29.79653 28.49513 28.62244 28.69780 28.65735 24.08534 26.00656 25.97431 25.80817 25.02991 26.18206 26.64388 24.99026 22.87463 25.18391 24.75002 24.72776 25.67983 23.34816 24.94946 26.24862 24.54637 24.29491 25.53637 24.16700 24.92074 25.50906 25.75896 24.49944 27.92552 25.71350 25.44469 24.02217 23.67851 24.55120 24.05502 25.72235 24.45536 23.70120 23.03925
25.55359 25.10407 27.20330 27.40711 24.64177 24.56356 23.96493 26.87417 23.80039 24.74447 23.98383 25.02609 27.10841 25.65612 26.22943 26.64769 25.84639 25.48952 28.47035 26.06463 24.61019 25.67500 26.42212 23.88869 24.94858 26.62482 24.02534 23.87188 27.22957 25.15025 22.46985 27.39188 25.75245 26.54938 25.33023 26.47214 26.47276 27.48537 28.12732 29.10480 27.54627 24.79118 26.20283 26.31570 25.63174 28.41956 30.22288 32.10489 29.62317 29.62853 26.62291 31.21746 26.15227 32.38395 28.70399 27.22214 27.48803 30.06610 28.46180 29.65337 30.04663 28.32173 27.66472 34.75353 37.09481 36.24512 34.25928 31.52925 28.29857 24.30801 26.68617 25.59202 25.08762 25.78370 28.81057 32.08963 32.94915 29.00665 29.28577 28.00841 28.80443 27.90588 30.06892 29.13262 29.40560 29.73746 27.27164 24.79212 26.32815 24.64639 25.18893 26.28321 25.50194 25.60369 25.46974 25.44699 24.83761 24.35663 26.18598 22.84582 23.64125 22.66711 25.22999 24.37421 24.15963 24.33683 23.75184 25.38098 25.87704 24.47490 25.49801 22.05170 26.09879 22.28836 27.09998 23.88446 26.42921 24.65071 26.11376 24.61118 24.48473 25.95823 25.54832
27.16829 26.60122 26.22447 27.69308 25.48846 25.68262 27.38260 25.05733 26.28206 25.26296 26.65676 23.91716 23.21173 24.00993 24.75475 23.49932 24.97482 26.27069 24.83036 28.22394 25.22872 26.40949 26.38265 25.68061 25.00737 22.15555 26.26530 26.29206 26.02605 27.88104 26.79780 24.57796 25.64136 24.13489 24.64980 27.85928 27.21217 28.47800 27.81812 30.67075 27.89162 27.24386 26.60074 25.08825 28.52310 29.26931 33.89429 31.24375 32.41209 31.37702 29.74548 30.78939 31.55658 31.71425 29.71816 28.06199 26.64844 29.81142 29.12853 30.95513 30.11674 29.73150 31.99648 34.10219 39.47337 38.32209 32.99742 32.29857 26.98776 30.56053 26.55721 24.90314 25.67459 25.78558 29.43894 30.23891 33.37116 31.00007 28.18040 26.97872 26.71283 30.25847 30.20577 29.94802 30.37021 28.21694 27.86582 28.11190 28.28388 25.36144 26.19575 23.98871 23.44779 27.57538 25.24720 25.72680 25.00658 23.29869 26.53110 26.63666 27.06400 24.08574 25.09368 26.40667 29.43691 27.34405 26.02847 23.05691 24.78112 26.61113 23.19835 28.74891 26.70319 25.78224 24.72119 26.54729 24.43360 24.53247 25.76105 24.13741 24.46093 26.20266 25.88378
25.51790 25.08720 25.97380 23.25754 27.00712 24.28622 26.86880 26.25204 23.90334 26.59688 24.22178 26.31000 26.21863 27.04235 25.94306 26.62953 26.61066 25.67013 25.54742 25.87909 24.66591 25.10196 25.77483 25.75083 25.91292 27.72533 27.00118 24.66986 23.11329 24.89254 24.73723 25.33561 25.63243 24.08329 24.17131 24.94573 25.66496 28.66699 29.97141 32.23126 28.29914 26.35736 27.03822 27.90865 27.82240 29.71165 32.06892 33.70376 35.13550 32.81757 32.54379 29.47701 34.17744 30.05262 29.23086 26.95931 29.40637 31.28245 33.35934 32.64350 32.10104 29.52600 30.95916 35.81726 38.46514 39.22842 35.00189 32.63373 30.90660 27.29074 28.35015 25.81458 26.10055 26.60360 27.27228 29.11782 34.86231 33.67555 26.46455 28.81410 28.45448 31.05119 31.57389 31.48056 29.63614 29.54700 25.85819 26.95557 28.76380 26.27532 26.96029 24.43990 25.52105 24.44662 27.42981 25.44357 24.89161 25.73252 25.85212 22.92524 24.57171 25.77836 25.39378 26.55635 24.85338 25.66235 24.59519 24.12678 25.33794 24.15186 26.40888 23.77050 23.85665 23.78567 24.86730 25.42129 26.13772 26.67464 25.09136 27.20708 25.56972 26.39122 27.31896
26.08871 24.90703 24.68762 24.72423 24.43217 25.34629 25.08031 23.65867 23.94118 23.47364 25.20610 23.90766 23.25972 24.85590 25.05957 24.97117 25.92160 26.68826 26.10319 21.44268 25.38938 27.20237 24.78272 24.72105 25.50173 26.91237 26.75775 28.36079 23.54356 25.79543 26.78037 25.00430 25.81879 26.10047 26.55528 26.62502 27.67511 29.11805 29.66625 28.34751 28.55305 26.76545 25.95295 26.40625 28.46565 31.65049 30.97950 37.81108 37.41755 35.25211 35.31796 34.92441 32.69517 33.25213 32.75461 28.22101 29.43432 30.31387 34.76519 39.43716 34.31152 31.36106 31.63781 37.99191 41.66224 39.86629 32.26093 30.58992 28.26293 28.20070 25.74414 29.59909 23.88991 25.91109 28.84268 30.95639 31.65882 32.72534 29.22175 30.10878 29.89110 34.14868 33.57161 36.64654 32.28780 29.61994 28.25497 24.12235 28.04790 30.32361 25.06816 25.67205 23.45726 26.78969 25.14824 24.33079 25.33074 28.23049 24.40380 27.52466 25.54165 26.52992 25.33790 25.43613 22.85746 26.90694 24.85537 24.55777 25.61002 24.21225 27.12374 26.12858 25.92064 25.58970 26.81967 26.14560 27.54863 25.99053 25.36524 23.56931 25.95740 24.39968 25.28538
24.76470 25.78791 21.89933 23.01850 26.08254 27.17775 25.56360 26.09043 25.11706 24.49187 28.94046 26.66886 25.23269 24.48242 24.72661 24.78422 24.87985 25.38179 23.49923 24.21341 26.48563 26.12330 23.81476 27.60630 29.11857 27.28129 24.82720 25.00690 24.87212 25.42444 27.05007 26.64519 24.27622 27.03457 28.10131 28.40501 30.57311 31.75523 30.60930 31.62128 31.24922 30.28028 25.70042 26.50254 26.65448 31.84802 34.36484 36.88246 42.09959 40.50509 38.81992 36.68409 37.55503 34.35411 31.74861 26.84596 27.50004 35.22715 37.68930 39.82530 36.06117 32.39180 32.00011 40.74958 39.42860 37.30407 34.18920 30.21429 30.14456 29.61249 29.07872 29.01664 27.77373 26.79143 26.43696 26.90318 31.77655 32.38713 31.04669 31.56127 32.14392 35.12023 34.30767 32.01300 32.51716 30.56454 28.05995 29.61190 26.66163 26.85852 27.92921 27.67349 25.66877 25.87863 26.24432 27.06048 23.95066 26.53544 23.11745 26.94829 23.22553 27.98780 23.32223 25.42177 28.07553 24.70127 24.77925 25.99191 26.30820 25.31696 26.89832 25.69084 23.39293 25.36554 24.72269 23.62740 24.58386 25.01587 24.86777 26.35903 26.60104 24.93139 24.58043
23.14004 25.24905 24.53040 24.28026 23.52751 25.50792 25.72256 26.27327 25.18437 25.51540 24.71966 25.01789 25.46358 27.90874 25.23659 24.28711 26.23897 26.18168 26.46939 24.23064 26.19280 24.36806 23.22057 28.26841 25.57052 26.13595 27.02026 24.74911 27.48580 26.56145 26.56311 27.09588 25.05564 25.65183 25.83685 29.25376 29.21912 30.66644 31.69064 31.93290 30.77796 29.89944 27.22717 26.89406 26.93688 30.65234 34.70237 39.00368 41.70487 42.01696 41.02085 40.17195 38.07574 35.12754 31.32247 29.06859 29.94541 34.17616 38.36451 41.60192 37.89544 34.77370 35.87421 38.75897 42.96470 38.61893 34.25945 33.24774 28.48797 28.85991 31.01118 33.03200 29.53828 28.46558 29.48018 32.43873 35.09094 36.19454 33.20114 35.91170 34.90870 37.02127 35.04949 34.50513 32.50224 29.46270 27.51367 26.76357 26.22809 29.18270 25.23862 26.13909 26.70427 28.81523 25.51331 25.46535 26.32411 26.53548 28.21376 26.40627 23.39276 24.25410 24.51238 25.84255 25.53645 24.03649 26.00137 25.22529 26.06747 25.87605 24.10407 25.92650 24.66113 25.36077 25.32486 27.51500 25.61685 24.88487 25.02959 25.43529 25.37568 27.87886 24.06518
26.46533 23.88648 24.26106 27.19253 25.01125 24.78982 26.23802 26.36262 25.89589 24.94366 25.18227 26.73767 24.81608 24.99806 25.37968 23.06554 25.80524 25.88581 25.53144 26.21760 27.36013 24.75702 23.28693 25.89284 27.17540 24.39193 24.54827 25.60892 27.15133 27.89751 26.92119 27.76299 28.37558 25.80016 25.62898 25.79560 27.48672 30.89169 32.54232 35.87477 32.13482 31.21686 30.58715 27.93427 30.38887 29.07752 31.78745 42.43348 41.56139 45.63589 47.18874 43.14683 41.48223 34.90327 31.73839 29.40971 35.59215 37.04890 42.69552 41.94786 41.99121 39.38643 36.79194 41.73114 40.30993 36.00034 33.20530 31.20796 30.01432 31.37874 33.27476 31.02014 33.67197 28.68619 30.17283 34.45631 35.64957 40.09595 39.21861 39.20046 40.69309 44.05193 40.99639 35.23732 34.08854 31.69793 32.20582 27.49635 27.02451 24.63421 26.57245 26.20529 27.20754 27.47834 28.37851 28.09324 26.23234 27.94349 24.79343 24.42073 25.49168 26.82893 26.06599 25.71212 26.22654 25.90135 23.97881 27.05514 24.42860 23.70150 25.40978 24.80096 26.84655 24.25890 24.93628 24.92395 25.86722 25.50372 24.86382 25.66746 23.25757 27.23601 24.09314
23.02422 25.69198 24.82613 27.07687 24.13428 25.50520 27.42502 26.33509 24.94480 24.73174 27.28475 24.10896 24.64198 23.89669 24.65508 23.98505 24.45701 24.67169 25.33370 26.50984 22.50191 24.10450 26.70917 24.45233 25.91163 25.31481 25.27565 26.34406 28.65771 27.76326 26.85590 27.76274 29.23859 25.69989 28.28056 30.50427 28.81296 31.43656 32.37769 34.94897 36.77785 36.81270 34.24333 28.66204 28.17674 30.62675 30.81261 40.81725 46.61488 49.44178 48.89299 45.88965 42.26835 40.75524 33.48083 33.91342 35.06040 39.10863 42.24671 46.84398 45.38093 41.77279 38.02035 42.52617 40.80411 37.20373 32.21364 30.42664 31.25639 30.69199 34.46520 33.42413 31.31436 31.26774 32.35909 34.89898 40.42618 43.89192 42.18870 41.14994 44.31180 45.71777 39.55672 36.37460 36.67457 32.21398 28.83039 27.44783 25.28906 27.65813 24.55840 26.31476 28.45265 29.71887 29.81522 28.68557 27.79776 26.77389 22.78288 24.59348 27.81061 26.76142 26.22918 24.43889 26.67374 25.18012 24.85639 27.93572 26.58998 23.42533 25.70170 26.50115 25.07859 24.03663 25.51169 23.05860 24.69375 27.31819 25.61832 23.89290 24.09235 22.14752 24.17522
24.38664 25.95533 24.91651 26.06446 24.26659 26.04263 25.84366 26.05260 24.63744 25.11267 23.75397 24.40638 24.47737 23.42242 25.60786 25.79772 25.71038 26.68569 24.76618 27.34731 27.49432 28.00397 23.65983 25.81184 26.28061 27.28796 25.47285 25.86609 26.82765 26.35871 27.18402 29.84507 28.94162 24.82568 24.21545 26.72189 29.06020 30.84858 35.23006 32.57583 35.98760 36.04004 31.35501 30.05533 28.89770 29.92898 32.37958 43.17724 44.82643 49.40225 54.29683 50.85799 49.12007 38.61796 36.96341 33.36529 36.75211 41.80594 49.64148 52.05692 47.68871 45.68847 42.81321 45.71260 42.75936 38.68659 30.12550 33.80037 31.54504 28.98407 39.81418 35.29110 34.96877 30.18931 30.50119 33.22493 37.26360 42.39529 44.42812 49.03346 47.33736 47.39861 45.43313 38.50903 33.44465 30.10725 30.69065 28.07017 27.69746 27.50933 25.42483 29.09801 29.87443 31.11458 28.67174 26.01202 27.78668 25.92025 27.24263 24.90819 26.96485 24.31774 25.92789 24.99536 25.07180 27.35315 25.09149 27.92338 24.40064 29.20704 25.16233 23.09804 23.33890 26.58427 25.26965 25.89029 24.83936 25.00279 25.03201 25.25538 27.14879 26.64551 24.83605
23.93848 24.32761 23.61765 23.19854 26.19481 24.13855 24.82184 25.34620 24.57963 24.38142 23.62083 26.04173 27.13995 26.98201 23.70264 24.61679 25.95922 25.61137 27.21631 26.59069 26.77879 26.02772 27.41730 24.08230 27.04211 25.90016 26.20654 28.55367 27.66549 27.81008 29.56878 29.45365 31.86646 29.65649 27.80090 25.44804 28.01681 27.15662 32.78954 32.48681 40.03950 40.04214 35.61716 32.98055 31.84096 29.86770 35.46341 35.40329 42.47736 50.59764 55.16176 54.39204 50.44088 45.83047 41.11144 33.71199 39.18053 43.56837 48.54223 54.63384 54.86951 51.46736 45.34661 45.29449 42.66345 36.81860 36.59350 37.38902 36.53719 35.24444 38.07939 38.93870 38.08657 36.06701 32.46537 35.54391 34.93234 42.56569 47.42439 52.25047 52.32251 48.07461 44.38971 38.77906 32.96540 31.04628 28.36653 27.59816 25.69062 27.68336 27.54785 29.70917 32.92050 31.76634 27.63073 27.83127 29.05756 26.08530 26.61683 26.84512 25.89173 26.32393 26.43173 25.48983 24.28182 26.05652 24.93260 23.92088 23.30360 25.46737 25.05092 27.04902 26.10649 25.20342 25.06471 27.50690 26.92139 25.20282 25.33805 23.28893 24.43556 27.56423 26.72401
24.96445 24.50065 23.51526 22.48452 25.84679 27.60267 25.18397 25.84591 23.81656 24.50845 27.51927 24.99685 25.23890 24.24187 27.63076 24.97019 27.37994 25.30994 26.13814 25.52454 25.82086 24.39735 24.32650 26.47836 28.12179 27.71554 28.55068 28.72604 25.63404 26.88223 28.23171 31.07086 29.42302 31.04974 29.56689 29.16905 26.20337 27.58664 32.74139 34.04483 39.98750 42.42526 41.51958 34.05400 31.66219 33.61079 35.47030 38.95391 44.05071 50.67320 54.30919 58.05385 56.34326 51.53945 44.68379 41.07361 37.16597 45.41740 53.03808 58.00083 57.15018 49.28388 46.73645 47.41012 45.83028 39.15049 47.63239 41.91851 41.41482 38.65555 41.20550 42.79671 43.74392 38.31206 36.66263 34.53596 34.76353 44.57545 50.93883 55.10948 54.95785 47.65074 42.27448 39.45130 32.15490 28.44802 27.47354 29.49750 28.48827 29.41157 29.64912 32.39336 32.51815 29.16436 29.45777 27.88314 28.12030 27.60462 28.04792 25.90712 28.52939 28.13766 26.68183 25.09525 24.78813 23.96182 24.40453 25.09208 25.24471 24.47587 25.06170 25.48988 24.46767 25.90396 23.51306 24.08026 25.41766 23.43633 26.28633 21.57927 26.09241 26.12676 25.76778
24.05824 25.63930 25.64816 25.75570 24.54819 26.55618 25.42400 25.27673 27.85951 26.03288 25.50584 26.19052 25.56151 26.57452 24.88588 25.57076 28.73849 27.98260 23.44631 24.46718 24.35416 25.98247 26.51158 26.79260 28.30332 31.07930 31.18676 27.99172 30.26317 29.62327 28.61369 29.95723 32.58951 32.20819 31.24682 29.36781 30.35622 30.89871 33.46818 39.65823 40.92753 45.23113 44.37255 41.61243 35.04786 33.00326 35.20005 34.50434 41.65807 47.20646 51.71364 56.80173 58.39022 57.80606 51.45521 42.20872 37.99991 44.88505 53.61274 60.69021 58.94416 58.92547 53.35716 52.18485 46.79497 40.49845 49.93837 49.16819 44.84733 41.94921 44.73033 48.03950 42.78935 45.81813 38.82587 37.17119 42.62614 47.07873 53.10747 54.58211 58.91475 49.71816 40.78429 35.78596 32.61445 30.22405 25.58651 28.97324 28.88526 30.72619 35.66049 36.16008 36.67411 32.86254 31.83036 32.68575 31.41447 30.11013 26.34843 25.81632 26.51356 26.02508 24.05906 24.21057 27.20706 26.74136 26.04813 27.89496 27.12080 25.87734 26.36558 26.81383 25.02056 23.65875 24.69611 26.36118 26.24144 25.66142 26.55664 23.47301 23.17546 24.11062 23.92521
24.74618 24.81231 25.34576 22.73813 25.11089 24.76540 23.46149 23.14047 23.89195 25.62203 25.84167 26.27410 25.13161 24.70821 25.68309 24.76994 23.92580 23.06186 23.93593 25.19626 25.53683 25.13650 27.88427 26.15822 30.72217 29.79430 31.87827 30.84954 30.17043 28.73251 30.24318 28.50352 29.20075 36.61444 31.58852 31.26608 31.35952 30.72360 36.08745 43.35479 44.80291 48.81673 48.79544 43.32762 43.22800 37.84660 34.35468 35.53340 34.97127 41.80284 49.30195 54.92904 58.30747 59.35934 55.29879 48.85195 42.17803 47.24892 57.56239 62.60918 61.43432 58.17509 60.49007 55.42686 50.69937 48.95060 52.26477 51.25529 46.91295 47.10138 51.77317 53.03014 54.32577 47.28825 41.64099 40.75224 45.68683 49.79167 57.22473 58.84374 56.68244 49.21843 40.46425 37.79555 30.55449 30.86646 27.34613 30.64813 31.70775 33.57795 38.09424 37.15299 39.77600 37.56762 34.16299 33.08899 32.11552 29.23368 30.13241 26.39022 25.52070 23.36968 27.79704 26.34701 28.05347 23.85362 27.04661 24.07544 25.32731 25.77137 25.44864 26.22320 24.27658 24.01175 26.55145 24.06701 25.30077 26.25819 25.74305 25.02156 25.92160 25.19419 24.59308
24.77060 26.36627 25.10216 24.30906 26.57338 23.16374 23.29632 24.89928 25.55096 25.97091 24.07729 25.20217 23.59434 25.12078 25.94319 25.76337 23.65967 26.77670 26.20165 26.02170 26.03768 26.19617 26.33643 27.84772 28.22578 32.32850 31.74318 30.35118 34.99102 31.58359 33.40198 32.68585 30.31755 36.63924 35.32308 33.06414 32.83069 31.52661 34.12439 40.41764 45.88431 50.98648 52.12713 50.40192 45.78973 44.65015 40.83116 40.66775 38.90790 41.34146 50.07598 57.59455 64.25420 64.62250 60.47737 53.08555 45.34961 46.69117 56.01916 65.02999 67.31178 64.45250 64.83137 60.54253 53.33582 56.40646 56.78404 55.88419 50.72130 56.40624 58.64834 58.65650 57.27199 50.84845 43.18906 39.94071 45.08382 51.91023 61.89272 62.41730 55.58808 47.10953 39.85906 33.12488 32.23406 29.48930 26.92769 25.96314 32.30132 34.40625 39.38999 42.31314 39.15512 40.56984 36.30105 33.33900 30.24338 26.42134 26.64258 25.54317 26.12632 25.96538 24.45470 26.41698 23.97504 26.79644 25.13643 24.44093 24.44902 23.70044 25.07878 25.44829 23.54020 24.89882 23.47908 26.46062 25.10925 24.07339 23.98110 26.24980 26.17573 24.80752 23.39790
27.50955 23.97101 27.45466 27.12252 24.86565 26.62911 23.58319 26.93947 25.40309 23.62159 24.90400 25.27618 25.76843 25.18819 26.08377 25.16284 25.37172 27.43695 26.57593 28.32488 24.34073 25.66462 28.33215 27.69861 27.29043 29.77436 31.53459 32.04635 36.67850 32.19949 37.13815 36.06058 31.30607 35.41403 37.72984 39.10538 37.49335 36.10003 36.05723 34.80176 45.28937 48.73409 56.12606 57.02741 55.97769 48.86344 45.78614 46.75136 39.43791 42.34706 51.40626 55.92403 67.06699 69.67744 62.30118 59.80908 51.26620 49.87227 60.74008 67.22181 71.28178 71.44975 71.86622 65.84064 57.27564 60.31842 62.89206 57.73208 58.39503 62.85904 63.45189 61.15913 54.64673 49.42149 42.53864 42.89965 50.45107 57.26053 63.23779 61.67609 53.92286 46.30616 39.44592 32.72245 31.31723 27.11835 29.95547 29.49150 36.77478 40.13876 41.74065 46.49245 42.14405 39.92782 36.48051 31.97899 27.16746 28.74025 27.39807 28.51408 28.29424 24.44795 25.92364 27.65319 24.57526 27.73684 27.66259 22.99395 24.42392 25.34768 25.38926 24.63568 26.31802 24.26177 25.11535 24.93957 26.45591 27.77122 27.55775 23.94523 25.60905 25.12635 23.96657
26.56449 24.82316 24.97734 26.70362 25.32697 27.43460 25.28844 24.41222 25.84962 25.57485 24.89043 24.79973 25.73313 25.74236 24.35573 24.40569 25.54512 24.09706 25.44149 28.40655 25.32326 25.28495 26.43686 26.06321 27.63362 27.01719 30.04259 32.03658 34.77588 35.98483 35.93605 37.80545 38.07388 37.91022 39.46495 41.24220 40.16201 38.60586 32.54133 33.13956 39.90956 47.58491 57.12167 62.25222 60.38443 55.88161 51.62059 44.94512 44.43990 40.58649 50.34957 54.98855 65.67707 71.58914 69.64399 63.33429 55.73461 55.88081 64.58943 74.74543 74.75665 75.06913 75.60009 69.21943 63.96923 68.86295 69.87859 65.48738 66.43679 71.91949 67.77221 62.55140 55.21635 53.25122 49.99428 48.66858 48.69470 60.96981 61.44756 60.68419 51.35178 46.37441 36.93107 34.94921 30.80879 30.63585 31.58729 34.59805 35.52919 42.10381 45.83063 43.73568 41.45028 39.80885 35.82682 32.32863 29.09835 27.69658 28.57561 26.91100 28.78062 26.75445 29.08026 24.54914 24.84557 27.85504 25.94171 25.03264 26.13385 23.93939 26.11695 23.89399 23.73004 25.53892 25.78692 23.86670 25.53198 26.12295 25.02809 23.08086 25.68910 25.79871 24.49104
24.74203 22.95513 27.73104 23.17016 23.56558 23.94717 26.72992 23.59010 24.82007 25.27594 26.60815 24.97743 26.27025 26.64400 27.15351 25.21595 24.26365 28.34855 25.68341 28.09494 26.17282 24.95269 26.43033 24.32762 26.38775 27.82232 27.83805 30.28713 32.00706 35.20733 37.66969 39.36669 40.76418 39.73003 39.99323 43.27875 43.06324 39.30432 36.50327 36.26275 40.56752 47.45147 55.92307 61.73380 63.25180 63.92490 57.23787 55.11056 48.79542 47.34458 49.40912 54.96135 64.12946 74.44458 77.16407 68.77061 62.94967 59.52656 64.23043 79.47452 82.86771 84.41455 82.13190 70.86646 71.61604 76.51929 74.20053 72.09062 75.34281 80.07012 75.04445 62.13119 61.77292 60.07158 52.04799 54.25289 57.39216 66.23684 62.71138 56.32072 49.10094 38.83804 34.13386 33.39599 33.85727 33.09334 34.50061 38.52068 39.34534 46.22955 48.75054 46.66619 42.68004 39.43380 32.58065 29.14168 31.21871 28.45635 28.24714 27.97966 27.79403 27.76585 27.63852 24.77793 23.92767 24.16003 26.42642 25.62063 26.66357 26.88095 25.55362 26.39745 26.76696 25.39579 26.53325 25.35118 26.73077 25.55478 25.18066 24.65719 26.07829 24.61510 24.63237
24.58106 24.60854 26.62642 24.35416 25.15755 27.25195 25.66057 26.07501 25.22922 22.61480 26.95322 26.57229 27.78040 24.95350 27.00254 26.23042 26.26075 25.86948 26.53938 26.77924 27.96787 26.00472 24.80048 25.59072 24.82265 27.91224 30.42093 29.24457 29.90390 34.36055 33.30358 38.73377 39.95119 42.91484 43.48028 44.61498 46.47951 44.86072 42.92508 41.19918 43.88389 46.52282 51.99627 56.80018 66.80875 67.88844 65.77983 58.89669 55.83373 46.76913 51.42648 55.22998 65.97086 76.14491 79.56937 78.90552 72.17340 72.01666 72.55516 79.09773 84.93493 87.82296 83.65429 81.40486 78.64771 84.42250 82.70871 81.91578 84.59449 83.45308 73.50440 70.35324 69.18157 62.82710 59.96138 62.15281 66.46171 67.83277 60.33027 52.49943 42.18658 38.54903 38.82728 36.14998 33.34315 33.79257 38.86978 43.20541 45.40161 49.20624 49.90811 44.27648 42.00748 35.74476 31.80187 29.42578 32.13320 33.62137 30.79084 30.13654 28.82420 29.22426 26.03721 25.20346 28.59408 27.60032 26.33121 26.20855 26.42731 26.19749 24.12268 24.37534 25.40990 26.56879 25.77297 24.96444 24.35240 25.72323 25.93211 25.51033 25.38909 25.86046 23.13240
23.96864 25.25085 24.28267 27.74509 26.35023 25.68167 24.04047 24.98827 23.77565 23.98493 26.11431 26.63558 25.81463 22.99965 23.76311 28.02831 25.79877 25.22718 24.61787 24.11024 27.32272 27.72304 28.18211 27.80280 27.29713 25.96419 27.95623 27.18811 29.17322 28.20272 30.87477 36.47040 38.47866 43.72761 46.78298 47.39973 49.87400 48.25691 47.33290 46.90130 44.95915 45.37883 53.97981 61.36283 69.22666 70.76304 71.07873 69.08996 59.17742 56.10972 56.77773 63.01538 65.95291 78.71014 84.69209 88.19080 77.92386 76.65818 82.84848 89.25180 91.27912 93.07043 93.94162 91.88981 88.79718 90.56934 89.30169 87.24365 89.02801 83.87543 78.16765 77.44133 70.10710 68.39835 65.86495 67.19811 73.05824 71.91476 62.65012 56.96042 47.28979 41.50471 42.00184 37.51387 35.90084 35.99195 44.28650 50.08851 53.82662 51.90429 47.60291 42.95327 39.02410 34.55364 32.68771 34.45524 35.86897 32.88692 28.84709 27.84550 26.99036 28.23916 27.52126 27.50821 27.88734 26.99570 25.54597 26.03730 25.90261 23.90650 28.18030 26.17258 24.85502 25.53518 23.54303 26.67345 23.10195 23.88369 24.38274 26.64649 26.44796 24.82941 25.97674
25.89267 24.03080 25.25771 23.58211 24.54815 27.43201 24.69882 26.00978 27.28811 23.73025 27.21731 23.83701 27.06423 26.35372 24.42791 24.82760 25.39675 23.80758 27.44660 25.29537 27.13462 26.69050 27.61841 27.38335 28.69391 31.84011 27.75118 26.88931 29.59531 29.60965 28.52243 31.95826 39.02341 44.17542 46.81735 51.41354 55.76745 58.12321 54.42651 54.78687 45.73524 45.41936 53.85052 57.71253 67.71028 78.55455 78.88736 70.80645 70.06376 62.95523 65.67279 66.41357 73.90458 79.37409 88.45553 95.50474 88.27008 86.24016 91.91802 96.60105 95.88366 99.74623 102.65627 97.10430 99.12663 96.30875 93.88500 96.62640 96.90794 86.47587 85.16230 83.75345 79.64310 74.10292 74.59684 80.98979 79.59861 75.68813 63.16734 51.30160 48.54787 49.25644 45.84175 38.27407 39.74276 46.25873 48.59531 57.52385 58.37601 54.29594 46.01643 41.21156 36.15369 37.87907 38.58227 36.42845 37.83588 33.40077 31.29027 34.34332 30.01564 29.14837 30.40660 27.91195 27.71085 28.38448 26.70339 26.94295 25.64047 25.04280 25.00003 25.42147 25.85934 26.61290 28.00080 25.31689 24.97076 24.16834 25.29003 24.89370 26.83727 24.84933 25.56873
23.97106 25.92666 26.39766 23.46491 26.00331 24.04108 24.91651 25.41133 25.76219 24.26788 24.62889 25.01314 26.60395 25.73264 26.72533 25.68158 25.21270 27.22082 27.84610 28.67303 25.75841 26.66957 30.45142 28.70930 30.26622 28.22728 29.15647 29.88400 33.58672 33.60878 30.46532 31.34631 33.69656 40.09561 44.66061 51.91597 57.62357 61.41741 63.26738 59.37297 57.16292 51.01618 50.52705 57.71380 70.42723 73.53075 80.56867 78.18267 71.31749 67.38932 74.71793 73.02383 77.29574 85.02906 91.57043 96.66721 98.63268 95.82413 99.93566 105.85123 104.37603 102.43895 106.43502 105.77061 105.62197 104.41409 105.10766 102.28980 102.12596 97.21864 93.30846 89.70579 88.22567 82.88067 82.19903 82.87681 80.36425 75.90702 64.37581 56.85020 56.98308 54.03655 45.95217 45.43788 48.22786 53.68712 57.57846 63.35067 58.79884 53.78548 47.98483 44.95157 42.81501 45.49862 41.10560 37.62851 38.75294 35.30852 33.60755 31.87619 30.80459 27.53652 27.78072 28.68873 27.60356 25.04208 27.10439 26.31157 24.75265 27.17022 27.34291 26.84683 26.94534 25.27919 27.30817 28.23258 25.30630 26.80911 26.07441 24.33262 25.19811 26.02673 25.28791
28.88319 24.72168 27.10554 26.50368 25.44140 25.09729 23.62505 27.11836 24.74068 24.84869 25.73001 26.70547 26.49033 26.44915 28.43106 27.57109 30.55365 27.54791 27.85858 25.86955 26.18002 27.20863 27.00410 29.85699 30.78194 31.07631 33.10368 34.24362 36.53161 35.53402 34.78891 34.27936 33.93253 37.52480 40.68860 51.73437 56.11273 63.95776 69.16995 67.09058 61.22762 57.62516 53.77126 55.96190 64.87903 70.71478 81.59390 85.69276 79.81384 74.29290 84.08669 81.64087 88.35304 91.50318 97.96026 100.82926 102.93035 101.16841 104.33516 107.57907 108.62641 109.57120 108.30052 107.83569 109.28731 107.75979 107.46795 107.89973 103.39327 99.82483 100.81566 98.19323 96.21621 95.73550 90.91917 92.01267 81.48257 75.17029 69.79839 60.78154 62.70365 55.23481 51.32766 50.30285 50.17053 57.58759 63.02893 65.41381 62.91436 55.88122 52.12216 50.86344 47.87592 45.89396 44.56982 41.48935 40.65435 37.34797 33.55899 32.88722 30.43697 29.20153 27.61400 24.15210 26.31342 25.23657 24.84997 25.15835 29.26853 24.04008 25.31546 26.15594 26.10984 26.20267 25.71225 24.78722 25.85926 23.99637 26.30177 25.75552 23.87752 26.66450 24.94543
25.19057 24.51187 25.27852 26.62283 26.41086 25.36396 25.43882 25.40400 25.05783 26.12216 26.50630 23.21545 24.71584 26.35898 24.76829 25.59621 25.06467 24.74462 29.78433 29.44676 28.00907 33.25900 29.96145 30.33634 30.04991 31.23198 31.79085 35.18455 37.56287 40.40351 41.13862 39.83428 37.43356 34.22510 39.56544 44.38645 50.91555 60.46009 68.49392 69.72154 72.11075 67.42424 68.08711 64.15223 66.52614 70.44919 78.61554 82.83606 87.35260 88.28012 92.20334 92.08433 93.56545 97.15396 104.68903 106.77655 105.30687 104.85962 108.77249 109.11965 107.22661 107.86598 110.41913 109.00058 110.80516 108.95104 108.74708 110.82464 109.85740 106.62215 107.58366 103.64374 102.56588 101.68985 100.66196 90.62620 88.04251 84.11076 74.67257 66.53586 66.67678 52.88278 53.18995 58.78550 61.91499 63.73839 74.05146 67.32200 61.87053 59.52621 59.22019 52.48251 52.91568 49.16082 48.02174 41.36024 40.21483 34.86001 29.45099 26.46291 28.94557 28.56576 25.19227 27.32240 25.08697 26.43155 28.53245 24.77073 26.26963 25.94830 25.80164 26.94014 25.05867 24.90295 24.39052 27.93055 27.11895 23.03664 24.05670 24.97106 24.14664 25.64311 22.61735
26.65808 24.73617 27.07041 22.91243 25.74721 23.64579 26.60106 24.31839 26.09047 24.97081 26.13290 27.11610 25.17343 25.43007 26.43567 25.18234 26.58321 28.23282 29.48091 29.08857 28.09429 30.93379 35.83210 30.83760 31.26304 29.81448 31.41104 36.31595 43.56438 43.41618 44.75077 44.86632 43.72616 41.46456 38.42078 39.81029 49.94540 58.19298 67.22005 76.24628 76.64032 75.77035 74.47932 74.70336 70.82437 71.53245 78.79010 89.00264 93.19765 95.42466 96.67699 99.71458 101.77094 104.62540 108.21562 108.60978 106.60015 108.79988 105.96162 109.25830 108.19254 110.14896 108.74363 107.53544 110.10033 107.90069 110.06995 109.24489 107.74585 110.01643 109.28849 107.41300 108.65591 108.00914 103.66015 101.47339 91.97705 82.72042 79.72623 72.14606 66.15482 59.51668 60.36005 62.83919 68.95005 78.07903 76.44978 70.83771 65.61969 59.49677 53.71141 55.56324 53.43344 45.25597 42.58889 40.93914 34.64969 30.33859 32.14067 28.42951 27.42075 26.71676 29.57947 28.47420 29.48396 24.66718 26.90233 28.20806 26.11713 26.28113 25.34196 24.43113 25.62604 25.99758 24.72881 25.03912 24.34986 26.47825 24.36665 28.29245 25.35898 24.95770 26.56551
24.99542 23.84184 25.40345 25.91357 24.73218 24.39910 26.87441 23.27824 28.13863 25.76814 24.81145 25.28549 27.22860 26.53022 26.90017 25.06638 24.84930 26.08289 28.66192 29.99618 31.68966 34.26956 34.60735 35.22237 31.80690 31.20036 33.70186 34.84059 38.64095 45.00354 48.18738 46.13772 49.00839 46.79696 43.31293 42.26196 48.66282 55.98025 67.20541 72.90729 80.05724 79.28695 79.86143 81.88531 86.17447 86.10601 88.00685 92.36834 98.59195 101.63811 103.43198 107.51477 106.49550 107.30160 106.11692 109.73158 106.13877 106.06118 107.28254 105.26492 104.84911 108.25245 107.86058 107.49217 105.54029 106.47257 108.05735 107.97602 107.41658 109.13881 108.16875 107.73570 110.02811 107.08724 108.19077 101.56231 100.61686 90.81137 84.83504 74.21315 68.54683 70.01219 72.26688 72.34579 80.42613 78.36188 78.53680 72.11861 64.71359 58.24442 50.17153 47.62726 47.74516 44.03517 37.53154 36.83149 32.95153 32.65397 27.25251 29.28521 26.63188 30.19958 27.40066 30.38358 24.73557 30.48010 26.71041 25.74891 27.87114 25.67646 24.84836 25.04383 25.96326 25.48968 27.09513 27.05402 25.07959 23.67983 24.75075 23.82822 25.18156 23.52441 25.75275
25.03668 23.86599 23.87259 25.85968 24.76376 26.97223 22.98840 23.91751 21.77635 25.14071 25.56717 23.98700 24.52947 28.33444 26.38781 25.24323 28.50487 29.48046 27.36955 29.70038 33.83355 35.05333 39.83132 40.70723 38.19734 37.36377 34.69964 35.57041 37.03486 40.11694 45.91979 53.00907 56.97969 54.63506 51.78350 50.07285 46.73015 53.98782 64.71378 67.44677 77.49415 85.91660 90.70852 91.42531 89.54949 92.10171 91.21847 94.11345 103.83786 106.84192 109.90730 108.03090 108.81425 107.69158 106.87021 107.37314 107.33885 104.16745 103.33647 105.50774 105.09957 105.59607 106.85971 105.46265 106.95709 107.12512 104.00861 105.57144 104.24017 106.18940 104.11794 105.84818 111.34290 109.59200 108.53528 106.77489 105.81677 96.43021 90.00266 83.80917 78.56836 77.78060 82.80364 84.24588 84.93222 83.01323 79.40444 73.51909 62.53481 55.03910 48.59482 45.51211 41.19998 37.86031 35.91051 31.19439 30.27176 27.53563 27.11698 30.36573 29.65279 31.55927 30.11835 29.74205 29.88018 27.38190 26.97874 25.94989 26.90509 27.08660 25.54775 26.08238 27.16870 25.92376 27.64728 27.23854 23.95021 26.07219 24.46621 24.92908 25.47879 26.19083 26.28838
25.44862 26.09792 25.57866 24.86364 22.40658 25.52895 25.32868 25.00154 24.98857 27.25133 24.17366 26.63453 24.32107 25.05078 25.62696 27.50707 26.97341 27.08367 27.90915 31.59128 33.05712 34.95266 37.90846 42.54367 44.03337 43.59271 41.08127 41.68408 41.22354 41.63120 46.75808 51.53099 57.71095 61.83223 56.15827 52.31459 51.99877 52.60545 56.19908 62.81950 72.64748 84.58107 92.69649 94.08311 96.64727 100.56927 101.34158 103.98036 106.85694 106.78659 106.34674 106.42170 109.81122 104.65623 103.11040 106.62804 104.63724 102.50963 102.21157 104.44451 101.62597 101.46108 102.94684 100.94817 102.89641 106.79837 102.98674 104.53020 102.93005 107.73411 106.04479 105.66961 107.18645 106.61323 110.75863 108.17486 108.10052 102.13621 95.44463 94.17991 87.33414 84.78006 92.01826 93.64787 87.83957 84.28720 75.20007 66.26325 58.88516 54.13674 51.46992 45.13967 39.41671 35.60516 33.39461 32.59435 29.02006 30.19314 31.81290 33.50124 33.33511 36.62516 32.16750 29.25388 29.30276 26.73391 27.91847 28.36284 27.10288 27.45612 26.55396 26.89278 25.46189 28.15819 24.49773 23.92778 26.98300 23.13116 23.55312 25.77461 25.38879 27.48727 30.90086
25.39442 25.18309 24.95170 23.90679 24.96492 25.65542 24.45447 25.82370 27.33591 26.66371 24.49061 25.92556 26.69816 25.84757 26.04638 27.76247 26.39895 30.86634 31.13636 33.59010 35.48756 33.97666 39.15194 40.28008 44.18007 44.71472 48.82017 51.64763 52.96199 48.60118 49.76741 50.31422 59.27546 65.37731 66.94701 66.12280 61.35308 61.55630 58.34827 59.57943 70.95503 87.00027 91.89958 97.80938 104.28391 105.78744 105.16868 106.40879 109.35081 107.14779 106.22811 106.68424 105.44196 105.64234 105.80528 102.17337 101.60363 103.11307 99.57015 102.42580 100.39426 99.81741 100.29611 102.67633 102.23226 99.68912 101.93136 101.58069 101.44297 101.37421 101.17034 102.18829 105.75323 107.28035 108.31425 109.37802 106.33815 107.02810 102.25414 101.74046 97.79687 97.92408 96.73772 95.76811 85.86045 84.42184 74.99018 66.02462 60.37215 56.96596 51.40571 48.90717 42.03567 36.85646 32.76636 30.45828 36.22244 33.30428 34.06725 35.85064 33.75737 34.95488 32.40350 28.94813 30.30080 28.95645 30.07167 28.79164 28.72055 29.41027 27.39333 26.63483 24.84212 23.67518 25.96283 26.05079 25.29241 21.85812 24.81677 26.05044 26.36303 24.58815 21.83612
26.70739 25.05593 22.56150 24.94013 25.21555 24.05035 24.46971 25.48166 22.67000 25.72343 25.62841 26.24648 25.41722 26.04149 25.44699 25.97263 25.31078 29.93577 29.54485 31.89685 33.61592 36.66335 38.95108 43.89029 47.50472 46.20754 48.67095 52.78213 54.38376 53.23243 55.32819 55.23307 56.83269 67.42902 71.19604 74.44579 66.79816 68.15036 65.91225 63.90157 67.40793 81.94023 91.12005 99.90391 105.80686 108.30766 109.14743 108.59017 107.16049 106.21644 105.66760 107.57730 103.44864 103.61478 101.32932 98.33264 99.03458 100.51110 96.85751 100.66836 101.56770 99.68263 100.37098 98.73389 100.59948 101.98956 100.23984 101.82154 100.93436 101.27340 102.56626 102.36326 104.31575 107.07302 106.18915 106.39944 107.51678 107.50066 107.26793 103.12496 104.39588 102.45750 100.67279 96.97523 89.88503 81.78434 75.77954 68.02841 59.81864 52.39260 50.14909 47.12206 40.39262 36.50276 34.18798 38.11310 39.67854 36.19951 41.42061 37.38415 37.53113 35.01649 31.31144 32.18690 33.07168 30.01686 30.93144 28.66029 28.33178 27.72330 26.96235 27.90527 24.84198 25.59935 26.20139 28.09547 26.05723 26.82273 25.57897 22.80321 26.92648 24.50408 24.98884
24.96375 26.20039 24.66942 22.52611 27.94323 23.36173 24.20794 27.58527 27.08832 24.64414 25.59258 23.87230 25.69462 24.24275 25.54424 24.39865 27.09099 26.30092 27.96679 30.06283 30.27019 33.18086 32.70508 38.25372 39.17574 40.34259 49.03359 51.74562 57.67917 59.37244 61.90060 66.85671 66.68340 72.66709 75.33378 79.41965 82.92272 79.85437 78.49531 83.08766 79.30078 83.68298 91.60232 101.63474 104.68628 106.67342 107.49322 107.43808 104.12184 103.77890 106.32546 103.09399 100.96474 102.56569 101.64717 101.37148 100.45711 97.46864 98.64032 99.68185 99.87693 99.85436 101.39579 100.08129 98.85931 96.80105 100.02468 98.04464 100.11405 101.26531 98.90095 101.42917 103.60554 103.00662 105.01233 106.79803 107.50600 106.82246 109.42156 109.79395 109.76704 106.27221 100.91267 91.66845 85.93388 80.86979 72.95168 61.95643 51.57814 48.16245 43.24509 38.40051 38.55278 39.12853 42.64022 49.89086 46.68392 48.41303 45.51878 40.62622 37.10499 36.98459 37.81650 34.84069 34.89076 37.18325 31.01257 30.68346 28.78515 26.90375 25.51964 25.44307 26.77824 27.29077 23.92191 25.53937 26.46549 25.87360 26.12969 24.41879 26.36207 24.64928 25.39468
24.16156 27.35017 25.71634 26.00937 23.28694 21.83385 25.76397 27.15684 25.89869 24.42046 24.88312 24.00963 25.50549 26.73212 27.99961 27.18410 26.55266 27.84154 26.91125 28.21729 30.26698 27.61114 30.33020 33.07379 38.45066 38.51915 44.49320 48.64349 54.07691 55.75140 64.25610 64.13640 68.33881 74.48484 78.05471 82.89063 85.92633 86.46036 89.34346 88.05490 88.61551 90.29729 96.35003 102.87781 105.64396 108.31101 107.99923 108.44847 104.02866 105.48800 103.17590 100.57609 102.25690 100.09488 98.76014 97.39238 97.93328 96.51043 99.12649 97.76549 99.36850 97.97069 97.44052 98.58868 94.62556 97.45341 98.79949 99.07760 101.55051 98.64362 100.92404 101.23225 101.20907 100.53370 103.53669 104.51886 106.31630 106.89401 105.25047 107.61071 108.81422 107.32724 98.56162 95.98547 81.13989 74.14061 62.23146 58.00230 51.45624 51.18933 45.82984 42.22267 46.32803 49.53655 47.58126 54.92612 51.23858 53.02432 49.24707 45.84144 41.38054 38.51778 41.84472 40.29066 41.13794 36.13473 34.90690 30.50058 26.87073 26.12859 26.77563 26.26782 26.15720 23.44521 26.15799 28.50582 22.88411 23.94424 26.11079 25.00549 25.95861 25.44431 23.93864
24.09650 27.04398 25.23736 23.41245 24.60950 26.21632 25.38421 27.81882 23.12237 25.31719 23.28242 28.44953 28.29066 26.72944 28.93022 25.04841 25.75019 26.75434 24.04182 28.33613 27.55718 26.59830 30.40446 29.69616 32.71338 36.59380 39.07989 42.22009 47.48642 51.15898 53.23895 60.91681 63.95337 67.93576 79.47804 85.15466 88.81171 94.01282 95.35619 96.79047 97.83949 97.36871 104.80626 105.34118 108.31776 106.86852 104.28399 103.77312 103.32209 101.95206 102.08577 100.10172 101.92193 99.62155 100.07195 98.96071 99.88547 96.11043 98.49237 99.68635 98.77226 98.77865 97.41013 99.45597 97.33416 99.16044 97.30052 96.69873 96.90469 98.52640 99.53623 98.96197 100.09834 101.04073 101.69117 100.46226 103.80096 105.25078 107.90073 108.11960 109.31878 107.52192 101.80853 94.31507 78.76748 70.49831 63.15490 62.26408 64.61477 57.98931 52.83903 51.04743 54.21316 56.08817 60.94019 62.44871 62.12653 59.55943 50.18459 49.04480 47.20604 45.71650 44.64596 40.01297 38.02684 34.59188 30.56437 29.13188 27.31207 25.74689 25.50842 26.40673 26.05013 26.54535 27.60667 24.62673 24.14872 25.22103 27.34680 27.49501 26.52834 25.57955 27.78189
23.61191 25.34646 24.82868 26.20409 24.40402 23.84202 25.43015 24.80215 23.33199 26.83446 26.91944 26.05316 26.04579 27.07501 26.04948 28.27882 28.60654 28.41515 25.62069 26.94444 29.76266 27.74523 27.70165 28.57771 30.57409 34.68259 35.58369 38.68726 38.18700 44.54741 50.59053 50.62354 60.00993 62.53095 68.31785 74.29853 84.68024 90.62211 95.80816 101.95655 103.93246 102.34259 107.49137 108.64658 107.01965 106.20890 103.63743 100.85033 101.23191 101.08282 97.89139 100.25674 98.98645 97.62429 98.92032 97.94628 97.96734 96.27424 97.63642 95.27069 98.42549 99.77853 97.53248 98.43910 96.57088 97.39453 95.56106 95.94085 99.58599 97.87461 97.41059 96.58911 100.80045 99.46463 101.77752 101.60472 102.49235 101.50584 105.66095 105.46606 106.88554 105.97954 105.41101 95.38184 88.49546 77.27324 73.03136 70.91177 67.25982 64.04570 65.61026 59.44655 58.41132 63.96886 65.35862 67.98237 65.00423 58.57556 56.23492 53.45707 50.47147 48.28404 43.79999 40.37631 34.95073 32.42834 28.24463 25.76147 24.39806 27.21083 23.10001 25.00250 27.35073 27.66160 27.10945 25.99757 23.28322 26.16729 25.25637 24.68331 26.13477 26.42708 24.28424
25.34034 24.77213 24.23873 23.90348 24.37942 25.42627 25.44434 24.32800 25.63024 24.40894 27.32831 25.20018 27.89457 26.61542 27.91557 26.72701 28.68419 29.75031 28.92254 30.48343 29.29352 30.95738 31.28968 26.81917 29.93445 31.43400 33.15271 34.85754 33.76935 39.00015 39.31311 43.89076 52.32540 58.99832 61.91424 69.82204 70.81167 81.61143 91.88789 100.06435 106.31439 107.70709 108.97303 109.48393 108.00279 106.49538 103.56040 102.24932 100.96884 101.18536 98.70216 100.69790 97.47136 101.26959 98.42395 95.79984 97.69369 96.88764 97.43054 98.83075 98.06832 98.62301 98.46423 99.01035 97.00013 99.07317 98.45543 97.95547 96.29320 99.29306 98.18159 98.37017 97.52428 97.81160 100.21254 99.57615 100.25486 103.19012 103.28817 107.54396 106.32800 107.18830 106.77856 99.89443 93.05039 86.96556 85.46721 78.35521 76.43576 74.21586 66.68869 66.72796 68.36688 69.14669 70.98291 68.39336 67.15492 59.57172 59.02642 50.90844 46.14523 45.19173 39.94556 38.29008 33.15453 31.81179 29.62797 28.86838 24.84147 27.85438 25.82947 25.52298 28.72533 25.51763 25.80802 25.46145 24.65011 23.49412 26.08770 26.23218 23.28310 25.39477 26.70832
25.53908 25.03646 25.41880 22.47406 24.17922 24.53188 26.15861 25.65985 26.87328 25.57780 27.34006 26.26915 26.37511 25.71375 27.34823 30.32889 32.52705 31.84430 32.49017 34.36048 32.83486 35.21731 31.57312 30.39488 33.29969 29.38976 30.57188 32.20455 31.98374 34.37709 34.95950 39.71593 45.46275 49.42366 54.31227 59.05269 64.61642 76.56949 88.03917 98.13439 104.16123 110.16709 107.28827 106.21686 104.88206 102.94747 102.38345 98.76374 102.37636 99.82876 97.47273 96.21308 97.29597 98.11086 98.84887 95.70820 98.55027 96.57394 97.47318 96.31181 95.86715 98.12307 96.89617 96.28030 96.22061 97.74655 96.02883 96.16125 97.62807 98.30067 97.95268 99.62882 97.05162 97.63419 98.35139 99.14959 101.83672 99.71986 102.94984 105.87756 107.61853 106.67208 106.69758 104.34167 98.87242 93.24946 90.70396 90.90626 89.47011 85.48131 75.25115 74.75769 75.52097 73.19276 69.58136 65.67178 62.01043 57.20502 51.02599 46.37800 48.37659 38.80355 38.40778 28.86774 29.82747 27.58566 27.18820 24.36706 30.31039 27.97660 26.69828 28.28868 30.35599 27.13453 27.55782 25.50310 28.35284 26.74565 25.80645 27.04679 27.64451 25.98738 23.15686
22.82789 26.71467 23.99104 24.45575 23.85099 28.30115 26.36978 25.86341 27.29896 27.20191 26.68052 28.87505 27.12411 29.43728 29.76701 33.05083 31.51163 33.50847 33.60768 36.42719 38.26773 34.78668 32.78002 33.97777 34.37533 35.34715 35.64950 34.70699 35.39318 37.34719 39.81209 43.78816 43.07974 47.67612 48.80497 57.74342 66.00218 75.87159 85.50394 94.82831 102.19093 109.27060 108.11317 107.64253 102.53808 103.16625 103.08308 101.07952 98.17460 98.76400 97.47461 99.24980 97.76489 98.25769 96.23798 99.46877 97.62552 97.44318 95.97184 95.17977 96.79208 96.21200 97.10489 97.20902 96.01829 99.17960 96.25488 97.78150 94.16420 97.18187 96.71382 98.29662 97.12681 99.00866 97.18232 98.00811 100.40123 101.37273 101.75779 102.00924 103.70424 108.14901 108.15327 104.65983 109.88830 103.43622 98.76558 97.70320 93.77972 85.74603 84.27940 82.85240 77.35657 71.54485 63.19874 58.09553 52.18003 54.85931 50.50401 43.60015 38.65045 36.82233 32.04888 32.04293 28.27375 26.19052 27.65758 26.82801 27.01016 28.96612 26.78283 29.46502 27.93560 24.84391 26.22319 25.85964 28.35152 24.31399 26.60793 27.28385 26.90132 27.14107 25.99854
23.57282 25.01682 26.56111 28.46150 24.82603 27.42547 26.29637 26.12441 25.97017 23.12894 25.99577 29.66606 27.78222 27.96402 31.67116 31.52156 34.93437 34.70389 35.08319 39.50306 39.94336 41.03212 38.80939 39.16262 39.29122 40.57976 39.90025 40.61465 39.50435 39.99965 45.38506 49.57422 49.33801 55.29443 56.07043 60.49429 65.13650 78.49787 84.75966 95.45734 102.81410 107.45950 107.07545 104.66047 106.46347 100.87814 103.32568 100.84840 98.60716 102.09595 97.48904 96.68175 97.48302 97.88032 97.24734 96.30597 98.55592 100.14915 96.47174 97.76486 97.37600 95.29272 97.23196 97.10592 97.44456 97.57834 97.28689 98.54741 98.90305 98.66315 95.25143 97.23492 95.72233 98.31115 98.90844 96.35974 99.85938 96.21605 100.14488 102.91449 104.57325 106.11224 103.54104 110.94820 109.45036 106.01288 105.43535 96.65366 94.83881 90.79019 85.64920 77.81799 74.93188 62.90345 54.91991 50.23702 49.02161 47.94886 43.03501 40.12886 36.27523 28.68604 31.64474 27.18519 29.42073 26.41540 27.63872 27.70308 29.92769 31.52555 31.25927 27.12767 30.81036 29.15788 26.92082 27.75139 26.15147 26.20516 26.73285 25.77979 25.20698 24.56428 27.08081
25.88018 25.34575 25.90010 26.82970 24.84861 24.57765 27.13208 26.39904 27.05383 25.21639 26.89240 24.57700 28.23299 30.08634 31.91934 29.49253 30.39129 31.32690 31.45439 34.54394 41.68705 41.17311 45.34708 44.56263 46.84767 48.51631 47.60478 44.95115 45.03744 43.76407 47.18424 53.74626 60.34679 64.27318 63.74931 73.12454 78.58352 80.67676 88.20596 101.08367 104.09135 105.18765 101.93336 105.47834 102.01208 99.35540 99.88656 100.00947 100.49703 98.21682 99.78017 98.14694 96.84617 98.50928 97.72835 98.60124 97.99464 96.55674 96.35017 97.28745 98.52961 96.84885 96.43139 95.43258 94.89927 99.01551 94.90054 97.95508 97.43678 98.53171 97.44839 97.55444 98.28889 95.81441 97.68321 98.57351 100.01829 99.89858 98.91885 101.51968 102.44124 102.12302 107.76279 106.42169 106.70061 108.27696 102.54441 96.06265 91.47821 86.83137 78.42422 71.39629 66.71361 56.98970 54.37020 46.66373 47.25433 41.09226 40.12534 38.25600 33.46254 32.11781 30.46903 31.47984 31.71574 30.08157 32.88292 32.59094 34.08529 30.61030 29.61581 31.70123 28.85774 27.33184 25.50964 27.37375 26.60531 22.31780 23.53420 26.67920 24.23330 25.17941 27.91624
27.45181 25.25226 26.89381 26.46969 26.00565 26.09333 23.47086 25.58089 24.95525 25.22195 25.61612 26.68242 25.72871 25.35697 28.01370 28.39723 28.64415 27.95056 30.58026 32.72871 36.02011 38.68073 44.43096 48.26309 49.96861 53.27221 52.99483 51.41374 52.06505 48.72037 53.28800 56.20163 67.44600 67.66302 77.69721 80.14957 84.38993 92.97093 98.17164 101.60794 107.92413 106.74074 106.83960 104.91209 101.67737 99.55262 99.23981 98.82269 99.74927 97.74290 95.65280 97.43506 94.82427 95.52840 97.08136 97.01989 98.31105 97.47268 97.27838 97.36605 97.20732 96.60153 97.82011 97.92289 95.08587 97.51712 96.78929 95.80511 100.75220 96.67472 97.63194 96.99910 96.61514 97.78751 98.62652 98.88604 97.84833 98.79055 100.42936 99.79030 100.36331 102.89754 103.94518 109.06517 107.11180 107.82447 105.09004 98.98654 89.25813 83.99835 72.27981 67.20197 61.18677 58.34860 59.45955 55.56306 51.15302 46.29436 36.89263 33.61532 36.30610 35.93946 36.01127 32.55036 35.11177 34.07969 33.99306 30.74762 33.47346 33.69692 30.91488 28.89811 28.44727 28.12296 27.86823 27.51371 23.49576 27.13756 24.86943 24.69549 23.50749 24.34437 25.81274
25.41109 24.94272 28.30561 24.19375 24.59509 25.95739 26.07800 26.89663 27.43448 26.35565 25.19123 27.62304 26.96722 23.70385 25.61842 26.37464 26.99991 27.98314 29.65781 32.59627 35.97087 38.74133 41.79344 44.30820 50.00862 55.13346 57.00447 62.25766 63.87075 59.73836 60.31215 60.49477 68.00679 77.66048 84.73053 83.57145 93.28746 95.34027 100.10225 108.41139 108.04370 106.28145 106.58937 103.49133 102.48201 99.80567 96.67260 97.03004 97.67221 97.53524 99.09248 100.17320 97.80104 98.96672 96.78671 96.24190 96.45272 98.88192 98.50886 96.29823 99.59946 97.81260 97.51091 99.90746 97.30566 100.50317 97.43012 97.00189 100.48559 96.91212 96.20228 96.63903 98.45326 96.91979 96.80491 98.09657 99.53909 98.39680 100.44821 100.49919 100.85267 103.26952 103.14218 104.81551 109.99066 106.26120 104.17784 100.29249 94.03675 84.63421 77.84272 75.09239 69.94931 65.72201 64.61435 62.10948 55.54205 47.33013 42.11450 39.03369 39.35249 37.75204 38.33960 36.55053 37.19186 32.34881 33.69909 31.89113 31.39287 31.02924 29.97381 27.89825 28.32629 25.56746 29.43507 26.95863 25.23255 25.21962 27.72798 26.08648 26.14416 24.41688 25.94684
25.22397 25.68044 25.34171 26.84185 25.41053 24.83775 25.42519 26.15478 28.51453 24.04732 26.94096 25.49894 27.29409 26.31854 24.92904 26.78039 29.71930 31.85136 33.51959 31.94453 33.53958 39.85128 44.08324 46.87598 54.59648 59.89794 63.83326 64.91912 64.59456 68.15280 67.01436 71.36460 72.59483 81.38911 87.28963 92.72708 100.07118 102.89127 104.65296 109.39401 105.77404 105.44717 103.84182 99.97289 100.73691 100.53351 98.88388 96.39390 99.12862 96.28700 96.31489 97.11854 97.34224 97.98663 95.39064 96.48068 97.78436 96.20650 97.53879 96.71900 97.83625 97.85980 99.45118 99.63802 96.18102 96.43815 96.68925 96.37769 99.43075 97.15458 98.95832 99.58513 96.43492 98.49357 97.62343 98.10192 96.54407 99.64593 100.90678 101.03079 100.38558 101.92145 103.61850 105.34254 107.63649 110.76378 106.36431 102.38817 95.24204 89.60333 86.93249 82.01784 78.66148 75.12491 67.52107 62.00140 52.38913 50.02198 43.63586 40.18198 47.69197 43.25652 41.71598 41.28952 35.50727 34.63114 32.00336 28.79426 28.44706 27.35220 24.46230 24.87856 27.77811 26.65626 28.65826 26.34437 23.07495 26.87263 24.29134 25.03958 27.61959 24.91540 25.65553
27.25501 26.07142 24.46087 25.05347 26.05618 22.95754 26.87568 23.53265 24.42003 26.13188 25.99910 25.82519 26.84157 27.96765 27.26791 29.23288 29.57582 30.76405 35.48097 37.36456 37.64556 40.95469 45.88168 51.50308 54.58703 58.09896 61.85986 64.55139 67.53116 68.91655 67.95335 72.54439 79.36631 84.41400 90.32478 97.76033 101.82206 106.43016 107.74988 108.15169 110.49206 105.87501 101.06889 103.43662 98.26613 98.64898 98.16188 100.11530 97.86776 98.75324 97.41367 97.43157 98.84619 98.24032 95.02645 97.65478 96.80977 98.99296 98.09075 96.64096 95.80108 97.45766 95.34200 96.72904 97.80651 98.93463 98.86499 95.68671 97.58032 94.08970 95.28674 96.82465 95.42004 95.26708 93.95272 98.43145 96.53541 100.62114 97.50934 98.29808 99.41136 103.92528 101.70713 101.81543 108.24164 106.04469 106.05818 102.54318 101.78151 93.89789 92.89796 86.79229 80.15575 78.13797 68.79059 62.04364 53.75121 50.21104 49.00106 50.05103 51.27569 47.96417 43.96172 38.40416 35.73179 34.86768 33.02830 31.42801 27.00894 28.22750 26.46426 26.56624 26.81118 26.28519 24.26655 23.42153 24.83053 25.04377 25.85743 23.48505 27.82920 25.27249 25.42228
24.83393 25.23982 25.54264 24.56450 25.32728 24.27857 26.58163 23.86105 23.57109 26.71572 27.11537 27.80964 27.30927 29.74764 31.40280 29.83025 32.42218 34.03888 36.62392 39.70465 42.21232 44.90779 49.75103 51.51001 49.64130 56.15780 59.12935 57.59116 62.51962 62.51076 64.24786 72.33610 77.08602 81.44167 86.14869 91.47197 103.02707 106.69970 111.08956 109.58316 106.87969 105.81296 104.09444 105.45957 102.49886 100.99187 96.95655 97.35143 97.48552 99.32547 98.07477 95.17409 96.95810 98.74843 98.84652 99.38342 97.91732 96.62203 99.43830 97.80697 95.67201 97.64989 97.75333 95.75802 94.36533 97.80560 94.95267 96.05828 96.93794 95.16021 93.28047 97.52092 96.51301 95.46796 95.79997 97.87423 98.49095 99.64079 98.30433 98.16054 101.48692 103.28744 104.40576 101.25198 107.82884 106.95153 107.23283 109.04575 104.14394 96.80734 91.98532 88.14413 82.73020 77.87303 70.29567 66.32438 60.79544 55.83980 50.58970 50.90843 48.27248 44.86581 41.93692 41.26593 37.55358 36.84992 33.06309 33.41446 29.58443 31.75850 27.42717 27.36230 26.52793 25.82557 23.78734 26.79708 27.02065 26.25471 21.96046 26.16282 25.47347 23.79322 25.85131
24.49669 24.08773 24.62807 25.80425 27.03191 26.54646 25.32312 26.45645 24.89415 26.48227 25.34929 27.27199 29.17785 30.35497 30.30178 31.96925 31.98091 32.99794 40.73609 42.67613 42.90649 44.51835 48.80969 49.16643 47.93311 48.67081 50.90904 51.18742 53.98654 55.54116 57.38695 65.11057 64.88728 73.41499 82.41461 90.90288 96.77769 103.53066 107.98345 106.59870 107.87129 105.17875 100.69860 99.74081 99.23462 98.02264 96.93967 96.77147 96.85971 95.93981 97.59942 94.86787 94.63047 97.90468 96.06598 95.98449 94.83350 98.55057 96.80044 96.06649 98.44941 98.09145 96.89333 96.47895 96.95652 94.51933 97.26529 94.35724 95.95819 95.21017 93.66540 97.54167 94.99075 97.37831 96.89493 95.77921 95.50632 94.90691 98.90318 100.18082 99.09225 103.76666 101.58984 105.09698 107.22105 106.85649 107.61833 106.77399 102.57066 97.90944 95.31837 85.43731 80.47255 70.06794 64.39450 60.78164 61.03121 54.05576 52.01720 47.03638 45.62143 40.76661 36.83923 37.81051 33.32861 32.20671 33.66199 31.32368 30.80215 28.15081 27.97205 25.49390 26.17550 25.99623 27.08857 27.97483 21.05315 24.83685 22.93293 21.77945 24.65648 26.55114 25.92288
25.43966 27.80718 24.41650 26.48648 27.49466 27.01260 24.89636 28.29930 26.70089 27.65662 26.57468 28.47961 29.45104 28.26694 33.28395 33.68987 35.21328 38.00103 39.05608 40.73055 42.34925 42.96515 45.04357 42.40537 40.34182 40.03795 44.64518 44.51992 45.36510 45.70265 52.14582 60.70290 65.85453 73.06201 80.95212 92.41949 99.66165 103.99970 107.55509 107.54018 103.69998 105.59479 103.20010 101.32506 100.99672 98.28729 97.74665 97.79263 97.73351 97.09359 97.01103 97.21591 95.51403 96.93031 96.67876 97.99759 97.90419 96.63269 96.28505 96.93000 99.29797 96.56509 97.88731 94.37812 97.38862 96.31907 93.83440 95.35762 94.04431 90.77017 91.50595 91.37097 94.46753 95.94973 97.58694 95.73281 98.15135 99.49017 99.39711 97.35430 101.19981 98.08504 103.73511 103.98771 104.05224 107.24373 108.97134 108.26250 103.43721 99.89523 85.45564 82.94625 75.49968 69.55331 64.10992 54.49649 50.74810 47.08572 43.31103 36.38306 34.06845 35.80943 33.19451 33.92940 32.88913 29.34011 30.33573 31.05982 29.26971 28.67593 29.03393 25.91718 26.18458 28.78042 24.67047 24.99681 26.90680 26.25671 26.08959 24.01528 26.75162 25.71449 26.13329
24.65889 24.35520 25.81994 25.83093 26.31576 24.13611 27.18841 25.95030 24.73244 26.98785 28.32955 28.54215 29.59715 29.28321 29.12028 30.42700 33.76022 36.32801 35.82660 39.36507 36.33024 40.78057 37.07236 38.09780 36.20650 34.11580 35.73775 39.84709 45.14799 51.65709 55.39555 62.20906 70.85867 73.65162 86.17882 92.95271 100.99816 106.78787 108.05460 108.19871 104.73767 103.29391 104.42617 101.21992 99.24303 99.44937 97.31435 99.56604 96.33120 97.92611 97.09340 98.57437 97.90139 96.78577 100.40031 95.39433 94.33810 96.70170 95.75736 98.00668 97.03787 95.92369 95.72182 97.60672 94.67843 96.49841 93.89553 93.54738 91.67823 91.82513 86.89098 88.21392 90.63671 95.29165 94.33468 96.18766 99.39882 95.77214 99.25180 97.18940 98.49917 100.46710 102.03734 103.49093 105.88563 106.50762 108.97361 107.62790 104.39524 99.12636 92.46098 83.67253 77.99393 72.66414 66.94170 55.84662 49.78099 46.13993 42.33522 40.57007 36.88590 33.34855 30.79883 29.05225 26.40486 27.35114 26.73063 27.85592 30.14970 26.59034 27.40500 25.80030 25.36862 25.87570 26.32653 25.53522 26.17248 24.59113 24.84659 25.37375 27.98856 24.17726 25.78404
26.72621 24.96885 24.78652 24.01058 25.32527 24.17412 23.33895 24.15645 27.87687 25.97752 25.74035 31.30800 28.94508 31.13655 27.63720 31.17721 29.95222 32.29527 35.19968 33.62741 32.07126 32.54515 33.54288 32.07403 33.40865 37.94841 44.33128 42.34931 42.83205 46.70346 53.92769 58.68606 71.42330 77.56837 88.40151 94.12541 101.17566 107.65469 106.67844 108.66147 105.29968 105.72207 104.09171 101.16062 100.50973 98.98679 98.69352 97.80240 96.33993 97.14693 95.85392 97.50622 98.42753 96.72527 95.48191 96.22285 95.81873 95.34039 95.46481 96.93722 96.51031 94.66763 93.11137 95.05898 94.22628 93.95779 94.19012 94.32903 87.62092 88.66967 77.92797 82.60899 86.37256 94.34910 94.72890 95.28858 97.47684 97.24720 98.67834 100.40998 100.53883 100.44879 102.14350 105.38809 104.88636 106.74367 107.84277 108.05967 102.31739 95.40237 89.24157 82.62283 75.70206 61.79535 58.69061 53.43498 50.46443 47.57809 44.43635 38.31925 36.29323 32.11987 32.32775 28.02736 27.27245 28.83723 28.48108 26.08658 28.36700 26.76025 25.64648 25.86295 24.47999 23.42160 24.17744 23.39967 25.15278 25.91484 28.34301 23.16338 25.77121 27.96984 24.30415
24.70404 25.13832 24.76202 26.92259 25.76493 26.04685 26.01793 25.93844 27.12079 25.69959 27.94611 27.15775 27.14246 30.02744 27.05997 27.20986 29.92361 28.88582 28.57886 29.39361 30.98732 32.82566 31.78373 32.53132 36.24962 41.53980 44.65748 48.79557 51.33400 55.53227 60.57217 65.62498 69.36339 81.86532 86.62402 94.47316 101.15122 105.74745 107.74109 108.39210 106.39200 102.56817 99.97499 99.38249 97.48748 101.36667 99.50460 97.82199 97.05397 98.33629 95.60620 98.40288 94.75237 99.12272 96.24610 96.69925 96.20558 98.29498 97.07218 97.22425 97.34780 95.28842 95.83426 93.09117 98.37814 89.88251 87.59625 93.38017 94.50050 88.32714 74.24869 77.83209 78.26638 88.62981 92.77280 95.43602 99.31087 98.86054 97.23115 99.86306 97.50483 99.47360 100.43789 105.35439 107.04937 105.51929 108.00825 107.89719 103.83998 92.28597 84.88028 75.06275 65.66778 61.62640 49.97511 48.12766 43.15788 41.75941 41.95794 36.22568 32.02255 31.72674 34.11850 30.70770 29.25322 28.54126 26.12445 25.56275 27.83088 26.28951 27.70647 25.90923 26.16481 26.07567 25.27809 25.92364 25.62988 26.17972 24.90320 24.56407 23.72868 26.38548 28.62406
24.55888 25.14451 25.49426 24.89127 24.72228 24.93043 25.63991 24.50153 25.69839 26.06551 25.78428 26.34460 28.90914 25.10393 26.06978 25.10748 26.62408 26.41912 26.25721 28.35322 28.21820 28.52900 30.53453 36.28574 38.52415 43.18264 51.10758 52.62426 58.15072 61.65805 63.54324 70.02300 77.99367 81.34366 88.50838 92.94095 100.84737 102.74998 106.95535 108.17339 108.26940 103.98767 104.29237 102.42782 98.98590 99.87753 95.47401 98.05442 96.78733 97.24396 96.93050 98.53178 96.12164 94.90442 95.37827 98.16597 99.72740 95.90744 95.25283 94.75003 94.88440 98.39758 95.45776 94.78064 95.01592 96.37186 88.66180 88.57348 87.08982 90.77741 73.74760 75.79537 85.44302 93.12786 93.90876 97.82152 94.89620 96.56593 96.73233 95.94981 98.79174 101.19320 103.99337 102.99335 105.33643 106.45950 110.11010 108.26890 102.73443 95.27593 91.33316 79.14098 73.57824 68.75350 57.05017 51.15697 46.29710 40.56040 38.12875 35.76310 34.43848 34.83523 38.75624 33.13475 31.68640 32.92918 29.10845 28.17023 28.09471 29.76693 25.01556 28.02934 24.69676 27.62613 26.13591 24.20577 28.21748 26.10650 22.27089 27.33607 28.42189 25.14770 24.76236
24.59308 23.33799 25.67487 25.16629 24.92188 24.81275 24.02583 25.20580 26.17845 26.23743 25.99162 24.17217 26.77416 25.64269 27.62142 28.31536 27.59290 25.99066 28.05167 29.63327 30.11895 32.42016 32.68039 37.58068 40.40890 46.82457 53.24247 60.01819 60.77483 65.06996 69.62996 73.01563 73.67960 81.60634 86.49101 89.40304 95.13917 100.96395 105.27936 108.37021 105.40799 103.81153 105.82718 102.35751 101.01773 97.73786 98.31014 100.13409 96.45480 96.71552 97.07164 96.01099 99.36527 94.93636 99.24922 96.16500 96.63873 98.18193 97.66583 99.36619 96.40987 97.11277 95.83474 98.46129 96.32943 97.15105 94.85803 89.94864 79.18064 76.36799 67.96045 66.64714 78.91242 87.73341 94.69847 95.63645 95.71160 97.21920 97.67996 97.40697 97.32312 103.88520 104.66471 104.24173 106.76417 109.10671 107.35528 107.44368 108.07666 102.26435 94.78999 89.28996 83.18041 78.16651 69.92773 57.64884 48.56842 46.70124 47.11955 46.09743 41.11473 41.61916 41.23895 38.66036 36.51419 32.62522 32.28682 29.82211 33.50131 30.32964 31.95903 28.95851 28.00633 27.34993 28.64074 25.31635 24.59298 24.09111 26.12376 24.79232 25.08646 26.36866 27.25552
25.47952 25.85137 22.28839 27.80515 25.34814 24.89609 25.64465 25.71210 27.64189 24.67549 23.12605 24.44186 27.53858 27.05258 25.81939 28.98781 30.06012 28.58631 30.72700 32.32021 32.27785 37.48668 38.81490 36.99810 42.82804 45.33176 49.53256 54.36137 59.54313 61.08897 68.30569 68.13821 68.54647 72.42452 78.07905 79.85189 89.90833 95.02466 104.46559 107.08374 108.63482 106.06458 101.66472 101.08892 99.82186 99.19432 98.96254 97.42138 97.88689 97.14537 98.47158 94.59069 97.43940 96.85461 98.76191 98.36703 95.39906 95.94196 95.38264 99.10377 95.70514 97.74199 94.91728 97.10555 96.71409 95.51664 95.01985 92.41115 79.07959 70.10471 69.20998 66.09721 69.01224 73.99771 81.80016 85.28365 90.95239 97.79319 96.49203 95.20978 100.01643 99.50512 103.34589 104.36268 106.16481 108.02461 110.63246 106.72949 102.07980 99.69393 94.72583 90.57724 87.33295 80.54786 76.34452 67.48238 58.47484 54.18798 54.43810 50.49437 44.47872 45.99242 43.06710 40.22334 37.78125 35.27889 35.32838 35.29717 33.92519 30.51980 31.05142 29.62847 29.97983 28.37328 29.23251 28.38226 26.36835 27.31678 26.28586 23.87071 25.08222 23.84427 26.09975
26.31960 26.62641 25.51686 26.64937 27.82445 24.37942 24.78553 24.90502 24.99939 27.57586 28.01647 25.84315 26.52415 27.04733 28.68541 28.00023 32.18091 32.68526 32.56965 33.75095 34.66934 39.20785 35.90300 41.80825 42.39696 44.62250 46.35265 46.63339 49.38092 57.06951 58.22103 54.59148 59.56572 64.33209 69.91602 79.23374 86.24795 94.03444 100.80362 104.30208 107.75769 107.13296 105.46972 100.98633 101.14413 100.46394 98.77075 97.09847 98.69136 98.11541 95.72009 96.89617 99.11507 98.52618 96.16107 96.40299 95.34446 97.42541 98.02455 97.02778 96.11006 96.26398 95.34697 96.13084 93.07468 92.25616 86.51305 84.35565 80.41319 76.56653 84.58679 82.30430 71.51711 60.14611 62.97754 75.96932 85.41528 87.86495 91.88775 92.23343 93.74756 93.54555 102.18689 105.60325 107.74332 108.79879 107.71599 103.29427 94.26899 97.48396 88.96759 87.35702 84.09155 76.62550 74.30757 67.77788 64.97408 60.76856 56.96309 53.83588 49.12020 48.17468 43.76814 38.25254 36.71250 35.56022 35.06232 32.97668 29.84041 28.15371 30.93479 29.71140 29.00362 27.99607 27.34409 27.11739 26.47293 25.95424 24.72491 23.07042 26.99239 25.30083 25.44447
23.90873 26.35407 24.00424 22.79562 24.22455 26.71610 26.07138 26.47675 27.58185 29.26385 23.32750 29.27917 31.01437 28.15759 30.07019 30.68320 31.67005 33.97844 33.88888 34.42995 33.93551 37.65839 34.92218 35.53569 34.68281 38.33297 39.95659 42.10208 41.74479 46.50827 51.74668 51.31291 55.01787 59.96931 66.84018 75.29039 81.53687 91.80255 101.24845 104.61766 106.38048 106.18406 104.03204 101.16604 100.26504 97.92460 99.21267 98.22825 97.62858 97.44864 97.30897 97.13414 95.34561 98.10620 94.46420 98.58728 96.24423 98.84083 97.32852 96.66637 97.15620 97.79657 95.97529 94.09985 93.91888 88.67638 85.26578 86.61531 82.09541 86.43290 87.80003 93.13457 84.90423 77.42433 70.81925 57.18687 74.07057 80.57129 81.96621 76.47408 86.68478 94.22877 97.81058 104.83169 105.35633 108.07720 106.94569 98.17169 90.57819 82.40494 82.20936 76.97633 72.66182 71.50007 71.58757 69.05045 62.52329 57.86119 54.33625 52.37390 45.75447 43.59133 39.98625 36.13757 33.30588 30.85775 30.49094 30.83117 28.47271 27.50703 28.01414 27.60288 25.58822 28.52174 24.77057 29.02343 27.87258 26.14219 25.85507 25.90531 25.44928 23.77221 27.09346
23.07006 26.20543 25.89872 25.41052 26.28356 24.54180 26.26491 25.81754 23.18982 28.81247 28.04238 29.00454 29.13735 28.28891 27.05955 31.37287 29.69095 30.83174 29.66654 31.73027 30.49415 29.85419 30.18876 31.54976 31.73475 34.88338 36.44845 38.01407 41.87217 41.12765 45.83039 52.15507 59.49140 62.00238 68.54919 76.52313 85.55109 94.76989 101.16784 105.67578 106.59968 106.89093 104.59184 103.85011 102.31354 102.89050 100.13434 98.73481 97.20332 96.35194 97.01221 96.03883 98.58900 96.17008 98.01747 97.77478 96.90769 95.99315 96.27412 98.49482 97.34500 95.12585 97.94046 95.26123 97.18603 95.84955 90.28215 93.98448 87.45057 86.08473 94.55798 95.15501 92.14295 90.55822 82.90131 62.53107 66.53086 68.43072 62.28177 65.22403 82.41125 92.03786 94.93990 101.30808 105.67024 105.08898 101.79323 96.68795 93.78446 79.39230 73.66500 69.55221 66.59013 59.31861 61.25481 62.22217 58.49795 56.82297 52.42867 50.81712 46.67806 47.39790 43.69149 39.62989 35.22601 34.82596 33.37393 31.29870 29.73317 27.57608 26.05066 27.70461 28.60105 24.97999 26.81673 27.54041 27.45750 25.77602 25.31913 24.70069 25.71674 22.67453 24.15735
24.68089 25.63421 27.49234 26.80200 26.23960 23.67337 24.90196 22.84600 25.99358 23.44576 25.86756 26.87017 28.91822 30.90117 26.10042 29.42448 28.18584 27.66448 28.92905 27.96456 28.09030 28.77646 32.31403 35.69592 35.52248 38.49147 41.57033 43.69914 44.51512 48.99944 55.27136 57.88137 67.33101 70.81414 78.28312 82.68557 90.87334 97.09928 104.12171 108.12639 106.94548 105.38455 102.54229 104.23592 102.22879 100.78378 97.81136 100.71989 97.12634 97.55183 99.08531 98.77142 97.84593 97.27507 96.56163 97.04505 96.44797 99.69203 95.99852 98.74181 97.50805 100.05567 98.21764 94.70858 95.44714 94.68643 97.48073 95.52981 92.09593 90.10321 96.07475 93.49554 95.24344 93.36111 82.73726 69.20168 60.42463 62.13349 56.82792 60.65999 76.00904 79.90088 81.41060 93.32725 93.92842 94.23794 88.60494 88.95033 83.70791 81.01950 70.82646 61.79043 54.92744 53.19335 53.76955 55.55815 54.83879 49.97144 44.16072 45.58970 48.64092 45.06210 48.63443 43.95420 36.38118 34.87721 33.27228 31.76700 31.11247 28.28009 26.91580 28.92173 23.52389 26.68485 27.99638 24.19697 23.88888 24.03167 28.12861 23.52553 24.54213 23.01509 25.69091
25.51294 26.84820 25.81711 26.11753 23.03861 26.56277 24.42807 25.09683 26.05748 26.13913 26.40758 28.27484 29.41689 24.15857 26.94940 27.33454 28.98458 27.75720 25.72032 28.08018 29.76013 31.15295 33.95041 36.39385 40.76608 42.65703 48.49259 54.01197 49.61635 58.12681 62.45181 66.85105 70.47945 77.04653 80.05847 83.20706 92.60942 96.81553 100.59447 99.94196 106.57262 107.07935 106.22253 106.02688 101.26744 100.97911 101.01691 97.97852 100.78994 97.63704 95.86217 98.05287 94.47224 96.20976 96.80259 99.60348 97.23103 98.29352 95.74959 97.53446 97.96782 94.00888 98.55862 97.41927 95.66470 94.85452 97.67976 94.98465 91.37157 94.78206 95.89031 98.93360 94.38389 90.43176 83.63686 83.10811 77.76284 70.12500 58.60911 55.47633 59.35165 56.62957 66.79971 69.15966 76.57541 75.23961 72.70262 66.43971 72.56568 70.86389 71.65720 64.08388 52.19066 47.77271 46.52634 47.04321 45.80774 42.56344 39.60253 41.03567 42.93719 46.20798 43.40860 41.28757 41.76540 36.82286 38.22662 34.50385 33.94026 29.11533 26.91224 26.46997 26.46558 26.37875 25.08055 25.72883 26.43321 26.51638 25.06139 25.31465 23.41534 23.51729 27.04556
27.07838 26.46278 25.74265 27.09576 22.62196 26.76841 24.80821 26.17292 25.47084 28.00672 24.90771 25.13378 24.44184 25.93789 24.98972 27.40268 26.49581 27.40427 27.03813 29.48325 30.21256 36.11902 37.18693 42.45634 45.01394 53.36947 51.89786 56.86810 56.90243 61.44779 67.30785 70.15961 71.73528 75.71889 77.01662 77.30223 83.81014 87.85559 92.55493 100.95734 105.96397 105.27312 107.21444 106.48872 103.61397 101.28181 100.54017 101.49356 98.46358 97.86016 96.22560 96.87124 97.21209 97.47761 97.44260 98.91309 96.93906 93.15091 95.96344 97.86660 95.64340 96.71235 98.16936 97.14984 96.50257 98.16718 95.45365 95.24283 97.25403 96.26060 97.74128 93.96299 97.32659 95.46462 94.18381 94.40631 89.83708 77.00948 69.59629 59.85810 50.58951 43.13054 45.25710 54.35523 59.50398 56.54481 56.73924 47.38205 58.73683 54.62533 61.56285 60.19760 54.57907 54.83493 48.37949 42.50442 38.58941 38.57039 36.42961 33.33467 39.03366 37.76494 39.62499 40.20700 39.50890 40.78299 39.84987 36.54652 31.62835 30.48429 29.49894 27.99305 26.48185 24.03024 25.19886 28.98068 26.56340 25.09346 25.15568 25.71949 26.12732 23.09122 26.65979
27.53955 24.62600 26.07937 27.28870 25.46384 22.42933 27.82711 25.37318 26.05869 25.32148 25.66558 26.05836 26.87869 25.29962 24.92483 28.50867 27.37337 28.78031 29.46444 31.96784 33.47410 34.59229 41.22180 45.37060 50.12544 53.78414 57.07268 62.21867 64.00803 67.23245 69.20198 69.13411 71.92070 71.24282 69.66581 70.97250 74.73171 79.04785 91.38061 95.93715 103.94782 108.36697 107.96654 108.97470 103.93615 99.89791 102.23192 98.68818 98.46744 99.28472 96.43232 97.19301 94.46554 98.26223 95.94179 96.77394 99.54316 95.41836 96.55875 99.14817 97.15306 96.26263 99.13166 97.56325 97.32738 97.32690 96.91907 97.23116 97.31244 97.82370 98.11707 97.47833 97.58038 94.89532 99.31699 98.79578 95.91077 91.20363 88.90092 75.42197 61.58970 57.77544 57.96399 53.21904 44.42279 36.84106 41.12472 35.15245 32.68530 36.21794 49.86638 51.22354 45.22790 51.34692 47.90230 45.21900 39.51259 33.78276 32.23516 31.40852 31.78941 29.16471 35.45293 34.19767 37.66590 38.10470 39.97196 32.04059 31.08743 30.96510 29.77864 26.40141 27.43896 26.06102 26.34588 24.04569 24.78586 26.59702 24.75215 24.34479 25.89823 22.73006 24.06659
25.21038 23.60196 24.13660 25.05921 26.32769 24.75255 23.64283 25.97511 22.81316 25.17733 27.22145 24.49830 27.95806 27.92284 28.92788 28.84165 30.05684 29.24669 32.51763 32.12811 32.86477 38.69279 40.86862 41.22479 49.72075 50.08602 58.08885 61.77269 62.09261 66.35313 60.88407 62.24363 62.99722 61.88173 57.05920 63.57341 69.88941 76.27223 87.07844 98.65143 104.43753 107.46433 110.13897 107.41608 107.90994 104.50362 104.30390 102.54102 101.68207 100.16764 99.76841 98.02600 97.55329 96.25099 96.99206 96.98610 95.63019 98.49698 96.88312 96.38232 97.90053 98.84894 97.82187 97.97215 97.58445 96.77549 98.41614 97.06335 96.46351 96.59634 96.24939 98.32571 100.13537 98.48129 98.69398 99.86513 98.36073 100.68602 95.46662 84.72811 81.91132 80.88114 77.83978 72.85565 71.84254 67.74524 55.82726 46.80469 44.61843 34.52188 34.59507 39.39500 38.58437 36.94264 44.30542 43.38545 38.23060 37.41742 35.37594 30.81480 27.03714 29.00920 30.64508 32.55973 34.42577 36.47729 36.49902 36.43335 31.64924 26.92703 29.11651 27.52007 28.65680 24.66577 27.20175 26.70521 26.64415 25.35428 24.85236 24.94009 25.34088 23.38590 23.69191
25.66220 24.43403 25.09975 24.62029 24.96996 24.65740 27.03524 25.57332 24.34068 24.07219 25.56859 25.58883 26.48806 29.32422 28.09528 29.26225 32.26341 30.06426 30.66937 34.41410 35.37701 38.36650 41.47857 41.87603 46.31845 49.29419 53.63390 56.77672 55.24449 52.10448 54.01190 50.29200 53.67196 52.20313 54.89635 62.54951 71.76399 82.42658 85.20970 98.30145 103.61755 107.38302 109.27193 107.96713 107.27213 103.99776 103.66516 101.60322 100.22208 101.10759 101.64799 97.96887 97.25323 95.80371 98.42905 97.08174 96.54712 96.80856 95.78452 96.14627 95.85217 97.51585 99.05095 96.57659 98.28749 96.98569 96.33428 98.21374 96.80151 99.68316 97.69165 98.48277 97.61743 98.59892 97.74410 99.54115 101.25152 100.78337 99.77639 95.48800 93.22326 95.53190 91.36522 91.91519 90.65323 80.07834 77.71986 63.15259 58.08914 43.69735 32.09324 30.32122 29.32646 33.95359 37.90331 38.30167 39.05179 40.20230 35.63378 27.21709 30.06205 27.43355 27.76057 28.39313 30.33264 32.75129 33.77918 34.04867 29.89345 30.45224 28.65710 26.29514 26.27270 25.42896 25.10695 26.98945 26.26920 24.20094 25.45419 25.82541 25.43323 26.02553 24.56762
25.41077 24.86506 25.06799 23.05724 25.81900 24.02278 25.82610 27.41942 25.95910 28.19664 24.82979 23.09105 26.41322 27.98007 29.86370 28.41847 28.93069 30.36523 29.00867 29.57175 31.76723 32.74338 40.25461 41.11067 45.40973 49.21740 51.35488 50.26336 46.39928 44.94611 46.47703 43.63695 49.88135 52.35222 55.62753 63.70153 73.87916 81.88814 90.22095 93.13660 99.11001 104.98569 108.48127 108.81931 108.08014 104.47481 105.08956 103.03187 101.72542 99.11501 100.06409 99.52866 98.64700 99.40324 97.01755 97.69540 96.98955 100.36796 96.77340 97.50419 99.01544 98.33104 98.20291 97.67452 96.74090 96.90578 96.74185 96.79145 96.93889 97.79435 95.89866 99.01130 100.06459 100.93956 100.64261 100.43287 98.14773 103.87008 104.26187 102.17704 103.45181 104.61847 106.67898 101.82936 98.70207 94.53954 85.56179 71.91623 68.00159 50.10076 45.60492 40.90948 35.54227 30.84856 29.00959 33.90067 30.61175 31.40177 29.79447 30.15748 27.94987 23.86566 25.99845 25.34119 26.90397 31.44284 34.16090 33.02904 28.41834 30.69350 28.83965 28.35919 27.23103 27.00960 26.78292 25.54536 24.36513 25.50819 26.50056 23.56792 25.07249 23.52477 23.81154
25.85716 24.32104 25.00250 28.02066 24.43793 26.49318 25.32187 28.61384 27.34927 23.09318 24.88848 25.40270 26.47868 27.72158 28.30971 28.46831 25.60896 27.61045 28.83256 28.37094 31.92382 32.24492 39.01383 44.82201 44.33278 48.57161 46.53694 45.74168 42.60927 43.11205 40.40706 42.03037 49.95146 54.63464 59.64123 70.70057 78.06961 82.61639 85.27755 91.38051 96.58476 101.19229 107.41190 109.20876 109.32745 107.78966 106.25061 103.96498 99.68187 103.71146 102.20317 98.65851 99.87861 100.84848 97.66448 99.84290 99.35839 97.80713 96.39062 99.06655 97.90927 98.53401 98.85882 99.78789 98.23845 96.39665 97.30112 99.70177 98.72222 99.82304 99.68983 100.31259 98.83938 101.26551 101.88270 101.56474 101.95581 102.64392 104.41181 106.96116 108.20723 106.79964 107.51101 101.92266 96.89713 93.11314 87.20969 78.34595 70.91031 69.87245 54.51612 53.26254 48.41288 40.29789 34.78113 30.74743 29.00211 27.03744 28.92050 26.43947 25.84961 25.84068 28.39989 26.62782 28.58808 27.74062 29.52649 29.89981 28.03297 28.22045 28.46447 28.29887 26.77649 26.59967 26.22067 24.62091 27.46734 25.61143 25.72038 25.06562 25.74773 26.22781 23.96027
25.40739 23.49659 24.31235 25.18821 24.70693 26.22221 27.21752 25.28990 25.68192 26.28593 25.12930 27.70410 25.33280 25.58356 27.53650 27.93846 27.43596 26.07924 28.89046 29.29025 29.76692 37.09645 36.32838 42.11756 45.42531 42.54001 38.96253 38.86696 34.73052 39.30061 44.72297 48.48376 54.95967 61.51804 66.38998 73.94126 78.28092 79.07582 79.73531 82.72562 92.09278 97.36943 104.11335 108.74387 108.16057 108.62260 108.58275 107.32332 102.80264 101.65228 101.31548 100.27727 100.48428 101.06731 98.44392 98.74960 99.03862 98.16934 98.47931 100.82141 97.96336 100.97948 99.48829 99.25263 97.19587 98.01354 98.74237 101.01395 99.35984 99.55833 98.29020 99.65208 102.76316 101.40076 104.01950 103.15583 106.59362 104.67931 105.87522 108.68762 109.06410 108.54922 104.35115 99.51023 90.20672 87.34246 84.89691 77.60717 72.20582 68.55940 65.72791 62.14926 58.68148 48.95249 40.52822 38.83862 31.40583 30.72540 30.74145 31.00151 28.39688 30.03325 26.32972 27.14283 25.04263 24.69469 26.87193 28.51382 24.03212 26.38924 27.54832 28.65290 27.16791 25.72926 25.21640 25.84491 25.44548 25.12797 24.21407 26.59301 25.59411 24.25521 25.53916
23.33295 25.32503 24.57576 25.55583 27.70227 24.45682 25.21831 27.44591 23.43241 25.03297 25.70003 25.88846 24.72434 26.69801 26.87255 27.36793 25.28363 27.16207 28.36418 30.58810 33.69110 37.78468 40.85987 40.10608 41.76529 39.42413 38.34537 33.84326 37.27063 42.09456 45.53293 50.03432 59.00884 63.78366 69.52543 71.01412 71.58250 71.67166 71.95937 81.30858 87.11890 97.08380 104.38151 106.00948 109.35003 110.26500 108.38047 109.43590 106.74300 105.34431 105.82822 103.07823 102.88292 103.19768 100.04150 100.51927 98.24298 100.82917 100.31430 98.08428 97.90874 100.85826 100.80574 99.24097 99.51997 99.32186 96.90775 97.35907 97.52177 101.03329 100.38164 101.80919 103.11624 103.00593 104.46376 104.79450 105.28172 108.80881 106.15639 105.50857 107.00972 105.04698 100.48189 93.39189 86.08735 79.10355 72.99653 69.43268 67.98040 67.48909 64.92118 65.10594 60.76502 56.53673 51.73085 38.81767 37.77809 37.23845 36.74592 36.17636 33.51138 33.51536 32.22594 24.28144 25.83683 26.33294 23.73464 26.97196 25.59947 25.79819 23.39576 26.47493 27.19477 25.72725 24.43701 25.93159 25.85221 23.97970 26.51058 23.69441 24.02713 25.60510 26.03780
25.01323 25.99135 27.76691 26.03232 25.11414 24.15869 25.93519 22.53147 22.45261 26.81427 26.47329 26.42454 26.75043 27.50197 25.85941 26.15291 26.16689 26.32722 29.26806 32.49152 35.00203 35.37704 37.16955 34.84453 37.42652 35.00369 34.13653 31.66875 37.25726 43.54746 49.02308 49.00630 59.75385 62.09745 63.70201 64.03415 61.65285 67.18372 74.39904 83.24590 89.34940 96.96795 100.67364 105.32159 106.72390 105.97371 107.33006 108.64494 107.04137 106.38867 106.64219 105.04185 103.09365 102.86752 102.24431 101.09090 101.76803 99.53266 100.33706 101.24453 98.94150 100.33509 98.53739 99.67049 100.14009 98.81292 100.53806 99.49028 100.80961 102.54628 100.63633 100.73136 103.43120 102.89414 104.01410 109.32850 108.51824 108.74910 107.09732 107.00824 102.25140 99.63128 96.44628 91.81404 82.92178 74.11960 69.34919 61.92291 60.82493 62.58518 55.94950 61.30250 59.03869 57.43820 51.84795 44.47195 43.29737 42.07603 43.39630 40.49130 37.91999 36.07992 31.76952 29.03677 29.24799 25.27855 25.00066 26.33802 27.15386 24.53265 25.02244 27.05870 25.76576 26.51926 25.48432 25.87039 26.40035 22.78139 24.39316 25.03405 24.82789 26.81209 24.35402
25.73723 27.84320 25.57302 25.39729 25.06519 24.92473 28.00996 23.39683 26.24774 26.97166 25.70454 28.03594 24.66084 24.35187 28.20956 26.06025 27.84145 28.93050 30.17902 31.57684 32.72387 34.15830 31.50156 32.63456 31.16443 30.63706 28.42082 33.92981 42.95256 44.21000 47.22791 48.98041 49.91222 53.21829 54.98313 55.29868 62.02869 73.57735 74.07714 80.00466 84.51926 91.21723 97.57929 96.45989 99.80940 105.73441 104.79497 107.53830 108.39212 105.74950 104.76332 106.10523 102.76135 103.14651 102.56775 102.07493 101.60387 98.42853 101.00026 99.38306 102.60241 100.53398 101.66495 100.72089 100.13587 102.22807 100.81362 103.35652 101.21711 101.93420 99.87053 103.31494 104.68415 108.57139 105.78042 109.00488 109.00238 107.81020 104.73371 99.18790 98.75750 90.12397 92.70107 90.04839 86.08300 74.99358 64.13070 55.11990 50.41979 53.97802 50.86988 51.48582 54.48851 51.76916 53.36288 52.81014 47.90699 49.47777 46.59554 46.48258 41.15701 34.71141 35.95598 34.96163 29.78460 28.56926 30.08719 26.50536 28.05816 27.34754 23.84026 26.79539 26.20023 26.73881 24.15605 26.13176 26.00751 25.26950 25.02018 25.23550 26.82885 25.01036 27.23486
25.65008 25.66125 25.95072 25.66369 27.60826 25.14206 24.90242 26.39324 25.29888 25.05021 25.68823 26.87503 27.71208 28.24619 25.81917 24.90502 28.53862 28.39167 27.59556 29.38690 30.05680 31.10983 28.74308 29.03732 30.07717 30.44695 34.33524 38.67815 40.00419 39.03018 41.90254 43.86427 47.20078 47.58728 53.98185 59.85455 67.81303 71.17341 74.11450 73.83432 76.55616 83.79670 87.29180 94.48021 96.96977 98.42790 97.63093 102.73348 106.00255 105.89752 106.46351 106.16280 107.25022 106.28673 105.99947 103.12604 103.95660 102.97975 103.20564 102.62449 103.12573 104.04900 102.67632 104.66463 103.22895 101.34529 102.34280 103.49684 102.34660 106.08628 104.34138 107.10329 106.30524 108.82619 107.38758 108.98980 107.91416 107.42608 97.84450 95.29949 91.86384 88.99817 84.88062 84.45176 76.85072 71.99022 63.20269 56.05103 49.40322 45.24877 44.69277 45.34795 44.34956 47.18078 51.50817 52.88108 52.81429 52.05998 46.39250 45.52856 41.18860 38.82486 37.52532 33.92892 33.04898 32.40264 27.64684 29.69746 26.80367 29.52357 24.16644 26.16586 25.72697 25.56268 24.98599 27.25773 25.85024 25.20421 27.28568 26.44927 23.67007 25.15919 24.92227
25.32060 24.90143 26.25049 22.89721 24.82027 24.07438 25.89409 24.89542 24.45398 26.53903 24.83282 25.13804 27.91952 25.45747 26.43341 27.35176 24.36546 28.72253 28.05933 28.61081 29.48274 28.71764 28.57314 29.50087 30.39113 31.66994 36.62952 37.45556 38.06972 41.00678 37.27757 41.44567 44.55029 51.22602 57.22184 62.21476 70.79232 70.89652 71.86302 66.28870 68.80662 75.70410 84.03308 91.16604 89.51230 85.38500 92.22080 95.77487 99.35201 107.84785 107.82891 108.34340 107.28496 105.90328 108.18786 106.92911 106.51202 102.72235 103.66468 105.25392 103.07870 105.10200 105.59420 103.67698 104.29075 104.95421 103.93400 101.95122 104.08194 102.91903 105.85790 105.67266 107.25415 109.00748 109.74623 105.77735 108.06397 102.76613 98.81209 89.57389 83.50834 77.12941 74.76240 74.81499 75.50638 68.98893 58.28705 52.40815 49.25482 42.41740 39.64430 37.49352 37.23676 43.14305 45.70559 45.15974 49.81755 49.66283 47.63805 42.37696 36.97343 34.40722 35.37909 35.42684 32.01688 30.67577 29.28413 30.52354 27.49147 27.79440 29.48015 27.92767 26.47410 26.11941 24.43957 27.16843 24.29128 26.70340 26.42906 25.40969 24.71723 25.61724 23.81807
24.36997 24.88065 27.69019 23.05921 26.80714 26.53805 25.54856 25.87618 24.12423 26.56721 24.70615 23.57506 25.36869 26.79180 25.56225 27.44973 24.79552 26.72752 26.97008 25.87243 27.63875 27.01428 29.54938 31.22481 32.66672 31.43500 33.89700 33.81875 33.44166 35.66329 36.25959 37.72455 49.00176 55.24678 60.26457 63.73467 69.31821 67.94804 61.92670 62.33336 66.50671 78.99346 82.69977 79.02075 75.13539 74.47503 84.91040 86.23452 92.93791 101.45101 105.91180 107.49342 110.57687 108.95062 109.36318 105.99706 107.31928 106.10939 106.47386 102.84517 107.72684 108.65829 107.29256 106.51970 108.20370 105.07543 106.88000 104.90820 107.37035 106.74454 105.03523 110.97353 108.75179 106.51859 109.89826 107.11512 103.88522 101.87548 95.91933 92.38023 76.61786 72.50587 69.26718 69.59772 67.47201 66.95435 61.75386 54.40440 48.12059 44.07855 39.90468 35.06264 37.70091 39.48557 38.47679 44.14421 44.36448 48.02840 41.30744 38.31584 33.75497 29.96065 30.95551 29.82060 30.84145 27.79995 27.76099 27.59435 30.25461 28.55003 25.33628 26.22465 24.55979 26.49681 28.62486 26.54316 26.05261 26.36106 27.24670 27.01963 26.50230 26.02137 27.31389
26.26692 26.11015 26.13023 23.35214 25.80517 25.17777 23.67182 24.26941 26.13506 25.27051 27.39317 25.08044 24.83864 25.33268 25.22285 26.34389 23.23977 26.48866 28.05519 26.36385 27.21180 27.72623 29.60508 31.95357 30.52092 31.45324 31.87408 29.69881 32.52437 33.88455 40.14258 43.76181 50.05062 57.29110 63.86095 61.50366 58.39212 58.68995 56.08952 58.87792 69.34693 73.70648 72.67539 69.81526 64.08185 69.07096 72.35928 76.57579 86.58491 94.98430 102.27918 104.12597 107.28698 110.23460 110.13868 109.01920 109.51871 110.79781 108.33345 110.74559 104.78281 104.80365 108.24711 109.42872 106.60424 105.32770 108.15528 108.18060 108.17124 107.87438 109.96318 106.72055 106.50374 106.96709 101.81456 102.42637 98.50937 94.29250 88.39326 86.47066 79.29748 69.39035 61.53365 62.19915 64.96055 64.89004 63.17587 58.19436 52.73993 51.94544 42.10391 37.02807 35.84268 32.18049 32.30525 37.95383 40.10968 41.58017 40.80070 38.97002 33.77254 31.97002 29.96577 27.94690 30.50846 25.26314 25.56298 28.29302 25.59161 28.20719 27.59348 25.21482 26.45369 25.45150 23.81342 25.36601 26.73379 25.85905 24.78040 22.46933 26.66428 24.45991 26.54220
24.42879 24.36312 25.59018 23.52073 26.25543 23.22065 26.07942 28.39671 23.32473 24.62363 26.11759 25.50906 22.10778 24.61598 26.93184 24.95144 26.34034 24.90489 26.21731 25.96923 27.92693 27.44179 27.60403 28.95841 26.42643 28.03869 28.50171 30.50323 34.87291 37.81921 41.41675 47.98661 51.59610 55.86843 56.89002 56.23433 51.52901 51.53846 55.91399 67.67933 69.48793 72.02329 69.51157 62.48974 53.77618 61.10290 65.67878 70.70103 82.23716 87.60630 98.17713 103.82243 104.85175 105.49246 108.93058 112.94199 107.10980 110.40856 107.46179 109.07223 111.17446 106.46924 107.65845 108.19201 107.10456 107.61553 107.35669 106.79411 103.61540 104.81372 102.29282 102.85236 104.25026 98.93415 96.08362 97.98746 99.83089 93.74732 85.15575 78.44288 74.56620 72.78943 55.10517 58.85984 59.17040 61.06076 60.65751 58.77686 55.28966 51.82560 44.30937 38.28510 33.42845 34.97811 29.91717 30.75262 38.02553 37.49646 42.31120 40.58021 37.55376 31.92669 30.23045 29.69848 30.53800 28.14413 24.95487 28.24897 24.78480 25.31766 25.80990 24.22782 25.40950 25.89577 24.62722 23.90171 26.28576 27.24831 24.39705 23.89864 25.68518 24.08891 26.35426
26.77569 24.26816 24.45536 27.38736 23.46493 27.18260 27.06945 25.40789 26.25205 25.50247 26.01426 25.77104 25.81162 26.28955 25.62613 27.82307 25.18546 27.68568 27.79108 27.63118 28.64092 27.97875 29.04401 25.91741 28.52149 29.51569 28.31941 35.32276 37.54705 40.45763 44.99410 49.82569 54.23732 50.95830 47.18557 48.93368 47.47063 49.26450 54.35819 64.72696 69.76266 67.38012 60.21067 59.85897 50.45088 51.40999 58.74027 69.58142 77.57804 93.21026 94.70745 91.68438 96.60504 99.81201 104.80267 105.42423 107.22145 108.04774 108.13513 106.97542 103.81359 105.79816 105.73210 103.96029 103.52897 104.72792 102.85674 99.97044 96.90348 97.56648 95.44967 93.45599 93.75875 95.91374 91.12933 85.83403 88.31050 84.82025 80.10885 71.70846 69.37192 66.40635 57.61196 49.95351 54.15721 56.85971 56.33764 53.72343 52.74212 51.24271 44.21662 41.20428 36.46861 31.29692 29.03084 31.79968 34.76315 34.73566 39.27363 35.45674 36.89146 36.50428 31.83691 29.38751 28.52254 27.85967 26.98192 27.93496 27.35522 25.22265 25.67249 25.25258 25.65554 27.11106 24.59021 26.87999 26.13365 26.46170 24.29950 24.14758 26.58523 25.53320 25.67977
26.75796 25.93772 25.65381 26.65607 25.39339 25.54793 26.82884 25.63971 26.96446 26.58325 25.17319 25.54383 25.24547 25.59616 24.47985 29.39905 26.99280 27.60721 25.82794 28.42136 26.50302 27.62839 27.14500 27.72784 27.26275 32.66192 33.84447 35.08938 40.03622 41.76060 42.92771 46.48229 48.93281 45.66404 44.10096 44.49186 38.43423 45.15507 56.29972 63.06311 59.21587 59.04806 54.78723 48.86618 41.50318 50.89092 58.59387 71.29816 80.74954 89.13030 89.48177 91.36001 89.39015 92.50998 98.72464 101.99383 101.77956 101.63674 102.58936 100.36372 99.64837 97.73655 95.66244 96.62722 98.77639 99.19964 94.30565 93.16914 86.10943 86.45644 88.58447 86.10638 82.46443 87.06218 79.80591 80.12323 83.97957 84.48360 82.73954 71.02017 62.71495 61.02236 58.96579 51.78911 47.28960 47.18542 43.61712 46.92740 47.26402 47.93485 45.62177 43.52567 35.81576 29.99392 29.23831 28.67604 30.26445 31.49605 32.26330 33.13594 37.07073 36.85975 35.70174 34.21229 31.84070 29.77272 28.23037 26.27014 26.60151 24.16734 26.31437 24.27143 25.62216 27.72053 25.41317 25.26581 25.07146 24.43569 26.52831 25.92226 23.14918 25.23617 22.65106
23.40905 23.82273 25.40878 28.28090 27.85576 24.84886 25.11561 24.14617 25.29178 27.01230 25.30103 25.75669 26.75182 23.98402 27.04302 26.13506 25.66444 26.88275 27.88527 25.60145 26.67648 27.29321 29.35984 27.57365 29.75293 34.05213 32.62688 34.87518 40.69992 40.07264 43.54137 42.60266 40.45612 39.69151 39.39199 36.93207 41.79322 49.83570 55.98701 59.69613 54.27116 51.49653 51.77784 46.81821 44.21044 50.74552 59.83685 71.75512 79.63018 81.61032 81.92044 79.93256 86.33312 85.03031 91.63562 93.51758 94.58492 93.63848 96.83293 97.70377 91.93423 86.13774 85.15937 87.68437 92.68906 90.83573 85.96790 83.88704 83.38947 75.98423 75.72292 72.01710 73.53859 75.05935 76.43119 69.42179 72.81965 79.55576 80.65611 66.59181 63.53444 61.43151 57.32009 52.19325 50.02303 40.35654 40.15183 37.86283 39.96401 44.24124 43.19585 39.61462 38.89300 32.27073 32.03298 31.06609 26.51929 27.05911 31.32318 34.51303 33.45206 37.06531 35.71603 32.27775 30.45554 27.83712 27.46858 26.35539 25.24938 25.83432 25.52360 24.88430 25.39643 24.65850 23.22804 26.06594 26.26116 24.94249 24.18583 24.14963 23.96999 26.94737 25.18833
