25.16294 23.90712 24.09768 24.80689 26.16728 24.16306 24.37091 24.70013 26.09731 25.31453 24.47024 26.95912 24.79487 27.08092 23.95781 23.54721 25.78140 25.17982 26.28810 25.98621 24.81567 24.97041 26.38160 26.09631 23.41910 24.64548 25.61052 26.69660 27.25271 23.38102 25.49333 24.70855 25.33093 23.86298 24.49450 25.56986 24.76442 26.19561 27.29852 27.09945 23.63559 22.77556 24.29386 25.47167 26.95834 26.40881 28.80001 26.46942 27.36472 24.15907 24.50617 28.02398 28.08000 28.81220 25.20656 25.49882 25.82890 27.15236 28.55904 28.82796 27.71742 25.76041 27.82986 27.34362 30.23269 29.01844 30.12663 32.14286 27.12510 27.70002 25.74220 25.44531 26.77134 27.27258 27.91680 27.75764 27.42370 26.05126 28.85695 26.89330 26.90499 27.93868 25.92508 28.11919 27.33065 27.95467 26.19158 27.67814 26.97221 25.20502 26.65350 23.93835 25.25842 23.76325 26.73563 24.60054 26.22414 25.75711 25.75011 27.72652 27.65574 24.49136 27.50415 27.14190 26.62730 24.40207 24.52546 25.76219 27.09620 26.18121 26.75356 24.81791 26.36446 25.09833 26.66887 24.05382 24.70848 22.96487 22.38065 26.15945 25.26932 23.94223 28.23653
23.75658 26.42481 24.02529 24.41158 25.45448 26.05734 24.85487 25.90571 27.69764 23.90546 24.65780 24.87620 27.08734 24.85957 28.45044 22.67592 27.17640 26.85922 25.85214 26.36364 24.32172 24.82569 27.39700 24.64498 25.80960 25.72301 25.89213 27.73112 26.03348 24.37338 25.91908 25.00969 26.27416 24.21694 24.46100 25.66858 25.61131 31.39703 25.75123 27.58041 25.38864 22.59813 25.18855 24.64725 25.98072 28.71603 26.31482 27.50993 24.48036 27.08931 26.07208 28.21502 26.39590 30.53854 26.43916 26.53535 25.53152 28.11976 27.89177 27.69708 26.41603 26.48130 26.16348 31.23632 32.38261 34.12411 32.23258 32.01757 31.78121 29.00460 25.33494 27.28205 24.24383 27.08354 29.75371 30.94166 28.95762 29.65913 27.59620 28.17298 24.81382 25.05564 27.04242 28.25247 27.84319 27.31518 24.93414 24.51486 25.20838 24.14085 23.92971 26.44225 26.22153 27.01840 25.76776 26.07291 25.65896 25.58677 25.29843 26.68654 25.93542 25.87595 25.75960 22.20138 25.03231 24.84188 25.27107 22.70310 24.58842 26.65913 25.90784 26.90057 24.19082 24.75643 24.03530 23.34134 22.82395 24.02021 24.65494 25.41938 24.37941 26.18578 24.84915
25.83988 27.08141 27.75799 25.29042 28.13023 24.98982 25.36666 26.23097 23.58968 26.11838 25.07634 27.07621 24.06300 25.56986 25.73632 23.91438 27.74530 25.54884 22.96477 25.01823 25.66281 25.24916 25.11068 25.28693 24.23557 25.76825 24.49944 24.52617 24.54970 26.12655 25.82677 25.20593 24.91225 25.36304 23.72760 25.74194 26.86647 29.38473 25.57201 27.06095 27.14016 24.65702 23.94955 26.06390 25.98043 28.66776 28.73807 26.61533 27.05437 30.21231 27.66023 30.14176 29.52944 31.48775 26.58714 24.76308 26.82413 30.06122 30.18162 30.15631 29.56212 27.47468 27.84527 30.37757 33.97437 36.63838 33.39219 34.12520 28.28716 26.02122 25.64444 24.93984 24.26356 25.33418 29.87450 32.02228 31.89251 32.06692 27.76011 28.37252 25.15683 27.71400 26.42123 28.17314 28.20196 28.63641 28.17550 28.71586 26.45308 25.71258 25.99145 24.68375 23.40558 24.32053 21.78525 22.10091 26.25733 25.67352 25.23087 24.71586 23.91921 25.43949 27.25160 24.55906 26.11820 26.51942 24.09277 24.06313 25.86174 23.61794 25.92398 25.56435 25.51756 23.49171 26.44631 23.88442 24.83685 23.85057 25.11400 25.35135 24.54059 25.98008 26.74032
25.55178 27.30760 25.60334 25.90355 26.27007 25.86396 25.54288 24.98712 24.89012 22.69106 24.29837 24.27019 25.09287 26.44140 25.37596 27.12986 25.86219 25.18864 25.33961 27.25227 23.83679 21.75602 26.00941 24.58980 25.65569 26.97083 26.48408 26.29824 24.90850 21.84501 27.87204 26.90962 26.35055 25.99060 21.89918 26.86602 25.50695 27.64062 29.27848 28.92961 28.56253 26.29245 24.98915 24.73513 27.00642 29.66013 29.99150 30.39247 30.44149 28.69849 29.09307 29.73714 31.38899 31.41172 27.31392 27.98079 28.15287 29.23447 27.49099 29.33959 30.17183 27.97854 29.90741 34.83557 37.29934 38.77601 34.21512 30.73300 28.13798 24.46188 25.45865 27.48330 23.71078 26.79144 28.70169 30.92635 32.54596 30.54761 26.44922 28.02061 26.14074 28.15705 30.05652 27.39254 29.60622 29.42325 29.98309 27.28179 23.26809 26.36136 23.76025 27.26456 25.24497 26.90084 23.94060 24.84182 25.19761 26.18623 25.10637 25.59990 25.54508 23.73949 25.08155 26.59877 26.05688 27.10328 25.13090 25.54476 28.54984 23.86925 23.64273 26.55789 24.33861 26.39737 26.69346 25.04615 21.51139 22.48441 23.22508 26.02386 24.48615 25.33158 27.07998
23.32705 25.35569 26.71104 25.89493 26.88782 25.70001 25.72933 28.12435 27.39406 23.70264 25.97853 26.85545 26.28241 24.86154 25.48984 25.85079 24.55101 26.87410 25.03952 26.00739 25.26161 25.32134 24.40368 25.61229 25.80846 23.86631 25.91452 25.58102 26.19701 26.06726 26.82249 26.48330 25.27163 24.62774 25.84333 27.87841 28.54560 29.08695 29.79781 29.41456 29.20641 26.94070 24.00073 27.77087 27.28523 30.43822 31.61361 33.75575 31.57460 30.37372 29.94451 29.76844 32.51990 32.80257 30.76619 26.85984 26.07881 30.13578 30.59095 29.52525 33.36017 30.12950 32.42025 34.54841 35.57986 37.41433 36.63552 34.89224 29.18507 28.33666 24.72444 25.70363 26.69489 26.46852 27.35176 30.41005 32.22451 33.01084 28.72225 30.01614 26.87084 27.83653 26.43677 30.75165 28.88460 31.09231 28.90722 25.85762 25.02192 26.62603 27.15689 26.65063 24.66123 26.65497 24.34823 24.00969 25.95201 24.59813 24.70032 22.25858 25.80895 25.76554 24.83771 24.25700 25.06363 24.43050 23.59654 26.71523 25.17786 24.94812 25.28012 26.40257 23.88568 25.86966 25.91216 26.33922 22.28740 25.33793 26.59456 24.78119 27.52706 27.10631 24.71145
26.12692 26.01652 25.18123 24.85559 22.99704 25.18635 25.22907 25.19528 26.86913 25.54299 24.97442 27.80982 25.15313 24.51058 24.02060 25.89158 25.35016 24.91340 24.28520 25.79166 28.07420 25.32947 25.69869 26.97602 26.73536 23.42135 25.10353 26.10853 24.90988 24.83773 27.39930 23.35856 26.37932 27.11199 27.44846 27.58009 30.20636 27.52645 28.85293 29.44609 31.87218 28.44559 28.07934 26.37925 27.26913 29.01747 32.96523 35.38765 33.86929 31.34531 31.37864 33.83184 31.68610 29.61812 30.85705 30.28845 28.31789 28.64665 30.47174 33.64328 32.94938 30.41665 33.82719 36.79604 38.24612 35.39045 34.60062 28.88978 27.34221 25.72438 27.81848 26.02860 27.29560 26.27392 27.13129 27.74409 31.81937 31.30490 30.15993 29.37863 29.84904 30.88956 30.05993 32.64523 32.43304 27.90633 29.20227 26.61484 27.59002 27.53844 26.83969 27.44500 26.10234 24.51445 26.22623 23.73055 25.57978 24.82003 28.07765 25.65943 24.86501 24.90395 24.29524 27.20356 26.09167 25.66787 25.99957 23.44437 25.05873 27.55959 26.60726 26.30188 24.51819 25.41571 26.60938 25.77646 24.62718 26.94446 26.26646 26.40799 25.65378 26.14614 24.64675
25.26283 26.02443 26.62931 27.13377 25.87089 25.17795 26.36618 26.37432 23.65076 26.95836 27.48350 26.58998 26.27357 25.29621 24.68654 27.08190 26.64110 24.49943 26.37837 24.17778 23.85346 25.41971 26.15289 24.71817 23.82170 25.27762 25.97222 25.93083 25.71813 24.89834 24.69814 25.65338 29.86253 29.48751 25.86292 28.79554 30.41571 27.77114 27.91757 30.79061 30.95466 28.21063 27.24561 24.68661 27.50757 30.06151 33.03299 35.50163 38.57770 36.54929 35.90643 34.54509 36.26378 33.95920 32.47320 28.56948 29.19772 32.31560 35.93185 35.14781 35.23366 31.45248 32.26154 36.24034 42.12712 40.35251 37.97286 29.35496 29.64487 25.36736 26.98739 27.04683 23.70071 26.25145 28.42452 29.27193 35.84483 31.79516 32.44262 30.00376 28.62854 32.66992 33.71323 32.22040 32.25549 30.82906 26.98484 28.23520 28.76405 26.35143 25.12125 26.37841 24.63140 27.02402 26.24423 21.63313 24.38219 26.28063 27.11285 28.52725 25.91726 24.22774 24.89232 27.06982 26.22930 25.63920 26.80838 25.24104 25.92552 25.02487 23.60316 26.31395 24.05405 24.77042 24.95907 23.43723 24.69307 27.00140 23.65638 25.67657 26.11415 25.96391 24.98515
25.81051 24.40807 24.22137 24.41319 25.64942 26.57557 23.30312 25.41852 24.10744 26.86832 27.49281 25.24977 22.75654 25.67733 24.67242 26.51098 26.02302 22.49217 25.28573 26.10720 25.86931 25.45152 27.29477 24.99543 25.82422 25.15166 25.02577 25.50153 23.39709 28.41456 27.85537 24.16292 25.61291 26.36105 25.15496 25.46550 27.22544 27.93078 32.16567 30.51434 28.20049 30.25970 25.18241 25.50983 29.17278 32.36518 34.27506 39.71898 37.84794 42.01058 38.14941 37.10394 37.30178 34.56613 31.85566 30.28249 29.06875 32.43559 37.26085 37.59450 37.75606 32.41724 32.41733 38.18205 39.93186 37.56727 33.46916 32.12467 29.84663 29.30348 26.63626 28.53942 27.60346 26.90070 28.28585 33.10252 33.28912 35.39895 32.49975 32.47970 33.62706 36.91992 35.76919 34.56166 31.17335 30.55382 29.42098 28.12442 29.36988 26.13411 25.87882 25.92098 26.67476 25.91502 25.58028 26.64647 23.70797 26.45673 25.86220 26.41698 23.89759 24.98634 22.51675 25.51847 26.81130 25.82628 25.81931 23.82259 23.89798 23.97064 25.49189 24.73777 25.62024 27.61236 25.40064 25.23831 25.80778 24.97868 25.87868 25.33408 24.83267 25.17862 26.27380
25.12316 25.00664 24.28489 23.85978 26.52223 23.73159 25.17831 24.88019 26.99487 24.38878 27.57351 25.76835 25.42602 24.56553 23.75584 23.83122 26.88915 24.80626 25.88438 25.21758 24.48567 25.92367 26.25991 26.51499 24.70861 24.53678 26.66856 26.37129 25.76951 28.19892 27.24930 27.62190 23.72086 26.96311 24.93409 29.17488 28.82228 29.91243 31.68515 30.32942 31.45946 30.55274 28.24272 27.00130 26.84223 30.81429 31.34995 38.99941 42.79830 42.53779 44.21421 38.49975 33.81781 34.22002 32.37032 30.93470 29.89475 36.69586 38.36615 40.79584 38.43362 34.29135 34.73160 40.03165 41.28525 38.25630 33.86321 31.72473 27.15365 29.51249 30.89312 32.47722 29.92043 29.41401 29.14500 28.16560 36.04737 37.18421 34.67149 36.71209 37.29140 38.12491 38.71129 37.16503 32.19322 29.19929 28.72997 28.68843 26.39938 28.83395 27.86807 25.79234 27.32338 26.33825 28.87306 28.81254 27.52409 25.19147 26.14084 24.06718 25.32615 23.45864 23.72981 23.67077 26.96573 24.44697 24.00198 25.00532 25.32675 27.61891 25.92558 25.50462 24.94415 24.93128 24.54827 24.71181 24.58935 24.34511 24.82752 22.03664 28.97284 26.17393 25.77179
24.67852 23.57677 24.20034 23.43145 25.29973 24.15585 24.57663 26.11336 25.80859 26.49899 26.06395 25.46414 25.39452 23.50807 26.28940 27.49308 26.65059 23.93170 25.06878 24.38947 24.61756 24.08144 27.78604 26.32295 26.74904 24.97510 25.86772 26.04306 26.95302 29.89107 29.02600 28.74701 25.38829 24.41384 25.42895 30.89878 29.19833 32.27495 31.56955 34.20442 36.36214 34.18716 29.17307 26.72930 28.60508 30.81166 33.36513 37.99907 41.34801 44.86857 44.88922 40.22533 39.76131 35.13681 34.73636 32.17530 35.65395 37.29885 41.37805 44.26070 42.23110 38.67889 35.70232 42.12727 42.96257 39.60815 36.10665 28.22343 29.75363 32.33731 33.78498 32.85822 31.12291 29.62432 29.35709 34.94454 37.88564 38.63191 36.84161 39.45163 39.26030 42.43598 38.16088 34.74927 35.18112 32.96513 30.24544 28.44479 28.95760 23.58757 24.18771 25.46399 28.26667 27.31597 28.33978 26.45186 26.11489 27.55074 26.46849 25.90547 24.71975 24.99799 26.49758 26.12136 25.56718 26.68485 26.09563 25.58957 25.15682 26.49348 25.85884 26.71446 25.77386 25.34110 26.30641 24.44537 26.27204 25.11495 23.91404 24.39027 24.06297 24.13518 25.28598
24.60572 25.12348 26.26379 28.10096 25.99426 22.86342 26.53367 24.30199 26.10258 23.71436 26.31642 25.96276 25.44561 25.64512 26.35558 25.67539 25.11271 27.33641 23.95109 22.97612 25.07232 26.19640 25.48244 25.26831 24.95800 29.29466 24.64671 25.92608 25.95973 25.01470 25.67424 27.48764 29.29638 26.19648 26.21811 27.09757 29.94793 31.31941 33.96775 34.33319 35.93615 34.78680 31.09521 28.46400 28.73200 31.44441 32.86463 37.42883 45.52406 49.68743 49.56149 46.63902 44.25839 40.23511 35.09285 34.09711 34.31123 38.00708 41.90886 48.93188 45.76880 42.62579 40.46806 42.05468 41.45753 37.96972 35.94131 32.66613 29.26199 31.88472 36.93460 34.03325 32.89745 28.55221 31.05078 35.57550 38.59638 40.85405 41.12121 41.92518 42.46715 44.40603 40.42009 35.75464 36.93648 31.67175 31.93765 24.95830 26.16861 27.00224 27.45664 28.40403 28.31161 29.24686 27.80722 28.73265 28.10537 24.20751 25.51066 29.34169 27.78578 27.24888 26.55747 27.53151 25.48692 23.96854 27.97163 24.82458 23.70802 23.87514 22.24395 22.65010 24.74094 24.47537 23.93695 25.46043 25.56298 24.68386 24.09543 25.56552 24.80411 26.52638 25.39310
26.22621 25.75633 25.20260 23.45707 25.16804 26.82327 23.65008 26.80072 26.34128 25.23892 26.78415 27.50697 26.62372 23.77970 26.68803 25.47089 25.29007 26.46618 23.96702 24.11136 22.95360 25.92463 25.36201 27.91572 26.01412 25.96443 27.09710 26.26030 27.39443 26.55579 26.78567 28.15129 28.28900 26.67806 27.02506 27.00398 27.16622 30.41571 32.50771 31.80662 37.26285 37.13059 33.62441 29.87554 30.29600 29.51517 32.90732 38.72463 43.69666 50.80678 52.43876 51.30134 47.32287 42.27872 34.90900 32.77996 38.24466 43.60377 47.16724 50.03688 48.52679 44.38580 41.69521 43.20291 44.68193 38.26976 32.15890 33.18935 32.66082 32.64087 35.38874 35.10058 33.08418 30.54122 32.93214 36.61668 37.35675 38.82664 41.60733 46.14450 51.78663 46.77891 44.19747 37.77834 33.84251 31.09861 30.20609 27.22569 29.44715 25.09544 29.05343 30.75711 28.70801 32.83446 27.25133 26.51668 24.81357 26.37189 28.27750 27.53176 26.20732 25.47796 26.08096 27.01724 27.13546 23.10869 23.53231 25.64765 25.60796 24.94727 24.78066 26.37159 25.89015 23.68938 26.06396 25.17196 25.53412 25.23912 26.55807 25.55317 25.80125 25.12518 25.81484
23.98312 25.61720 24.54035 27.68527 27.27083 23.98323 25.86394 26.74681 24.15114 24.80419 25.97527 27.62403 28.67460 26.37437 25.63450 24.94065 26.48162 26.23444 26.13165 27.47781 26.81993 26.68908 27.75732 28.43347 28.42091 28.17507 25.02689 25.58190 26.16949 27.67659 27.86925 30.32516 30.75917 28.18879 28.60329 28.39727 28.50922 28.92856 33.98447 33.70901 38.42942 39.20250 36.64305 34.61678 31.75380 29.84509 35.10726 36.59767 44.36662 49.10817 55.21265 57.23873 49.15235 46.26741 43.60358 36.35212 38.52489 41.09534 49.01494 54.00811 53.93011 47.95405 46.56558 47.01433 41.39303 37.42767 34.00733 37.56042 35.50930 31.63434 37.70720 37.32463 38.11666 35.61871 33.50642 32.26793 37.16180 42.33077 47.98036 52.43593 51.47814 50.47501 43.66732 38.55754 34.27938 29.19642 27.75447 27.91973 26.37732 26.81587 27.43957 30.06590 33.39282 31.49341 29.13788 28.77307 25.80646 28.94867 25.96419 23.58053 27.28155 26.00409 25.84440 26.32333 25.65141 24.14986 22.81649 26.55870 26.07008 24.64911 24.63474 25.09467 24.37361 24.68304 25.95179 24.21944 25.16111 25.88238 24.87699 27.21011 26.54774 24.53948 23.80637
22.61905 25.24924 22.36675 24.58907 25.35607 28.78196 26.25312 26.54081 25.97951 24.29084 22.89298 24.60002 26.15771 26.00695 24.17992 25.30835 24.78230 24.83511 24.30279 27.86872 24.46463 28.29708 24.90020 28.34556 27.87634 27.71107 26.27035 25.52355 25.72081 28.76705 26.83330 31.11120 31.85729 30.48182 31.73176 31.64920 29.41885 27.82159 35.28887 34.12175 40.26340 43.37019 41.75659 33.08646 33.85364 30.41280 35.50647 37.56346 42.07790 50.48481 53.80445 57.79744 54.42826 52.39846 44.48789 37.21279 36.54437 45.12139 50.91644 58.47003 56.33164 50.75653 47.34520 48.11238 44.46443 39.20580 43.16539 41.90837 39.88928 37.92801 41.45549 43.57988 41.64802 38.83802 37.21363 36.64839 37.52522 41.82242 53.03303 54.07329 53.48151 48.08545 42.81903 36.86647 34.29735 30.91264 28.01285 26.58467 26.67607 30.53191 33.94150 32.74777 33.36618 29.06739 26.46082 26.53590 28.83216 28.31672 27.47643 28.77885 25.44118 27.06243 26.84395 26.54608 26.48161 24.56428 27.31773 26.25159 24.67821 27.94977 26.69137 25.02600 25.04185 25.44986 24.43428 26.43016 26.66759 25.18305 24.85366 26.55495 25.33885 27.26844 24.57382
25.63989 22.74733 27.45244 26.79215 22.09355 25.18542 27.61089 26.73135 22.87420 25.79029 24.24006 27.18682 23.23792 26.81570 23.91508 27.46155 26.35324 28.50577 25.29592 26.21901 25.33980 28.62780 25.87873 25.26623 28.74248 29.75745 27.38228 29.45805 28.21480 29.27963 27.73603 30.01218 31.99051 34.35540 30.25988 30.24660 28.10456 30.09637 34.01661 36.92226 41.67059 48.08805 45.34683 40.66973 36.29705 33.42183 31.95210 34.87730 39.33615 48.64507 54.63299 58.32140 61.15952 55.91921 49.57625 43.98110 40.04326 46.38201 52.72819 60.71452 58.81519 56.85198 56.98488 52.97682 45.60770 43.51470 50.90910 50.49101 45.11374 42.21484 45.40293 47.84433 47.78507 46.53863 38.92378 36.30372 42.75547 46.12319 55.29769 55.61455 56.72115 50.57629 41.62135 34.61629 32.12324 28.85743 27.55204 26.68087 27.53663 32.30942 33.93604 36.39198 36.77933 35.27524 32.80702 31.32995 29.24142 29.93567 29.13639 26.79454 28.86059 24.62947 25.96121 25.85732 27.70058 25.79012 25.58039 25.70123 23.56294 25.21366 25.02378 25.77629 26.94985 23.70407 22.78717 25.56521 25.70085 26.98249 23.79750 25.11875 25.46422 24.56585 24.62854
24.83369 25.74535 25.77692 24.81274 25.37449 23.75501 25.98062 26.49831 25.98355 24.23049 24.32369 26.57547 26.28498 25.67537 24.85376 26.48351 26.18008 25.94652 24.96649 25.58875 25.13966 25.89706 28.61051 27.63439 27.54515 31.10805 32.10231 31.47487 27.51310 30.13703 29.08332 29.12439 34.08638 33.44841 34.37218 31.61096 28.15247 30.88241 35.95765 40.50455 43.15763 48.66169 48.85460 43.22492 42.41602 36.78441 35.65947 32.76512 38.88345 44.21668 50.15658 54.99534 62.24692 62.22423 52.82302 45.77196 43.14134 45.47714 55.91689 61.56503 61.62770 60.28929 59.27141 58.00107 48.62590 46.39285 53.37558 53.09888 47.35391 46.17650 54.14615 51.96039 52.99552 46.85076 40.80141 37.02443 46.83794 50.24290 60.41136 58.37777 56.84494 49.49932 41.90900 38.38391 31.73320 31.13271 28.34651 27.45592 30.34335 33.49126 36.97269 40.21506 38.25950 35.33685 36.12408 31.99565 30.87278 27.67904 30.54423 27.28330 27.23022 24.64195 25.86732 26.24766 26.19534 25.38093 25.77449 23.01949 24.76721 26.95535 25.18151 26.31188 25.92933 26.69918 25.91605 27.93009 25.55886 24.79538 24.09156 25.79017 23.73112 28.40408 26.08342
25.03097 25.48400 24.56937 25.03866 24.10230 26.00186 24.21901 26.98791 25.85265 25.92296 23.85263 26.03181 24.76705 24.69021 25.39149 25.32515 24.35295 26.41419 23.71742 27.11530 24.57974 25.37539 26.64169 27.25250 27.94366 29.22172 32.13515 33.51561 31.81689 30.80806 34.86674 31.15093 31.06552 33.03049 36.30536 37.06346 32.03046 30.22914 35.30804 42.70722 44.80617 49.86326 51.13196 52.33875 45.23664 42.87829 40.04402 38.01715 39.48961 43.50404 48.53928 57.49370 63.41900 64.21020 61.98279 53.25584 47.30786 49.06406 60.11542 63.08680 66.18377 61.87127 64.07160 58.27443 53.44292 57.21726 58.71054 55.81195 51.66867 56.20323 59.20014 62.21453 57.39993 48.43036 42.59937 40.39993 46.33109 54.55644 63.63199 63.22185 56.19829 45.93438 41.00378 36.02965 30.60273 28.12010 28.09481 30.01827 34.11444 37.71106 39.68212 38.52099 40.09130 40.33604 36.69780 32.34918 30.48519 25.49187 27.70543 27.76687 25.89955 26.97728 26.59683 27.51137 25.87328 26.54711 25.73012 26.17429 27.88285 24.54098 22.72061 24.86281 26.91400 25.99059 26.94492 26.65258 24.29086 23.59470 25.42035 24.90121 28.75022 26.27146 23.18154
26.45746 27.85399 22.40085 23.92964 23.90789 23.50268 25.84589 22.83395 24.83298 24.53948 24.77263 26.27334 25.24140 27.14237 26.07301 25.19743 26.25922 25.99775 26.82846 27.86936 24.03493 27.75974 25.73989 26.23721 26.13330 30.30530 30.34062 33.61940 33.25833 35.77741 37.40811 36.15544 34.24071 34.59551 37.00293 39.58980 36.18132 35.05082 34.85385 37.40898 46.55786 47.11450 55.64489 57.77881 57.03467 46.41785 44.20953 44.00051 41.36822 42.78649 52.02291 55.38527 63.82711 70.28968 64.96890 58.13177 52.67987 52.73951 62.86578 68.80167 66.61720 68.42987 70.99150 66.02953 58.00164 61.03684 59.01236 58.02008 57.91020 65.06899 64.99365 61.03895 53.22378 47.30966 43.79962 42.55624 48.70763 56.44552 62.87378 60.62395 56.40219 47.81183 37.82844 34.26590 28.67125 28.34476 31.31378 31.11047 33.80149 38.66079 42.01580 46.90782 42.70938 40.32779 32.03140 32.73782 27.80696 29.79286 24.82290 24.91646 25.90483 26.57682 26.12131 26.65023 28.30596 25.02361 24.54489 26.41189 27.02362 24.84191 25.13565 23.55929 24.41972 26.36008 26.85744 23.71043 24.33246 25.36138 23.43555 26.75439 23.79068 26.67907 26.20974
26.03643 23.89655 24.66814 25.50258 25.09016 23.55460 25.59536 25.84383 24.46059 22.85898 25.97013 25.47013 25.91842 23.84991 24.28317 25.76302 28.72174 27.50874 24.25701 27.01083 29.53123 24.92732 25.32692 27.71059 25.23351 30.44599 29.58754 33.07103 35.60704 35.93485 37.50060 38.67195 37.59068 35.53620 35.80700 41.08543 40.41463 36.12678 32.04729 36.22031 41.93884 46.65689 55.15201 61.58820 61.26607 57.90663 50.27917 48.03494 43.18741 41.05806 49.05638 50.58191 65.63794 71.21732 67.67623 64.07390 57.14469 53.16283 62.44437 71.36220 72.20258 74.45662 76.33995 67.01864 63.94331 66.17260 65.19973 66.15007 70.49223 70.92887 66.89737 60.30179 54.34782 54.62519 49.77759 48.33230 47.84698 60.18984 63.97252 61.86558 54.50629 47.99448 39.08674 32.84443 30.58079 30.61822 33.91527 34.33742 35.32640 38.85934 45.53393 48.04049 44.57176 37.38566 37.00148 31.78685 28.59039 28.05639 27.74226 28.05486 25.87349 26.46271 26.34110 26.13692 26.70895 26.97036 24.26848 25.09440 24.42265 25.49414 25.60104 24.95617 24.57977 26.41229 24.40905 24.44153 23.57778 25.07073 24.84650 24.50391 26.66500 25.37299 24.94231
25.21926 26.54434 25.94947 24.91968 26.33136 27.44856 24.55381 26.04365 25.97349 24.17979 25.15551 23.65066 24.73966 27.42046 25.95365 26.33490 24.53929 24.25685 27.51616 26.20371 25.84953 25.32406 28.24408 25.80936 23.77422 27.99529 27.63692 32.93869 34.21338 34.30564 36.98810 37.28413 39.95135 40.38410 39.35784 41.62357 43.05435 42.70229 35.64967 35.86767 40.37324 44.48724 58.03938 62.95313 64.80772 63.74060 53.82410 54.04995 47.61126 46.88195 48.99170 51.62420 64.54338 74.97346 73.57751 72.46884 64.72347 60.77468 66.94923 77.36340 80.53678 83.45424 81.25029 72.13027 69.41728 74.49410 74.81842 71.74230 77.03678 79.59177 74.42079 63.58894 61.14078 57.66552 53.14209 51.22268 60.97058 63.63873 64.92115 56.02650 48.26219 39.83784 36.05431 30.95730 34.98481 30.72718 36.19415 38.35215 39.46725 44.98618 50.43190 46.39300 44.86686 35.96002 31.37281 31.54297 29.13161 28.61334 29.75041 29.56642 28.99605 27.49650 28.14614 25.04297 23.86222 25.24356 25.49044 27.82868 26.53430 23.69059 23.51071 23.18572 26.11166 26.16838 27.08744 25.34124 25.24646 26.42003 25.81306 27.16503 23.03148 23.96572 24.04660
23.96158 25.33213 24.64815 26.39768 25.44132 24.23574 25.53866 24.11687 23.98515 26.73786 27.28403 26.53075 24.53739 25.15813 25.02380 25.16643 26.93671 26.54026 24.79687 25.42527 26.44111 26.68139 27.80153 27.61214 26.73418 24.42872 26.85201 30.32641 28.38231 31.76264 32.58653 36.00036 42.34225 45.71297 44.91718 45.41963 45.01665 45.10271 42.46199 37.51265 40.32093 44.44998 55.04551 59.77674 66.76603 69.32057 65.55741 62.71258 56.09502 49.36298 54.49122 54.56553 65.30001 75.56185 81.10591 80.21773 71.73397 69.67208 72.64240 82.10706 86.50823 85.25511 84.62372 84.07123 79.22097 85.66052 81.31611 80.33373 83.19393 83.31450 74.46187 72.31741 67.94222 65.22631 57.31819 61.19476 67.38255 68.68500 62.03704 54.21665 44.20233 37.43217 40.29556 39.16867 34.51492 34.71257 39.47896 43.46813 44.48716 48.20502 50.37414 46.35365 40.64069 35.15687 32.33728 30.84898 33.26203 31.07690 30.52496 29.47206 28.61429 26.29543 26.03716 25.75049 26.87349 24.17375 26.93818 25.06082 26.01273 25.57753 25.23181 28.00572 25.32840 23.21368 26.76451 27.46059 25.32065 26.77777 24.46588 25.43812 26.07239 25.62483 23.73924
25.11730 25.30035 23.83880 23.56055 24.39935 23.67846 25.39634 24.24620 26.19777 27.39334 25.03246 24.54635 24.28745 26.82630 23.63206 25.27742 26.17745 27.73179 25.11413 25.34948 26.53016 27.04436 27.59735 28.06018 24.80933 27.33196 27.94612 28.23471 28.14737 29.49200 30.52642 37.37563 40.21473 45.19176 45.07779 50.37368 51.28137 46.80763 49.86730 46.04625 45.58587 42.65258 50.99986 62.06354 67.02681 70.42242 73.17091 69.71674 59.65115 53.31263 59.25923 64.56247 67.79756 78.68519 83.36469 87.59759 78.08682 77.38235 83.23971 90.03810 90.64240 93.04251 94.09573 89.31072 89.67002 89.74375 88.36987 88.90531 89.73967 83.54377 79.33136 79.60065 72.64203 69.07860 63.09410 66.28302 73.95580 71.83181 61.93104 54.97464 45.81112 43.66626 39.72066 36.61869 34.81941 37.80398 43.58220 51.80021 53.62711 51.90143 50.54787 42.75578 40.89475 36.95930 32.97512 32.16235 34.14936 34.54361 30.99401 30.04438 26.64261 28.42075 26.69436 28.40575 28.10871 27.26057 26.34668 25.25147 25.98479 25.55195 24.64630 26.47476 26.34179 26.57671 25.35046 28.56363 27.56381 24.80950 26.01557 25.67952 26.58376 25.79394 24.24969
24.70790 23.53960 26.58671 25.91256 25.33259 24.76584 25.27361 26.89894 23.60483 26.11399 24.04184 26.71373 25.74498 23.06694 26.73692 26.94697 27.58515 29.38392 25.40957 26.41825 24.37539 29.79830 29.18239 30.95492 27.55269 31.22246 29.93898 30.15160 30.78458 28.71793 30.95973 30.58137 38.06493 43.41908 46.18237 49.96081 55.59007 56.81136 54.32068 55.78688 48.33507 45.59696 53.38574 58.46854 69.10172 75.97708 76.69758 72.68799 67.57347 63.48501 67.37334 68.54407 72.62241 81.41719 87.62589 92.47874 88.98951 86.55457 95.35105 97.87686 97.04901 100.12675 100.71283 100.51195 100.14078 95.69438 94.10782 97.51920 97.79797 88.04854 89.28703 86.27061 82.34774 78.15953 74.41496 78.68067 78.46393 76.11112 63.70949 51.54788 51.56644 47.05540 42.00726 40.64955 40.19896 48.06848 48.78045 57.82983 55.35822 52.66219 46.71245 41.99981 36.82489 37.28482 39.52241 38.53514 37.56362 33.45682 31.13808 31.61196 30.76637 29.52727 29.19224 27.93356 27.37973 26.72990 26.46524 21.40094 25.62107 26.83654 25.75200 24.67486 26.14488 24.19559 26.79892 27.16817 26.46457 26.32330 23.24458 24.36056 24.86674 24.17034 24.57302
25.44071 26.37455 25.87638 25.67621 24.72522 26.24740 26.04562 24.65515 24.91831 23.78101 25.49395 25.45077 27.96044 26.44645 25.54043 25.12328 26.70111 27.84606 26.27071 26.08787 28.92171 27.25310 28.91865 29.37648 31.05902 29.29053 31.17009 33.20478 33.30747 32.28958 30.30045 31.07033 35.51557 39.33682 45.24914 51.99646 55.99625 60.18296 63.41759 57.97368 57.50501 52.67505 53.58091 59.03347 67.04019 76.12968 79.32041 81.66640 73.25719 67.46954 72.12751 73.83431 79.65259 86.54211 90.66112 95.00475 99.32842 97.81084 97.30724 106.33173 108.16806 105.55872 105.25673 102.51724 102.69162 105.43221 104.65980 102.82610 100.36395 94.62036 89.45845 90.86828 86.02944 82.12918 82.06951 82.86012 81.52528 76.53192 64.17332 57.97935 56.88371 53.80899 46.60455 44.40080 46.32197 52.23503 59.44661 62.11375 59.52565 53.66442 47.64316 45.83888 44.17977 45.15205 41.58269 40.82834 37.11546 36.70232 33.82894 34.69827 29.92695 30.44557 28.87032 25.45409 27.18713 27.06210 27.38029 27.99495 25.90089 26.51227 24.97723 26.15211 25.82724 25.44072 24.63307 26.79577 24.85905 24.64098 25.09366 28.74627 25.64180 26.28585 26.31658
25.10607 26.11943 24.38437 27.17489 25.31308 26.81161 24.85642 25.04244 27.32622 23.60465 25.55722 23.48326 22.78660 25.83997 24.93714 28.89014 28.14357 30.49698 27.89480 26.32216 28.26145 26.92074 27.54843 28.29700 30.94724 30.15815 34.60030 34.93862 35.62887 36.45254 38.22212 34.51957 32.40457 36.91195 41.57347 52.86836 55.07645 62.77018 66.98047 66.25752 64.39045 58.35457 54.21592 55.97984 61.80854 71.01264 82.39092 84.45693 80.36419 76.27965 81.57700 83.75456 89.16446 91.87351 98.54315 101.85373 103.03524 103.34045 104.09148 108.21415 108.61337 107.76031 107.65459 107.93106 108.80919 108.03261 107.24401 106.41756 103.46707 104.29117 101.44156 97.06457 96.02654 92.77285 91.80378 91.19700 82.62402 72.93386 66.57985 64.79866 64.73911 57.28839 50.56298 48.04357 50.36391 56.08123 61.87158 66.10289 61.92509 56.16776 51.79185 51.00456 50.02827 47.32112 45.60101 41.82166 38.88190 37.08400 36.07995 32.21898 31.71258 27.88246 26.36475 25.72707 28.95064 27.38710 23.84948 23.87366 26.86152 25.84154 26.00132 25.76752 27.02947 26.83977 22.88987 25.88346 25.76856 25.47405 26.00431 26.70645 24.51573 25.44563 25.40294
27.57842 26.45133 26.19458 24.79392 25.20609 25.08998 26.27149 24.81677 26.16110 22.43167 23.88921 25.47268 25.35844 24.91405 27.52166 25.98213 28.56318 28.29478 26.82875 27.48262 29.14366 28.70924 28.17873 28.66616 27.29112 31.97754 34.33506 36.10781 37.03817 40.83310 43.23899 39.10383 36.70700 34.08785 38.34044 43.31892 50.97893 61.89489 65.67498 68.69062 76.36774 68.76258 69.10991 62.28288 65.57348 70.10006 77.67649 84.97735 85.33669 86.46101 91.14054 91.95814 94.04466 96.33240 103.72336 106.37607 105.74120 104.73053 106.46792 110.87257 110.68032 109.99549 109.70975 108.85329 110.82099 109.65863 109.73098 110.04158 108.37021 106.53064 106.47379 104.03084 103.90202 103.06322 98.53223 92.45415 86.98300 84.24274 75.63239 66.23725 66.27786 56.23748 52.58387 60.08610 63.12812 65.96916 75.44947 68.13939 64.01682 58.98833 57.76704 55.02738 52.37878 48.79437 47.18402 42.30361 38.07859 33.97895 29.68603 30.67135 28.63742 28.47075 25.37469 25.52820 24.60252 26.78008 26.79569 24.01828 26.67701 25.29844 25.90603 24.81968 24.34621 25.69714 24.00779 24.84208 24.51824 25.44621 23.99545 24.16439 25.86573 25.70368 27.88950
25.53459 25.39644 24.12603 25.23312 25.76615 25.75954 27.43602 26.57549 26.43916 27.20041 25.39174 24.52371 25.56917 24.88379 24.65202 26.60592 26.61601 27.44041 30.98337 30.34165 31.86104 32.27002 33.30878 33.34545 31.69110 28.64165 31.94577 36.38610 43.53433 44.21382 43.81407 45.15578 44.60970 40.68976 38.57133 40.10715 50.46524 60.40628 65.87857 72.55203 76.45558 73.69546 76.54887 71.99224 71.84313 71.86813 79.50528 89.86536 93.51256 95.09394 96.90277 98.04523 99.34415 104.15088 106.16157 106.73492 106.96288 107.87057 108.88445 106.92132 106.67257 108.15861 109.37419 106.53711 108.80375 107.59851 109.38399 110.15034 107.37698 108.91692 107.51756 107.85296 108.53845 104.35236 104.13414 100.54464 90.88144 84.66930 79.72526 73.71551 64.71747 59.26233 59.70679 62.79609 69.54755 78.12073 76.49569 72.87594 67.15078 59.38312 57.40214 55.06830 50.71631 48.73010 41.32889 37.31818 36.42544 34.29170 29.89294 26.82129 25.89408 28.34359 26.83356 26.83219 26.36230 24.78488 26.78334 24.67247 24.20507 23.33089 26.89600 23.67181 26.00679 27.23549 24.48945 25.21549 25.74739 26.49781 24.88588 23.94602 26.58488 27.26644 25.58054
24.57879 26.77069 26.02035 26.14674 26.07420 27.68150 26.93758 25.23305 27.23294 25.29668 26.76321 26.99020 25.31183 25.38153 24.78684 27.61797 27.52656 24.49837 30.18951 31.64500 31.12600 36.85133 35.06631 36.68969 34.64750 34.97408 32.97914 33.37077 38.19650 43.09196 45.38703 49.15302 49.64967 47.18091 43.29492 40.00962 47.31016 54.32593 65.90723 71.38741 78.26494 80.58689 80.68311 83.71310 83.74690 85.09803 84.13232 92.22136 100.36886 100.10962 104.12879 102.58124 106.96820 108.32591 106.82865 108.72121 106.57683 105.97474 106.63849 106.85199 103.44930 105.26263 105.26092 103.29128 107.81606 105.38049 106.96068 107.49881 107.49432 107.89354 108.32705 108.62072 108.38639 106.98999 109.05010 101.38406 97.59282 90.44135 89.24772 73.26189 67.66052 68.37962 72.91712 74.59492 78.61974 80.21780 80.09979 72.10023 65.01268 58.40950 49.72548 51.52574 48.07473 40.43619 37.26452 33.98741 35.57004 31.78162 30.71105 30.55178 30.91692 29.45425 28.50606 29.05321 27.92251 30.22037 27.59284 26.34586 27.51275 24.95764 26.93965 25.78350 27.33939 24.73778 22.86135 25.65636 26.74467 22.33421 25.79519 26.65209 27.01581 26.16563 24.53103
24.47903 24.99901 25.06827 24.69354 23.31918 26.66628 28.47441 23.71908 23.95314 24.92422 22.82867 24.98758 23.66363 24.64817 24.08400 26.63427 29.11843 26.25262 28.91035 33.36583 33.09078 37.96239 38.09641 40.41966 37.59023 38.24539 35.89301 36.33628 35.09023 40.38788 43.75731 52.35054 55.99579 56.57382 51.12966 47.60090 46.90245 54.60944 62.68022 67.73506 75.78482 84.81375 88.04536 90.04763 91.03013 90.82951 92.82262 96.25609 101.00013 107.69357 107.92192 107.68521 109.25450 106.63679 108.37750 106.74831 104.81275 104.39413 103.56981 104.58236 105.58088 104.76097 106.32544 105.40607 106.12374 103.38566 107.16787 104.61768 105.71538 106.76047 104.86914 107.68687 107.21732 108.81716 109.41725 105.12547 104.67853 96.44378 88.32792 82.34655 78.19699 77.19221 84.47316 84.52707 86.52196 83.85078 77.01853 72.26006 61.38326 55.95603 48.56959 44.68564 44.89977 39.25833 34.13700 31.51616 28.34995 29.26364 27.27516 31.89618 32.35783 32.93573 32.29051 27.81394 25.91029 27.03688 27.72604 26.15992 26.90607 24.17365 27.53825 25.48400 24.80219 25.58617 24.24939 25.26293 26.99448 26.80484 27.08031 26.67739 25.60403 25.07750 25.76527
24.42636 24.28715 24.84452 27.57914 22.92602 26.75335 25.88071 24.43731 26.63839 25.70609 25.21951 26.76564 25.84663 26.25228 26.96003 27.60979 29.77610 27.50799 28.58587 31.33766 35.90664 37.39701 39.59638 42.45016 42.41565 43.15284 40.99293 40.87469 43.09014 39.05447 48.52948 51.94716 57.71239 60.64178 56.77876 53.55079 52.55016 55.03275 57.43508 64.32282 73.65703 83.83312 91.22556 93.83563 99.88269 98.08841 100.33863 105.54066 107.51259 108.50857 107.21329 107.09065 108.63218 101.72325 104.36008 103.82964 107.34156 103.96869 102.42869 102.96053 101.66921 99.52857 102.90241 105.26128 101.17335 106.45219 102.61587 100.20452 105.75641 102.49709 108.05507 105.69626 106.58631 109.77329 109.05712 108.98971 106.33170 101.86405 96.65687 92.75569 83.94644 86.26853 91.59280 93.95048 90.50093 80.90125 75.98700 65.65245 57.64670 55.18502 46.81583 45.68429 40.19245 36.99999 31.92368 31.53585 31.42986 31.03146 32.87640 32.89711 31.45401 35.39630 31.76109 30.05043 28.62248 29.97196 25.12915 28.20964 27.76772 24.92111 26.49789 25.97999 25.12092 22.23107 25.05293 24.92603 24.10623 26.79818 28.07040 24.37284 25.01000 26.04516 25.87637
26.28253 26.34769 23.82250 24.77668 23.04569 24.87253 23.81804 25.06672 24.53667 24.23543 25.92970 23.49451 25.67180 26.84416 25.70643 26.37719 29.56530 29.37270 30.64787 30.85104 35.01988 37.04145 38.34325 43.42069 46.10433 46.95705 46.31864 52.04672 48.20835 48.03816 47.33275 52.34321 59.46627 66.85326 67.70279 67.55015 61.21728 59.51316 60.53560 61.47290 70.80269 85.56752 92.45895 100.26891 104.31119 104.84462 108.36966 106.78843 109.01778 108.77075 107.09771 106.90629 105.97082 106.63826 104.75553 102.32303 103.92487 101.53128 101.08816 103.00775 100.76015 102.58208 101.81039 100.77762 102.48869 101.21437 103.25383 106.46771 100.88911 100.84440 104.18536 102.84386 105.50624 106.48709 107.36035 107.62928 106.23797 104.42102 106.22476 101.58142 99.87779 98.92059 98.29116 97.48866 86.99201 83.57530 73.73142 65.58332 59.74344 57.50727 54.03401 47.00774 42.51434 34.99925 35.76483 30.36827 35.89617 33.80603 34.69370 35.40654 37.74336 32.64443 30.06185 30.65127 29.18084 30.94544 30.35061 29.02119 29.08628 27.87142 28.51199 26.51229 26.39759 24.80061 24.29976 24.24158 25.25922 24.94581 24.84085 24.74894 23.89781 26.71807 27.18897
24.94047 23.85412 27.27217 25.24901 26.46706 23.67345 25.36325 26.35752 27.40138 24.68867 23.17071 24.63554 24.91983 25.43029 25.52605 26.82109 27.20417 28.35189 29.22958 29.26695 31.27033 35.74925 35.52926 41.44379 48.12002 48.49799 49.39138 53.29672 54.70067 53.89389 57.34673 56.06577 59.31281 65.16591 71.89183 70.77777 68.83180 68.77863 68.19982 65.26706 69.07987 80.44480 92.15359 100.11356 104.44970 108.83885 109.29027 107.76813 107.53720 108.22587 107.07814 103.24058 103.56662 103.32430 101.31978 99.84724 102.98518 100.31218 102.16013 99.21562 99.87594 100.70392 100.79247 101.64473 100.32778 98.95321 101.09988 101.11080 99.33019 101.43888 103.12112 102.42903 101.44986 105.27440 104.71536 106.03271 107.05959 108.79272 106.21744 103.64597 103.13757 102.15577 102.98052 96.52679 89.41448 84.24186 74.86631 65.90671 59.14726 54.47773 51.11871 46.01475 42.30381 35.00434 36.57810 36.68930 42.84914 40.23250 39.40440 38.05145 35.98226 34.85102 30.64702 35.21550 33.98197 30.97940 31.94178 30.53777 27.56318 25.58434 27.33748 24.65404 28.31657 27.13629 23.76713 24.65577 24.30197 25.97459 25.11208 24.43392 25.15758 24.29701 26.88251
24.47270 25.77498 23.97977 25.37562 24.39765 23.23415 26.18112 24.93702 24.78680 23.72027 26.03403 26.11927 24.32935 26.19463 27.30584 25.87175 26.97138 29.63345 27.47885 27.78791 30.07293 35.15522 34.83417 36.57538 41.52270 40.80150 46.91220 50.04831 57.59914 59.40088 62.74878 63.49271 66.72353 73.31423 75.33827 77.95489 80.97745 78.28252 82.44187 81.11794 79.08162 85.57231 92.02763 100.33287 106.90217 108.59935 108.05679 109.00386 106.61335 102.18240 104.01102 101.76699 101.57838 101.06605 101.32315 98.89073 99.24891 99.24975 98.56802 98.96586 98.35382 97.95459 98.18400 97.07940 99.39925 97.89465 99.74877 98.93435 101.66423 101.75815 100.53575 99.76649 103.63098 104.55111 105.05696 106.31772 105.51657 106.86647 107.37030 107.51325 108.90672 107.18954 102.55651 94.10207 87.91597 80.26633 72.98235 62.94140 52.09141 46.99285 43.23002 37.21758 36.78739 40.55436 43.47768 49.60775 48.09693 47.29705 42.42536 41.17742 35.14374 38.28338 35.14191 36.20186 36.59092 34.86934 33.98565 30.87865 29.07731 25.82508 28.29415 24.33380 27.64060 23.65170 27.07842 25.33572 28.22690 27.33712 25.78499 25.03179 26.03986 22.03189 28.38646
24.38079 24.54880 22.37421 23.65283 26.38143 25.91908 24.26986 25.18440 27.74541 25.57382 26.13074 26.31928 26.42892 26.99531 27.61126 25.32949 25.72413 28.83827 27.81069 28.50936 29.46102 28.43519 32.34544 31.91795 35.32147 36.75461 44.12821 51.54447 53.08067 57.05711 60.39994 61.29439 68.81933 73.43628 81.29669 81.86951 87.41731 90.05955 89.51060 86.37542 89.03241 92.50895 96.52939 100.65180 106.75570 109.88241 108.67791 107.13830 103.63228 103.41833 103.23377 99.09853 101.94517 100.92333 97.27112 100.46145 99.55194 98.19623 100.02137 100.66641 96.74303 99.72237 98.13482 97.99126 99.34990 98.92876 98.86869 98.31734 97.32334 99.24610 99.52485 100.35962 101.55923 102.98506 103.61894 104.59875 107.36192 104.47229 103.11495 108.10375 106.73823 105.92351 98.68097 94.65246 81.71246 71.28364 63.06462 56.08729 51.91500 52.75947 47.33185 45.28288 46.18284 48.27696 46.37491 53.49607 50.95251 51.51756 46.75258 44.32392 43.32834 41.00106 43.05271 39.38829 38.23754 34.60761 33.43458 28.92538 26.92248 28.91258 24.84112 24.75115 23.92974 26.17402 26.08901 26.55131 22.39541 24.89762 26.45426 24.57877 28.92048 26.93086 26.88259
26.92211 24.47283 26.10374 24.35273 24.55106 23.20830 24.20052 23.65170 24.39917 24.29259 25.98784 27.18888 27.62994 24.86076 28.81194 24.97653 26.05873 25.44506 26.73478 26.76645 26.20694 26.19907 29.14168 31.55945 34.08942 34.60140 41.98989 43.87455 45.50219 49.41678 54.06830 58.69997 61.64736 69.12021 77.97302 84.83662 87.49824 94.90472 94.34246 95.23084 100.50786 94.64575 103.12363 106.52829 105.01195 105.18756 104.21434 104.28987 106.24603 103.18275 101.29577 100.87531 99.71847 98.29913 98.46790 98.38074 97.32718 100.41049 97.90370 100.09838 96.61709 98.95772 98.27448 98.03167 98.64737 98.04372 97.39483 98.47211 100.88224 101.15135 98.93601 98.53902 102.95243 99.61955 102.21114 102.42291 105.59320 105.12393 105.97789 106.84646 107.87242 107.08746 101.35904 94.13212 80.26559 71.65175 63.16602 59.76163 60.11813 58.29800 53.82609 50.47915 53.15000 54.71737 58.70263 61.56447 60.67674 56.18778 51.66679 51.89473 46.38265 46.62714 43.93813 41.94957 38.55697 33.25170 33.74311 27.93678 25.93596 25.11690 27.59448 25.27164 26.26497 26.13490 26.08589 26.02846 27.43976 26.68453 24.26620 26.12736 25.57510 25.37982 25.62201
24.51973 24.43012 25.66622 25.55696 25.32616 24.17704 24.29460 24.72045 26.67125 24.25771 29.59523 25.53868 25.58980 25.59291 25.73921 26.21677 28.96139 28.41810 26.97524 29.15742 27.30843 27.90586 28.08682 29.84192 29.51594 33.64633 38.09867 37.98104 37.04413 43.93967 49.02437 48.73066 58.92076 63.25116 71.62698 77.19526 83.44160 86.19905 97.77604 101.96907 105.03598 106.20115 108.75517 108.43186 108.23429 107.34130 104.23641 101.96772 101.30887 100.96588 97.98721 98.92878 98.93563 100.11704 98.78661 99.25459 99.01470 98.17773 96.22759 97.94382 97.25871 96.33361 97.80508 96.62066 97.28745 97.72487 99.01711 96.64026 95.04821 95.94586 96.99408 99.42408 99.51774 102.05426 99.34544 101.92314 101.16871 103.43185 105.03887 105.25333 108.13754 107.42947 104.30790 94.29418 86.05088 79.07775 73.24628 69.18009 68.27412 68.62866 63.79645 60.22487 61.93545 65.26522 66.05052 67.39370 65.10899 59.03912 55.64233 52.13623 49.93747 45.98686 44.83901 40.53998 38.24511 32.65440 29.16983 26.07264 24.63392 27.35054 27.62527 27.76491 27.56595 26.62166 25.79775 25.27016 25.25141 25.72640 27.46600 25.10545 24.28437 25.74846 26.49587
24.86090 26.53277 25.52627 24.33393 24.65505 26.03955 26.66241 27.30772 25.92653 25.01874 28.84258 26.89254 27.16595 28.07733 28.55475 29.12218 29.84038 27.93547 28.57933 29.07008 29.45695 30.67873 30.24020 27.15211 31.44743 31.86287 31.69202 32.98177 34.35325 40.33086 39.78925 44.62385 49.00487 59.81315 64.36265 70.77198 71.41932 81.73837 90.31341 100.92181 107.83780 107.87146 108.51395 106.06647 105.17099 105.00610 102.40385 101.62007 101.42378 99.11645 98.14329 101.20758 100.01874 98.34002 97.58590 97.16883 97.41533 95.87132 95.99832 98.81064 97.74923 97.86846 98.69898 98.40291 97.24218 97.04284 97.99857 97.64561 98.43112 95.10963 98.55830 100.48265 96.90245 99.75417 99.22416 99.25228 101.73952 103.08202 105.15750 103.05179 107.31446 107.92779 106.81371 100.35354 93.70653 84.54940 81.27323 78.27487 77.89389 76.71740 70.17645 66.80554 67.29590 72.11526 69.34430 69.29061 66.84389 61.23363 59.13357 53.54635 49.03973 44.02326 38.90792 41.02503 32.81189 31.59520 26.25558 28.51376 25.06708 27.35300 27.72150 24.47067 28.88092 30.43758 27.24169 25.54063 26.91153 26.02621 24.41527 25.24020 27.37312 23.00278 28.57893
23.34669 24.94356 23.98028 24.77034 25.54375 25.28755 24.66595 25.12018 26.21698 28.64215 27.10047 24.82648 27.65367 30.02133 29.32445 30.44155 29.96125 31.73696 32.03456 32.40332 35.27595 34.70808 31.69105 31.02099 28.06092 31.00175 30.23781 31.48650 32.45699 35.28428 34.74825 39.86857 43.04272 50.24805 52.14898 58.23496 67.30247 78.98753 87.77982 97.62022 103.50039 109.63366 108.75770 108.15470 104.29040 107.24124 102.53764 101.73522 99.48500 99.00144 99.18780 97.34743 98.32137 100.12029 96.70245 95.60211 99.41299 98.66323 95.69645 97.06871 97.08130 97.39598 96.73535 96.43957 96.35369 98.79705 95.68848 99.18980 97.42991 97.66807 98.96587 97.64364 99.65865 99.55575 99.90314 101.58735 101.09077 102.66587 102.79043 103.48551 105.12125 107.94427 106.33455 104.74712 101.11829 91.53517 90.57660 92.65571 86.63733 83.83496 73.20582 73.84385 75.43846 72.38043 67.93454 65.80370 60.93017 56.83937 56.02726 48.39716 45.50086 40.41947 38.47515 29.56672 31.64695 27.60729 27.82022 27.46356 26.17515 25.83911 27.82065 29.00990 26.99440 27.91701 29.39571 24.92148 24.14403 24.86568 28.04475 25.50788 26.32837 26.60150 24.48090
26.84952 23.30568 26.88766 22.98188 28.68093 24.60907 24.55688 25.64620 25.53868 24.67358 25.70499 28.17434 29.98327 28.37033 29.37380 31.42211 34.16429 34.18104 37.58274 38.91201 37.33218 37.37163 36.50014 33.76172 33.06830 36.36328 37.30472 34.83143 35.91463 38.04222 40.25701 45.17019 43.45866 44.96248 48.81724 57.07882 67.22326 75.97810 83.56096 95.76926 107.11886 107.14858 107.36801 103.28003 105.26082 102.59604 102.68316 99.29420 101.63125 99.43742 98.38295 98.96498 99.05129 95.93977 99.28233 96.44085 95.87080 98.19555 97.61316 94.69493 97.53813 96.36103 98.08305 97.10482 95.94479 96.59881 96.34156 96.80197 98.91435 98.61461 97.43003 99.07206 97.41226 98.83987 96.27783 100.12195 99.59382 101.53863 100.32409 102.07838 105.55093 107.69856 108.97277 107.40888 105.75900 106.17495 99.59723 97.13663 93.18797 86.26307 84.98540 81.64893 75.34210 71.18825 60.43347 58.73371 55.05910 52.97567 53.36422 42.61135 36.09029 38.49436 31.22067 31.71877 27.03085 27.32342 25.64016 28.11041 30.63275 30.19418 31.31421 30.47388 26.44712 27.96908 26.06849 29.00236 27.12993 25.96596 25.84122 25.56871 23.30695 24.00945 24.80409
25.23501 26.85642 24.60656 27.59079 24.19349 23.98245 25.47912 23.86679 28.54270 27.26312 25.59886 26.61507 28.10614 30.73592 31.54521 33.16213 34.84031 32.05089 34.65557 36.00117 37.64806 40.82636 40.90178 41.66559 42.95772 35.51145 40.61384 40.18614 38.14041 38.27427 48.43686 49.72688 48.80798 54.07891 58.89566 63.08072 65.04797 80.17548 85.52266 97.94177 107.38079 106.92310 107.21837 104.27658 104.28446 105.33152 101.65645 100.43105 99.79846 98.67041 98.11304 97.32033 96.49955 97.78692 95.91982 97.56799 97.43566 95.33013 97.05951 92.34364 96.73949 97.64161 96.18928 96.18965 95.56220 96.32746 98.56415 96.99810 97.45181 98.24720 98.31076 95.44889 98.27783 97.72521 97.14242 96.93906 100.21873 101.58389 99.34526 102.02382 102.45998 104.88492 105.75202 106.57099 104.67662 106.21344 104.38588 101.12182 93.78439 90.93875 85.30919 77.31949 72.59459 64.24555 54.88504 50.66350 46.81266 43.00450 47.47915 38.40168 36.57549 30.47181 30.67648 27.71122 28.35316 29.68315 27.90515 30.02826 27.08827 32.82329 30.02982 30.94296 28.37168 28.91280 26.41939 26.58123 26.21949 25.51068 23.83528 25.85113 24.16484 25.21261 24.83876
26.05146 24.83010 26.56998 24.40698 21.42791 24.07268 25.90827 24.23619 23.93965 26.29523 27.31872 27.10256 26.74357 29.28303 31.29513 32.21578 31.09771 30.20191 33.17973 35.92729 41.22308 41.38603 41.96861 45.47485 45.19939 46.94989 48.10417 42.87191 47.12621 42.58205 44.66003 53.61939 60.67704 64.78052 64.61273 72.17740 75.72962 81.57170 85.95920 98.95723 105.98202 109.21466 107.75854 105.25724 101.11446 102.96353 100.64862 101.48935 95.90866 96.77023 99.36034 98.12921 97.17246 98.49557 99.61121 99.05973 99.56478 97.73676 96.01476 97.92808 96.27305 96.90423 97.69805 96.08123 97.27156 97.06865 97.39212 97.23217 96.67829 95.94493 97.91452 100.36159 97.58254 97.53466 97.80180 97.91439 98.33366 101.10008 101.40741 102.51075 103.60313 105.83642 106.58607 109.33095 108.97058 109.21751 107.35211 99.67253 91.73750 87.48033 78.09615 74.82841 64.29404 59.48819 54.22432 47.85411 44.11258 41.68623 38.85177 38.39447 33.01734 33.07193 29.01960 31.36850 28.46528 31.63530 31.69040 32.11353 32.89873 32.21997 28.39040 30.40062 27.84628 26.32627 27.24561 25.79289 26.62011 24.68760 26.91580 25.32429 26.75622 23.93658 24.94873
26.79854 25.34488 25.50299 25.12878 26.22962 27.85680 27.94480 26.47443 24.95150 25.41814 27.44316 27.09561 26.78934 23.84920 26.86019 27.24754 28.26906 29.43475 30.75765 34.28084 36.56976 39.68816 43.50385 46.66346 48.58319 50.87692 54.08899 53.36980 50.81113 51.20543 53.44985 55.64886 67.61177 68.38843 76.07170 78.49029 86.40328 94.36279 96.83351 103.26734 107.31055 105.32243 106.08657 102.34694 101.85465 99.40550 100.80255 98.96701 102.07863 98.12807 96.73905 98.23115 97.17456 95.87320 95.00638 97.07979 98.17901 97.46010 97.45856 99.92684 96.72693 98.08097 97.64521 95.07652 97.41414 98.67344 95.24034 95.70851 97.35500 96.90474 95.04970 97.04928 98.22507 98.10121 97.33664 96.45233 98.76699 97.43875 101.33543 100.25352 99.82394 102.44265 105.57142 108.91287 108.76610 106.23004 105.30574 98.48460 90.76911 83.86355 72.55293 69.95952 61.67297 58.08080 57.27370 55.14053 50.15039 45.88286 37.92510 34.28191 33.17024 32.58430 31.20043 33.73270 34.04456 33.24998 31.59811 36.04977 33.76791 33.12999 29.09491 30.66434 27.36242 26.57041 27.73108 27.89340 26.34807 23.70471 27.16170 21.88255 24.54180 24.43243 24.47450
21.59056 24.82496 25.27754 24.60450 25.62138 24.34376 24.49959 25.54834 27.84085 27.10190 25.82703 24.80395 24.85746 25.72012 25.26411 24.53957 27.38520 29.98105 28.14445 32.84855 36.76022 40.95209 40.21748 44.25025 52.31237 54.17785 58.15121 58.87595 61.28088 60.78926 59.65205 60.85397 67.21778 77.27982 84.55621 84.61272 95.55742 97.03371 101.21000 107.28459 106.48764 106.25480 105.23650 102.52620 101.18794 100.30799 97.96072 97.76295 100.60100 98.67642 99.42848 94.64399 97.35857 96.46529 97.01665 96.23191 97.05557 96.93033 98.45805 99.12574 96.46126 97.30676 96.99600 96.67720 96.70665 96.26357 95.72732 98.09248 97.18831 95.95262 95.58954 94.60679 96.87134 98.54079 96.16198 97.98143 97.36365 98.72420 100.95441 101.15490 100.00130 103.32481 105.21455 104.60583 105.96638 109.32838 103.92851 100.85831 93.44688 83.00131 79.08027 75.00205 75.12446 66.85288 62.03210 64.02685 52.54641 48.43872 41.58641 36.63344 40.85304 37.29287 36.49235 38.02668 35.48873 34.14822 33.39874 31.57403 28.79767 30.65688 31.63182 28.61338 27.15553 26.33189 27.45416 25.78655 26.24933 25.35209 25.87555 24.48304 23.77704 25.15540 23.02433
22.46986 23.51116 25.66496 24.98132 27.42487 24.00569 25.96977 26.43231 26.07400 25.01858 26.46946 24.60682 26.99025 28.23562 26.69339 25.95981 28.28261 32.16918 31.45296 33.22048 34.24387 35.16017 43.85266 46.58343 54.75875 59.41676 63.72032 67.26059 64.08191 64.45579 66.71440 68.71867 74.65060 81.88870 87.17383 92.16853 100.65061 102.88611 107.57546 109.07484 109.20085 106.84525 105.76795 102.40851 103.77749 101.89695 101.27241 97.61285 96.56789 97.62495 96.92656 96.81245 95.82362 97.81982 96.66402 97.06389 94.95962 96.18803 99.13245 99.34119 97.60895 96.79103 98.35719 96.54829 95.86554 97.25205 96.09461 96.88806 95.66695 98.06772 97.84650 98.79304 97.25331 98.11900 96.77930 96.63190 100.11540 98.35266 97.46988 98.11756 100.30354 103.05061 104.83909 105.05763 107.45619 107.28080 105.50033 103.05137 96.47215 90.48584 88.87490 83.01805 76.78854 73.62961 71.60849 63.34415 54.00823 46.82466 42.63981 41.64183 45.41032 41.88749 39.93049 41.33704 36.39162 35.04317 29.97368 29.33675 27.35817 29.85086 27.82852 26.48357 26.63308 26.84320 26.08539 25.87150 26.06882 25.66797 26.24904 27.30749 24.28438 25.23994 23.49539
25.98028 25.70801 23.93741 26.01187 24.74695 24.26624 26.68653 26.29268 24.96297 26.02372 29.03859 23.43149 25.89931 26.99692 27.69882 28.56726 31.71671 30.78326 34.59032 37.57477 39.39388 41.66480 46.49019 50.51219 54.87332 58.26461 61.53015 61.20482 65.74829 69.41318 67.61650 72.03501 80.07958 82.98481 93.10816 98.85933 101.89520 107.07647 108.14190 106.89348 106.01215 103.66805 104.25021 101.55886 101.78892 101.71686 99.95324 99.24139 97.20532 97.13713 99.30409 97.85853 98.38184 96.64997 96.05285 96.37127 97.19840 97.02428 99.95316 97.21180 97.07593 99.46469 95.17279 96.64318 97.87826 97.28021 96.66775 97.57999 96.53305 97.05302 93.55000 96.81225 97.54440 97.47053 97.44044 96.80837 97.46198 101.15883 98.79090 99.96181 101.27672 102.47103 104.54525 103.53442 106.17686 106.15398 105.67096 104.70722 100.95992 97.30629 93.98949 89.28730 79.02981 75.19925 68.74013 63.88559 53.87177 48.80988 49.51054 47.13998 48.96785 45.89425 41.06553 36.59231 34.07820 33.40238 31.76920 28.16396 29.39158 30.09261 23.98311 26.06804 26.99783 25.46527 27.96662 24.25012 25.92132 24.75620 25.19488 27.02506 24.59761 25.81020 24.17687
26.91677 25.85645 27.87977 25.57035 23.59807 25.60491 25.98791 24.80801 26.78942 27.20588 27.50218 28.57455 26.85202 29.06514 29.49737 30.34455 29.81282 32.67909 37.03848 39.09905 43.00262 43.76041 49.40618 50.12666 51.08836 53.44060 56.70538 59.60979 59.58588 64.33751 66.45948 69.19281 75.41105 81.07376 85.91173 93.84602 101.08447 106.86835 108.27222 108.86521 104.86469 104.37050 102.94625 102.39872 100.26326 98.78729 98.77483 97.78069 97.22697 96.71134 96.79277 98.39545 96.64873 96.01453 98.90722 97.71367 94.61901 98.19487 97.65859 98.09078 101.16438 98.05821 97.10761 96.32472 96.69535 96.25236 96.53696 98.05140 96.48074 96.95997 93.93817 98.82804 96.24176 96.05671 99.18667 99.24312 97.70756 97.67118 97.16890 99.18366 100.72448 104.71081 104.20648 102.08362 107.02928 109.49263 107.98579 107.23013 102.99440 96.84598 91.99308 88.04566 83.75726 75.69556 67.41502 62.38466 60.43844 58.94655 51.71272 53.70434 48.32879 44.61080 39.52693 39.99445 38.15781 32.29353 34.23688 31.91585 30.07230 29.60537 28.72696 26.06281 26.59224 26.09692 26.39276 22.87659 26.84225 25.63085 22.42447 24.30929 23.83733 25.32172 25.73943
24.79931 27.69227 27.88199 25.48879 25.99948 25.83021 24.94940 27.44088 25.10067 26.82958 25.10851 26.11856 27.13194 29.32454 30.38678 30.14740 33.15263 37.47300 35.63636 42.52620 41.07859 45.60729 47.30578 49.42290 49.31347 51.83448 51.81959 51.17859 53.21311 54.15812 57.96343 63.53969 66.94673 72.10230 82.80265 89.94021 98.80768 106.33083 109.26984 107.57937 107.87864 105.33826 105.71598 101.74491 99.36766 100.35268 99.96281 98.10976 98.96280 94.70853 97.03120 99.21688 97.02796 98.03412 95.32407 96.65122 97.03891 95.61757 96.41168 95.62735 95.90256 96.06015 95.57519 96.05530 98.49662 96.62187 93.66355 96.37346 93.81131 95.32123 95.40990 96.03040 95.41828 96.06733 95.68735 97.02565 98.03989 98.01942 97.84865 100.22057 98.53971 103.51070 101.96674 104.92307 105.81277 107.61740 109.54098 107.94429 106.57854 98.31920 92.94332 86.48829 80.48844 70.03183 65.77626 62.26356 58.04355 54.64919 51.60127 49.44463 42.47093 41.55747 38.85532 35.07437 37.02551 32.04933 32.88637 29.40097 31.57839 30.33120 30.85229 26.24339 27.44878 25.75491 26.59779 25.31621 25.28132 27.08662 24.56618 26.23787 23.06403 26.24271 26.05202
24.81292 26.25446 26.06303 25.41597 22.96426 24.78011 25.17445 26.86204 25.79432 27.68699 27.57009 28.60484 28.40224 29.09663 31.46252 33.96374 34.82765 37.43576 39.52206 41.74002 43.71569 42.66765 44.81109 43.78652 42.01973 40.75847 41.02268 45.55762 42.92285 45.11040 50.76266 60.28338 65.83639 70.84274 81.25742 88.24201 96.54702 106.43245 107.48082 107.46610 108.36385 103.99559 103.44336 99.83010 99.11990 99.57750 98.88488 97.05426 99.57660 97.44844 98.64402 98.41790 98.83897 99.10409 96.56337 95.85872 97.59669 96.73387 98.82923 99.29560 95.70319 95.68643 94.47758 98.24748 95.63727 93.61717 93.49209 94.21896 93.96630 91.25662 91.89896 91.68108 93.38196 96.71391 96.63001 97.61123 95.35174 97.27049 99.68678 101.22093 100.02063 100.48681 100.14739 103.83441 105.78786 106.72902 108.47028 108.41444 102.58360 101.08504 90.10953 81.05582 75.67276 68.13175 66.38671 56.54896 52.47921 48.14201 42.03941 37.72246 36.94422 35.80991 30.82545 31.85823 31.64566 32.40139 30.86731 32.88406 30.83637 30.46941 25.71702 26.40662 27.93508 27.14299 26.29974 23.77090 26.84173 24.95655 23.39262 22.73536 25.54108 24.15013 25.40767
25.21009 25.48343 24.92132 24.27838 27.61152 24.93848 25.34377 26.41591 26.23739 27.44481 28.53298 29.28709 30.06905 33.35984 31.61489 30.42030 35.15056 36.03374 37.71865 38.26638 36.86364 42.14283 36.72447 36.71175 33.71051 34.92748 36.62261 40.68748 46.17813 50.29696 53.22974 60.92510 71.07496 76.39702 84.85100 90.81001 99.98673 105.30259 107.14732 107.47765 107.27224 105.40156 102.23706 102.11091 99.60748 102.04045 96.68562 96.72816 96.41803 99.18448 97.20530 97.25824 97.36064 95.93960 96.79746 94.79406 96.90791 96.47289 97.33676 96.07116 96.93476 97.60945 94.75971 96.90626 96.35965 95.56552 95.22898 91.75039 92.03935 93.01272 87.78013 86.29246 93.23992 94.55852 93.33147 96.30772 98.58905 97.92889 98.50822 95.82748 98.91464 100.85332 103.47405 102.97800 106.96498 109.22504 109.53010 110.26507 102.17194 95.26952 92.56359 83.17286 78.59713 73.39914 66.84099 58.73133 52.94079 46.98839 41.01481 38.60315 33.67572 32.85116 30.70003 31.90972 29.95216 27.00491 27.83877 27.16071 29.39423 26.83778 29.42442 27.25045 25.78285 25.97817 27.72268 25.88641 25.85791 26.21410 23.34900 24.61694 25.96022 22.13174 25.64764
25.03355 23.55155 26.55086 27.13620 26.89396 26.44735 25.11758 26.57862 25.07466 24.56511 27.85145 27.41020 29.08443 30.92570 29.84715 30.64252 30.98074 32.77056 31.29430 33.93181 33.70706 34.03750 35.55132 30.39750 35.16362 35.44249 40.75526 43.05152 46.06317 47.36573 58.23134 61.91401 70.60673 76.74543 85.10183 93.21217 100.99876 107.90373 107.15872 107.40038 107.40629 102.88382 103.40194 99.15672 99.30862 96.84043 98.57075 98.31529 96.40150 99.38944 96.03433 97.57632 95.03948 97.80043 96.30605 96.85433 96.42608 98.24145 98.05100 98.41158 96.89563 96.00528 94.02214 92.94613 94.52530 91.08199 94.29685 94.73716 87.32828 85.54309 80.34513 83.56405 86.99834 93.56201 95.20030 93.33441 97.51149 97.88217 98.01178 97.45586 98.22103 102.05309 101.08199 101.21581 103.66808 108.03834 108.67043 108.96305 100.36964 95.40666 87.40095 83.14993 77.12983 64.55230 56.53242 56.60223 51.60127 45.81389 46.79441 39.19295 38.15555 31.59511 30.21539 27.37944 28.93986 26.92574 28.83203 27.29036 27.13959 28.44027 26.92255 24.79036 25.90955 24.59864 25.28299 23.92280 23.47052 26.50250 25.85516 27.36780 25.98704 27.05377 25.81541
25.29736 22.79967 26.61328 24.80667 26.28343 25.25419 25.19968 26.19499 28.64571 28.42348 28.53230 27.73932 28.82625 27.59462 27.18506 26.32323 29.23966 32.47169 28.96741 29.77224 30.30385 29.79635 31.91793 32.20672 36.15909 42.72743 46.23955 48.79412 49.24056 52.54409 59.47457 63.55505 68.17787 78.06030 88.38771 93.70714 103.92554 104.88732 107.94783 107.17182 108.80182 104.65216 103.45394 100.28077 99.02763 98.48845 97.67246 97.42688 97.13693 98.53811 97.59493 98.53726 97.72061 96.88742 98.00914 96.33890 96.23931 100.73278 96.71502 95.53291 97.89753 95.55316 96.79405 93.99378 93.50746 91.26355 89.11392 93.30478 92.47570 88.72966 72.95238 75.54916 81.69750 88.68707 93.24414 95.23098 96.60474 95.64951 97.13316 98.14612 101.20924 102.48104 99.84679 103.65954 106.94554 105.18844 108.36654 106.69229 102.08891 95.67525 85.90998 77.89480 65.22236 60.15488 51.92229 48.27215 42.52853 39.82746 42.66834 37.08173 33.25370 30.94581 31.57530 32.97974 30.30663 29.02289 28.47016 28.81864 27.72199 28.69942 29.33150 28.13952 26.77488 24.11618 25.68593 26.83544 27.82988 23.31395 24.23585 24.73709 26.21328 25.53581 25.84992
24.31635 25.90409 26.23378 26.16214 22.37747 26.28576 24.58088 24.99587 25.68966 24.22727 26.30864 25.73397 24.86498 24.72077 26.79482 26.16811 24.85647 25.50926 29.96359 26.06362 26.88725 28.18156 29.69936 33.18432 40.00634 45.09837 46.93315 53.25228 60.31546 62.13051 64.25486 73.18534 78.07646 85.94145 89.22980 94.18571 100.72960 102.19137 106.78131 109.18586 105.32096 104.83742 104.86550 102.39384 99.79569 99.24569 97.83290 99.25770 96.79605 98.69886 94.54609 97.69889 96.23719 96.56814 97.10331 98.64589 97.14366 98.94639 95.90746 99.95826 96.99251 97.13176 97.30134 94.59691 96.10762 95.61911 90.55318 83.13404 85.98181 87.76380 74.50698 78.50797 85.91125 92.16422 95.10356 95.49205 96.08539 98.37074 96.94500 101.72659 102.29790 100.12632 101.82954 103.57021 106.99063 106.76243 109.36105 109.92047 103.22508 97.78425 91.54348 80.49058 72.86325 67.05834 56.51764 52.26778 46.36346 40.57169 38.77807 37.70466 37.03513 36.50410 36.56439 34.34082 32.03001 30.29149 28.97363 28.60736 29.70666 25.75540 28.07631 28.49440 25.18007 29.27333 26.50367 25.91201 25.40264 24.94657 23.48088 25.21728 27.25446 24.97384 27.18113
26.02531 24.28153 23.75564 24.90139 26.09957 26.47224 24.55341 23.06960 24.59806 26.55730 25.72505 24.19767 24.68135 25.98231 24.73258 27.05899 25.52349 29.58520 27.73856 30.52977 32.39511 29.93779 33.81098 35.62164 42.33213 43.47399 53.38247 58.08341 63.97023 66.56256 69.33952 72.61355 73.22710 82.77710 83.95488 89.73435 92.12583 101.40458 107.27352 109.96660 104.48032 106.63498 101.94970 101.88042 96.98796 97.09099 96.58073 98.73248 95.65221 96.64140 95.99648 97.57370 96.85443 98.33354 97.57599 96.33710 96.66510 98.78289 98.91316 96.74273 96.92127 98.32575 95.43648 98.04447 98.40961 96.63869 97.09228 92.19666 80.26609 77.65651 68.14415 67.32156 79.07558 89.40418 93.26208 94.69926 93.47342 95.61690 97.07226 99.05133 99.79326 102.41024 101.54798 106.48628 108.32566 109.92363 107.18565 109.78970 105.84504 100.19403 93.26323 90.70938 80.34500 76.65759 68.93728 59.54504 48.28849 46.19347 47.71764 44.52280 40.80564 41.16720 38.88000 37.16488 36.20694 35.00157 32.49209 29.39772 30.23786 29.52950 29.85362 28.84813 27.82031 26.30367 24.62154 25.61144 23.53409 25.07922 26.48397 23.90064 26.37575 26.21767 25.84635
27.58040 23.23001 25.36572 28.59964 28.08688 25.17695 26.39359 23.52224 25.93553 24.76856 27.68561 25.71637 24.43270 27.68986 28.13464 26.49797 26.45432 27.85653 30.11046 32.32173 31.80972 36.57360 38.59707 42.44794 43.44658 46.30280 50.72587 55.39189 58.04126 64.09096 65.47847 67.42168 69.24672 70.84893 76.83606 81.98970 88.81318 96.99415 102.33249 107.45993 106.17221 103.82051 102.10668 102.62928 99.48228 98.06157 97.88828 97.05214 97.82302 97.18059 97.29609 94.02813 97.88286 96.20155 97.33621 99.76117 97.50155 97.33431 96.99352 95.78021 97.40400 97.29224 98.63924 98.29012 96.29775 94.34949 95.17956 91.35754 78.48975 69.39538 70.41053 65.42380 69.17891 75.85006 82.52456 84.30671 91.52499 95.49391 98.67041 95.58294 102.10917 102.02760 104.48131 106.37520 106.21175 107.98347 108.42353 107.37168 100.89782 100.83486 95.54563 91.57741 85.13505 77.00560 76.60623 65.46825 60.50230 56.50568 52.11028 50.64366 48.29194 46.19778 45.66040 42.32050 40.37594 37.88391 35.67393 32.23123 31.11986 31.55760 30.86209 29.18219 29.02872 27.00950 28.60882 25.75867 24.16808 26.40743 27.92367 26.35733 23.75603 24.90081 24.79386
25.16270 26.58011 26.31039 23.44917 25.29547 25.29435 26.00081 24.05982 25.05378 25.03499 26.59150 26.91139 28.72075 29.77821 27.20159 27.72410 31.77124 34.25505 34.93449 36.88444 36.50122 36.34939 37.08330 41.51811 42.05839 45.23556 46.37330 49.91843 48.75033 55.57998 60.69755 55.99288 58.03233 64.84279 70.15470 77.77083 85.53455 94.65235 100.65802 104.35032 105.57842 104.53406 105.16637 100.52811 97.72476 98.61448 99.78493 99.92515 99.24792 96.35775 96.08313 96.60318 96.97362 96.84972 97.17431 97.56787 96.83725 98.35180 94.68436 98.18702 97.69853 97.60914 94.49090 98.23784 92.75150 92.24436 84.14818 82.04221 76.93052 76.39037 83.41850 83.93191 71.51485 60.88253 63.14048 75.86455 85.35604 88.08710 92.01957 91.34774 96.44537 95.33771 100.58145 106.93922 105.87175 108.68175 107.79377 105.11415 96.84754 95.49012 88.24400 86.62353 82.88870 77.16499 73.82751 66.21044 62.44208 62.35105 58.00942 53.63184 50.75232 47.82972 43.61045 41.05531 36.65716 34.71601 36.01001 31.89334 30.51830 31.40937 30.66357 28.55636 28.91138 28.74750 27.30437 27.85449 23.96792 24.13027 25.57200 25.59777 25.65627 25.35313 24.53713
27.49707 24.14256 26.12486 23.65220 27.76902 24.87797 25.29384 27.39835 27.38881 26.78991 26.34809 28.74876 26.93664 27.86851 28.62994 30.27636 29.72910 31.80503 34.20039 31.95470 36.72492 34.04841 36.38194 34.23317 36.21662 37.90793 39.20439 41.44039 41.66972 46.27441 50.22431 49.54041 53.76975 60.26206 66.66989 76.25091 84.07512 93.46341 101.04201 104.61970 108.13014 105.50999 102.97175 103.06696 99.36922 99.47187 98.24561 98.71502 97.47406 99.66296 95.51570 96.31928 97.41351 95.89793 97.33293 96.36676 95.47894 98.88250 96.55850 96.17496 97.05495 94.89239 96.72108 93.59154 90.99210 89.97455 87.52054 84.79829 83.11903 87.42023 92.57090 90.07353 85.99266 76.57026 68.71711 57.87872 75.15496 82.87359 78.20088 76.42082 87.14139 94.15391 100.65303 104.08005 105.62674 103.51477 107.04250 99.98325 90.90984 84.60788 81.39960 76.48112 74.20237 72.79449 69.56625 65.45976 63.94689 61.07920 55.35016 51.67255 46.87754 45.02016 38.82751 39.39800 33.66083 34.44272 31.25337 32.21599 30.66064 26.44802 25.94995 27.19242 28.17225 27.97490 25.44943 28.25809 24.83352 23.71721 25.18213 27.17681 25.06637 26.73244 22.38509
24.56309 26.22296 26.45572 25.25173 25.50540 25.54118 26.94586 26.33792 27.63149 26.62353 26.91202 28.40245 29.66962 26.20775 30.94290 29.27449 30.42363 31.39362 33.43427 29.86235 29.49956 31.50618 31.12837 33.92851 33.13068 33.02581 33.80632 37.57846 37.59858 42.46172 45.17423 53.10010 61.26906 63.33187 67.83810 75.42167 84.12323 95.82052 102.15243 105.14254 107.61231 106.61211 102.87643 102.91992 101.24460 101.12761 100.04860 98.59181 99.04692 97.24148 96.71375 97.88224 98.47056 98.58160 96.51476 96.39965 97.79184 98.20003 99.25830 95.37392 97.88931 96.07594 95.42866 96.62679 96.33955 94.38243 93.32109 92.34297 89.14870 87.12424 94.30915 94.99290 90.43392 92.85675 83.61427 64.34643 68.35039 68.50354 63.82308 66.49323 83.73060 90.50694 95.17752 101.05010 102.83932 103.39261 103.13492 96.99118 92.45019 78.25754 72.12059 66.79525 65.83625 61.91528 61.59940 62.90671 57.05591 56.54134 51.80049 52.09759 48.35689 47.11160 45.13300 39.27420 38.35060 33.80058 33.17567 30.08997 28.00649 28.75904 27.16503 26.86980 27.10180 29.98592 24.85126 27.82259 27.70774 24.23583 27.47123 25.54984 26.65291 25.39067 23.73530
25.56686 24.99881 26.96247 25.47385 26.02121 27.39171 26.30836 26.05937 27.19677 23.24500 26.51349 27.41224 29.35397 30.10912 28.92683 26.47966 30.37990 28.26678 27.92980 30.70383 30.41103 27.86218 33.29923 31.13234 35.44702 36.51715 39.36495 43.22131 43.11286 50.35297 54.93041 61.16698 68.78098 69.29647 76.87165 84.26311 90.26180 94.84206 99.50014 108.98112 106.30984 107.54646 102.79521 105.51577 100.60509 102.54450 101.28818 96.99330 97.78590 97.62780 96.25644 98.87306 98.79716 96.65936 96.78672 94.44876 97.10517 95.60145 96.99861 99.09983 99.56643 98.53431 97.40588 96.73710 97.42882 94.19334 92.06793 92.72669 92.08436 92.27834 96.28179 97.43558 97.42288 91.73451 80.48633 71.27706 60.23102 61.64428 56.26732 59.05887 75.93938 79.78362 83.84908 91.18766 91.82676 94.08681 88.84467 88.23817 81.60504 79.43542 71.92239 63.29447 54.93117 51.61337 52.20555 55.44537 55.08912 48.44279 45.44747 45.06414 48.14934 47.55677 46.96345 42.99119 38.98483 34.02547 35.50076 31.42283 31.88032 30.56488 26.67109 26.69294 24.54469 25.22622 23.61926 23.25107 26.98596 25.35945 25.48206 23.32680 26.32745 24.69530 25.81709
24.17599 25.75732 25.71761 24.71409 26.10202 24.96640 25.94153 23.28230 25.12344 25.92062 24.62907 26.46048 27.97459 27.11988 25.97333 28.21230 25.27603 26.99265 27.89628 27.75514 27.33446 32.70509 32.86946 33.74982 44.77298 45.51231 47.19111 50.35451 48.97066 56.56508 61.30256 66.82289 72.62502 75.16971 82.29122 82.93931 92.11840 95.96886 102.81194 104.64091 108.34072 105.80688 103.90409 104.05189 99.91776 101.05784 100.44315 100.85105 99.52672 97.39417 96.83702 97.02825 98.89918 98.16365 95.51458 96.18744 95.89735 98.09222 98.40317 97.03720 96.73226 95.02326 94.67403 96.80900 97.75879 97.15804 95.69371 94.11528 93.53749 94.51854 97.14614 95.96112 93.81786 91.62306 87.36831 81.82791 78.48059 71.16384 56.80988 54.67869 62.25028 55.32006 66.50146 68.40481 78.78796 73.55267 70.13798 67.40454 72.52021 71.60117 71.58363 64.42720 58.55613 49.88616 44.94660 45.76504 47.56965 43.27875 40.92190 41.62521 44.44149 43.99737 47.34941 42.33097 45.04868 39.30304 38.23013 37.92501 31.88793 31.13028 27.59043 24.66170 25.53035 24.22960 25.72328 26.25910 24.95719 24.70867 24.75462 25.67643 25.47860 26.78393 23.02780
23.17286 25.26516 23.83598 25.17456 24.66385 25.14573 23.61592 22.73835 26.19355 26.40154 24.82550 25.45376 27.50271 27.51754 25.62302 24.14689 26.93738 26.88944 28.05947 28.45416 31.59762 34.51307 37.59017 42.13194 43.51268 50.84951 52.29740 56.66354 54.79089 61.96807 67.47387 69.85983 75.52355 76.21082 78.52745 79.95448 82.53718 90.19188 92.63273 104.09331 105.62116 106.93224 107.46800 102.66438 106.44778 102.36780 101.03337 98.45460 98.32624 97.35779 96.31485 98.67904 97.50102 96.99961 98.14704 98.43206 95.87622 99.79553 97.81980 95.86328 98.44514 97.78658 99.72489 95.47483 97.02960 94.56142 94.32342 97.74879 96.16449 94.73827 96.14364 97.46591 96.24855 95.88261 99.79282 92.32923 91.81794 77.20005 71.86683 59.11843 52.79477 43.86617 48.46037 52.52329 60.04649 56.08020 52.93349 48.85197 59.17981 56.48116 59.20200 62.32207 57.87061 52.96629 47.46331 41.94031 39.15583 38.25231 35.29213 31.54827 37.31802 36.72585 43.05522 39.33222 42.55974 42.77451 38.26427 33.21742 33.09247 31.39578 28.55752 28.21660 27.40452 24.80717 26.22586 26.29978 24.33216 23.75869 23.39349 25.52743 25.46897 25.17105 26.08167
24.69690 25.29191 27.79792 25.92698 24.79287 26.22899 25.79891 24.23661 26.15241 26.03757 26.30401 27.00735 25.95949 24.15319 24.54691 28.12536 28.54747 25.56252 29.27641 31.63406 31.78419 35.58375 42.08322 48.42435 48.07478 52.87085 57.01335 60.84972 63.97508 66.22780 70.09431 71.86102 74.21642 69.46753 67.52192 68.71767 72.26865 77.76408 91.23967 96.56493 103.27344 109.14873 105.90623 107.37530 105.42596 101.53910 100.76283 100.59400 98.19433 100.66311 99.52349 97.91694 99.62161 97.75872 100.98611 98.05000 97.61702 97.18815 97.16416 98.14477 99.06976 96.68468 97.75880 97.95308 96.66829 95.19173 96.79306 97.34863 98.47571 95.86711 96.99390 98.13405 96.40833 97.45269 97.81442 99.07432 95.03188 90.32915 88.84911 74.76957 61.00889 59.87529 54.28351 50.38048 42.02743 37.48248 40.79379 37.72933 33.46735 38.93669 46.24729 49.74197 49.29613 49.39615 49.00197 43.28197 37.68249 33.28257 33.27151 31.79701 32.01496 31.32287 35.32533 37.07500 37.29266 39.09042 39.91134 34.68757 32.11288 28.97042 29.21821 29.03276 26.01543 26.58196 26.08001 26.77787 24.69277 24.07099 24.63071 25.86937 26.23631 24.83185 24.54584
24.35593 24.43403 25.95509 28.78300 25.05094 26.47008 24.12825 26.62469 23.25746 26.09090 24.05580 24.65522 25.56281 26.53086 30.20523 29.10547 29.77334 26.66097 33.02742 31.29498 33.70926 35.57443 39.71920 43.42209 48.30976 52.14335 59.48682 60.43009 60.74673 61.90551 60.76231 60.69804 63.21529 62.17847 59.25696 62.49877 70.34906 79.35269 88.96389 99.99362 105.29991 108.09310 107.47898 108.54403 106.71825 104.87054 104.20429 99.53013 99.23279 98.72642 98.09365 98.14223 96.76720 97.62395 97.82414 98.80364 98.03297 94.61210 95.98813 97.18493 96.92265 95.55361 95.27976 96.37672 97.53260 97.88179 96.54446 96.87703 95.40374 97.53458 95.98576 98.00621 98.08665 98.63343 99.34507 100.53956 97.18097 97.05699 95.10938 85.65592 80.71670 82.07967 78.34645 71.23962 72.57278 68.12583 57.91515 44.89354 45.60807 33.27858 33.76649 41.13138 37.56706 37.06020 41.65194 45.53510 40.21654 38.26688 35.23014 31.67156 28.52096 28.42977 29.34190 34.75974 32.10806 35.95591 36.78178 34.31579 32.93889 29.30059 28.78816 27.65586 26.00433 24.80639 25.29622 24.95649 27.47591 23.80991 22.64377 28.61154 25.61688 26.60281 27.33338
25.53697 23.53908 22.85802 24.50196 26.45745 23.21656 24.70733 26.11285 27.47274 25.35582 23.74689 26.18194 30.19458 28.65408 28.25630 27.88760 31.33110 30.26074 32.30464 32.56343 35.10963 36.02324 37.90213 40.62019 44.05243 50.90083 55.64255 58.49537 58.74436 51.88743 56.97754 50.57812 54.43594 53.64840 54.40354 62.65464 72.08107 81.39193 88.50607 99.01649 103.71867 107.38423 107.65530 107.79264 105.82862 104.58719 106.56029 104.40004 99.48784 100.28579 98.46676 99.66017 98.92225 98.65007 94.79659 99.75894 98.15718 97.11968 98.17826 96.44298 97.15819 97.31697 99.23352 97.24169 96.11915 98.06745 99.02647 95.96706 95.96006 98.05139 96.49850 98.78212 99.12774 97.81109 100.35158 99.09527 101.25675 100.80247 97.65057 97.03041 94.71354 95.06787 93.24020 90.37584 90.77890 80.88491 74.08306 62.36554 59.66781 39.93191 31.54054 32.06008 28.57824 36.08133 37.46948 41.43020 38.58425 37.40397 34.70384 30.22385 28.05838 28.97301 26.01235 27.94706 32.11868 32.27992 33.13956 32.42523 31.68594 28.75687 29.80056 26.10733 27.70603 25.23666 25.73957 25.01020 23.06650 23.47798 26.46976 26.11444 27.52203 24.97066 23.35428
26.26039 23.55835 26.33032 27.86471 25.03045 26.58601 22.36800 24.54957 24.76894 26.22325 23.53778 26.31627 26.67108 26.98519 26.70361 29.26200 29.10634 28.46469 29.03959 30.10897 30.98062 33.11127 37.06367 40.57916 45.62284 47.75544 52.79276 53.04255 48.94862 47.94680 45.05524 43.44911 48.83917 51.90663 59.83684 63.73569 72.21686 83.05139 91.54009 95.93242 99.16740 103.26854 109.58178 106.77481 111.74232 106.73801 105.91871 101.59549 100.65048 100.24713 102.48220 97.30787 100.41542 96.96187 98.23568 97.65878 97.64246 96.66127 96.55638 96.32899 96.22424 99.22383 96.94993 95.86187 97.88870 96.73726 94.05611 96.80497 97.55343 98.28191 100.21081 99.36075 102.46645 100.79919 101.69234 101.82002 103.34575 103.22529 102.83009 104.23551 104.94931 103.29699 104.67786 102.37799 97.25853 92.24990 82.83253 73.33090 68.82382 52.33868 44.18012 41.86308 34.30496 29.57114 30.99572 32.82571 31.13267 28.87182 31.98735 30.82424 26.27615 27.67498 25.60400 26.25828 27.41144 31.91351 30.81742 30.46943 31.84805 30.77585 28.79958 30.76684 25.07118 25.18524 27.12901 26.40241 25.32722 23.64612 27.60117 25.73184 24.25406 24.47628 25.09661
25.81341 25.79295 23.42334 24.34244 24.38644 24.76954 25.99745 24.15623 25.31570 25.57065 27.33319 26.87320 27.49359 28.92004 29.57035 29.02082 29.16030 27.90987 27.23390 29.30119 30.12249 35.22827 39.60621 42.26492 46.10802 48.22802 48.64000 46.90547 40.24236 42.35793 39.56704 42.86722 49.38847 55.49646 64.59974 72.26951 79.24378 82.64796 86.90001 88.41697 98.50116 102.42844 105.57070 109.14985 109.39321 108.25139 104.98528 104.09964 101.51837 101.31013 102.47069 101.20603 101.80102 99.92765 97.49170 99.67793 97.70126 97.55881 96.76048 98.78952 98.35840 98.65527 97.60564 96.66865 97.37536 98.72975 96.31193 98.50672 97.75658 97.14679 97.89081 98.77720 100.22375 99.55757 100.29427 101.60485 103.41512 102.60939 104.31693 106.84573 107.61578 106.38351 106.16814 103.53341 97.35029 93.56875 86.03714 76.71925 71.30807 68.33775 54.15618 51.10687 49.89943 43.00373 34.35281 33.09385 29.08506 23.75086 26.27214 27.12654 27.46839 27.46515 24.99251 26.07034 23.62312 26.00112 28.70018 25.82463 29.93510 26.93232 25.36998 27.62066 27.30416 27.29426 27.56631 28.27627 26.26599 25.04912 25.76649 26.93172 25.21994 26.40484 24.14986
25.74695 25.36599 23.51680 25.01760 28.20020 23.96110 27.81125 23.87112 26.54389 25.86674 26.22466 24.21316 28.12688 26.82141 29.19319 25.70915 25.66024 28.22294 29.92773 29.06278 31.16093 36.05403 40.78781 41.27445 44.69076 42.46773 42.15710 40.49297 37.22220 36.96985 43.05478 49.55394 58.80054 60.27527 65.60248 72.61888 77.35766 78.07492 76.35607 80.14077 92.69642 95.14689 104.00319 108.47158 109.39146 105.75539 107.65648 104.36333 105.21256 102.67427 102.39063 101.33730 99.77716 102.68858 101.17057 97.45363 98.81109 99.60586 97.03746 96.83129 98.73518 97.39390 98.94664 98.40608 96.85901 98.40332 98.76946 95.80553 97.29125 99.91612 98.42214 99.82364 101.01773 100.52289 103.15976 102.20321 105.59867 104.92106 108.61196 109.56185 108.08793 106.16779 105.75678 97.19430 93.11375 86.79052 85.07468 76.22717 74.03198 71.83291 67.48368 58.38343 56.17969 51.63826 44.63703 38.25139 33.89348 31.03631 30.31516 31.11446 30.94094 27.58452 27.81331 25.08623 26.07623 27.05742 26.96298 27.51905 27.58010 25.49478 27.52321 25.69570 26.51891 25.38157 24.09698 26.78824 24.99472 24.70510 24.59176 24.94353 26.35880 22.33399 24.57665
26.02391 24.39849 25.25091 24.66773 26.36332 25.91368 25.54107 26.24194 27.84643 23.85544 26.00857 26.72415 25.16663 27.73796 26.38466 27.42503 24.24843 26.71516 28.43683 32.89707 33.74550 37.24013 39.79579 38.54656 42.94481 39.38787 39.20545 36.32436 37.45344 40.91536 47.79626 51.31702 61.53284 62.76944 68.79867 71.35754 73.24424 71.33192 71.26985 81.93738 89.59399 97.31342 106.49336 104.27293 107.26068 110.32903 107.57801 109.47378 107.02558 108.62835 103.62011 103.53727 102.66423 102.38344 99.47279 104.80951 99.32704 97.48020 99.32798 101.16125 97.08347 99.54057 100.47884 99.14021 99.25162 99.96407 99.88060 100.22568 100.89250 100.45626 99.74812 102.53988 102.00900 103.29187 104.38210 106.94447 106.47762 107.27407 107.40507 108.89478 108.09732 106.17168 100.52042 99.26784 86.92283 76.31652 73.66087 69.25165 65.93068 68.29570 63.89656 64.07425 61.65128 57.03341 48.89918 38.21456 38.52457 35.85197 37.00543 35.07462 34.63622 32.59452 30.82084 28.73863 25.63144 26.50608 25.62970 27.48957 27.62969 26.17724 27.44275 24.37029 26.24491 25.82827 26.86686 24.03640 25.62393 27.17377 24.56482 25.64341 25.77405 25.65308 25.72210
24.27484 24.20522 21.40052 25.25576 28.29906 24.18230 26.72586 25.22636 25.39182 27.35238 25.10424 25.30814 24.01051 27.28262 26.29361 25.19902 28.29788 28.00184 29.75788 32.17307 35.91432 35.17341 37.05331 34.91198 35.87086 34.77142 33.53011 33.59545 36.75871 43.49536 46.33102 50.96864 57.86460 58.02965 62.33425 62.42530 62.29627 67.49777 75.32126 83.95427 89.50529 95.05956 99.15024 102.34511 107.37603 109.16540 110.26910 108.53890 107.68575 106.20876 104.36067 105.72817 101.40336 102.98983 101.15197 101.84917 100.99451 101.22751 102.54550 98.21256 99.56498 100.93301 98.35134 99.89519 99.93305 101.00742 101.83101 99.77454 100.47606 100.87657 99.93483 103.07586 104.10625 103.87953 105.06499 106.43228 105.60994 108.63744 106.16531 106.89985 106.67574 100.16284 96.98151 92.48508 84.22459 71.26766 63.77684 61.04311 58.44103 59.96515 55.95508 57.77078 60.94411 57.36289 52.26448 46.31715 40.50665 43.34464 42.08469 39.75423 39.48048 35.86105 31.10095 31.09104 26.68025 26.53982 28.09533 26.22587 26.04886 24.44123 24.82186 24.18056 24.06955 25.18230 24.60350 26.06231 25.01855 25.49254 25.64264 25.16179 23.45289 25.48447 27.39408
25.52001 25.44710 26.74493 25.40994 24.88799 25.23311 25.59471 25.40879 25.02374 24.01846 25.91196 25.75579 25.15949 28.47430 23.71007 24.67202 28.09475 27.20853 29.69376 29.83141 32.53925 31.48999 31.06141 31.51877 31.58504 30.11403 29.86908 33.23349 41.94766 45.25691 47.35505 48.13262 50.95484 53.17849 53.87495 57.44271 63.08168 74.15955 75.81521 79.85527 85.57213 91.91725 94.92449 98.46460 98.86740 103.92766 106.15011 108.55182 108.32091 107.53216 106.18627 105.30352 104.71221 106.67068 103.10540 102.90772 101.56785 101.71684 101.84323 103.68595 100.42437 100.73393 103.96092 104.13054 99.00744 99.17225 101.99007 99.07093 101.67902 102.90987 103.33926 104.60168 106.03558 105.07691 104.80972 108.85482 108.22426 106.58993 104.03177 99.88153 97.33950 93.73270 93.14090 88.01951 85.11431 75.24940 65.52839 56.88409 52.20599 54.15106 49.86235 51.18873 52.26915 51.06671 55.55612 51.84698 47.78219 48.80503 49.35471 45.52946 41.04034 39.44358 35.58610 33.12468 31.75165 30.34775 28.80127 26.80491 26.60996 28.21236 26.75533 23.96321 26.53734 22.48793 25.83420 23.24826 23.76288 24.67334 24.65573 24.87946 25.07639 25.16884 25.58195
24.89297 25.96741 23.10244 26.27035 26.36676 24.25962 27.29274 25.54908 26.66684 27.71417 23.49529 25.00024 24.57858 23.30807 25.30600 25.77032 27.65971 30.04710 30.84961 29.50621 31.87096 29.86289 30.92430 29.67129 29.14332 33.46981 32.32990 36.32329 38.73446 44.72289 42.95468 42.69008 43.83409 44.98710 53.85393 61.12045 66.18495 74.68135 75.87879 70.49267 75.70047 82.70324 86.15699 94.12393 93.94322 98.85018 97.72890 105.07859 104.46394 107.34930 108.04057 107.85350 107.00293 106.10118 107.13463 103.84632 103.73091 104.14009 103.18354 101.43042 103.30862 102.39792 103.27834 102.21640 102.99043 102.72397 102.20945 104.75576 105.22842 103.64095 103.92883 106.10656 106.24575 106.88764 106.61289 109.89812 104.42203 106.95846 100.78644 93.77994 90.45588 88.59744 82.24670 82.40975 77.45022 72.04232 64.79905 52.68647 46.72767 47.97787 46.84694 46.34256 42.18279 50.22751 50.56513 52.75747 50.78608 51.72839 49.03242 44.34210 39.22126 38.36034 36.29152 33.83065 33.58761 31.23617 31.24704 26.94024 26.13313 27.88450 26.53090 24.25083 26.78043 25.39699 25.92340 25.73774 23.23318 27.26380 25.65030 24.01377 26.40545 25.74151 26.46178
25.97033 25.39275 25.89310 27.01952 24.86246 24.86937 24.94440 26.99676 27.20642 24.70065 24.71414 23.33032 27.68948 25.54144 25.93954 25.85242 27.43615 25.89301 28.51658 29.27214 30.19437 28.66029 29.54265 28.55456 31.22338 32.81108 34.45672 36.38601 38.34992 39.32195 37.74504 40.01719 44.46522 48.47055 57.14281 62.09403 67.55342 71.54580 71.80857 68.14223 65.77531 78.23468 82.69931 91.34155 89.15194 84.85246 93.21644 94.51050 99.33111 105.12813 109.24680 106.71981 106.07404 106.72379 108.19581 108.04400 105.83073 105.17505 103.50026 101.67436 104.89315 105.71726 103.67882 106.90898 106.13615 103.68244 104.90049 103.24009 105.81968 104.89906 105.71714 105.32133 107.75979 107.06594 108.66383 107.02793 107.04552 104.88428 97.25077 90.43488 82.54305 76.37995 73.95361 74.85081 76.13249 69.39075 57.95091 50.44905 47.48111 43.86381 41.26034 41.11752 38.15057 40.36761 47.67952 44.06384 49.26091 50.68205 46.15010 41.24894 38.11743 36.04508 34.28481 33.83294 28.82088 31.00209 29.01227 29.23084 27.79896 25.91463 26.79084 26.59197 26.99617 23.99561 26.51800 26.50633 27.81586 24.85624 25.29037 25.76256 25.01719 25.14194 26.82899
25.49251 24.43937 24.44475 26.94976 26.95176 24.33622 24.93301 23.82575 25.52900 26.80386 25.66729 26.00628 26.25812 25.05898 27.01149 25.38691 26.08030 25.69311 28.31069 26.66433 26.52957 26.98132 28.26528 31.08137 31.88240 31.09059 32.89124 34.21769 32.79388 34.61826 37.29852 38.88555 49.78844 53.20120 61.25551 65.36391 66.87398 66.10950 60.53522 62.75128 67.09860 78.87927 79.64419 80.01772 74.31910 74.99914 82.34499 85.67124 91.84934 100.99622 108.37769 108.74751 107.43089 109.40927 108.96644 108.43568 105.78548 105.02672 106.58109 105.77883 106.71461 107.90685 109.04660 108.32976 107.50703 106.94775 106.97265 107.92088 106.22351 106.21424 106.85555 106.43049 108.71388 109.49290 108.49867 107.54925 104.81443 99.82809 94.60846 90.16263 81.54566 70.58849 69.74991 68.05748 69.18296 67.57241 57.86085 53.72075 50.13476 42.73495 37.79459 37.81382 35.90083 35.76998 37.94904 41.70542 45.13112 43.85295 41.37913 41.11410 33.98714 31.99999 30.46692 31.09405 30.94972 27.68677 29.42226 28.10139 27.51757 28.28288 27.20679 26.93423 26.43370 28.31636 23.62693 25.06037 25.86206 26.00459 21.83848 25.45548 24.88366 23.91868 25.14928
25.53343 26.31319 25.09305 24.63955 25.71666 24.99839 24.70788 25.74426 27.72615 25.39817 25.72898 26.99782 24.52344 26.66931 25.59411 26.74733 26.20125 25.64114 24.34962 26.80284 26.06371 28.81445 29.84244 28.60026 28.20853 32.12517 31.67218 30.98513 33.46469 33.58869 40.13963 44.07421 53.04953 54.56867 61.43788 64.30340 57.87691 58.21229 54.86304 57.93408 72.93008 75.49614 73.34028 67.06227 64.08023 65.88909 71.78474 79.00955 84.11375 95.45053 101.74551 103.54668 109.74109 108.09104 110.28463 110.60741 110.54447 108.07619 107.91863 109.02483 110.55316 108.77221 107.15063 109.01816 106.65252 108.32256 106.64666 108.29124 107.62853 107.05574 107.01894 104.65958 106.32006 106.80452 103.31011 103.93255 98.22363 93.63112 87.97092 85.06560 82.45889 70.38055 60.46035 62.03377 65.07442 64.89328 59.87349 59.69082 52.57271 50.34906 44.50969 40.04196 34.69988 34.42865 35.16803 39.18638 41.11268 43.34955 39.17266 37.73002 36.26308 30.83522 29.72916 28.90993 26.60996 28.68372 27.99982 28.00188 26.79311 26.74717 25.45484 28.05033 24.71628 26.22113 25.85153 26.72851 22.77210 25.86935 26.09873 26.13452 23.79048 25.21499 24.41732
24.95190 27.16843 23.74326 24.66278 27.25361 24.92235 26.51828 25.17670 24.89154 22.32827 23.63676 26.94445 23.99194 26.48189 24.88407 25.21257 27.85114 27.17614 26.78908 27.42036 26.80403 29.42203 26.62204 28.88580 30.14029 30.29684 30.65584 29.77089 34.32704 38.51096 40.71164 48.35903 52.22316 57.25174 55.53600 56.87978 54.16933 50.50320 57.62879 68.05473 69.17227 73.10133 66.04199 58.08565 54.86183 62.10208 66.25978 69.29867 80.56676 88.34269 100.73329 101.58504 103.17431 102.86868 106.91640 110.18420 109.33300 109.66188 109.60885 108.75590 108.56094 106.53578 105.26307 104.60885 105.51875 111.22694 106.95871 105.28742 104.02778 103.94730 102.20902 100.43659 104.00588 100.50104 97.73112 97.14094 96.88022 91.58879 85.53001 77.32598 73.49484 71.27530 56.43206 60.64923 56.61527 61.00160 60.21797 62.07366 54.08464 50.40561 43.21293 39.77869 34.32233 32.66694 27.74347 31.85043 36.81071 41.18597 39.38317 39.49813 36.92551 34.22156 30.88969 29.70274 25.66444 29.19150 27.54047 24.57705 25.12116 26.59051 25.86853 27.10105 26.16965 25.48997 25.28418 25.37182 24.89292 27.62103 24.07227 27.27591 25.43136 25.01575 25.48777
24.59847 26.23073 26.19382 23.73554 23.88620 26.23969 24.79365 26.74901 24.71516 26.70622 24.27849 24.94589 24.69189 23.23056 25.44829 25.89727 25.37493 26.41967 30.14890 28.05096 26.43177 26.29643 28.47050 25.60891 27.03206 29.52374 30.29875 33.13223 38.59924 41.82474 44.48498 48.78465 50.98464 53.96348 51.40807 46.89430 45.59940 48.02684 55.16014 64.29635 66.54560 65.40032 62.38140 57.89999 51.33764 49.12652 58.07274 67.48807 79.39708 91.57210 91.86554 94.68467 97.29475 99.39565 100.74527 108.12500 106.38604 106.24499 108.59787 106.29076 105.12422 104.14101 104.48768 104.68125 106.21567 105.35217 103.92174 99.21725 98.00264 99.11295 94.84473 93.61461 94.44941 95.60235 90.96047 86.39918 89.93037 87.46581 81.93523 74.81033 71.26045 66.71607 56.17326 52.70303 54.06716 57.28090 54.43148 53.76530 54.14598 52.21596 43.60014 41.55321 36.60813 31.19594 29.30887 31.98328 34.41307 35.76690 37.96040 35.36597 36.50033 34.31086 32.42365 29.81482 30.52024 28.24311 28.95086 28.31393 24.68075 26.54752 24.58670 27.96460 23.98607 24.89679 24.70709 25.64233 25.04744 25.99461 24.41625 23.28434 24.27543 24.64576 24.29107
26.09547 26.58797 25.56698 23.69178 26.70252 25.25595 27.06453 24.73169 23.74564 25.84851 27.33170 26.65226 24.36611 26.62678 24.43274 24.45831 28.27366 26.52230 25.95612 27.09346 28.26340 24.66776 28.37261 28.25004 31.23172 31.74585 33.51067 33.78935 39.73487 40.04463 44.89227 47.54847 49.17551 45.90219 45.88425 41.08112 40.32868 47.63913 54.81948 62.58809 60.25887 60.88371 56.90483 48.34458 44.21856 52.65314 57.80372 71.34470 83.00118 90.63240 89.42421 89.71099 91.91678 93.85288 97.65965 102.87070 101.24996 101.38876 102.92232 98.50379 100.94247 97.07672 93.49476 95.93925 96.30237 99.25494 93.74223 95.53727 86.70841 85.09869 89.39462 83.65479 83.61916 85.22437 80.08631 79.63112 83.50059 83.69776 83.74511 69.50344 63.05273 62.89638 61.78994 51.08601 46.32641 44.50202 46.33886 46.34504 46.40243 49.00279 45.48934 41.23389 37.19074 29.89917 28.82561 28.67293 30.24727 32.93912 32.07232 35.34893 34.82646 37.23594 35.03894 29.72100 31.49884 26.62876 27.28104 28.19830 25.16998 24.65478 26.41146 24.85401 27.67797 24.41111 24.68501 23.86200 24.36474 24.51506 24.93007 25.51216 25.76713 25.56456 26.22863
27.94348 23.10027 22.50342 24.47241 27.45847 24.35227 24.48216 24.82623 24.06864 27.41585 24.49386 24.94424 24.18569 25.24251 25.40233 26.44741 25.44720 25.32767 28.34029 27.98062 25.32062 26.03330 28.98271 28.38137 31.04002 32.73161 35.13657 34.22970 41.13388 41.94434 43.04809 44.90727 40.79765 38.27034 39.35044 36.93551 41.76035 48.48520 55.40065 56.85970 52.68673 48.65634 50.29952 46.14272 42.98226 49.53303 60.07684 70.80945 79.27910 82.87585 81.80816 78.57951 82.44243 87.73899 92.68026 94.45333 92.37138 94.81422 95.46462 98.15499 93.92268 86.16018 87.77030 87.40665 92.75615 88.73561 88.10317 87.90595 80.62503 77.95718 74.47786 69.91383 73.90871 77.45522 75.01911 69.26835 72.96659 79.78682 78.20013 69.23404 63.05634 62.13573 55.80291 52.91061 48.55374 41.00261 41.31778 38.97145 40.96569 42.85514 41.37290 42.13439 35.08584 30.55897 30.09745 29.48715 28.08662 29.16949 30.47883 32.93193 30.74752 34.25709 29.98166 32.69911 32.41653 28.13506 26.38918 24.91452 26.36177 25.65704 26.42405 25.55362 23.92575 24.85099 24.65833 26.25990 25.81517 23.27201 24.22653 24.80200 23.76345 25.70144 24.90913
25.14591 24.89220 25.99981 24.26028 25.22686 24.69738 26.00791 26.05354 24.50299 25.27834 25.73932 25.43680 25.66229 24.75392 23.75259 28.16962 25.06804 26.56211 23.92460 24.48004 26.76975 26.41614 25.44057 28.22106 29.22629 30.70175 33.79232 34.41451 37.18092 40.89666 37.09765 39.57619 38.64928 37.34020 36.11202 37.30032 43.97868 49.70722 52.92952 49.08021 44.58247 42.96797 42.34059 39.57317 47.82619 51.75046 60.80187 66.48110 74.58971 75.86242 76.54647 73.39524 74.78096 79.36233 84.69614 86.64082 87.52171 88.57166 91.42040 93.58316 90.46302 77.51626 75.43966 74.63978 88.64306 87.71973 81.20883 74.75133 74.69605 72.77393 63.64999 62.44624 61.06870 65.01880 66.67546 63.06123 67.95952 73.29268 74.49789 68.63577 64.90569 54.54570 49.08865 54.90203 48.20492 46.20940 45.94780 40.37684 34.97127 36.74411 40.20266 39.99564 36.20409 36.14159 31.37510 29.12150 28.73299 26.46770 30.39031 29.27751 29.74653 32.06616 30.32508 32.52446 29.53711 28.83388 25.80676 25.48521 31.45002 24.41793 25.61776 27.03078 23.49108 26.28088 25.54906 24.79406 25.12446 26.57773 26.18993 23.98530 22.76372 24.53523 23.86261
25.65005 24.85416 26.83682 27.67786 26.47185 25.78811 25.94264 26.17458 26.16785 24.92849 24.18653 26.88603 26.80588 26.81604 27.41404 27.40302 26.02453 26.53501 25.93824 24.37738 25.20976 25.89499 27.25805 31.73242 31.89218 31.10589 31.63037 34.99413 35.59640 36.05392 34.64847 30.83488 32.20883 33.23494 36.33624 41.04601 47.48265 48.32875 48.97513 43.34560 40.77431 35.61429 36.95918 37.41252 50.32871 56.39513 64.37453 66.36701 71.70353 74.42635 71.32425 65.37962 70.51434 73.88962 80.81934 81.35500 80.87014 80.03187 82.48717 82.63653 84.46376 72.03436 69.81978 70.71576 78.71143 84.03018 77.80240 65.00348 61.65829 60.14704 56.32687 54.22249 53.02022 58.60369 62.89539 56.10187 59.53943 69.50506 71.44486 67.33624 61.12566 50.57327 48.26601 49.34635 49.78741 47.61668 45.77593 42.19783 37.11188 34.69067 34.15492 34.90560 37.27110 37.63577 35.75176 31.26057 27.28813 27.14159 27.82320 27.77963 27.30149 29.52093 28.78136 29.04167 26.88528 27.54681 26.30010 26.23169 27.42619 23.39032 25.88157 24.26219 25.56783 27.54539 26.05826 25.65023 25.11634 26.49964 25.36618 25.25778 23.12310 26.79052 27.23247
27.37203 26.26589 26.76098 24.67504 25.37086 24.62168 25.49812 24.21737 25.05790 21.84734 25.06014 25.26794 26.85068 26.91676 28.37973 22.91293 22.75437 26.32031 28.00490 27.36039 29.45857 27.40268 27.62972 30.26035 29.69024 28.53862 29.92337 31.77007 36.63430 35.99504 32.26711 29.95589 31.99397 33.41349 38.49176 43.16480 46.70798 48.65003 49.71502 37.02578 34.66160 36.61682 41.49783 45.19612 54.14257 58.46082 62.99406 64.49183 64.13028 66.07364 66.47191 62.94349 62.49366 69.23545 74.64724 73.13483 72.25434 72.98524 77.84412 80.98104 76.09046 71.45609 63.37856 65.53283 72.97903 76.88959 73.59216 65.81511 55.80816 55.58796 48.29766 47.62923 44.46505 50.16085 51.95754 51.70112 53.61180 62.58380 70.49528 66.26712 60.00178 53.49903 47.04013 38.20473 40.21195 43.79037 43.36093 44.61666 38.10931 34.01840 28.15499 32.75131 31.38692 30.42951 32.08082 31.53285 32.21745 29.14472 27.14462 25.30577 27.03191 29.44727 27.50479 27.76508 28.06694 27.37042 29.54020 25.04237 24.01576 24.60659 28.02717 26.90203 25.57075 27.30350 25.95668 25.73535 26.26015 23.65134 24.51745 23.55996 24.30595 25.40346 26.31702
24.48417 25.88876 25.04824 25.27996 24.75285 25.85939 26.72598 26.21162 23.60631 24.28878 26.38525 24.54537 25.29373 25.44651 26.04790 26.17633 24.28061 25.23015 24.26729 27.27959 25.23881 27.67872 26.28555 27.08832 27.44125 26.96547 29.12378 32.47405 33.54826 29.72797 32.39280 30.03645 30.75085 32.71606 38.68883 42.53361 43.82973 43.87328 38.76795 34.85809 32.96134 36.97592 40.56033 49.46468 55.34718 58.46967 56.61478 52.53984 59.10697 59.38743 56.93390 57.71325 59.13300 64.43381 70.21508 67.21012 67.08271 63.91358 69.29476 75.33030 74.39038 65.33445 60.31873 62.72250 65.93593 72.55064 72.18484 57.44644 49.53569 49.01546 38.78906 41.20129 41.05738 46.18383 45.08925 45.73222 52.89833 60.68901 65.77045 66.11413 61.44602 53.31267 46.35625 40.58331 36.35514 39.58870 43.13652 44.49321 39.95988 37.09305 32.69326 31.99274 26.51872 29.69954 31.53688 30.07439 29.57276 27.05923 27.49194 27.71984 26.74085 24.47599 24.89923 27.01998 26.67707 27.10667 28.62249 24.24001 24.29464 26.94303 25.42747 26.15326 26.17289 24.63618 26.08846 24.34627 26.40024 25.42967 24.73741 26.96250 24.65740 25.26744 22.15947
26.61413 24.34289 24.22745 27.76864 25.47877 24.23519 25.49683 23.92089 25.52986 25.18459 25.15977 25.97480 26.95482 23.83468 24.58916 23.78358 26.05474 27.05506 25.94363 26.24621 26.07481 26.26455 29.72399 26.83525 27.66022 26.50794 29.05778 30.53060 31.42682 28.16969 28.22971 27.75290 30.11106 33.79677 35.29814 37.75259 38.14421 41.41367 35.29054 30.99680 32.97129 36.07505 42.83393 48.15041 51.98671 51.78252 53.57015 51.06491 49.66667 54.18625 51.61340 50.54466 54.53221 59.80896 68.73806 60.41126 59.75938 59.55056 61.81181 63.84590 64.56562 58.35415 50.93480 50.35289 61.53460 62.53597 68.88796 62.78325 50.23244 42.30498 39.18038 35.84129 35.64235 40.07564 36.47171 45.65973 50.86307 59.78067 63.83670 67.26020 61.54170 49.24020 42.10421 37.56835 37.01594 35.21690 39.88905 41.76603 37.42220 36.81145 34.92440 30.36514 29.27357 28.33701 28.80061 29.79007 31.89461 29.48808 26.46789 28.74559 26.89387 26.08753 26.33128 27.44181 24.42100 26.89706 26.15606 24.63824 26.61491 25.88413 25.10418 27.83657 22.65637 26.41187 26.30886 24.94580 26.48685 25.86479 25.24386 27.77381 24.51890 23.82280 24.95033
27.28367 25.54139 25.66340 27.38888 24.81223 25.55839 25.01167 25.72765 27.65024 26.76591 26.69414 24.04761 25.43335 25.49892 24.98532 25.85568 25.09029 26.29899 25.70110 26.52999 26.94975 26.29242 26.11623 28.23333 24.25142 29.38355 29.91519 28.48703 29.44000 29.73275 26.04805 28.64870 30.88857 33.95660 37.69105 37.09601 36.44029 34.79473 29.00120 30.23886 33.10427 37.93437 40.67595 47.75885 49.84383 45.47587 40.20545 43.62321 45.43061 47.68693 45.50792 49.56911 54.65249 60.53428 62.00751 56.06848 55.35219 57.76026 61.54050 55.41976 59.18486 54.55719 51.96945 48.34094 52.73662 62.26092 64.94730 61.52482 52.59976 46.03026 40.13401 34.23699 34.71892 33.75963 35.49038 44.52438 50.68222 57.55005 63.94155 66.12759 58.16444 56.10048 48.34812 40.84081 37.51271 31.23043 36.23337 38.56056 38.33935 41.26072 38.00586 32.74738 28.52164 29.43698 27.22880 26.27367 30.92333 31.26588 27.00031 26.69951 29.26107 25.98982 23.87641 25.56292 26.55197 22.19901 26.25905 25.82752 26.13125 25.68107 25.87885 23.49136 25.46693 24.46694 26.69300 26.10219 27.59707 24.52026 25.55348 25.11477 24.68766 24.90637 25.37866
22.36106 25.05000 25.45913 24.54466 25.53502 25.14035 26.59257 24.47871 25.55968 26.27332 26.28544 26.43383 23.50248 24.92153 24.77103 23.72226 25.46773 25.02338 25.15451 26.42444 26.71901 25.67377 24.89495 25.81299 30.41399 27.14170 30.06989 27.28639 29.68899 26.39744 25.36748 30.72032 32.44529 34.85972 31.99352 34.63259 32.88850 29.75830 28.43284 31.16582 31.79967 38.46280 42.75542 50.25645 46.38393 41.82408 36.70912 40.25261 40.53132 40.43555 40.71085 50.67277 52.48409 58.49699 59.90101 49.54964 49.45280 54.74152 56.16577 55.64645 47.28717 50.99731 45.02657 45.04553 54.10351 62.10544 62.99038 62.01150 54.72849 45.95638 42.38335 36.31550 33.62035 31.26537 36.44514 42.55654 47.43127 53.97609 59.92282 63.02339 58.38069 53.76547 50.34918 43.07525 38.83610 31.25712 31.33276 35.40690 36.46225 37.33406 37.90311 35.86094 29.55310 27.22031 28.95664 27.49024 29.10940 28.79338 28.59696 26.38918 28.58036 27.95698 26.79729 27.87811 26.24125 24.62432 26.19040 25.17687 26.11084 26.45946 23.13215 24.61315 25.61850 25.46319 23.49034 25.41234 27.93735 25.94610 23.56492 25.56936 26.41450 23.78302 26.09168
24.81711 24.45155 26.14699 23.87067 25.23832 27.04406 27.35443 23.43035 25.95245 25.41821 25.72747 23.80042 25.39583 24.00681 27.05482 24.84833 22.93916 23.12918 26.17920 27.19855 26.90047 26.77299 26.92555 25.30642 27.66421 28.20083 29.42215 29.62471 25.66616 25.58892 26.86121 28.13614 30.26134 32.74214 35.21834 32.47105 29.65060 28.95259 29.15638 32.90674 38.81953 37.52112 44.07741 46.56085 42.26618 39.61936 33.96142 36.61437 35.50910 35.29656 36.17053 46.42408 51.45416 56.47605 57.02386 49.49171 44.57513 51.19364 57.06075 53.19863 49.14306 40.56349 39.62690 38.77395 46.36909 52.74300 65.20101 65.23900 56.95582 46.62950 43.03133 35.08123 31.13315 30.53695 36.76722 41.42264 45.31266 47.96231 53.12843 55.28275 54.41883 50.97100 44.53474 41.91316 33.76746 32.76536 30.54756 30.86498 33.77418 34.62035 36.76973 34.15981 30.28987 30.28820 28.54998 23.95628 27.46103 29.61421 29.01817 29.57974 27.50956 28.03471 27.13230 25.96803 20.98497 22.91268 23.98998 24.00351 24.62804 25.88238 25.00891 25.36631 25.56988 24.94654 24.83537 26.85840 27.22426 25.61023 25.37262 25.14632 24.97330 25.50629 24.47451
