-4046.98808 -4044.05441 -4816.94152 -5365.83592 -5525.75062 -5548.67686 -5552.37339 -5554.40363 -5560.96988 -5553.23320 -5557.75979 -5568.76079 -5571.79294 -5575.68673 -5581.37942 -5588.88068 -5600.40569 -5599.25796 -5604.97721 -5601.72104 -5599.62133 -5601.64568 -5609.65552 -5603.20681 -5607.34229 -5610.60104 -5613.21444 -5612.35654 -5617.80731 -5611.68812 -5617.01731 -5631.05888 -5626.27688 -5630.88750 -5631.25763 -5632.71465 -5628.17761 -5630.16913 -5626.41652 -5629.66576 -5622.06536 -5617.45717 -5611.12957 -5615.64710 -5621.25594 -5614.90871 -5606.00790 -5596.13164 -5593.48477 -5593.40772 -5587.17250 -5581.45326 -5574.02311 -5554.15463 -5561.42423 -5544.19589 -5531.17735 -5538.89080 -5522.03237 -5512.50332 -5513.42783 -5502.50390 -5502.40366 -5501.36298 -5489.94713 -5497.47038 -5488.62874 -5494.43388 -5479.58596 -5479.09340 -5479.80780 -5468.32738 -5454.71286 -5427.82560 -5404.10733 -5375.93194 -5344.73780 -5294.24320 -5243.35866 -5209.03926 -5159.49206 -5116.04116 -5075.78579 -4963.69899 -4383.22279 -4042.14290 -3717.97350 -4004.95662 -5916.81518 -7397.00427 -7475.16438 -7442.90896 -7336.70577 -7231.40314 -7118.55613 -6896.31067 -6890.75727 -6884.88464 -6769.79551 -3942.87723 -2113.16248 -1930.37900 -1796.92761 -1776.49617 -1999.65405 -2296.65770 -3452.77475 -7607.49443 -8618.41246 -9559.63359 -11972.33021 -11734.88404 -11760.48942 -11759.56961 -11740.08622 -11596.65490 -10433.38255 -6044.24179 -3794.39125 -3436.57668 -3332.14121 -3335.47526 -3357.04158 -3390.48518 -3428.44867 -3447.25592 -3471.63234 -3509.81734 -3551.01681 -3580.75281 -3603.81821 -3631.88689 -3632.92837 -3629.35767 -3622.33748 -3621.26285 -3617.57091 -3609.26783 -3609.91736 -3609.05840 -3604.82438 -3608.52034 -3603.16304
-3884.73175 -3888.43582 -4488.89055 -5143.09424 -5451.59903 -5540.34657 -5554.17078 -5571.26605 -5568.82447 -5575.75487 -5579.21705 -5572.67835 -5586.38708 -5587.30224 -5599.51596 -5593.04007 -5603.98934 -5602.21046 -5607.76509 -5607.01992 -5612.05734 -5624.92453 -5619.93684 -5617.53961 -5621.22411 -5619.32324 -5626.37369 -5626.95485 -5613.54052 -5631.17723 -5630.13729 -5624.77409 -5633.56924 -5630.78104 -5635.57178 -5629.97456 -5622.75636 -5637.82612 -5631.87676 -5637.19746 -5628.42014 -5626.64551 -5626.87114 -5623.93659 -5618.78035 -5614.50628 -5603.55641 -5605.79136 -5593.97741 -5598.14257 -5589.85017 -5583.99626 -5573.62109 -5564.92446 -5553.54951 -5552.81982 -5549.68434 -5542.85352 -5531.02894 -5518.05572 -5518.72017 -5508.91111 -5505.05919 -5495.41886 -5493.09667 -5492.33085 -5496.96677 -5493.77780 -5486.73983 -5483.05060 -5466.11512 -5459.78833 -5455.36192 -5412.72712 -5388.66250 -5365.51219 -5332.05845 -5302.21654 -5230.55387 -5199.36129 -5156.30047 -5109.60830 -5019.90184 -4782.30230 -4264.18145 -3986.58115 -3867.25313 -4538.26567 -6293.18097 -7240.33830 -7447.37811 -7350.14016 -7179.29747 -7075.18869 -7022.87510 -6845.35465 -6808.39691 -6775.37124 -5897.61664 -3430.15736 -2242.92433 -1949.14725 -1858.45088 -1830.58668 -1959.12034 -2191.50770 -3169.07017 -5806.73401 -8324.81339 -8859.23089 -10166.48233 -11296.71249 -11757.60211 -11765.19689 -11751.41680 -11568.54480 -10274.74056 -6743.44526 -4468.99178 -3530.21801 -3347.25021 -3330.92199 -3351.72023 -3375.25662 -3394.52069 -3420.74349 -3461.39825 -3481.52975 -3514.31590 -3560.17621 -3576.42262 -3602.62091 -3607.11422 -3611.32874 -3606.09402 -3616.42035 -3605.94249 -3608.23124 -3591.35569 -3601.15987 -3604.39045 -3611.83484 -3608.20977
-3751.91755 -3741.14958 -4327.72400 -4797.05625 -5273.62405 -5509.29627 -5559.75935 -5573.66824 -5573.55992 -5584.26641 -5584.54370 -5591.71569 -5595.81395 -5591.00467 -5606.48410 -5604.80974 -5610.71693 -5615.27839 -5625.75251 -5621.33266 -5627.06877 -5620.15334 -5629.83536 -5628.64938 -5623.32380 -5635.32223 -5630.24872 -5631.38897 -5631.67381 -5630.66709 -5630.10262 -5633.91262 -5642.37165 -5637.51242 -5638.24070 -5648.57741 -5646.84042 -5637.01537 -5640.96866 -5640.17439 -5645.95456 -5633.81242 -5637.06852 -5631.18211 -5627.29627 -5622.46549 -5619.93100 -5612.02873 -5605.43113 -5602.63470 -5596.17785 -5583.88475 -5582.38212 -5569.69011 -5562.81630 -5552.97078 -5547.60133 -5540.26479 -5532.82960 -5533.34749 -5518.56182 -5506.71565 -5504.62406 -5492.74712 -5491.56993 -5483.23177 -5483.09085 -5483.59651 -5476.83209 -5466.96401 -5463.77749 -5456.18883 -5440.46012 -5402.36998 -5375.58278 -5345.01310 -5313.55057 -5293.10018 -5236.64395 -5191.75040 -5155.20162 -5095.86708 -4930.71169 -4686.70188 -4160.74343 -3910.28215 -3990.80996 -5367.27279 -6359.67220 -7331.47950 -7420.75716 -7352.02318 -6527.92417 -6830.09416 -6705.31063 -6702.82713 -6734.57472 -6643.17557 -5666.92688 -3129.06159 -2302.86234 -1983.95190 -1867.91386 -1854.97227 -1963.41199 -2149.80524 -2878.89375 -4760.26239 -8086.78535 -8557.81389 -9556.11228 -10772.34463 -11719.85219 -11763.34382 -11746.35173 -11578.93122 -10685.60259 -7460.59692 -4886.49989 -3539.71906 -3376.02077 -3320.21018 -3342.62212 -3359.40288 -3369.95741 -3409.88478 -3433.41429 -3466.54939 -3488.98464 -3534.20909 -3552.96941 -3576.73833 -3586.77815 -3599.50118 -3603.31514 -3592.26619 -3595.34857 -3597.08512 -3598.35631 -3600.65347 -3602.73230 -3599.03805 -3596.96052
-3706.77122 -3713.21152 -3987.36987 -4491.59664 -5112.60509 -5394.78085 -5550.54958 -5579.98157 -5588.03488 -5602.15473 -5598.84640 -5602.06875 -5603.61950 -5616.71868 -5619.59122 -5620.46329 -5620.02533 -5632.23747 -5634.43603 -5631.22438 -5639.68363 -5641.42290 -5646.83206 -5634.90702 -5641.67857 -5648.12081 -5645.00569 -5649.13686 -5641.50839 -5645.10210 -5653.96460 -5645.68362 -5652.54624 -5645.42501 -5649.32684 -5650.81331 -5649.45952 -5648.52935 -5650.64499 -5645.69226 -5640.96260 -5640.69466 -5638.84506 -5632.40572 -5625.73161 -5631.06223 -5622.84402 -5612.69916 -5604.32533 -5605.38267 -5592.84440 -5594.87218 -5584.06556 -5572.52435 -5574.27712 -5564.88768 -5545.46521 -5537.64465 -5539.38096 -5522.55906 -5520.36678 -5504.75851 -5501.88492 -5492.96346 -5487.70731 -5485.63230 -5485.29397 -5485.67488 -5483.40511 -5469.64946 -5464.59679 -5450.60196 -5440.33659 -5397.48928 -5371.33463 -5335.76991 -5315.59288 -5295.74442 -5239.30772 -5183.98245 -5138.94149 -5087.58811 -4837.36071 -4445.59170 -4185.98529 -3797.79509 -4303.37678 -5241.86431 -6685.08464 -7308.36802 -7320.13182 -5827.12733 -4526.47889 -4218.79733 -5608.11299 -6596.07495 -6603.34888 -6513.34686 -6322.29345 -4901.74543 -2350.16584 -1996.36019 -1885.48778 -1806.05317 -1990.06358 -2130.54185 -2639.76266 -4171.21330 -7112.14720 -8332.36811 -9404.35765 -10470.30847 -11706.91564 -11738.23020 -11745.49164 -11678.79268 -11319.63693 -8376.37564 -5653.00255 -3741.20925 -3400.47781 -3337.50652 -3344.06832 -3355.43251 -3375.16228 -3389.36070 -3421.22182 -3458.47797 -3476.27938 -3500.22149 -3531.41661 -3565.56707 -3576.14839 -3584.58256 -3592.38781 -3582.82036 -3588.47854 -3593.84741 -3595.86996 -3588.14558 -3599.54646 -3596.30977 -3594.66717
-3688.55530 -3688.90597 -3763.72039 -4041.24207 -4886.20632 -5253.59707 -5514.09713 -5592.09018 -5601.20710 -5617.81201 -5603.43897 -5600.34506 -5619.38466 -5624.05269 -5620.65849 -5626.02174 -5628.26374 -5632.90243 -5644.82605 -5648.21769 -5648.64367 -5645.41110 -5647.51207 -5653.37129 -5651.99784 -5646.41355 -5656.95401 -5647.58815 -5651.96253 -5649.75300 -5655.45492 -5654.63667 -5653.97079 -5653.50566 -5654.37340 -5653.37189 -5651.76706 -5654.61785 -5645.60016 -5652.34676 -5644.65884 -5650.95559 -5640.40855 -5643.88511 -5637.76814 -5634.29878 -5625.82379 -5624.48852 -5606.45110 -5612.34733 -5601.80845 -5602.35644 -5593.97091 -5577.74479 -5569.32323 -5555.74987 -5556.31702 -5544.50358 -5534.53126 -5530.29128 -5520.94676 -5507.43138 -5499.56050 -5487.85306 -5493.75307 -5485.38984 -5475.86979 -5471.80995 -5476.57663 -5464.71399 -5464.05823 -5443.41417 -5428.75083 -5394.82418 -5363.65774 -5317.33812 -5284.16878 -5281.22893 -5243.73285 -5179.00427 -5104.16291 -4874.21761 -4578.86148 -4313.87563 -3705.37161 -3682.18572 -4730.99811 -5594.41506 -6709.35768 -7127.71647 -6390.64790 -5404.83480 -2442.31810 -1952.09417 -4952.86755 -6318.48522 -6411.67164 -6412.36337 -6429.51033 -5550.56130 -3134.40261 -2080.76841 -1884.65690 -1791.62607 -1947.64103 -2095.96339 -2555.98684 -5728.89896 -7566.57903 -8512.18699 -9569.51940 -10497.26570 -11725.35204 -11743.25126 -11743.15732 -11734.08159 -11090.22276 -9256.32371 -5976.68026 -4374.32356 -3437.57854 -3339.08854 -3341.99422 -3350.58479 -3385.59819 -3392.96915 -3423.18273 -3443.18677 -3468.76336 -3509.53556 -3532.76509 -3560.93922 -3573.14740 -3578.34976 -3587.71923 -3580.41657 -3591.03707 -3583.84960 -3589.10625 -3593.99300 -3587.78370 -3589.06051 -3584.93247
-3684.54647 -3682.12131 -3720.67933 -3901.77481 -4295.13777 -4893.89854 -5399.27265 -5564.97891 -5601.99820 -5621.20288 -5623.94567 -5625.58506 -5625.68064 -5640.08970 -5628.61476 -5642.06013 -5648.29304 -5647.07268 -5642.64944 -5658.97084 -5658.15378 -5656.98102 -5666.71997 -5655.85738 -5658.93905 -5656.58390 -5656.37027 -5658.75886 -5658.00795 -5657.60000 -5657.97279 -5663.23977 -5650.92449 -5668.54482 -5666.53045 -5664.19048 -5665.78584 -5667.05833 -5659.15964 -5658.85068 -5659.87581 -5651.24183 -5653.41237 -5648.41554 -5639.75248 -5644.21191 -5626.38325 -5626.38425 -5623.35806 -5607.48694 -5607.89765 -5599.57176 -5593.02012 -5587.90904 -5575.80496 -5570.32610 -5562.32531 -5542.12585 -5530.65492 -5515.65284 -5508.79327 -5507.36031 -5503.41772 -5493.13234 -5492.52825 -5481.48188 -5482.28446 -5473.83265 -5472.82442 -5461.13797 -5446.26774 -5432.25164 -5412.18989 -5372.64458 -5351.90051 -5309.25624 -5277.21898 -5241.19875 -5217.74910 -5147.06842 -4982.76682 -4812.42490 -4341.23791 -3823.31877 -3645.32634 -3824.41657 -4871.62175 -6413.99993 -6468.62181 -5320.83390 -4262.92961 -3141.68979 -1540.14525 -2088.81937 -4106.48223 -5591.74843 -6274.48684 -6320.85055 -6269.41229 -6220.46235 -4117.80052 -2258.43486 -1891.07670 -1818.76788 -1883.53374 -2082.13522 -2288.07904 -4950.80347 -7254.89680 -8066.47279 -9481.42748 -10392.68991 -11737.85883 -11729.55741 -11730.63126 -11720.00978 -11555.71520 -10595.99383 -6846.09834 -4046.89557 -3565.10738 -3398.72867 -3361.65847 -3392.34192 -3389.76109 -3406.75282 -3442.38294 -3460.66828 -3487.38837 -3508.93570 -3535.83796 -3565.60412 -3579.40833 -3586.82041 -3585.68097 -3590.23643 -3596.65549 -3592.01368 -3590.19630 -3596.46447 -3591.01111 -3594.38769 -3588.90437
-3697.73237 -3688.11614 -3720.68813 -3835.97362 -4111.40893 -4732.51254 -5319.69167 -5529.83670 -5604.64705 -5619.34650 -5635.61882 -5632.20657 -5634.29619 -5640.89264 -5640.54855 -5641.56490 -5648.63666 -5651.29375 -5651.39874 -5663.50126 -5664.23022 -5672.67254 -5669.46098 -5677.66890 -5677.06397 -5671.38811 -5664.00131 -5669.57167 -5665.09235 -5660.64378 -5669.01227 -5665.14372 -5664.21447 -5661.99551 -5667.17672 -5672.38696 -5666.34622 -5667.57133 -5662.69535 -5659.43776 -5665.31037 -5657.06085 -5658.79928 -5654.55590 -5651.33013 -5639.03393 -5639.47686 -5627.68844 -5623.97589 -5624.59483 -5619.41929 -5597.64519 -5593.37652 -5581.41811 -5582.03093 -5567.59911 -5557.81214 -5550.64269 -5534.72146 -5525.09874 -5515.57990 -5504.48583 -5504.22253 -5495.60606 -5480.72800 -5482.87527 -5475.64351 -5461.11792 -5454.39351 -5451.80734 -5445.07332 -5427.69883 -5402.44750 -5374.09142 -5339.11520 -5295.86172 -5265.98878 -5197.34820 -5152.42198 -5007.32987 -4803.53671 -4316.07663 -4017.48919 -3596.20362 -3644.58658 -4115.80487 -5710.10713 -6547.20323 -5091.11698 -3752.87340 -2266.47367 -1955.88698 -1180.03636 -1829.24853 -4356.01421 -5737.51531 -6146.48009 -6273.17645 -6129.24429 -6150.25825 -5070.51033 -2741.90523 -1969.63229 -1840.96919 -1856.63292 -2119.92387 -2307.28797 -3964.50300 -5462.38102 -7717.82723 -9138.55515 -10793.91442 -11734.88662 -11735.37051 -11737.81873 -11719.86851 -11634.32894 -11043.33017 -8280.96732 -5351.21809 -3814.15243 -3425.61096 -3377.43860 -3396.48998 -3412.08132 -3420.51285 -3453.32688 -3473.24073 -3495.71436 -3525.34985 -3537.20009 -3569.08405 -3573.15446 -3584.24405 -3586.10874 -3598.73243 -3604.06335 -3597.15656 -3596.31811 -3594.71413 -3594.41412 -3589.13511 -3586.20718
-3710.75254 -3711.50359 -3721.90024 -3774.26110 -4025.04914 -4466.22825 -5084.36583 -5464.83454 -5593.82772 -5621.98453 -5639.07154 -5645.80599 -5648.57813 -5645.55456 -5651.62586 -5656.93354 -5665.65825 -5660.87350 -5662.53296 -5677.85805 -5677.80893 -5671.12679 -5675.19429 -5676.69445 -5681.76375 -5675.50942 -5680.60405 -5690.27743 -5673.09772 -5675.73999 -5674.82601 -5675.24784 -5676.49676 -5685.60530 -5677.62161 -5672.48792 -5667.28848 -5683.10879 -5674.75263 -5669.03477 -5664.49428 -5667.58915 -5660.47852 -5664.41129 -5649.18367 -5651.80570 -5641.98443 -5636.69473 -5631.69377 -5627.14425 -5611.05266 -5605.67240 -5596.55149 -5589.03289 -5578.75897 -5576.01443 -5561.36508 -5542.42485 -5530.95990 -5522.22453 -5505.07778 -5508.07166 -5492.86732 -5482.18652 -5479.22743 -5477.00849 -5473.32357 -5465.02903 -5457.11685 -5452.81840 -5437.17925 -5416.10062 -5402.86090 -5365.07381 -5336.54360 -5291.90432 -5249.98140 -5204.93339 -5127.46705 -4811.04787 -4646.26530 -4155.80479 -3884.03626 -3584.22885 -3886.95234 -5241.51568 -6328.52411 -6759.64982 -4578.44382 -2874.07894 -1226.83639 -853.08306 -956.12267 -2481.68513 -4214.24404 -5958.00196 -6052.02681 -6105.61422 -5975.92401 -5737.63668 -4725.53644 -2807.38059 -1944.66077 -1827.09273 -1871.73512 -2104.54550 -2643.53170 -4544.96301 -6436.48351 -7898.28304 -9280.33443 -11155.79448 -11715.39383 -11735.12320 -11720.44516 -11716.87316 -11677.71500 -11186.38620 -8706.56487 -5748.23651 -3848.74495 -3473.79287 -3401.03484 -3408.72877 -3421.22367 -3453.05827 -3479.71006 -3492.56861 -3504.88236 -3535.00541 -3548.53290 -3582.51280 -3584.09826 -3596.81662 -3604.56701 -3609.39130 -3618.87270 -3615.16390 -3620.24906 -3610.68383 -3591.39959 -3593.48777 -3599.67431
-3716.16061 -3721.89317 -3727.12398 -3735.26277 -3853.94183 -4158.06244 -4831.19622 -5314.88063 -5497.66056 -5616.71744 -5641.12758 -5648.43604 -5659.51494 -5657.43795 -5667.57141 -5666.34903 -5675.59156 -5675.90973 -5680.62573 -5669.93806 -5684.20341 -5681.70959 -5684.68755 -5680.19981 -5689.62379 -5686.18046 -5680.36011 -5682.51231 -5688.91543 -5684.61717 -5685.15933 -5690.99635 -5689.14114 -5678.09751 -5690.07045 -5683.27202 -5679.03172 -5684.31230 -5678.20464 -5680.03562 -5671.27775 -5672.72396 -5669.80519 -5655.44887 -5666.13429 -5654.74485 -5646.64657 -5641.75029 -5632.17476 -5629.42830 -5617.92134 -5617.54458 -5605.95463 -5601.29510 -5582.60800 -5572.18918 -5554.76284 -5539.39345 -5529.69807 -5512.69389 -5509.42461 -5501.67590 -5497.71852 -5486.07310 -5481.27059 -5470.65181 -5467.23816 -5454.45616 -5448.15480 -5445.13745 -5427.91614 -5421.62463 -5394.43438 -5349.67201 -5334.04819 -5284.17114 -5263.84482 -5127.96334 -5051.33059 -4704.45136 -4343.05401 -4173.39447 -3782.66239 -3575.86230 -4081.03114 -4996.20602 -7224.88332 -7345.24539 -5471.72710 -2280.94119 -876.17963 -625.33248 -967.85775 -2565.92780 -5159.51568 -5754.79247 -5864.34690 -5645.55400 -5693.07055 -5580.90661 -4868.75789 -2073.98603 -1917.31308 -1826.13022 -1856.25260 -2095.85797 -2621.73388 -3500.61120 -5814.30631 -8323.11541 -9170.61739 -10337.60993 -11341.74224 -11690.26781 -11691.69435 -11708.19827 -11685.90087 -10991.75046 -9748.52413 -6693.52006 -3934.93324 -3519.42564 -3442.55450 -3432.20020 -3458.30500 -3457.74898 -3489.63963 -3497.42881 -3521.55880 -3549.61574 -3566.76007 -3591.48726 -3598.16359 -3605.45768 -3615.07494 -3628.47009 -3623.45752 -3640.16013 -3625.75156 -3621.67563 -3616.15209 -3597.22690 -3590.58292
-3728.74109 -3735.88255 -3732.57724 -3753.08326 -3804.97171 -4010.36299 -4553.31985 -5047.56292 -5289.61934 -5572.51393 -5648.76691 -5656.70474 -5663.52647 -5662.08695 -5683.88269 -5678.13330 -5684.03253 -5676.30243 -5689.73010 -5689.36889 -5691.98167 -5691.29266 -5698.78040 -5692.20321 -5699.61250 -5696.22589 -5697.59298 -5692.41808 -5693.27524 -5695.38827 -5694.78618 -5695.49355 -5692.57986 -5684.35837 -5686.85203 -5684.72366 -5688.57231 -5689.88421 -5677.49690 -5688.85552 -5674.31191 -5677.96372 -5674.38397 -5666.23929 -5658.66283 -5662.68942 -5652.05183 -5644.80918 -5632.46120 -5631.44549 -5634.68232 -5619.97705 -5610.45401 -5600.01103 -5592.15932 -5571.70315 -5558.68950 -5543.62425 -5532.16709 -5525.72624 -5511.38986 -5506.85272 -5491.36928 -5491.16872 -5486.88505 -5469.86210 -5455.93905 -5456.76632 -5445.94168 -5433.54127 -5424.55566 -5395.03316 -5379.49839 -5344.50135 -5307.00399 -5287.71564 -5238.41770 -5172.89682 -5048.92858 -4799.31894 -4372.65187 -4109.11460 -3812.08479 -3532.06383 -4073.24842 -5325.79131 -7011.06974 -7056.28965 -5266.51631 -1985.71696 -1085.88142 -637.28590 -1090.42469 -3062.83454 -4587.17568 -5650.08882 -5274.81613 -5218.06312 -5210.50233 -5285.68598 -3427.57051 -2310.84698 -1960.61391 -1799.49518 -1842.10461 -2066.78594 -2373.46059 -3914.15809 -6504.75636 -8045.04763 -8812.92575 -9560.14315 -11080.37983 -11637.51241 -11681.68934 -11706.02280 -11690.06205 -11533.24721 -10103.55333 -6951.42870 -4503.86753 -3646.18897 -3452.32564 -3447.64649 -3463.46684 -3475.87335 -3491.46952 -3516.79918 -3548.25403 -3572.55002 -3586.39404 -3605.06373 -3615.77616 -3624.03702 -3641.41742 -3654.83848 -3661.30236 -3649.65685 -3639.52147 -3649.43414 -3624.78914 -3625.86508 -3614.52385
-3751.10150 -3737.06176 -3741.55995 -3757.93018 -3785.41096 -3930.53169 -4257.97566 -4857.94694 -5222.65647 -5468.45460 -5609.99661 -5665.31879 -5671.34642 -5679.19186 -5686.48394 -5681.90527 -5683.86337 -5689.32016 -5686.12964 -5693.99889 -5689.14809 -5693.82194 -5705.81448 -5698.10224 -5707.40217 -5694.71762 -5703.34030 -5708.31514 -5701.98217 -5698.85376 -5700.28377 -5705.10867 -5700.70720 -5699.93390 -5699.45824 -5695.05746 -5688.60405 -5691.87537 -5698.13008 -5691.20349 -5687.38817 -5676.37975 -5680.46990 -5679.15351 -5666.57690 -5667.59177 -5656.92668 -5656.21204 -5647.30913 -5634.42506 -5626.46565 -5627.44217 -5622.24316 -5595.19478 -5591.36937 -5570.68782 -5547.82749 -5540.14485 -5545.22542 -5523.34929 -5512.90016 -5500.01189 -5490.79057 -5474.22073 -5474.65036 -5466.51669 -5459.03006 -5448.36351 -5440.89063 -5430.73007 -5416.86877 -5397.45933 -5365.56897 -5341.51209 -5305.54004 -5264.48664 -5230.25378 -5167.15089 -5123.08631 -5003.66543 -4523.04627 -4149.18906 -3721.06523 -3385.80538 -3661.65253 -5154.83846 -6514.23313 -6938.40876 -5373.50420 -1899.41453 -950.69103 -684.06491 -1321.94277 -3401.02871 -5127.36201 -5457.67993 -4976.26051 -4721.68063 -5027.77103 -5194.90548 -3553.18482 -2374.33288 -1958.06239 -1833.59585 -1904.45842 -2104.13549 -2304.56416 -3078.45324 -5973.39855 -7894.92884 -8947.58164 -9821.38255 -10785.01913 -11670.63809 -11669.35148 -11709.35217 -11685.32462 -11617.27027 -10583.65949 -7479.59180 -4312.42931 -3747.76334 -3490.84280 -3460.18166 -3466.67961 -3482.30908 -3498.67581 -3519.90914 -3559.09856 -3571.82877 -3588.11852 -3620.40095 -3634.25283 -3660.52683 -3662.55268 -3675.14410 -3671.38922 -3672.98522 -3667.89276 -3660.83981 -3649.33103 -3631.68856 -3631.38531
-3759.15014 -3753.61185 -3750.52456 -3773.98383 -3779.18997 -3837.13447 -3941.02739 -4184.65120 -4769.94850 -5315.22063 -5600.25562 -5661.46470 -5677.78992 -5688.83966 -5687.24916 -5690.17702 -5697.30937 -5693.64389 -5704.99946 -5703.60331 -5706.40385 -5712.48421 -5714.27539 -5712.95550 -5708.54847 -5704.81115 -5716.16321 -5702.55163 -5710.22118 -5707.08342 -5706.78800 -5705.39556 -5709.67204 -5704.08773 -5702.68220 -5701.08427 -5698.72235 -5696.68416 -5700.47208 -5691.20984 -5704.12043 -5690.41784 -5683.46139 -5679.02683 -5676.79526 -5661.25014 -5661.95353 -5645.53945 -5647.47933 -5640.33966 -5632.11795 -5623.25613 -5616.02181 -5611.02156 -5584.34817 -5573.64660 -5563.33056 -5547.52155 -5530.80611 -5522.46367 -5506.10218 -5495.99378 -5490.73493 -5478.34749 -5470.93232 -5462.73739 -5454.50840 -5447.48030 -5433.30439 -5422.16609 -5405.75070 -5383.55189 -5362.34869 -5339.96165 -5305.33921 -5258.58641 -5214.30627 -5184.09777 -5102.63827 -4806.56015 -4297.25800 -3877.40008 -3507.04736 -3391.35456 -3633.97536 -5329.74646 -6799.67159 -7286.25239 -5663.85241 -2517.96012 -937.09525 -753.16251 -1646.35652 -3583.66158 -5015.04444 -4829.14414 -4554.08117 -4419.14856 -4526.80144 -4914.66217 -3935.41915 -2279.75296 -1928.68026 -1864.72965 -1935.31912 -2132.53784 -2302.64098 -3601.41777 -6364.66187 -8157.91701 -9013.81153 -9739.97477 -11408.14418 -11710.82447 -11687.22834 -11699.30571 -11702.48776 -11611.33034 -11189.40842 -7612.38911 -5143.61839 -4058.43576 -3547.34811 -3479.15050 -3471.43305 -3492.63789 -3502.06118 -3534.97851 -3553.89166 -3580.85254 -3610.53363 -3635.34706 -3664.11558 -3676.50104 -3680.95984 -3692.32309 -3700.50511 -3695.80225 -3697.83724 -3691.51387 -3674.74700 -3649.09922 -3661.95203
-3759.55097 -3767.78810 -3768.52374 -3760.60299 -3776.49175 -3794.20117 -3860.02272 -4038.61574 -4534.50020 -5127.53702 -5506.48523 -5583.78082 -5666.69835 -5684.29161 -5691.61370 -5693.58699 -5699.27051 -5706.33241 -5708.07014 -5712.83895 -5717.41415 -5717.16758 -5711.47527 -5723.52027 -5718.98597 -5722.04403 -5720.01522 -5716.22678 -5716.62523 -5722.05220 -5718.26551 -5717.23020 -5715.15073 -5704.59924 -5710.93840 -5704.02917 -5713.81496 -5705.39980 -5703.70474 -5702.64137 -5704.47469 -5694.96181 -5683.00836 -5684.22852 -5681.58911 -5672.57452 -5665.02879 -5658.58494 -5649.88250 -5640.82247 -5629.57606 -5627.70132 -5616.98677 -5615.27294 -5582.58638 -5573.45393 -5559.15018 -5548.59834 -5529.54584 -5520.51524 -5502.32528 -5497.72708 -5476.14456 -5476.85390 -5465.48465 -5462.73806 -5440.15199 -5432.42495 -5428.59553 -5413.45832 -5392.62099 -5379.91502 -5361.97226 -5333.87608 -5303.79161 -5259.57161 -5194.70527 -5110.78594 -5018.32739 -4800.34018 -4350.10786 -3827.52465 -3632.68981 -3429.89040 -3702.99380 -4823.07951 -6597.30984 -6583.70545 -5140.62088 -2300.12530 -1004.29590 -745.56994 -2258.97738 -3537.00076 -3814.71393 -3754.65827 -3850.45335 -3915.57885 -3893.11088 -3698.92589 -2754.78135 -2131.16636 -1898.66818 -1830.87157 -2047.40104 -2173.56031 -2381.13560 -5331.76363 -7599.86177 -8533.44103 -9333.24766 -10990.39494 -11707.48749 -11681.80621 -11708.34389 -11720.12954 -11717.04841 -11566.72812 -10734.56250 -8039.27467 -5485.20325 -3859.07144 -3625.85499 -3492.75119 -3483.37675 -3489.89059 -3511.71909 -3539.34261 -3551.03390 -3594.31919 -3612.66348 -3646.22066 -3671.93854 -3692.97623 -3704.68729 -3712.72890 -3722.86083 -3715.69693 -3719.95763 -3696.97937 -3704.84991 -3672.74314 -3674.61364
-3770.87924 -3770.78035 -3774.40590 -3788.05043 -3781.65820 -3790.15323 -3842.05435 -3991.64055 -4468.63557 -4949.41791 -5284.81344 -5404.74792 -5552.99872 -5583.81011 -5660.67338 -5700.70909 -5715.46582 -5718.88418 -5727.21483 -5718.27291 -5720.19519 -5721.97239 -5717.90590 -5717.87147 -5726.15666 -5724.43059 -5730.32179 -5721.11073 -5721.90237 -5726.40126 -5726.19315 -5715.97029 -5722.36528 -5724.71658 -5716.76061 -5719.51572 -5713.99134 -5706.62867 -5706.61995 -5696.02049 -5693.23923 -5694.08549 -5698.26887 -5694.83128 -5687.02730 -5671.49991 -5674.33426 -5667.47677 -5653.89070 -5654.03640 -5632.80376 -5632.82237 -5624.61927 -5612.75065 -5599.17255 -5570.52986 -5552.17096 -5535.08740 -5521.55861 -5505.72331 -5505.87260 -5494.14127 -5481.87320 -5487.26133 -5456.76229 -5453.53090 -5436.26362 -5427.30504 -5417.10901 -5399.31995 -5391.58725 -5369.56357 -5354.89751 -5322.63834 -5294.40898 -5202.00094 -5150.03141 -5035.85220 -4959.36593 -4682.35035 -4363.21508 -3932.04890 -3580.23500 -3452.68670 -3769.78439 -4658.79091 -6414.15358 -6720.60578 -4541.56693 -1601.06668 -784.69651 -705.33619 -1389.35107 -2561.20635 -2809.14641 -2873.49847 -3004.39385 -3283.17316 -3484.88301 -3425.15428 -2599.44723 -2066.60500 -1923.86020 -1855.89464 -2028.40943 -2248.60989 -2985.43234 -5804.38569 -8524.43747 -9461.64011 -10724.08188 -11575.82409 -11711.78092 -11704.26232 -11706.08466 -11725.76470 -11721.05441 -11439.26037 -10348.91112 -7597.45696 -5063.23918 -3868.28480 -3660.75619 -3479.54471 -3473.38566 -3488.11967 -3515.85093 -3528.90482 -3570.09940 -3599.38689 -3632.11438 -3660.34381 -3685.94752 -3705.26183 -3713.47499 -3735.77786 -3736.92177 -3734.82158 -3727.77435 -3720.21685 -3707.97649 -3695.23157 -3688.65600
-3786.30201 -3780.91113 -3784.33592 -3785.89919 -3791.48505 -3803.85851 -3806.68983 -3855.46164 -4079.37843 -4414.36906 -4718.50136 -5074.61317 -5032.77789 -5342.10457 -5541.81437 -5656.04925 -5716.29585 -5721.28384 -5735.81683 -5733.13690 -5730.86514 -5739.04920 -5736.20698 -5732.34600 -5729.81280 -5732.16646 -5734.00392 -5742.77206 -5730.50634 -5728.94294 -5727.66796 -5722.13667 -5723.43148 -5724.71003 -5725.12484 -5717.28902 -5723.02505 -5720.40673 -5715.33606 -5711.47570 -5711.42928 -5698.54849 -5696.64136 -5695.54489 -5689.91253 -5673.15556 -5669.64219 -5670.15223 -5651.51994 -5647.99412 -5641.76982 -5638.71640 -5629.76848 -5606.48682 -5594.14983 -5586.01197 -5558.66649 -5544.66928 -5516.33109 -5516.68568 -5506.49050 -5493.09220 -5478.25812 -5459.85214 -5451.95969 -5447.57716 -5436.67820 -5423.42054 -5409.03854 -5400.69363 -5378.35603 -5352.75457 -5335.53330 -5307.15012 -5266.45330 -5222.35699 -5099.10347 -4933.79332 -4763.90466 -4587.94057 -4405.53578 -4117.80219 -3937.25910 -3611.23377 -3614.32336 -5290.45922 -6582.09011 -5982.26030 -2774.07777 -1179.28290 -560.41821 -493.02594 -1026.05998 -1141.06291 -1635.34167 -1845.92055 -1997.88407 -2848.98571 -2975.52360 -3235.15754 -2702.96809 -2138.51029 -1872.60358 -1924.83679 -2069.67274 -2330.30250 -2937.02875 -4791.68827 -7561.90088 -9158.33439 -9812.43324 -11067.99028 -11703.97697 -11709.56329 -11713.15449 -11720.62796 -11733.41015 -11472.44461 -11163.02325 -8382.67643 -5132.55870 -4027.67777 -3622.68654 -3515.32870 -3469.37042 -3483.76503 -3509.61015 -3541.67941 -3564.03965 -3594.87856 -3632.54655 -3671.27060 -3686.14384 -3699.96006 -3721.51072 -3736.19589 -3739.38430 -3745.88912 -3742.31080 -3731.24236 -3713.16050 -3702.83755 -3704.64606
-3797.06579 -3791.50931 -3795.05889 -3797.26247 -3802.48370 -3814.53125 -3813.05091 -3837.35786 -3931.51928 -4109.96321 -4197.95134 -4374.59002 -4660.70201 -5048.49990 -5283.13342 -5596.80661 -5699.65124 -5720.34669 -5730.26467 -5729.14827 -5743.02636 -5744.02154 -5744.65718 -5732.59917 -5741.48580 -5738.92918 -5742.50127 -5733.39577 -5739.43168 -5730.82259 -5738.68650 -5730.41677 -5733.42139 -5732.63135 -5727.31099 -5730.59145 -5722.36138 -5721.35894 -5711.27687 -5714.34764 -5709.35408 -5699.86092 -5705.76104 -5693.58039 -5694.75974 -5695.55572 -5681.39847 -5670.82121 -5660.81883 -5654.39892 -5643.22392 -5638.27137 -5628.58178 -5609.27089 -5587.38886 -5579.13887 -5552.41573 -5547.23033 -5528.84815 -5518.25352 -5499.29559 -5483.76870 -5477.86176 -5463.86259 -5452.19584 -5449.11063 -5436.01056 -5420.44347 -5401.27155 -5394.90729 -5367.44756 -5363.95498 -5334.54488 -5302.13262 -5278.69486 -5227.93872 -5031.90417 -4864.78650 -4737.72767 -4440.04824 -4350.96554 -4275.54757 -3978.56280 -3855.68930 -3851.83014 -5125.75356 -5687.02721 -4816.64691 -1442.15246 -522.74328 -252.53822 -180.72217 -326.76488 -621.50376 -939.40897 -1236.63962 -1554.21776 -2013.24635 -2812.95671 -2962.54428 -2538.85147 -2016.76293 -1837.72047 -1933.79146 -2096.27213 -2294.90757 -2869.81828 -4263.36730 -7491.24458 -8634.02229 -9601.24459 -10502.58208 -11661.38768 -11706.56088 -11717.51329 -11731.47926 -11738.62529 -11548.78408 -11181.70164 -8278.97294 -6511.44837 -4588.24417 -3745.26856 -3517.76480 -3468.72993 -3479.52814 -3495.44960 -3532.25601 -3569.28176 -3587.58441 -3627.52291 -3658.28882 -3680.59232 -3708.78594 -3724.25664 -3735.43368 -3738.65217 -3745.00846 -3745.97795 -3724.87415 -3733.09897 -3713.23344 -3722.26472
-3802.98653 -3804.17634 -3804.72148 -3803.97236 -3807.77115 -3811.81797 -3814.91847 -3831.98412 -3848.48208 -3889.47235 -3901.62360 -3943.76003 -3989.21776 -4308.55256 -5016.87028 -5252.23754 -5538.44345 -5675.42135 -5720.91664 -5746.13056 -5750.22676 -5744.67478 -5745.52726 -5751.95707 -5759.67252 -5754.12385 -5754.41329 -5742.60960 -5740.04165 -5744.46295 -5734.13508 -5735.35654 -5735.74824 -5735.39754 -5738.68730 -5739.91709 -5728.14043 -5725.18657 -5729.48923 -5720.33083 -5715.77654 -5720.41179 -5702.39513 -5702.11572 -5694.32776 -5686.74938 -5681.24697 -5675.21323 -5665.87873 -5659.08215 -5648.52398 -5644.39084 -5620.41807 -5598.95636 -5596.73697 -5576.95303 -5558.50297 -5542.72365 -5532.80663 -5517.09333 -5508.52199 -5487.52399 -5481.00724 -5460.06219 -5455.11013 -5437.69842 -5428.21405 -5411.99081 -5408.83945 -5386.94432 -5372.88844 -5362.51135 -5326.65103 -5300.11123 -5246.85757 -5214.73980 -5066.96428 -4797.71110 -4576.02887 -4410.72446 -4271.11393 -4093.79658 -3977.36582 -3852.41366 -3909.37446 -4274.55775 -5107.95258 -3098.50843 -1003.84169 -251.13438 -150.57609 -92.74701 -148.55343 -139.92260 -635.79340 -972.06673 -1587.50136 -1727.76994 -2502.58216 -2378.30890 -2253.21290 -1904.49952 -1825.55731 -1938.40199 -2205.17417 -2978.97115 -4429.72613 -4942.96507 -7133.18724 -8947.96451 -9786.36027 -11302.27213 -11707.07164 -11707.30846 -11716.00251 -11723.60407 -11727.04280 -11616.00167 -11474.80575 -10308.77945 -8091.99439 -4612.36401 -3902.09763 -3550.37083 -3478.22314 -3470.53048 -3483.94201 -3533.32767 -3556.06199 -3577.54522 -3626.31891 -3650.34036 -3678.28926 -3704.24160 -3720.85723 -3723.26781 -3727.12910 -3736.94718 -3739.53062 -3738.35263 -3730.29926 -3731.86469 -3718.27313
-3803.91849 -3816.22474 -3803.16402 -3813.83356 -3823.54195 -3824.16935 -3831.70443 -3834.09068 -3833.40617 -3839.67558 -3853.81137 -3860.51744 -3913.11553 -4032.33154 -4273.22531 -4780.70115 -5096.42804 -5536.49944 -5695.04027 -5742.33996 -5754.65800 -5763.41567 -5763.48510 -5755.97670 -5763.18355 -5762.12668 -5748.18971 -5753.29984 -5749.10575 -5754.26916 -5747.77679 -5749.70430 -5744.91399 -5746.93231 -5747.20705 -5741.79304 -5737.14778 -5735.40652 -5731.17069 -5734.09404 -5725.23898 -5708.74044 -5708.46042 -5711.08653 -5706.51967 -5695.69594 -5679.79364 -5681.83793 -5673.02838 -5665.45435 -5654.83163 -5648.31538 -5628.43501 -5615.58180 -5593.61860 -5578.74726 -5561.32705 -5548.06237 -5535.19106 -5511.61592 -5503.95622 -5485.81238 -5469.75387 -5459.00232 -5444.93157 -5430.89547 -5414.87722 -5415.02126 -5390.46557 -5381.78796 -5366.17773 -5347.38916 -5315.78675 -5275.24633 -5208.43481 -5070.79354 -4921.97646 -4763.62998 -4457.07188 -4276.31344 -4157.17661 -3928.32567 -3912.56609 -3839.63160 -3705.42007 -3606.97606 -4040.94677 -2272.83266 -190.59388 -85.49606 -37.78890 -33.32562 -77.78763 -121.11331 -451.08967 -1163.44250 -1779.91587 -2031.64474 -2379.96582 -2244.47661 -2016.47506 -1859.42106 -1785.32649 -1946.21252 -2219.30787 -3598.57715 -5595.99210 -8013.55927 -8252.93428 -8833.19441 -9713.52745 -10543.83727 -11704.58634 -11709.65613 -11717.16402 -11725.15086 -11729.76395 -11716.45915 -11635.70924 -10846.56918 -9693.05026 -5129.30134 -4109.27397 -3545.64970 -3455.68080 -3452.24140 -3488.02639 -3517.88761 -3551.55496 -3566.20884 -3593.18696 -3623.10287 -3644.10899 -3680.96306 -3706.22162 -3717.47083 -3713.62586 -3722.05449 -3731.81223 -3725.14909 -3726.13106 -3723.54073 -3718.44042
-3819.31230 -3824.16298 -3824.25808 -3823.21672 -3837.01252 -3833.50238 -3839.19482 -3842.68319 -3840.48746 -3842.11579 -3841.20205 -3847.98869 -3866.85734 -3903.10458 -4133.05505 -4405.90723 -4813.21671 -5340.30509 -5615.18837 -5714.92677 -5748.08265 -5755.94874 -5758.53214 -5769.60209 -5765.39747 -5760.54976 -5758.18114 -5757.12935 -5756.76655 -5750.42648 -5757.26821 -5747.06407 -5754.30265 -5740.71822 -5742.23885 -5750.62683 -5738.67721 -5732.58376 -5735.10307 -5727.18323 -5730.13175 -5725.36991 -5706.97572 -5713.98986 -5707.50148 -5699.54349 -5693.25144 -5676.83689 -5666.16157 -5660.85499 -5652.97417 -5645.71284 -5635.36503 -5615.25122 -5594.83990 -5580.82042 -5558.98219 -5551.51039 -5522.67411 -5516.12198 -5506.16924 -5490.46145 -5472.00346 -5461.10147 -5444.00645 -5443.13941 -5419.13730 -5412.08116 -5395.45197 -5376.40963 -5359.41025 -5329.50871 -5319.90765 -5256.86703 -5204.28041 -5016.43137 -4821.98017 -4621.79991 -4429.98748 -4162.32045 -3879.59541 -3644.31054 -3542.82579 -3508.75455 -3333.06173 -2923.34837 -2105.89390 -431.25526 -55.52923 -14.08243 14.67297 21.46316 -39.35650 -164.35685 -533.67315 -1534.86558 -2172.72268 -2245.52315 -2399.93499 -2195.58932 -1937.12461 -1865.52330 -1832.37406 -1983.77644 -2284.63077 -2794.60608 -5196.08718 -7861.41211 -8518.58331 -8691.43086 -9191.66768 -9778.77826 -11370.59308 -11678.00761 -11715.07743 -11717.43355 -11718.22011 -11722.54309 -11686.63196 -11082.26746 -9393.44181 -5816.59683 -4085.96098 -3540.22337 -3441.72717 -3444.16933 -3475.95367 -3502.03282 -3528.80940 -3548.67822 -3584.65935 -3617.74454 -3637.63015 -3656.98226 -3678.90516 -3688.85347 -3712.11286 -3702.91683 -3706.52583 -3703.49225 -3707.34702 -3709.46578 -3714.46997
-3828.82688 -3837.48593 -3842.01344 -3837.39713 -3843.28054 -3844.52326 -3847.31298 -3851.68831 -3860.94149 -3855.10331 -3849.43905 -3856.82174 -3876.57844 -3882.54949 -3950.85150 -4023.50854 -4351.84297 -4719.02496 -5317.83698 -5612.04374 -5747.45100 -5766.54998 -5772.27543 -5777.95802 -5773.24721 -5768.41587 -5763.98493 -5763.77490 -5762.29186 -5769.78026 -5764.38200 -5759.02257 -5757.02317 -5755.34581 -5757.20363 -5749.68586 -5750.32684 -5750.03874 -5741.45029 -5730.10792 -5732.47814 -5729.55224 -5723.19481 -5714.93500 -5711.84965 -5707.53711 -5703.81770 -5690.27104 -5670.81036 -5673.44878 -5657.87629 -5647.41998 -5643.80861 -5629.22195 -5602.95300 -5577.00004 -5555.49958 -5551.33173 -5523.42362 -5512.12492 -5493.65383 -5487.69725 -5471.20559 -5454.02070 -5433.22329 -5431.46663 -5418.25696 -5396.82452 -5386.74608 -5373.28171 -5357.94691 -5333.91846 -5311.88337 -5277.00898 -5152.16447 -5016.80774 -4690.95166 -4477.83422 -4293.69301 -4063.37013 -3636.51972 -3300.17074 -3316.66993 -3259.74292 -2627.10975 -2196.09550 -1434.14125 -141.46709 -58.08164 -1.74054 56.63777 41.65158 -25.39819 -161.24436 -762.01332 -1654.07405 -2282.66046 -2506.97941 -2429.95307 -2201.98511 -2013.96987 -1777.77970 -1880.24183 -2050.90863 -2306.88428 -2896.00576 -4177.15609 -6692.31169 -8064.00381 -8053.24194 -8488.13039 -9213.47800 -10862.66847 -11593.82836 -11679.69761 -11694.84961 -11686.32554 -11692.09538 -11642.95794 -11207.66992 -9833.08219 -6323.52158 -3926.92223 -3537.67443 -3434.57267 -3431.02742 -3461.91666 -3493.19947 -3517.45248 -3541.40300 -3571.16461 -3586.41978 -3618.68650 -3647.72696 -3668.04648 -3669.93699 -3679.36797 -3688.83200 -3702.01472 -3691.34384 -3706.56754 -3706.17641 -3704.88485
-3849.07092 -3845.08820 -3840.55450 -3854.26331 -3847.45287 -3862.13438 -3862.21771 -3862.70305 -3861.13199 -3865.14230 -3861.68927 -3871.19654 -3873.90957 -3877.93881 -3899.32331 -3929.07616 -4147.57888 -4337.71096 -5005.49842 -5500.80307 -5704.84290 -5755.84416 -5772.90251 -5777.69774 -5774.61443 -5775.16333 -5768.78766 -5777.65126 -5777.90650 -5771.52066 -5772.60087 -5765.45035 -5766.32664 -5766.03110 -5761.01386 -5752.38065 -5757.17332 -5746.63536 -5753.53596 -5746.02743 -5743.18744 -5734.93960 -5721.34345 -5712.72581 -5715.77083 -5704.41678 -5700.06691 -5684.33421 -5680.86580 -5675.76435 -5669.32249 -5650.24201 -5636.51010 -5624.29124 -5605.99249 -5584.35152 -5558.50578 -5550.08518 -5528.17542 -5521.77301 -5499.20034 -5496.12294 -5467.50171 -5449.85120 -5433.18391 -5434.96930 -5405.01769 -5392.98364 -5385.02861 -5367.52181 -5349.25813 -5335.11122 -5294.83138 -5244.46696 -5122.29057 -4973.69927 -4566.55570 -4305.79438 -4017.43616 -3857.50351 -3530.00307 -3242.28400 -2754.38143 -2646.70847 -2242.74015 -1746.37009 -777.07308 -140.77261 -66.89228 31.45533 51.11127 12.03762 -49.30005 -99.75474 -829.89795 -2062.36659 -2456.62119 -2547.22245 -2431.86549 -2118.57059 -1821.11156 -1784.81074 -1894.68635 -2047.24776 -2388.88439 -2861.49832 -4171.23553 -7281.34096 -7919.61705 -8295.32957 -8858.05587 -10184.05398 -11215.93589 -11560.47543 -11653.13373 -11615.62912 -11653.56387 -11638.34745 -11597.36526 -11237.51587 -10129.62535 -7252.27878 -4272.47907 -3641.92388 -3444.36023 -3433.26280 -3457.91648 -3475.34130 -3494.63791 -3518.40125 -3550.53886 -3579.53301 -3599.52544 -3616.48427 -3636.56312 -3650.52379 -3663.08420 -3671.01312 -3670.97341 -3668.92674 -3683.77935 -3693.41291 -3694.36993
-3849.75949 -3850.91455 -3851.57502 -3858.73967 -3855.91118 -3860.31493 -3879.76879 -3863.24945 -3865.98428 -3874.64154 -3876.57260 -3871.30171 -3871.59167 -3885.82446 -3891.95731 -3921.09780 -3949.15406 -4052.26617 -4490.74652 -5013.29405 -5572.64658 -5733.83361 -5765.68487 -5784.28155 -5789.69512 -5784.47544 -5781.00603 -5770.93430 -5779.25891 -5783.43074 -5777.02161 -5776.97672 -5769.44861 -5773.74061 -5765.32452 -5756.59067 -5757.02470 -5748.83905 -5744.18387 -5748.08311 -5735.53713 -5728.65293 -5728.97932 -5721.89787 -5723.75727 -5708.00150 -5710.94948 -5691.03526 -5683.15226 -5670.02172 -5661.01570 -5665.33925 -5640.59587 -5630.35312 -5611.90050 -5582.09565 -5568.96503 -5548.50279 -5521.09542 -5514.30731 -5498.65036 -5480.30576 -5471.49534 -5455.45351 -5435.41706 -5420.13377 -5407.48393 -5389.88346 -5386.41854 -5372.16725 -5336.39382 -5320.20767 -5284.30830 -5183.39201 -5087.59468 -4858.90858 -4480.94059 -4164.16387 -3860.42364 -3610.58114 -3362.70091 -2981.74121 -2561.34455 -1913.78025 -1138.03061 -1119.93416 -635.73080 -224.88517 -19.31985 24.79646 47.37050 -6.69244 -73.52027 -300.75691 -916.35580 -1927.60917 -2343.26955 -2526.56758 -2353.77128 -1949.64156 -1743.71903 -1706.56628 -1778.19516 -2060.01619 -2268.54017 -2679.45062 -3314.85599 -6607.26777 -7994.98947 -8626.77965 -9403.37631 -10036.58784 -11093.48338 -11542.09237 -11541.04787 -11552.84995 -11587.16447 -11534.32182 -11447.36712 -11310.94813 -9207.19636 -7172.91864 -4605.12879 -3643.18976 -3471.79970 -3432.09617 -3440.57109 -3460.35081 -3490.80918 -3506.61960 -3538.12844 -3558.89450 -3574.53417 -3593.45321 -3617.02510 -3633.90877 -3645.11657 -3655.48405 -3650.38611 -3665.62795 -3670.53321 -3670.29105 -3677.84441
-3867.11621 -3856.54065 -3864.36862 -3872.64545 -3874.23578 -3881.43390 -3878.66912 -3877.47290 -3884.18080 -3891.30885 -3892.94725 -3887.23285 -3890.80417 -3888.79013 -3894.71004 -3892.87316 -3908.26358 -3993.48837 -4268.36739 -4650.07563 -5237.49986 -5654.76415 -5740.42640 -5776.58744 -5792.35980 -5790.81545 -5792.49637 -5788.17485 -5776.99053 -5775.68909 -5785.44471 -5779.38730 -5778.44118 -5772.62661 -5770.15443 -5762.02368 -5768.05365 -5754.76204 -5758.78674 -5752.26912 -5748.69697 -5730.81126 -5737.93880 -5724.04606 -5721.36570 -5717.20147 -5706.96009 -5704.51893 -5689.58003 -5680.86087 -5672.01039 -5670.46011 -5634.49432 -5626.69170 -5609.79183 -5594.90655 -5559.21428 -5544.52274 -5522.16755 -5513.36270 -5492.54475 -5472.05592 -5469.60905 -5456.98213 -5428.73656 -5423.22300 -5409.73977 -5387.36618 -5368.04490 -5345.31421 -5332.09312 -5316.63829 -5279.43111 -5205.37936 -5050.18578 -4838.42214 -4573.36296 -4325.91344 -3919.76839 -3461.16334 -3117.57441 -2663.56039 -2040.99384 -1648.95680 -787.92482 -669.27415 -241.47072 -118.90538 -33.03093 13.91221 60.68845 -3.84000 -44.37078 -128.70724 -316.96101 -1036.75255 -1936.39473 -2425.07008 -2190.24782 -1913.11289 -1596.47629 -1596.23303 -1706.30615 -2095.04848 -2604.52019 -3269.64981 -3803.29397 -5454.81480 -7830.62676 -8895.71499 -9131.88695 -9930.99661 -10598.88421 -11351.65328 -11531.99492 -11459.17792 -11416.24990 -11396.00393 -11273.82901 -11150.69551 -9843.39726 -6478.99503 -4331.82641 -3613.57202 -3472.07748 -3414.18997 -3429.90267 -3456.08753 -3474.43909 -3499.33606 -3527.59919 -3533.54178 -3567.22505 -3580.74940 -3604.20905 -3617.89747 -3625.21664 -3641.52203 -3636.29771 -3649.16028 -3662.88500 -3666.78895 -3654.52626
-3872.34257 -3884.33868 -3879.31033 -3884.23217 -3891.74175 -3878.49900 -3884.22534 -3883.98469 -3890.93666 -3888.00655 -3902.80938 -3889.03282 -3900.31762 -3905.52874 -3907.92420 -3907.88096 -3910.63876 -3935.54748 -4046.45189 -4243.37813 -4849.50465 -5425.96739 -5667.61297 -5760.27992 -5794.34024 -5799.71929 -5799.19902 -5794.58097 -5793.53436 -5782.63390 -5782.96970 -5786.24577 -5789.92688 -5778.25975 -5774.41759 -5768.17431 -5766.53836 -5755.80175 -5760.74361 -5757.81076 -5752.48058 -5748.03363 -5749.28115 -5734.48308 -5721.57010 -5715.47867 -5707.40665 -5709.14566 -5698.93045 -5687.57691 -5676.13146 -5668.96372 -5646.81951 -5629.73391 -5598.51230 -5576.05192 -5562.83097 -5539.96210 -5518.30929 -5513.35605 -5495.49968 -5484.74247 -5475.37815 -5451.39295 -5439.25615 -5415.07184 -5392.80194 -5382.35265 -5366.52894 -5348.76287 -5316.28973 -5288.69417 -5247.69947 -5197.35901 -5065.69976 -4838.67622 -4574.72068 -4267.43789 -4007.63271 -3580.52947 -3172.66643 -2224.55400 -1539.48178 -1058.72753 -677.02612 -339.12573 -269.62976 -113.66637 -38.15287 -3.80196 17.45992 -6.51633 -49.68419 -67.70259 -198.35616 -405.86643 -1498.26435 -2097.48378 -2123.48108 -1827.10684 -1647.61129 -1609.96147 -1776.31171 -1938.67878 -2396.73640 -3531.08671 -4240.68914 -5002.51600 -7454.75065 -8393.76725 -8729.53529 -9617.39802 -10227.67804 -11312.97581 -11391.17627 -11305.02388 -11222.66669 -11104.43957 -11061.45801 -10978.46619 -9190.61982 -7646.73480 -4040.98056 -3580.40683 -3453.47734 -3409.74958 -3423.28412 -3436.79983 -3458.60443 -3492.19088 -3504.68017 -3529.78056 -3545.58473 -3575.93222 -3591.90762 -3603.76227 -3613.33257 -3621.95958 -3623.74065 -3625.60353 -3641.37533 -3643.99203 -3646.32494
-3881.44298 -3884.50472 -3888.10273 -3885.51614 -3889.73160 -3894.18074 -3902.09406 -3899.53296 -3900.40577 -3909.88963 -3904.51572 -3906.06148 -3909.77095 -3904.34799 -3914.54705 -3909.52338 -3919.38988 -3926.65295 -3971.68344 -4156.20658 -4450.25516 -5053.75086 -5474.70421 -5682.49640 -5777.35804 -5806.44219 -5803.64397 -5800.39803 -5796.63364 -5794.10703 -5799.16888 -5789.15997 -5781.37557 -5786.57950 -5788.53426 -5781.26947 -5788.47273 -5776.15294 -5774.02456 -5762.53197 -5765.95706 -5758.32585 -5752.34372 -5734.83990 -5730.78250 -5726.01566 -5707.60883 -5712.88094 -5690.76009 -5684.31262 -5678.95485 -5664.49658 -5654.03719 -5630.36349 -5599.65542 -5579.30677 -5563.01936 -5541.45110 -5529.05773 -5509.97775 -5493.10794 -5486.67213 -5452.03393 -5450.55713 -5433.92686 -5417.10491 -5392.33677 -5377.99401 -5363.40782 -5344.06142 -5329.07115 -5269.41069 -5225.89029 -5186.66585 -5086.74281 -4901.84354 -4517.21725 -4137.74852 -3950.68269 -3518.22237 -2831.73160 -1863.49133 -1168.62475 -725.79169 -394.06527 -191.41876 -162.12937 -68.32410 -7.15375 26.71298 30.78480 -9.32784 -66.77993 -64.63089 -117.87476 -216.85661 -939.21449 -1730.53913 -2017.91267 -1875.15992 -1786.36426 -1694.14938 -1776.24269 -2010.58283 -2328.27119 -2955.44621 -4069.93585 -4527.02139 -5838.71607 -7476.22022 -8362.72654 -9106.95454 -9862.20692 -10614.91544 -11229.34437 -11154.37804 -11080.23988 -10997.68239 -10807.85585 -10703.05876 -10004.77266 -7507.21146 -4624.39485 -3576.24581 -3419.09838 -3399.65198 -3410.75628 -3428.91718 -3440.69469 -3472.35118 -3495.60217 -3517.94744 -3538.43270 -3548.59874 -3579.27073 -3582.38567 -3588.21023 -3601.04647 -3610.61560 -3613.71896 -3631.83188 -3632.23652 -3638.18328
-3890.83056 -3893.21846 -3902.79592 -3908.21189 -3907.74840 -3899.76420 -3910.97405 -3910.01343 -3914.14952 -3911.57624 -3914.48556 -3912.54557 -3916.74516 -3919.79067 -3919.60007 -3916.72794 -3918.87625 -3922.95720 -3932.97086 -3982.11448 -4142.77147 -4641.03006 -5237.04184 -5558.30563 -5787.49275 -5798.73870 -5818.25612 -5815.71168 -5809.67897 -5805.78262 -5796.88419 -5792.45366 -5806.25073 -5790.36239 -5795.14387 -5799.68157 -5780.09417 -5785.85758 -5780.33311 -5774.87788 -5772.24341 -5770.75989 -5761.08056 -5745.39460 -5737.22076 -5727.72584 -5717.52087 -5710.36631 -5703.30816 -5696.36849 -5681.25548 -5679.60048 -5653.44341 -5636.59315 -5600.06465 -5590.19057 -5554.60990 -5539.11213 -5524.55814 -5505.56293 -5491.11386 -5478.59487 -5459.18790 -5446.18751 -5432.85465 -5414.38204 -5395.09883 -5381.90426 -5351.34852 -5331.09981 -5299.71477 -5227.56765 -5188.03459 -5145.33103 -4948.46763 -4636.51130 -4420.93164 -4109.82163 -3701.11336 -3173.64372 -2162.32284 -1497.31155 -767.22551 -465.64760 -262.45891 -181.42672 -88.93161 -47.30351 -1.26749 52.04959 47.93817 21.48518 -26.16829 -45.65687 -89.35337 -156.22512 -630.44128 -970.99191 -1574.45223 -1932.30393 -1788.16793 -1627.67847 -1720.66357 -2023.36010 -2235.35672 -2712.58435 -3525.77542 -3754.39771 -4892.87940 -7773.98069 -8648.75297 -9046.50071 -9537.02383 -10200.07754 -10720.82232 -11066.14638 -10895.37104 -10717.00920 -10557.99922 -10253.38671 -9362.16182 -6871.15697 -4956.19076 -3551.56338 -3379.76632 -3369.44781 -3409.66305 -3421.70976 -3439.46132 -3462.51209 -3476.43795 -3504.63875 -3529.86320 -3543.32889 -3561.84225 -3575.50393 -3584.47715 -3586.11218 -3595.29386 -3614.49762 -3611.65619 -3617.24098 -3620.46727
-3904.95020 -3908.76684 -3907.14928 -3911.93414 -3907.59706 -3913.56438 -3916.63306 -3919.48717 -3916.96774 -3915.71782 -3922.91253 -3924.19449 -3922.96399 -3927.31312 -3931.80623 -3927.28734 -3928.16963 -3927.78059 -3933.26626 -3946.64221 -3988.12035 -4276.86854 -4737.10445 -5255.73436 -5704.76401 -5787.36461 -5812.73339 -5811.79037 -5818.89612 -5818.83119 -5815.44889 -5810.35405 -5816.43771 -5809.18196 -5810.82700 -5802.81477 -5770.66205 -5771.16840 -5780.03587 -5775.46133 -5779.53858 -5781.89066 -5775.98345 -5757.64440 -5754.09545 -5746.04200 -5731.67537 -5720.78138 -5713.85805 -5703.10896 -5696.50247 -5685.96950 -5653.71585 -5636.83112 -5609.88949 -5588.63889 -5565.32941 -5547.19591 -5532.76120 -5516.40203 -5502.26624 -5478.08730 -5465.53397 -5448.41571 -5427.82162 -5405.02539 -5388.45559 -5377.43992 -5353.93661 -5327.27249 -5301.66631 -5216.67620 -5077.50243 -4993.23199 -4797.20128 -4245.28027 -4108.34310 -3848.82082 -3310.56753 -2800.99985 -1652.01391 -604.11498 -276.83282 -220.41666 -131.79303 -82.74409 -24.95994 -28.19110 0.15959 69.08690 73.30421 60.26651 26.47308 4.35840 -67.47979 -74.42336 -137.53838 -353.57923 -436.13386 -820.48130 -1147.23669 -1615.19577 -1641.71267 -1880.60173 -2004.83557 -2180.37935 -2906.35527 -3725.47618 -4706.53586 -7308.92753 -8140.41262 -8566.02984 -8627.79885 -9134.45647 -9890.42725 -10829.52498 -10637.73962 -10361.22937 -10174.67070 -10063.00562 -9122.61517 -6120.40438 -4356.61517 -3454.25866 -3350.71034 -3377.00410 -3389.71824 -3407.48243 -3426.76616 -3448.46928 -3474.32358 -3491.53638 -3519.51538 -3533.55726 -3547.94734 -3565.69258 -3570.94097 -3587.30617 -3600.58759 -3599.15179 -3596.88584 -3601.32718 -3609.48327
-3922.05078 -3910.36558 -3920.07774 -3921.66157 -3915.93040 -3921.36194 -3926.49211 -3923.74536 -3918.60141 -3923.54290 -3927.40366 -3933.64359 -3930.47409 -3926.51464 -3939.06822 -3932.20345 -3940.69799 -3931.20499 -3940.22641 -3945.72248 -3959.42214 -4101.86224 -4551.17029 -5091.07223 -5531.76262 -5765.03282 -5820.10541 -5827.97803 -5822.09285 -5824.17047 -5824.21124 -5818.96916 -5828.44094 -5814.56229 -5798.36768 -5772.27022 -5718.26575 -5640.76350 -5725.48067 -5733.72535 -5731.73434 -5637.01401 -5746.98343 -5765.13993 -5756.31327 -5754.79208 -5745.48433 -5730.62045 -5726.41762 -5718.23622 -5697.97742 -5686.98269 -5653.51682 -5627.44466 -5615.20400 -5592.32060 -5571.23798 -5550.15992 -5508.98293 -5500.26584 -5486.79722 -5478.19681 -5457.92065 -5442.80727 -5427.92540 -5408.64335 -5387.93297 -5357.83446 -5348.94613 -5324.92709 -5306.80984 -5232.34168 -5004.83156 -4675.03861 -4539.43949 -4217.65300 -3709.36646 -3106.52320 -2638.81090 -1765.29304 -1007.38619 -434.79308 -218.20955 -109.04133 -72.95980 -36.54697 3.16780 13.96735 30.11650 65.94741 88.60883 94.35708 52.69766 26.04919 -8.98939 -25.92262 -67.02365 -109.36440 -147.86203 -233.30508 -1226.59296 -1653.74188 -1407.78593 -1475.95234 -1677.44216 -1905.62483 -2403.14927 -2701.13025 -3650.16157 -5621.86880 -6324.00237 -7262.82676 -7687.76214 -8365.03943 -9450.22706 -10055.83867 -10116.43116 -9898.63336 -9885.24897 -9747.11276 -8672.29877 -5954.38837 -3928.22038 -3377.39793 -3328.55941 -3364.63154 -3385.16580 -3407.44942 -3429.39630 -3446.61298 -3453.55003 -3483.74626 -3501.10307 -3517.52572 -3542.75344 -3556.97219 -3563.18689 -3570.67026 -3581.95779 -3591.42730 -3588.62018 -3601.24406 -3592.52764
-3927.34769 -3913.62762 -3922.55245 -3923.95459 -3927.19891 -3926.39701 -3930.70731 -3939.93226 -3939.67396 -3940.46502 -3936.83109 -3939.18537 -3938.02198 -3948.25079 -3951.87994 -3944.70690 -3948.32198 -3945.46943 -3946.91207 -3954.24345 -3965.59998 -4009.60095 -4208.68288 -4723.23668 -5387.97686 -5730.68044 -5815.32908 -5829.72781 -5842.25439 -5822.42964 -5821.66860 -5816.40473 -5796.08319 -5794.58934 -5714.49481 -5681.71568 -5505.44913 -5369.19417 -5437.11360 -5225.74088 -5498.34118 -5486.01984 -5517.53902 -5691.20664 -5747.08135 -5753.54626 -5744.78655 -5731.27583 -5705.39839 -5708.71424 -5700.55424 -5701.76567 -5653.59743 -5639.64319 -5610.29171 -5589.28331 -5572.51228 -5548.96718 -5524.23033 -5507.22065 -5483.92096 -5465.71374 -5452.45998 -5434.77131 -5423.70073 -5396.91523 -5379.60724 -5350.64525 -5333.75012 -5314.63955 -5269.69538 -5159.00414 -4913.84293 -4670.64367 -4341.87010 -4178.22157 -3503.75881 -2083.95000 -1159.09249 -553.49263 -207.35885 -121.33773 -81.35948 -73.64522 -70.21255 -18.95397 23.63537 33.25490 81.33318 101.78550 137.62555 130.41092 85.50156 51.18241 35.16591 6.06965 -43.23562 -83.65029 -112.73561 -154.32327 -635.24856 -1780.29211 -1753.21434 -1576.16580 -1479.41987 -1579.70187 -1968.21777 -2103.97780 -2707.57631 -3865.31708 -5638.31625 -6501.62745 -7138.64178 -7666.51492 -8249.87837 -9111.16987 -9683.65889 -9551.08957 -9423.05538 -9336.94385 -8175.12739 -6433.86204 -3802.43656 -3409.40986 -3315.28189 -3331.40555 -3380.99044 -3399.98510 -3410.15692 -3433.72562 -3447.96712 -3464.24302 -3482.32711 -3499.89750 -3526.83547 -3527.43835 -3543.25772 -3557.94850 -3568.98469 -3566.70721 -3586.11931 -3585.10573 -3582.72324
-3931.32239 -3933.69195 -3938.05461 -3927.10313 -3939.53335 -3931.63076 -3949.22459 -3942.93620 -3936.83354 -3946.50161 -3945.08200 -3947.47774 -3954.80153 -3952.73537 -3944.45719 -3949.00936 -3951.02292 -3945.49415 -3936.41129 -3950.44491 -3954.74356 -3990.58681 -4104.60565 -4421.94478 -5117.02812 -5607.00344 -5744.01376 -5792.81850 -5821.57000 -5831.06591 -5805.82451 -5727.58037 -5617.02421 -5550.89806 -5488.38806 -5131.95491 -4778.77047 -4399.47368 -3895.68751 -4441.37991 -5083.04554 -4710.11099 -5420.77752 -5420.83798 -5519.29860 -5580.63128 -5588.34408 -5655.81581 -5655.25844 -5670.55686 -5656.58028 -5673.66424 -5645.52312 -5653.54083 -5624.93325 -5593.24072 -5569.07314 -5544.79234 -5524.09038 -5510.61526 -5491.55946 -5475.50890 -5456.55597 -5435.62093 -5404.82342 -5384.03549 -5350.87509 -5241.33320 -5285.27828 -5265.21281 -5207.87473 -5177.34145 -5037.21383 -4832.06273 -4499.59656 -4284.83836 -3223.23633 -1879.91789 -732.20146 -256.89450 -173.80049 -105.37093 -54.43892 -36.07397 21.09176 27.03225 46.02726 88.73772 128.36980 144.81235 147.89357 150.72451 141.65055 148.28309 121.66302 52.85663 -5.97051 -21.65096 -51.98592 -78.22074 -488.76552 -1566.03901 -1837.45365 -2151.89161 -1552.02557 -1576.62584 -1637.52847 -1817.89875 -2421.02017 -3274.55662 -4074.58095 -4922.64238 -6412.22568 -7207.80002 -7648.19428 -8548.67699 -8998.38534 -9254.04636 -8949.24109 -8828.15298 -8088.03357 -5750.07569 -4047.45340 -3315.19088 -3279.35451 -3313.62405 -3373.84087 -3391.54324 -3402.36452 -3421.70286 -3436.64723 -3450.80758 -3473.48470 -3507.66030 -3511.74663 -3524.52872 -3547.06554 -3543.09207 -3565.11511 -3558.03515 -3572.00760 -3573.34649 -3569.68892
-3973.42441 -3982.34932 -3969.98429 -3991.06481 -3978.68873 -3986.21380 -3950.18380 -3951.85764 -3958.01829 -3954.62408 -3951.00348 -3953.82555 -3958.18518 -3956.52993 -3963.06246 -3963.79026 -3956.09672 -3960.11855 -3951.52330 -3961.27515 -3967.61632 -3985.81041 -4037.69317 -4189.29648 -4822.42716 -5009.28626 -5379.95814 -5732.55899 -5661.22045 -5759.06545 -5765.14488 -5508.93622 -5165.99578 -4681.47753 -4378.79582 -3905.99644 -3375.77753 -3271.51632 -3198.59928 -3442.31140 -3031.55615 -3874.87465 -4239.39596 -4285.94944 -5106.34580 -4953.58892 -5331.26196 -5551.60810 -5585.26756 -5583.85399 -5597.13263 -5587.29996 -5652.90680 -5661.26312 -5614.10855 -5597.04702 -5577.93828 -5540.75138 -5523.99083 -5502.76533 -5491.12172 -5465.36842 -5443.89220 -5412.99066 -5362.93805 -5232.33305 -5221.29576 -5073.20464 -5130.98701 -5086.43299 -5031.23249 -5022.84837 -5015.66382 -5017.25908 -4500.17471 -3554.12693 -1606.72282 -1019.37645 -223.70319 -153.98882 -97.22060 -79.74288 -1.32843 7.96486 47.07362 89.67107 88.14771 132.73476 162.61506 202.18195 216.32548 209.52307 184.10802 165.09468 134.90503 88.22941 84.75147 53.47330 -39.08501 -54.51222 -177.78892 -444.44689 -1327.00267 -2526.98330 -2324.86880 -1816.80040 -1853.95652 -1809.47044 -2034.38770 -2198.56431 -3215.27630 -3752.79754 -5303.65858 -6265.17369 -7005.49087 -7412.75012 -8062.57634 -8648.25733 -8570.60625 -8218.77187 -7485.38133 -5030.81051 -3904.56322 -3327.54913 -3243.73918 -3301.37811 -3343.96883 -3373.06539 -3389.31759 -3407.42044 -3431.05634 -3443.38483 -3459.00519 -3485.24566 -3494.89906 -3518.59644 -3530.11157 -3544.64150 -3545.90693 -3559.78408 -3561.40059 -3566.63155 -3564.27054
-4073.84768 -4076.96668 -4088.52065 -4068.51563 -4090.56776 -4037.53183 -4012.88225 -4001.57263 -3991.34893 -3975.66335 -3977.26168 -3965.70833 -3983.08095 -3975.45627 -3975.07440 -4006.82473 -3991.05950 -4000.45951 -3996.13463 -3985.62588 -3983.62644 -3986.21669 -3979.49924 -4126.54939 -4344.06562 -4031.96438 -4326.71765 -5008.14546 -5321.57864 -5530.70160 -5388.98630 -4889.45651 -4586.45738 -3942.31467 -3337.42432 -2963.96601 -2501.86451 -2387.84941 -2434.36568 -2409.53062 -2509.75705 -2513.41267 -2831.78626 -3267.39669 -3669.77095 -4221.98109 -4687.89036 -5097.94229 -5413.53777 -5399.01893 -5343.20264 -5564.50391 -5569.56930 -5615.54154 -5575.15771 -5578.86291 -5563.22642 -5515.28201 -5516.01661 -5491.51184 -5472.07005 -5448.77514 -5428.88726 -5330.22694 -5265.21244 -5034.77591 -4811.31439 -4878.23552 -4564.24508 -4623.80137 -4743.97929 -4873.95005 -4745.33505 -4282.93928 -3850.80468 -1836.30600 -815.16986 -472.58300 -132.50780 -37.18049 -5.65273 -34.01836 -4.99329 62.66432 73.29351 120.93878 155.54164 191.58610 185.11337 234.38922 267.91124 250.07481 219.89635 242.53641 225.38507 219.84913 120.64437 82.37417 17.25947 -82.07945 -181.63542 -242.06465 -735.83654 -1682.49882 -2751.73110 -3098.56148 -2820.95805 -2717.84124 -2245.60857 -2289.89395 -2572.66632 -3511.10446 -4626.57879 -5587.91517 -6312.14536 -6781.16167 -7960.74486 -8337.80781 -8014.25562 -7518.79748 -7077.14218 -5301.79908 -3873.98143 -3324.82833 -3232.90491 -3280.07063 -3329.44787 -3362.93883 -3382.76867 -3401.23478 -3401.88868 -3433.49111 -3458.72502 -3474.03067 -3487.44869 -3509.13857 -3514.16062 -3524.70346 -3543.00701 -3549.47777 -3545.78963 -3560.18480 -3552.42128
-4250.67029 -4245.23823 -4228.26481 -4195.04267 -4187.48066 -4174.69558 -4093.75819 -4081.53887 -4091.32207 -4085.91449 -4058.95400 -4016.47584 -4016.81792 -4061.24500 -4053.60442 -4085.30135 -4093.31928 -4116.94513 -4076.08535 -4096.94752 -4045.55784 -4024.95671 -3984.31122 -3524.08333 -3255.72090 -3119.26448 -3639.99403 -3730.41778 -4108.61788 -4523.48858 -4513.27896 -3868.96988 -3119.31526 -2503.58501 -2249.22552 -2142.25938 -1886.07240 -1914.46973 -2016.50386 -2016.91794 -1998.04903 -1983.74065 -2239.20542 -2649.03222 -2977.68405 -3363.59341 -3928.77813 -4427.47220 -4934.42528 -4910.11177 -5018.50633 -5268.80446 -5293.05288 -5408.56687 -5441.26123 -5523.86784 -5516.37489 -5487.70337 -5506.22677 -5464.03323 -5471.31202 -5415.13239 -5294.31432 -5112.80439 -4856.41813 -4707.14688 -4402.86678 -4585.07208 -4241.31863 -4204.29807 -4374.64680 -4464.38479 -3332.27096 -2847.71869 -1340.73655 -703.46624 -422.71996 -141.19596 -73.35330 -6.94784 50.16871 42.71466 26.01489 83.51364 69.95374 138.63481 178.04265 221.66391 225.64701 268.79356 314.62314 275.00596 319.36080 319.59665 268.10839 206.06626 173.41071 114.68020 48.34658 -74.99031 -120.33023 -185.13082 -557.80304 -1017.60828 -1894.78441 -3631.84614 -3647.82568 -3414.28613 -2832.77144 -2657.63618 -2811.74169 -3612.01041 -4578.58736 -5018.66684 -5484.94201 -6554.21868 -7595.00467 -8072.86774 -7605.72031 -6863.03575 -5889.77665 -5523.17206 -4111.05346 -3384.03095 -3240.21919 -3273.83754 -3322.97573 -3353.83653 -3379.58174 -3395.45239 -3401.54657 -3423.59862 -3430.50962 -3453.15439 -3478.66419 -3495.87969 -3502.65701 -3525.16616 -3528.49052 -3534.23504 -3540.98493 -3541.44810 -3551.05433
-4479.10541 -4473.62779 -4400.73616 -4409.82380 -4340.11380 -4320.12044 -4273.78691 -4284.23998 -4215.10335 -4233.91513 -4179.58968 -4128.10689 -4214.30664 -4183.39604 -4232.16694 -4196.62857 -4199.22872 -4237.90955 -4235.24767 -4224.42689 -4131.85314 -4045.28754 -3804.02851 -3211.29458 -2608.66578 -2352.62104 -2580.10652 -2818.99263 -3019.90838 -3364.54759 -3604.32459 -3596.11501 -2761.07400 -2259.01754 -1936.60877 -1618.40850 -1315.28129 -1283.45099 -1280.02040 -1002.93366 -1103.82048 -1365.02428 -2219.56972 -2301.90846 -2288.62195 -2555.16046 -2934.84240 -3384.56979 -3829.71277 -3895.44259 -4495.74038 -4402.83482 -4735.50653 -4783.03172 -5026.96675 -5301.05198 -5330.76555 -5403.75297 -5419.20802 -5296.49383 -5334.77031 -5253.11811 -4770.53930 -4586.74456 -4366.03471 -4149.40202 -4119.53696 -3961.72542 -3653.74955 -3462.19802 -3498.31986 -2834.83785 -2284.93164 -985.74157 -396.42066 -224.58848 -93.41320 -82.09435 -29.32090 41.92107 85.57291 90.51980 59.54541 150.87908 142.83251 138.90476 199.45677 278.09517 267.73514 260.98628 331.46586 338.23779 343.71503 280.62277 199.51959 143.19605 104.67910 77.62967 36.68125 -26.69594 -58.81824 -135.26798 -228.76781 -669.42695 -2098.08547 -3534.21640 -3557.74730 -4046.32794 -3791.02402 -3515.57978 -3355.16994 -3627.81661 -3612.12778 -4124.75213 -4821.84664 -5824.38750 -6953.33306 -7286.58266 -6838.59613 -5637.82572 -5166.46842 -4810.46945 -4237.85319 -3454.64481 -3241.03745 -3246.61941 -3310.80283 -3345.60452 -3363.04988 -3369.88763 -3391.39866 -3410.47607 -3425.25093 -3443.84355 -3452.28255 -3487.62376 -3494.12672 -3512.43399 -3513.59318 -3522.18144 -3537.67015 -3539.93917 -3536.90048
-4660.37969 -4648.94924 -4597.75754 -4546.54759 -4562.85857 -4478.69293 -4498.61707 -4401.81674 -4394.79879 -4387.76150 -4362.20685 -4313.82987 -4310.72492 -4369.26580 -4344.05672 -4354.02019 -4481.54233 -4404.52406 -4421.42574 -4388.36086 -4311.77989 -4059.87486 -3734.75003 -2965.58707 -2287.42443 -2203.30691 -2232.22296 -2352.96002 -2362.05723 -2521.03424 -2761.71911 -2643.24845 -2413.68934 -1873.45727 -1505.75147 -998.25948 -582.27083 -584.30794 -589.67794 -509.01163 -482.72304 -1008.99802 -1397.81477 -1466.79644 -1630.53214 -1931.39042 -2033.95308 -2331.89814 -2865.00669 -2822.72068 -3337.33316 -3531.61129 -3717.85602 -4061.25977 -4052.39467 -4656.26381 -5079.73118 -5151.50227 -5053.09125 -5096.58363 -4776.26047 -4815.41373 -4379.45101 -3843.68720 -3911.78294 -3702.36516 -3403.74353 -3520.01555 -2948.53204 -2422.25884 -1799.75673 -974.06813 -482.32829 -334.94896 -129.66982 -78.54521 -38.71175 -10.62284 18.48579 47.46866 102.74076 145.67504 114.14226 181.76287 161.81949 169.04691 224.96615 291.05820 305.15066 296.77724 338.32866 372.67827 343.04648 286.15119 220.63197 185.63223 179.04977 154.96222 59.72908 -7.78207 -53.53148 -126.99964 -202.10366 -355.38961 -1032.99325 -1692.03201 -2540.61204 -4134.10815 -4037.73739 -3894.58542 -3739.13974 -3619.91648 -3576.06287 -3817.88588 -4354.32794 -4902.93293 -5721.21914 -6848.50028 -5926.83927 -4865.75392 -4480.28525 -4261.26339 -3930.49587 -3619.29811 -3259.30353 -3235.30293 -3298.13805 -3337.12314 -3349.34521 -3370.90755 -3376.12439 -3390.86367 -3424.29700 -3425.98679 -3446.59045 -3469.62687 -3482.90794 -3494.19423 -3513.02877 -3521.99349 -3532.46588 -3526.45019 -3530.49215
-4739.09355 -4730.92157 -4718.32349 -4699.15252 -4716.68353 -4668.32974 -4651.62403 -4615.94507 -4643.54425 -4504.05844 -4563.06231 -4554.63159 -4562.00893 -4572.36818 -4572.76689 -4618.70523 -4586.54551 -4640.86997 -4660.54711 -4600.44868 -4441.66373 -4311.98561 -3759.36897 -2928.60350 -2392.37564 -2272.93831 -2275.42459 -2292.89630 -2272.26048 -2233.09387 -2385.44465 -2318.89855 -1924.32365 -1538.54128 -837.33083 -512.75726 -326.13175 -316.80423 -318.76606 -297.37617 -284.80751 -315.86490 -474.86228 -657.41810 -867.85265 -1129.98457 -1250.27831 -1819.62049 -1942.97463 -2071.54622 -2642.18190 -2712.10035 -2652.11274 -2596.28704 -3311.53659 -3596.04464 -4211.61526 -4332.43338 -4443.14455 -4640.65776 -4386.05782 -3808.81173 -3469.30998 -3290.50214 -3288.70248 -3030.14438 -2705.50330 -2972.08975 -2341.71759 -1161.65931 -787.83804 -451.50951 -188.42369 -137.08162 -105.57562 -54.26558 10.06413 23.36306 54.22497 81.47417 142.80516 187.63294 166.29300 209.76323 225.21411 207.44950 254.50853 318.69352 361.86788 362.69350 366.00796 403.92734 347.55129 294.06650 298.55146 264.51130 186.79417 140.77299 103.91829 61.32697 -46.85617 -97.76993 -140.54920 -194.96271 -234.48113 -662.80060 -1703.21427 -3444.69073 -4250.44246 -4168.11225 -4126.11933 -3994.89587 -3999.96323 -3806.40615 -3784.39927 -4033.26027 -4400.20586 -4568.75223 -3674.19383 -3836.67721 -3994.29435 -3792.71083 -3793.53353 -3705.87919 -3351.95203 -3239.71196 -3273.60785 -3314.72315 -3328.25760 -3359.99349 -3368.83743 -3388.24146 -3408.01128 -3420.39686 -3433.38318 -3448.06574 -3466.33080 -3487.45304 -3493.80052 -3506.74107 -3517.32729 -3528.15825 -3521.06144
-4758.37240 -4767.97110 -4761.97719 -4758.97893 -4755.92324 -4738.70470 -4720.28519 -4716.93612 -4721.97824 -4708.11862 -4676.89479 -4706.81271 -4700.53656 -4716.29077 -4732.94705 -4718.48586 -4730.64656 -4744.20691 -4736.86404 -4688.13567 -4618.88938 -4487.92190 -4063.10265 -3387.37756 -2891.55610 -2703.48454 -2788.68920 -2851.83716 -2333.70842 -2320.12412 -2363.47082 -2289.11906 -1886.45867 -926.53445 -540.87785 -396.26700 -299.14433 -284.86723 -253.51508 -246.83403 -249.27039 -215.30015 -227.96028 -226.61417 -203.39347 -267.51953 -352.32203 -586.44174 -664.48990 -750.29147 -1692.04768 -1697.94601 -1861.40716 -2075.11519 -3027.89628 -2981.10205 -3158.93284 -3142.37803 -3013.90954 -3168.96882 -3489.15022 -3411.57415 -2990.53133 -2609.03319 -2481.31008 -2091.03285 -1903.70933 -1717.98310 -1210.57761 -562.39009 -240.53138 -157.59081 -115.71147 -96.98449 -88.84075 42.13866 132.60827 60.30118 132.22985 130.24958 156.49097 241.91478 199.46134 242.20130 265.02111 281.91575 290.60781 320.16876 377.68084 402.36121 409.26682 406.77929 364.54088 334.04039 294.36849 240.58897 196.63414 167.72594 109.09727 65.60984 29.01471 -28.18237 -72.23524 -128.66670 -171.45476 -309.03963 -893.62102 -3391.13896 -4243.36584 -4363.47306 -4225.67367 -4285.65328 -4456.02097 -4093.35819 -3764.43955 -4033.45698 -3950.77964 -3089.85179 -2885.12697 -3221.17161 -3449.32625 -3534.29181 -3631.61248 -3622.72477 -3422.74855 -3278.42880 -3257.74118 -3303.95955 -3327.25680 -3343.95700 -3359.74542 -3378.60772 -3395.11610 -3398.20035 -3423.24040 -3438.51614 -3454.48111 -3477.59336 -3484.99364 -3499.90070 -3506.30573 -3510.01673 -3514.54514
-4762.59720 -4771.87017 -4771.57689 -4765.52264 -4764.70388 -4768.96911 -4770.36512 -4770.05202 -4778.57197 -4755.81796 -4764.70717 -4771.47679 -4765.45445 -4766.10347 -4774.54468 -4783.35488 -4773.90769 -4775.72051 -4778.63390 -4775.69087 -4709.79655 -4639.48410 -4478.59920 -3961.57329 -3633.37140 -3385.06460 -3624.93219 -3622.49889 -3293.17261 -2886.89802 -2755.98535 -2223.39363 -1700.45665 -884.18196 -488.35805 -309.03671 -272.09610 -232.73677 -209.57663 -212.85523 -179.35756 -169.95083 -171.93557 -185.37896 -174.16328 -200.63488 -285.85287 -228.42189 -185.20353 -208.54445 -518.09351 -608.43695 -1140.37557 -1235.89397 -1289.27046 -2360.76888 -2433.00108 -2426.37287 -2091.19499 -2191.83126 -2416.18342 -2696.86460 -2535.26392 -2396.98777 -2007.22256 -1519.52476 -653.73565 -371.99520 -346.48237 -178.31597 -102.00125 -104.41302 -68.73642 -46.66970 -5.85054 133.55743 277.94403 151.87569 115.60163 171.50663 212.75831 264.33090 267.46846 250.86980 295.25566 333.62192 348.82038 352.78509 389.81488 434.36601 438.53106 438.40176 399.67259 340.06712 275.07773 249.61982 201.05151 134.70472 126.40417 140.88753 67.83695 -10.90430 -27.15015 -71.17056 -119.56766 -212.29591 -483.86393 -2250.90217 -4059.18663 -4342.21149 -4426.32259 -4433.72651 -4568.09495 -4600.19773 -4290.11926 -4144.50305 -3597.12403 -2836.98443 -2632.07071 -2517.30859 -2703.66386 -3278.73213 -3500.27919 -3479.39848 -3394.34736 -3297.49183 -3263.51701 -3277.82436 -3305.05791 -3326.67856 -3347.78068 -3354.79087 -3376.42673 -3393.01148 -3414.93123 -3431.03244 -3440.77997 -3464.65801 -3482.22303 -3485.11106 -3499.48759 -3508.07574 -3508.57914
-4767.75724 -4772.52080 -4774.36870 -4780.47425 -4773.86351 -4783.24232 -4776.28968 -4780.52189 -4785.29358 -4784.15868 -4785.70471 -4781.16950 -4778.11265 -4778.46487 -4784.29300 -4781.77069 -4781.75920 -4771.60592 -4776.88783 -4772.97421 -4775.94735 -4765.41238 -4655.79340 -4357.24183 -4231.26998 -4281.12173 -4377.79984 -4370.58356 -4037.15918 -3505.81051 -2416.66822 -1990.74028 -1093.81983 -521.14505 -410.96644 -293.37261 -247.44211 -201.33869 -186.17031 -174.29343 -141.01773 -131.32263 -133.22200 -131.26080 -152.07756 -136.48267 -138.30597 -135.20919 -145.45087 -135.92127 -139.46488 -141.31223 -146.35209 -512.70086 -632.86151 -1045.63965 -1165.18152 -1237.74649 -1532.92577 -1693.80786 -1956.99033 -1822.39347 -2031.25119 -1205.76806 -1200.92171 -576.03885 -226.32768 -183.38006 -122.78778 -80.96838 -64.36383 -49.66871 -31.66622 -9.07326 21.92210 182.06045 295.58943 342.24421 139.16569 182.38439 245.96984 271.44551 295.36856 296.36845 314.34932 348.87515 383.10555 401.63139 404.38397 465.70464 476.77319 453.94975 380.29068 342.19486 302.10784 290.84628 233.80273 157.60268 203.22541 178.51991 55.37682 38.29164 21.70602 -8.98962 -90.73413 -118.00718 -587.87796 -1242.17767 -3241.99692 -4259.04105 -4447.70124 -4404.51660 -4424.30328 -4472.35953 -4699.00915 -4591.62127 -4094.71934 -3786.03106 -3025.25713 -2594.33156 -2494.59018 -2780.81065 -3039.18284 -3167.45036 -3404.02871 -3355.93691 -3267.14250 -3276.95141 -3286.54099 -3321.03663 -3343.62916 -3359.56480 -3361.79088 -3377.64788 -3400.77201 -3420.40410 -3429.83240 -3451.16097 -3458.78502 -3477.49601 -3488.78875 -3490.34943 -3498.68270
-4784.78647 -4777.32174 -4776.68130 -4779.59065 -4780.73200 -4793.29729 -4791.92637 -4789.68939 -4788.10634 -4798.32672 -4788.85890 -4786.59513 -4800.99158 -4788.07543 -4790.52256 -4785.44894 -4787.42654 -4794.76756 -4792.50317 -4795.36418 -4780.72517 -4776.05689 -4772.68345 -4730.25250 -4675.51181 -4689.74882 -4783.14310 -4812.83083 -4534.99992 -4337.70553 -1831.96043 -1322.70185 -522.90968 -426.16158 -296.39289 -269.08058 -220.57827 -197.52868 -158.06835 -120.27453 -118.65202 -104.80572 -109.36368 -109.06444 -105.85678 -119.72413 -121.53921 -124.37931 -115.36025 -114.47053 -109.70931 -112.80947 -111.93946 -143.28127 -195.75451 -262.11562 -398.94291 -429.85882 -752.76750 -820.78138 -1163.35345 -1300.87673 -732.49678 -521.39707 -353.05480 -182.24455 -135.62357 -114.09737 -89.56793 -50.01030 -22.22731 -11.76830 26.84023 70.10762 154.94871 141.85628 361.88465 492.02266 338.50680 215.92031 236.93764 254.43509 343.19114 328.58430 349.63668 361.90794 400.96860 434.19272 446.67267 490.74790 494.13326 441.30970 390.06820 365.33128 334.29922 301.22561 251.05494 230.47759 200.53510 135.33083 92.87414 100.79664 64.00827 6.89854 -72.94898 -91.24922 -110.16664 -811.72589 -1119.03370 -2814.88690 -3985.09678 -4236.19456 -4241.07756 -4296.20209 -4642.85191 -4697.88815 -4725.26266 -4224.03921 -4078.72452 -3430.69085 -2868.89557 -2485.75272 -2659.06434 -2951.87812 -3353.75080 -3370.76381 -3305.30207 -3288.11879 -3295.38742 -3304.53249 -3331.50575 -3338.98637 -3365.47290 -3367.48275 -3380.57312 -3408.57414 -3424.74877 -3436.93063 -3446.72659 -3466.20634 -3472.78339 -3484.95007 -3489.16742
-4792.85407 -4782.64383 -4785.09002 -4792.65398 -4794.75960 -4792.11839 -4789.34229 -4800.84910 -4797.34446 -4796.17509 -4800.65184 -4790.25473 -4795.02901 -4791.03000 -4798.59352 -4802.27736 -4801.45300 -4798.41221 -4790.91350 -4792.65395 -4786.11855 -4791.64661 -4785.17974 -4753.67300 -4736.92609 -4746.66629 -4909.76314 -5031.13504 -4622.85265 -3300.10204 -1733.41956 -719.39996 -445.09197 -333.11454 -260.62627 -229.66653 -200.94117 -162.08239 -126.71560 -100.64387 -89.35286 -96.32188 -71.80160 -54.40265 -53.87311 -64.53959 -77.55668 -80.57274 -76.12366 -63.37987 -63.07272 -65.20920 -94.60971 -122.93044 -135.11025 -161.69655 -147.03992 -177.72580 -214.38368 -233.53069 -256.86361 -433.69932 -292.14355 -241.69046 -121.07581 -122.16862 -64.53373 -40.72698 -50.48611 -14.55355 16.84161 45.81547 156.36871 219.33513 244.99976 212.35078 351.50348 472.34914 550.03951 328.08820 291.13199 290.86209 351.76293 377.32889 382.77838 415.34980 447.68768 484.22128 489.54393 508.34851 499.28459 430.73737 408.04462 389.95093 356.43715 322.63450 293.96656 259.54063 189.42818 200.16499 193.73195 114.85470 98.91085 23.06542 -28.73273 -65.93784 -144.44594 -217.98629 -430.69260 -756.89085 -3868.83702 -4267.82527 -4177.00311 -4182.73717 -4676.07272 -4808.20552 -4821.68533 -4713.17078 -4659.73654 -4199.21215 -3675.79647 -2812.85567 -2450.77638 -2850.98236 -3237.07366 -3360.41657 -3331.37520 -3293.34381 -3289.84404 -3296.06507 -3304.36960 -3333.98153 -3338.82780 -3352.50161 -3381.37530 -3400.14841 -3410.67770 -3430.50177 -3441.71763 -3455.39293 -3466.03325 -3480.50335 -3481.05457
-4792.13328 -4795.99405 -4800.66134 -4796.44736 -4802.61926 -4796.78562 -4808.21510 -4798.76328 -4804.65280 -4799.87391 -4808.36616 -4802.90196 -4800.27621 -4798.38487 -4801.28381 -4798.09813 -4806.01810 -4808.26741 -4795.11270 -4797.47227 -4799.35148 -4794.66270 -4779.11342 -4771.87374 -4763.04342 -4805.46856 -4969.17280 -5054.78913 -3403.86757 -2460.33545 -1520.22969 -591.63198 -364.10646 -315.16527 -252.19763 -205.68817 -159.69759 -137.92491 -97.84303 -76.88227 -48.11978 -41.29224 -29.82511 -37.15613 -25.98402 -24.24198 -10.80623 -26.59512 -28.15396 -37.83848 -39.87398 -36.79947 -41.42618 -75.00643 -90.90622 -100.87040 -101.48985 -115.84325 -141.04837 -153.44865 -122.31910 -175.11349 -145.96620 -122.48553 -91.52136 -83.44953 -34.44374 -4.92414 9.57600 42.83671 72.56494 61.36681 162.74250 240.38558 266.48912 286.37275 342.76895 537.62836 556.14693 395.13042 311.76377 349.67673 377.99795 410.52150 435.11559 421.75318 471.47512 499.13885 528.44486 533.79020 533.91034 466.36183 456.61675 414.05288 367.59490 353.66116 320.61307 280.43063 234.04718 270.04883 231.10764 138.50145 140.35455 90.41326 2.62275 -6.34620 -94.58126 -138.51794 -225.89101 -999.58887 -3101.11446 -3924.05968 -3845.17185 -4016.46105 -4500.40309 -4707.85760 -4813.15108 -4820.29682 -4809.98793 -4657.59958 -3979.73008 -2845.58431 -2302.81824 -2537.79125 -3087.46475 -3281.84808 -3328.92720 -3312.42138 -3303.77804 -3297.59723 -3304.72358 -3319.56889 -3327.73617 -3358.45398 -3366.17071 -3382.09915 -3401.44871 -3420.66827 -3434.62387 -3443.04919 -3457.23025 -3464.46099 -3460.88323
-4807.52714 -4800.97508 -4806.53099 -4806.81779 -4809.56373 -4809.38478 -4806.32788 -4810.42305 -4812.90748 -4812.06943 -4808.02455 -4810.13105 -4812.83882 -4805.82251 -4805.65570 -4814.80667 -4810.78435 -4807.04394 -4805.40964 -4806.18033 -4806.72290 -4798.07404 -4784.28450 -4764.82064 -4767.10970 -4781.74845 -4973.59030 -5014.47032 -3286.44877 -1722.44585 -1241.61653 -511.88037 -345.81698 -274.30416 -225.25427 -188.11475 -150.62707 -126.97227 -80.31936 -53.81062 -44.91128 -27.61139 -14.59572 -0.81488 1.06864 20.44810 8.29306 -4.61223 -7.78624 7.76579 -13.21330 -29.27460 -26.76941 -33.78127 -55.53776 -56.07138 -64.27664 -61.11400 -72.27444 -98.92839 -86.15658 -105.47743 -88.34927 -80.07656 -68.92268 -27.92341 -20.09312 8.80689 61.45289 64.11376 136.96848 127.47632 152.94645 243.62165 265.77198 358.95527 455.12394 602.88043 648.52648 429.10399 375.21645 385.14565 395.40799 428.17048 457.68122 461.65463 502.81396 522.67472 546.07406 552.34903 547.52969 473.87448 467.92964 443.94593 363.71312 339.21257 335.60223 278.06682 298.20021 282.53740 238.32600 190.21398 146.95306 107.68804 63.54367 -9.29844 -70.23872 -78.11271 -517.29687 -1416.34076 -3273.87821 -4124.27669 -3825.44563 -3954.31308 -4417.44845 -4666.28323 -4824.83679 -4824.98351 -4815.45059 -4697.11157 -4141.39651 -2723.11833 -2108.60599 -2199.52918 -2587.69749 -3105.21982 -3301.66097 -3312.60870 -3311.87973 -3311.79531 -3305.31517 -3316.72240 -3325.44683 -3345.89854 -3367.57909 -3386.62237 -3400.37289 -3403.27120 -3424.30337 -3443.53436 -3439.35068 -3458.82761 -3456.51471
-4811.00178 -4804.44665 -4812.84667 -4818.34396 -4814.18963 -4816.25256 -4811.19473 -4818.63873 -4826.09597 -4817.25813 -4810.97755 -4819.64499 -4824.45901 -4820.67405 -4814.48860 -4815.93703 -4815.96915 -4818.83211 -4810.29234 -4806.86794 -4804.90053 -4794.28488 -4784.10890 -4765.35485 -4765.13984 -4852.10113 -5018.91630 -5032.94568 -4562.16311 -1357.31530 -1038.09548 -535.53524 -314.33957 -273.16147 -223.07974 -181.34362 -145.53659 -97.79180 -71.91153 -45.34589 -24.31933 -2.95428 34.89210 45.97357 48.71170 95.38203 84.08507 61.89641 41.26444 28.59866 16.77065 8.70809 7.25853 7.42515 -28.34814 -35.55557 -38.18063 -37.42390 -43.88335 -59.77551 -62.97936 -59.84731 -26.45252 -27.26607 -20.06248 4.38788 6.93966 28.55136 107.32532 122.99146 161.60177 196.51630 199.81357 194.72246 215.99729 320.27205 406.29680 546.93443 615.50648 553.35813 436.74410 380.90264 413.56681 469.52282 483.23035 510.30666 517.50461 565.02314 579.89074 574.00532 550.94184 526.07413 488.90612 484.74387 401.32494 364.41068 376.53419 357.17704 318.33826 291.49562 239.30147 209.83167 170.01107 143.61016 87.41515 27.83524 -27.08055 -52.01267 -85.61083 -818.39724 -2173.64470 -4276.68542 -4137.43832 -4192.94890 -4308.08919 -4642.34991 -4818.33341 -4810.78441 -4793.54429 -4704.89897 -4112.97354 -2844.80212 -1935.42080 -1497.45306 -2065.08719 -2640.37394 -3222.66597 -3315.08457 -3319.20746 -3315.66078 -3305.23705 -3300.07322 -3327.41769 -3329.40129 -3354.24852 -3363.87161 -3390.69599 -3394.11506 -3409.21793 -3426.62781 -3444.90256 -3445.00913 -3448.88682
-4818.16740 -4815.05247 -4812.91262 -4823.79056 -4824.20688 -4826.22663 -4825.29364 -4830.91663 -4829.16607 -4821.32717 -4824.68526 -4836.28850 -4826.21764 -4819.80985 -4821.53950 -4824.94338 -4823.77015 -4825.83173 -4816.99702 -4809.52113 -4813.00359 -4803.06742 -4781.16715 -4774.85959 -4792.33521 -4937.30525 -5056.97136 -5032.60669 -2161.38117 -935.37165 -579.34822 -410.23393 -298.26232 -264.37217 -184.27308 -141.37648 -134.19102 -96.32085 -56.83114 -23.94052 5.27413 17.25686 55.12240 72.70594 98.82374 132.83973 208.20483 147.91815 88.74376 67.04102 31.91099 29.95618 24.88206 26.26576 16.29017 6.84687 -1.51920 -2.47043 -2.16122 -18.18972 -21.85606 -18.39230 -1.67960 -8.40445 31.51123 32.60889 24.38250 61.77400 104.13744 130.36083 188.49142 204.42787 228.68992 234.27660 260.42215 293.71336 366.13651 491.23060 551.01938 507.02522 460.04591 463.57989 463.88856 507.74762 557.52650 560.66189 564.63127 597.21340 606.15689 597.49764 569.69109 542.48767 475.00370 456.83901 420.54186 426.57874 407.14754 377.94000 320.24329 271.47655 256.97077 221.45364 152.42680 104.71888 73.05422 25.67959 8.46876 8.62682 -64.71330 -229.20642 -694.35032 -3742.46438 -4299.22587 -4209.73427 -4381.88034 -4575.81830 -4753.19496 -4778.43709 -4769.49628 -4705.52203 -4148.18458 -3365.92652 -1388.55664 -1098.49636 -1522.69409 -2166.26112 -3102.63871 -3285.08297 -3316.73303 -3313.70097 -3315.89740 -3301.04272 -3310.55980 -3329.98486 -3343.21469 -3365.02838 -3376.32815 -3387.24577 -3407.70192 -3415.08109 -3427.75282 -3436.43330 -3434.59528
-4824.57810 -4821.45812 -4828.08542 -4824.26444 -4829.55416 -4832.94983 -4832.08600 -4831.51649 -4837.89920 -4831.25764 -4831.01500 -4834.96163 -4833.22799 -4832.70681 -4830.30776 -4832.83929 -4828.13634 -4825.02546 -4834.63634 -4821.31561 -4819.68107 -4811.34156 -4808.76361 -4841.40800 -4877.21461 -5091.88682 -4871.73381 -3293.94990 -1252.83357 -657.12282 -454.37216 -355.18024 -301.94305 -253.72835 -197.62343 -139.42180 -96.07898 -79.29285 -35.13389 -1.29207 9.92791 41.22709 83.71703 120.04563 174.78695 220.66000 329.15547 228.10048 142.40323 90.79366 78.51791 54.69296 55.94691 38.22120 35.05036 18.31917 32.88424 26.24763 23.22485 6.81543 24.14157 26.92386 27.69768 20.50495 46.23596 76.04172 63.79474 110.89807 125.38641 154.41278 186.78278 221.03474 241.98817 288.20082 300.04389 340.59017 386.70407 388.80666 432.21838 491.88091 516.06140 492.31455 492.70829 514.88101 566.67876 582.29504 608.60230 626.89071 638.35265 615.46025 585.74316 526.50702 494.40965 456.92302 425.81791 441.45549 419.65032 399.96345 347.41871 283.54883 252.36606 217.79845 186.70330 159.34457 148.82195 74.64289 56.22200 8.26870 -41.21345 -130.52239 -799.89026 -3125.14454 -4372.96195 -4325.75836 -4440.59239 -4626.87210 -4735.72414 -4751.89170 -4733.32068 -4681.13700 -4234.23878 -3364.25585 -1270.24787 -1080.01978 -1265.57588 -1903.01907 -2710.69380 -3213.17413 -3288.26576 -3315.97743 -3304.81195 -3295.63596 -3303.10343 -3317.53157 -3338.14915 -3352.79374 -3368.27196 -3382.61104 -3395.44514 -3407.42072 -3417.67725 -3425.69962 -3412.03927
-4842.16864 -4844.76963 -4829.97731 -4836.76752 -4849.04517 -4839.05719 -4842.26940 -4840.71742 -4836.83104 -4837.98614 -4833.95708 -4839.91778 -4839.51026 -4835.00350 -4840.18290 -4839.71619 -4835.95619 -4832.68569 -4831.34659 -4821.80677 -4838.14912 -4843.10359 -4875.77244 -4883.53387 -5065.52978 -4907.70079 -3898.69908 -1873.34194 -996.49695 -560.99214 -396.59724 -345.35459 -277.99087 -246.43943 -173.78555 -143.00799 -119.52383 -59.08826 -26.71207 -16.49922 17.59908 60.73686 94.91151 125.71400 192.68632 248.73066 356.37704 245.90121 159.59979 127.55479 119.41360 79.63266 81.26405 64.80777 58.56229 44.05851 48.24683 31.00611 36.34276 35.39219 49.34075 69.36985 71.36029 72.41590 93.90616 89.05488 109.03631 125.04139 151.70343 168.11513 191.49255 234.10883 274.31376 296.29317 330.58815 373.33218 398.23269 432.78020 463.78153 513.29306 527.87131 520.63438 541.65514 547.69416 567.12237 613.36437 649.92933 659.26555 667.54425 647.32802 600.18285 528.68707 517.71918 511.50224 480.37920 454.59959 399.43203 385.90590 335.43322 297.48134 265.74263 257.15115 230.92779 223.74892 165.93110 108.92652 61.97549 -11.00602 -42.56774 -98.33044 -296.49628 -2825.39804 -4303.90366 -4520.20921 -4439.68869 -4598.03995 -4704.01517 -4707.96134 -4693.12268 -4627.21484 -4428.78142 -3521.25611 -1476.72650 -1025.74557 -1237.32812 -1645.91801 -2219.89424 -3112.78736 -3275.16049 -3298.58930 -3287.66882 -3305.82551 -3302.66109 -3313.69342 -3322.62044 -3347.90971 -3356.77391 -3374.62384 -3385.15534 -3387.49549 -3404.18117 -3406.31719 -3403.93825
-4847.01641 -4846.92106 -4849.30871 -4844.82268 -4841.99022 -4839.60883 -4858.44582 -4849.41731 -4850.74111 -4852.42310 -4852.91941 -4844.59452 -4847.55984 -4849.89907 -4842.29095 -4846.33826 -4839.10913 -4837.19518 -4822.36013 -4843.01833 -4861.34447 -4913.24827 -4601.11630 -4716.32192 -4995.58607 -4751.34839 -3318.39243 -1472.06304 -898.64153 -424.20914 -371.78335 -343.09035 -265.33425 -213.34668 -173.31715 -131.80830 -93.77298 -49.95140 -38.07731 -18.34766 18.97045 56.01626 97.81473 153.54483 190.07546 254.74379 325.58673 244.43057 194.65908 168.59151 125.83451 94.26607 100.32128 66.77677 65.50482 45.82963 55.82096 60.61542 59.87407 71.42304 71.51412 85.00700 106.09958 103.57118 116.94248 127.37261 136.90033 155.84902 171.87857 186.51407 224.73634 235.89403 297.22411 309.80502 343.29827 385.57424 405.60563 460.65332 487.16849 520.55141 551.68292 558.31022 577.42619 571.01365 600.14940 641.64428 674.21648 687.84348 692.35382 668.57834 626.51334 571.61623 570.98830 555.02709 511.69975 477.84704 414.33457 375.12136 346.95832 334.30485 311.82101 288.19119 243.29016 199.09180 141.56161 86.83286 28.99858 -0.64780 -40.23449 -123.96290 -270.63331 -1572.05345 -4231.36788 -4531.47391 -4577.34742 -4617.90401 -4651.99629 -4654.21724 -4643.63032 -4584.34231 -4209.87791 -3227.97000 -1415.98242 -974.61606 -1159.98828 -1545.91827 -2177.44279 -3071.97232 -3290.48989 -3293.21707 -3285.58061 -3291.24772 -3298.66633 -3311.59349 -3319.67714 -3336.01586 -3345.82378 -3362.70942 -3376.03906 -3386.84698 -3397.26540 -3399.40710 -3404.73636
-4850.94204 -4850.25134 -4853.99009 -4857.23193 -4859.27562 -4851.38032 -4858.28589 -4851.44882 -4861.38703 -4858.86873 -4858.19203 -4857.17216 -4852.45386 -4861.81149 -4855.89578 -4852.90895 -4854.59177 -4846.76594 -4848.94592 -4857.16247 -4885.93163 -4972.99249 -4063.12790 -3597.28855 -2854.48132 -3621.93120 -2973.52316 -1167.98736 -511.34712 -412.78277 -337.54161 -306.18992 -251.17503 -183.82667 -156.60328 -115.73584 -72.52332 -33.70839 -34.05334 -11.81547 15.93835 42.78735 85.07239 152.67362 216.61033 275.45363 326.03457 247.61285 202.44193 173.01020 152.48580 122.89508 114.55737 91.68745 88.83819 78.92993 65.66886 81.41236 91.86492 82.23839 96.56313 110.64792 117.16119 145.07435 136.61742 145.39875 161.20745 173.49290 187.51223 203.12090 234.20570 274.51152 285.98846 312.05588 346.01022 384.06710 418.85646 476.37228 497.18071 522.47397 552.55536 571.39845 571.23828 595.37465 643.61128 647.01316 679.55826 719.58502 711.96593 688.87439 677.96826 626.16451 605.25183 581.29804 537.47447 485.69248 460.42204 407.15567 389.78512 368.01541 308.42538 272.98652 223.37804 185.88311 149.96630 113.04597 53.54118 -8.03527 -51.98613 -139.34642 -274.62616 -1368.99258 -3459.58469 -4369.98812 -4472.16702 -4598.84950 -4659.43217 -4637.22597 -4602.78820 -4547.94404 -4120.23668 -3365.42053 -1353.85644 -993.36517 -1314.32456 -1645.68679 -2285.97967 -3043.07012 -3225.13705 -3271.39207 -3279.46511 -3299.41304 -3291.90502 -3298.88475 -3316.41529 -3337.55384 -3339.52251 -3356.15100 -3364.94073 -3367.02919 -3377.65010 -3390.22281 -3388.59502
-4865.57768 -4863.29581 -4865.33280 -4857.83259 -4877.53748 -4855.65683 -4865.87817 -4859.80255 -4863.72283 -4862.45659 -4870.61149 -4870.44286 -4865.89196 -4857.26606 -4863.78284 -4854.31228 -4856.94396 -4854.51192 -4840.34159 -4816.52773 -4777.47115 -4587.65892 -3315.72620 -2124.57826 -2204.10418 -2693.90670 -2348.45450 -1414.07697 -470.92797 -389.27032 -325.51081 -264.63089 -232.01049 -174.18786 -151.48516 -126.53786 -72.13530 -46.81135 -19.61583 13.19235 26.44905 64.08869 118.03444 155.35195 252.66940 333.49628 339.55492 296.75993 258.77144 183.83013 171.14913 143.96038 126.75063 115.82694 106.96768 97.50168 98.02717 84.36334 108.98051 113.18674 107.40680 138.82454 150.67991 162.69134 152.98598 181.94301 195.03873 188.50391 211.65815 236.27645 233.41073 266.35245 287.88893 310.04234 345.87455 390.91688 417.53757 464.96500 477.51846 520.63755 544.35661 567.56680 581.74989 593.79884 624.45227 654.44868 679.29478 721.43377 722.59690 722.51137 698.25297 662.93701 623.95433 587.75565 544.81082 526.26295 483.27411 429.19013 407.66014 365.68123 323.63870 290.08623 248.52076 211.49126 193.87296 121.90844 42.78142 19.10776 -29.69144 -106.76010 -235.63393 -832.97980 -2448.65409 -3355.68782 -4308.59152 -4545.47900 -4561.31868 -4594.07959 -4577.21124 -4526.41613 -4118.45770 -2662.75300 -1522.16689 -806.93856 -972.45769 -1129.64849 -1932.92293 -2552.62201 -3149.30492 -3252.36991 -3263.24340 -3282.85783 -3288.85084 -3294.88963 -3311.82707 -3320.44722 -3338.99992 -3347.41261 -3361.58810 -3357.41080 -3378.43165 -3376.87056 -3379.96209
-4868.83698 -4873.09533 -4868.58325 -4874.62405 -4872.78949 -4882.31755 -4872.73976 -4867.56514 -4876.26052 -4879.01092 -4867.44672 -4871.39418 -4882.14012 -4879.59448 -4866.00479 -4856.94747 -4840.44833 -4801.13467 -4778.84133 -4573.38262 -4363.21671 -3975.15229 -3360.32435 -2011.64610 -1851.04549 -1959.24599 -1871.72896 -1140.50179 -452.05413 -371.07029 -313.13369 -229.03904 -205.67873 -166.91697 -133.15164 -96.57439 -62.79771 -24.28283 -19.49949 4.98203 50.04580 95.34525 135.05310 168.20519 269.88583 324.69960 317.58814 287.38758 240.00556 191.94855 173.15258 146.87596 138.21408 127.50072 117.38834 109.72476 118.89942 115.44817 116.11729 143.67501 155.95552 172.41728 182.19939 179.39160 174.61001 192.30888 196.28137 206.72742 218.50691 247.15818 257.01420 289.53748 298.60111 325.26279 348.35684 393.25981 406.97120 453.33289 473.16099 486.15379 535.66063 558.57768 576.10920 607.42429 635.42622 653.18598 706.71178 732.42397 747.03325 738.04818 707.78415 665.87507 654.14504 609.77617 572.15308 525.18676 486.73643 443.81677 421.73886 368.64093 316.04248 281.24457 248.72317 209.44459 121.01850 80.43128 47.04130 54.85578 -15.85863 -97.60139 -158.04990 -534.28254 -1301.66951 -2548.88920 -4168.19594 -4313.78464 -4467.76845 -4505.42766 -4492.52316 -4439.49891 -4016.61408 -3173.48414 -1386.10388 -563.30193 -555.91387 -826.89320 -1106.11079 -2174.18472 -2789.11453 -3053.40280 -3253.17498 -3261.72444 -3279.00582 -3294.32437 -3305.41288 -3310.41403 -3326.42418 -3330.56290 -3343.26943 -3355.88449 -3362.21440 -3365.93892 -3364.74625
-4875.60968 -4874.52237 -4869.42100 -4878.52152 -4879.72027 -4884.25918 -4889.67729 -4879.87473 -4877.05414 -4885.08546 -4882.37989 -4880.42300 -4885.88987 -4885.04220 -4873.14325 -4836.76807 -4758.93493 -4641.24147 -4383.38498 -3924.34818 -3584.29556 -3363.91082 -2547.63680 -2107.68076 -1777.71232 -1469.32251 -1226.12413 -493.71804 -454.82626 -315.70919 -258.74889 -233.72549 -185.03343 -144.63198 -112.82499 -70.28915 -36.77022 -15.68607 -8.80926 18.36062 98.52094 149.62628 207.30546 240.72093 276.91592 296.53003 284.10335 261.46439 231.70268 197.28385 183.86040 170.91058 143.72195 134.01258 124.86628 133.98417 128.84711 136.40829 138.37334 153.95288 162.32851 192.15001 202.82861 192.35289 188.73629 199.19280 206.92653 227.84904 242.75755 256.04644 262.65728 278.91424 300.52298 321.60846 347.92936 397.93848 418.23902 463.64903 462.83977 485.21990 517.49457 549.10852 586.32233 608.63963 640.90573 671.54022 701.47151 715.95361 747.40738 745.28134 711.93102 666.62645 650.00840 592.23063 534.55626 507.67183 489.83804 459.13614 411.45819 381.66939 293.61884 274.43544 265.68153 214.38384 166.67602 99.75445 81.52196 11.70738 -34.92317 -73.06701 -186.19458 -333.26008 -1168.29411 -3295.02983 -4181.08390 -4255.19580 -4417.61311 -4485.69136 -4424.26294 -4355.29920 -4022.78560 -2806.43963 -1136.97836 -603.03047 -546.76081 -860.26629 -1335.67695 -1805.00397 -2526.16762 -2985.59363 -3238.94639 -3268.62307 -3282.80297 -3281.83871 -3287.02980 -3312.24124 -3318.92923 -3325.79260 -3334.30618 -3339.01151 -3348.59731 -3356.57004 -3361.49313
-4880.70839 -4883.63175 -4891.14505 -4890.37770 -4887.97258 -4893.62221 -4885.96197 -4894.90819 -4888.48902 -4894.89441 -4894.54182 -4888.35476 -4881.42476 -4850.94114 -4812.88302 -4531.08916 -4510.33513 -4172.98840 -3607.63885 -3196.73368 -2936.01678 -2122.15183 -1957.03239 -1808.76302 -1529.26603 -1080.64774 -717.27906 -475.81204 -399.33983 -332.02404 -234.47299 -208.81344 -168.55971 -132.46241 -85.85661 -59.34906 -48.56947 -6.07838 1.44499 46.04075 76.81720 134.16236 202.04294 263.62815 298.94797 290.01092 262.88434 232.36861 216.60599 205.89925 195.18242 169.90935 161.02049 147.97630 140.90078 144.94995 139.74791 148.02514 177.52767 188.53198 176.21518 195.76744 213.57469 217.06447 211.48608 230.04308 237.69727 236.19042 249.06819 255.81820 278.24419 284.07585 301.85361 334.82580 350.84809 371.19429 415.06887 427.61476 466.46107 515.11623 518.97457 564.01605 588.34653 591.43744 644.50653 666.13743 702.65158 737.13876 759.45965 751.08883 741.15233 675.14608 643.67473 582.39119 541.33863 496.62238 470.87912 446.48215 396.40973 377.24256 342.48605 283.54732 252.34168 232.36037 152.36714 117.47068 90.36583 25.65509 -20.69613 -88.47735 -164.48685 -267.50115 -1330.08132 -3465.62983 -4046.22891 -4082.98339 -4212.04490 -4383.92326 -4375.03147 -4246.06987 -4043.66355 -2577.23639 -1163.71307 -617.69944 -853.35965 -1033.27495 -1616.32948 -2130.42633 -2752.27494 -3163.26498 -3228.70105 -3266.57387 -3275.24176 -3285.17125 -3293.31573 -3291.37909 -3303.37277 -3317.46461 -3328.81194 -3335.25613 -3339.89837 -3357.85616 -3350.04251
-4891.12485 -4898.82849 -4896.94796 -4900.70095 -4901.15574 -4908.12163 -4908.47505 -4901.05175 -4908.31227 -4911.52276 -4891.48364 -4864.37308 -4840.21698 -4679.53115 -4519.03290 -4251.51388 -3782.99349 -3461.08502 -3022.78006 -2533.13697 -2173.05362 -2088.88099 -1934.08685 -1585.78562 -1309.37830 -757.93702 -537.77566 -414.75239 -378.93826 -327.78070 -253.78499 -197.02807 -151.07208 -132.65018 -84.49864 -65.70439 -24.07316 -0.91654 14.94706 60.50756 82.61670 148.14336 163.83246 221.83616 268.20583 252.82073 241.24402 224.41502 211.26439 195.90522 190.39624 186.84136 169.43205 160.29985 141.89852 153.18706 152.10088 179.19373 188.27228 203.13352 206.10189 226.10345 230.03073 232.53806 234.99170 228.75230 246.56507 245.21425 263.01157 275.20564 282.46518 300.91494 318.33084 331.71881 361.38222 383.11818 410.67271 435.15907 468.92546 510.45699 514.25123 556.56747 591.72025 606.80718 643.65653 668.88628 701.60862 741.94050 756.13391 757.38089 741.00368 695.28837 652.27464 590.84775 566.71838 512.97102 484.08110 474.78340 415.33684 381.77528 318.61379 295.07594 273.88276 193.20842 172.39202 165.36454 104.02672 49.23143 8.74035 -31.54157 -96.72074 -216.99814 -1570.13447 -3656.63194 -3806.95995 -3956.21816 -4130.25321 -4232.15058 -4244.52990 -4096.45331 -3513.20338 -2130.96914 -1085.77753 -658.82172 -785.24067 -1436.23816 -1804.19519 -2224.13806 -2740.98107 -3086.12304 -3228.04188 -3267.38175 -3279.16138 -3297.52968 -3280.90647 -3296.79222 -3307.34263 -3320.72982 -3324.94503 -3332.94852 -3336.06802 -3345.06067 -3347.34076
-4907.63743 -4914.33057 -4906.37210 -4906.53064 -4913.76261 -4904.83788 -4912.34864 -4924.43210 -4922.32212 -4911.78237 -4901.33800 -4828.83596 -4617.89646 -4569.33415 -4215.07467 -3737.95954 -3466.49335 -3101.90198 -2559.65425 -2313.71763 -2067.42579 -1987.68423 -1857.89473 -1844.31321 -1396.90853 -751.10630 -548.82375 -402.82202 -356.18891 -290.90565 -234.15923 -176.26930 -147.09275 -106.42638 -84.19909 -45.54548 -14.46810 -1.70197 25.49525 101.50920 139.63753 177.98596 217.08905 246.81553 261.20411 246.91551 234.65276 219.06165 205.63739 196.07500 192.87338 183.32762 169.66311 162.69620 166.50001 176.95973 179.70719 172.18120 195.79277 218.71291 237.22910 249.49921 241.88136 243.10805 243.00341 251.93845 247.49224 257.88378 262.32787 279.52786 292.75801 297.25496 320.94096 356.49623 367.98096 391.76800 409.56126 439.24456 469.55243 486.75668 514.38340 557.35639 576.01182 604.77644 636.72590 673.66074 702.04158 732.29361 746.00403 755.75427 733.77537 686.11262 645.37318 596.24911 565.14154 504.20860 479.56500 467.29473 435.54289 374.09375 331.52582 305.81468 285.83762 221.30776 175.59811 130.69257 110.95214 68.57727 33.27877 -10.36328 -97.15090 -451.28329 -1986.57319 -3422.57320 -3720.41604 -3919.68721 -4073.04547 -4087.44274 -4163.31807 -3986.93210 -3378.48043 -1523.96047 -694.71823 -586.36285 -938.19322 -1626.56786 -2048.61543 -2625.22649 -2982.09248 -3174.53051 -3236.78147 -3264.93188 -3275.69622 -3270.88125 -3279.97290 -3294.49119 -3300.72339 -3300.72641 -3311.69048 -3327.49695 -3333.33202 -3336.97258 -3324.51515
-4931.48691 -4923.55398 -4922.17373 -4927.03842 -4928.78225 -4930.83845 -4926.34831 -4944.46832 -4955.13152 -4950.05548 -4905.48673 -4798.46217 -4484.01499 -4137.33468 -3661.96723 -3520.30969 -3297.40883 -3106.51480 -2594.61286 -2292.57151 -2096.64691 -1942.09135 -1907.60562 -1893.15846 -1406.89306 -643.66528 -531.42521 -416.07054 -342.02363 -289.17187 -220.89656 -165.46654 -143.97583 -108.01570 -63.35462 -36.78192 -9.42498 26.21141 90.20376 135.50848 169.36891 225.43583 260.68242 266.45792 256.96430 222.13124 228.74525 204.18833 192.82218 178.68067 177.11736 179.74306 177.72775 177.65171 180.34510 184.19940 189.40099 190.90496 226.27442 232.04457 250.13614 255.26650 258.65008 262.84007 265.88891 252.84743 258.18003 272.10084 279.14595 293.40303 295.15132 305.29617 319.15173 345.56784 362.65741 391.40060 401.10182 434.14850 474.36434 483.90480 512.66973 558.68169 568.80405 607.48272 638.75530 675.60407 695.15104 720.79998 738.50683 746.25669 714.15736 688.12662 664.75685 616.02426 570.39152 513.11353 490.43194 462.59620 441.39042 367.84904 332.29797 303.28195 286.68908 215.37544 184.03084 108.46573 78.08742 29.37225 -1.57125 -26.18728 -63.96088 -122.29185 -1974.64820 -3067.03196 -3715.65447 -3966.93759 -4054.22558 -4065.87149 -3994.53429 -3875.34434 -2518.05669 -864.21643 -510.76605 -561.15108 -1075.78918 -1703.78670 -2419.66504 -2824.70648 -3024.99362 -3208.30249 -3245.25247 -3251.37026 -3269.83140 -3272.01233 -3277.76744 -3294.29282 -3294.79372 -3301.65906 -3309.20827 -3312.59415 -3322.89134 -3322.73336 -3333.79674
-4950.04618 -4938.59385 -4945.15746 -4945.60480 -4943.81380 -4949.84971 -5004.73067 -5014.76398 -5034.20069 -5040.72444 -4971.63487 -4859.40670 -4539.21048 -4248.06457 -3823.46444 -3704.18339 -3554.00942 -3246.64440 -2673.18303 -2324.85691 -2093.43444 -1975.36308 -1874.41411 -1642.06666 -1299.49013 -552.74880 -493.93168 -409.59348 -320.32540 -282.33311 -230.55844 -168.93055 -158.15672 -101.77925 -77.79615 -35.28316 -6.89034 42.29952 84.45614 142.56357 230.74991 274.41477 287.95969 252.55113 221.85614 202.94995 203.44319 187.60439 188.75018 179.99237 167.44034 173.62787 175.15312 179.28238 180.74662 189.86794 200.11358 221.24340 234.46096 243.21245 259.58779 267.66993 272.63546 271.92197 273.08949 275.49654 279.58481 278.29731 290.63082 296.28242 308.81141 314.16998 332.96428 349.59303 371.67362 390.19888 408.99297 418.47903 458.52669 488.23488 505.58629 540.22584 567.27630 606.48711 627.18909 662.70051 695.93512 714.18784 734.98740 743.03440 733.31093 693.25697 655.40003 617.32253 583.66853 546.43667 502.20323 473.03216 420.26520 389.90520 374.12101 302.40702 262.34440 198.54249 173.75934 85.08267 68.92385 32.85636 -3.75491 -58.29199 -105.34651 -150.79025 -1702.27208 -2804.86275 -3578.17638 -3889.77899 -4011.40327 -4005.21074 -3931.87699 -3504.02386 -1817.83423 -432.12411 -282.10768 -598.24087 -1240.88043 -1731.21270 -2297.38604 -2835.43601 -3147.34917 -3230.15201 -3249.01364 -3250.74047 -3262.86568 -3270.78064 -3283.45972 -3288.02085 -3288.52565 -3293.35704 -3305.13462 -3315.92426 -3316.58117 -3323.17827 -3325.80427
-5005.33958 -5001.24131 -5026.22592 -5020.13185 -5021.18725 -5053.38802 -5093.37231 -5118.69654 -5148.05581 -5149.69499 -5051.27646 -4884.40020 -4690.84547 -4380.26854 -4196.85497 -4169.07636 -4041.45038 -3724.85287 -2855.80643 -2159.49652 -1965.94898 -1843.27976 -1832.15642 -1643.96480 -935.52315 -547.40771 -497.23954 -420.84881 -317.33038 -289.27206 -227.54164 -179.78418 -145.00986 -108.92475 -55.19515 -0.05351 43.18916 63.99812 122.81176 151.84627 226.15084 218.95446 235.17364 227.28840 202.09626 181.01878 174.78799 167.36259 169.60827 180.12812 178.61040 167.47923 179.92480 174.25629 192.87272 208.19919 229.53947 245.69649 269.72185 280.98537 297.11483 295.57996 289.39899 288.79371 295.64230 285.49032 288.95045 286.23836 299.64299 306.05596 315.02507 319.06570 331.35645 347.86827 374.39190 383.57627 401.68813 430.48563 457.67066 481.22018 514.52698 546.92405 572.31319 588.63541 637.24160 653.91032 691.04724 705.72011 718.34234 729.44634 715.97319 680.95825 658.89576 607.56538 567.22521 525.44293 500.84818 475.33567 427.75223 394.15445 323.27542 260.86046 227.11111 204.24276 176.81192 110.88220 62.29611 37.76450 -7.44930 -76.65864 -128.01087 -230.94832 -1121.14234 -2406.56267 -3808.26529 -4018.80394 -3995.86383 -3906.79977 -3595.66812 -2414.15609 -472.09820 -258.99106 -381.63737 -637.93449 -1780.66820 -2146.15771 -2493.33944 -2917.77187 -3111.34271 -3214.89535 -3239.72715 -3242.89381 -3259.55820 -3272.90676 -3272.12267 -3282.28344 -3285.24657 -3293.98988 -3302.23242 -3306.45009 -3316.11305 -3324.27768 -3307.56472
