-5029.52486 -5029.42486 -5013.94753 -4939.75147 -4937.83723 -4865.97811 -4845.31231 -4850.33486 -4854.40749 -4897.73281 -4931.19833 -4942.78712 -4940.06362 -4952.82127 -4947.43482 -4933.37363 -4859.01779 -4610.75124 -4133.84109 -2818.60986 -1793.06635 -1235.48914 -1111.80536 -860.62912 -659.99535 -541.37656 -435.28808 -392.89174 -367.87459 -306.07058 -259.39264 -207.97759 -152.96860 -124.04230 -52.45821 -4.88232 37.34221 92.64623 83.12499 102.55185 94.83640 115.02153 111.31110 107.25911 108.96667 110.51044 116.41831 121.43757 125.83536 124.93863 138.46492 148.26180 150.16419 161.61438 174.50682 192.80530 204.48915 235.34849 274.65612 318.24697 348.38906 363.59309 339.53920 327.75788 328.95191 328.52456 321.40686 319.27773 318.51754 319.29067 321.98133 329.66494 346.01913 362.50373 372.76369 393.39143 405.30543 425.94344 451.64289 469.36951 496.64537 530.12474 569.77467 586.45055 616.18853 638.88237 646.93191 660.14091 665.87826 659.97276 650.25089 650.05025 619.40451 591.99926 559.17218 545.17136 507.52006 445.02522 406.74417 364.30512 315.37321 260.76784 216.38965 178.30035 119.87646 82.84191 41.08349 -8.36938 -75.38103 -164.93862 -230.91108 -796.03039 -1152.85404 -2541.10892 -4049.82436 -4351.14243 -4082.15795 -3445.03142 -1984.59790 -210.31264 -93.78385 -103.66711 -308.96982 -932.84274 -1483.94440 -2141.15988 -2399.00720 -2778.62486 -3083.62333 -3224.36805 -3239.86544 -3246.34517 -3251.91908 -3255.91521 -3263.20044 -3270.94518 -3277.51529 -3283.97812 -3291.25970 -3298.67360 -3305.40012 -3311.34103 -3311.44103
-4837.98546 -4837.88546 -4877.39401 -4880.31651 -4872.96147 -4890.63974 -4877.89735 -4905.35172 -4938.70299 -4967.89398 -4965.52456 -4973.16165 -4970.23592 -4967.05851 -4962.09368 -4959.98300 -4940.41130 -4806.62128 -4521.03350 -3368.48354 -1962.92967 -1070.38906 -988.08115 -838.61355 -651.38563 -544.46403 -443.09326 -397.17962 -370.08313 -341.54058 -280.12896 -238.58569 -155.65108 -135.49791 -81.60031 -38.40214 1.89623 43.01680 43.80385 48.67517 52.24980 83.87191 75.52791 80.36425 88.52963 90.17208 95.42743 107.16583 111.98239 120.08509 128.71929 140.11402 144.81753 150.23570 162.37260 187.95872 202.21402 228.62472 239.62858 311.71973 356.81321 371.65512 355.71175 347.64351 341.99247 338.32203 334.84696 332.65053 328.10242 325.30686 329.22088 334.78593 344.85512 359.12689 372.00942 387.99157 410.16391 420.65014 444.18184 461.31202 504.18345 529.58679 555.18564 579.33998 598.75548 624.67381 637.95775 638.22093 643.84300 644.32462 633.48474 613.92636 597.05327 557.70853 536.93156 522.15220 490.53451 429.23613 396.51786 349.56697 305.18696 282.94099 240.69611 182.39453 133.21519 80.02925 43.33873 -25.23990 -87.00274 -146.35889 -203.25847 -448.04619 -1603.41665 -2801.60307 -4198.07456 -4791.91425 -4363.85378 -3093.38246 -1301.83545 -117.12895 -82.51017 -85.55804 -116.36920 -699.24757 -1301.15653 -1873.69565 -2515.37440 -2822.88744 -3138.36769 -3224.23281 -3239.38387 -3243.31521 -3249.23623 -3255.26417 -3263.56285 -3269.74806 -3276.61240 -3283.07874 -3291.40838 -3296.59158 -3303.69046 -3310.86447 -3310.96447
-4932.99212 -4932.89212 -4932.21200 -4928.99441 -4948.65132 -4963.29144 -4963.99149 -4982.64344 -4981.84170 -4982.56670 -4983.53867 -4985.38312 -4984.76194 -4979.06144 -4980.89765 -4977.45580 -4966.28121 -4913.17751 -4658.77938 -3812.27802 -2753.12186 -1421.74798 -1003.88006 -867.85077 -655.03656 -566.57895 -489.40237 -404.83662 -388.73488 -342.41722 -306.89977 -251.98575 -190.51669 -155.39456 -97.94144 -83.74816 -34.44318 -28.09144 -13.90059 8.43169 33.22038 39.00594 37.43764 49.50624 56.86900 60.60954 69.89954 90.17595 99.43905 104.72989 118.53080 127.75477 133.06985 135.99476 152.02899 174.76335 191.88998 217.44280 245.75671 280.15093 351.09459 378.90176 392.59609 375.50875 366.69915 356.29698 345.89647 344.63393 336.46400 333.48205 333.90268 337.00978 340.31938 356.88027 368.04910 382.00062 412.28573 428.30455 453.12454 463.72046 503.14303 520.28729 544.29350 568.28923 583.93384 606.52782 626.34379 624.98862 627.74346 624.12857 611.14892 593.64506 579.68364 549.29893 515.71864 467.27128 436.53385 420.51916 370.30321 332.11491 280.44751 248.95472 218.24758 166.40642 125.39032 93.95196 36.90161 -17.93320 -91.44426 -127.88221 -215.12258 -1275.74964 -2520.61236 -4158.67195 -4898.08555 -4833.30823 -4303.09983 -2440.50826 -420.61650 -168.50556 -82.86329 -98.01605 -212.72099 -783.26900 -1680.00798 -2072.36112 -2587.00060 -3001.73249 -3161.92747 -3225.51243 -3238.13221 -3241.97769 -3248.07161 -3255.47268 -3261.33752 -3268.27960 -3276.97689 -3280.99128 -3291.43241 -3296.94834 -3302.81315 -3310.98034 -3311.08034
-4990.62819 -4990.52819 -4989.04538 -4987.94886 -4992.22276 -4997.01752 -4995.77551 -4993.75211 -4996.67090 -4996.70491 -4995.07216 -4994.95135 -4996.97703 -4994.89057 -4990.28726 -4986.89485 -4965.94036 -4925.35061 -4641.30723 -4300.09623 -2752.98576 -1415.24329 -990.70637 -846.41987 -634.91427 -611.46256 -534.98217 -444.21589 -402.44532 -367.74751 -323.99910 -268.70685 -201.40258 -186.48533 -150.93954 -112.81210 -83.30348 -50.83853 -40.13665 -18.98923 -5.62553 -5.19575 7.52312 28.05201 32.16570 44.14030 58.08538 68.78719 82.69409 96.38876 98.03364 109.35146 113.44150 133.10269 142.79507 167.07896 186.77470 210.14064 238.06182 262.28841 304.97133 348.17697 393.86309 408.06146 384.55615 371.26932 364.69508 352.92896 341.72213 341.99440 339.33715 339.59164 341.89369 358.17267 367.16602 380.66760 412.04386 424.89696 447.51890 466.05196 488.53441 510.49832 537.87592 557.90911 584.34978 596.47416 604.84572 613.31509 604.53074 608.03179 586.12421 567.94388 553.24499 527.83608 500.39193 446.82116 401.26259 374.68044 341.89829 304.63964 267.06694 228.40469 175.25928 117.08665 104.45672 75.13915 41.57867 -7.33534 -71.27224 -135.25522 -253.14375 -1656.67967 -3269.03602 -4339.43311 -4937.15839 -4868.54114 -3893.56777 -1867.08440 -711.18494 -115.25887 -85.20743 -179.40759 -409.32323 -1010.21227 -1685.88304 -2317.59150 -2794.37984 -3070.26144 -3217.60028 -3226.73732 -3230.92979 -3240.71729 -3247.56196 -3255.02456 -3262.32968 -3268.13778 -3275.61393 -3282.07315 -3290.12616 -3296.54001 -3302.53644 -3311.50452 -3311.60452
-5000.57338 -5000.47338 -5001.95266 -5005.58968 -5005.17102 -5005.48974 -5005.39104 -5006.13738 -5007.73027 -5007.86786 -5008.00611 -5006.28209 -5006.48883 -5005.44848 -4999.15510 -4995.99519 -4974.11502 -4821.36479 -4586.21102 -3721.59351 -2274.88405 -1137.93758 -1010.19763 -867.82825 -749.80698 -694.83543 -540.24980 -488.54509 -426.68421 -395.02579 -360.77972 -286.67428 -226.77584 -197.91518 -165.05624 -132.62602 -115.97459 -83.44632 -54.37725 -42.45867 -28.67183 -29.72338 -4.51581 14.16813 16.89685 19.52755 41.25459 55.93049 60.00467 75.19977 94.28573 99.11656 108.76740 124.31863 142.50983 166.05927 181.32142 205.56230 236.49009 261.23722 302.66087 359.14824 396.24646 437.68556 415.22615 414.27151 396.62943 379.25637 354.63917 348.71591 342.63988 338.98596 341.92151 353.35953 367.96376 374.79749 394.97572 413.77178 430.37294 462.35968 484.45217 502.41119 537.41683 552.26992 565.37884 577.74906 584.07344 588.08667 593.29128 586.28262 560.74014 552.82058 538.01964 512.35645 471.88577 438.17609 396.81011 355.01103 310.38685 287.20036 243.41334 209.30569 157.87931 99.94017 71.82344 36.90796 11.07479 -37.54174 -84.50080 -154.93143 -296.83275 -1086.86865 -3627.75889 -4799.82315 -4931.87913 -4794.98636 -3594.33157 -2316.61270 -429.25639 -102.55940 -94.82569 -193.03180 -697.54387 -1516.58350 -2097.42131 -2431.60536 -2924.60970 -3164.04929 -3202.03091 -3222.20927 -3226.37287 -3239.15519 -3245.68645 -3257.00197 -3261.57675 -3266.89042 -3277.01161 -3283.09240 -3290.31918 -3297.67623 -3303.07288 -3312.29673 -3312.39673
-5014.99779 -5014.89779 -5016.48186 -5016.47491 -5019.65574 -5017.58168 -5016.34619 -5018.40412 -5014.19428 -5013.72945 -5015.84590 -5019.12267 -5015.83950 -5012.87902 -5007.57082 -4996.87741 -4970.44248 -4694.97610 -4328.95885 -3349.43030 -1604.75997 -1148.18178 -1008.66719 -959.32856 -880.01221 -711.35483 -590.76420 -546.30621 -453.40465 -428.43101 -349.04665 -302.19117 -273.02777 -219.09844 -187.87087 -149.07147 -133.69206 -108.64534 -91.71588 -65.70776 -59.96835 -37.89475 -33.51878 -15.25060 -6.23998 10.75046 23.50325 44.04390 46.80330 66.87314 75.80444 84.66715 106.43407 122.90371 145.30909 160.57675 173.57042 202.90020 222.11498 264.01965 291.77402 360.39166 391.65403 443.23509 439.72812 444.95948 429.47087 408.48619 373.85642 358.09834 347.30447 339.31271 340.54466 349.06767 366.47583 376.46389 386.21297 405.35167 424.10619 450.81283 472.58174 488.15361 518.38908 541.82306 555.21963 567.44115 570.53708 575.51825 565.88222 554.47708 544.90275 519.22931 490.18829 463.00496 447.49437 411.22453 375.01627 337.36842 286.98821 269.27586 245.86419 200.15245 137.36541 107.18898 52.09600 18.22210 -1.52765 -52.40278 -98.50530 -145.85356 -247.14928 -958.35242 -2920.80183 -4674.80960 -4854.09010 -4713.49041 -4002.43639 -2726.80657 -455.53363 -106.64833 -102.70257 -250.78676 -627.24121 -1345.30111 -2198.94791 -2550.77486 -3101.05809 -3205.04542 -3212.15615 -3223.38040 -3234.68824 -3239.39372 -3247.47567 -3254.57530 -3260.05125 -3270.31879 -3275.54061 -3282.31498 -3291.25723 -3298.01096 -3303.62793 -3313.15050 -3313.25050
-5027.88293 -5027.78293 -5027.81540 -5028.60885 -5029.79609 -5030.77243 -5031.67485 -5027.87026 -5032.62760 -5029.98914 -5025.38442 -5025.57658 -5021.61375 -5020.91220 -5018.07240 -4995.39564 -4916.99065 -4669.95454 -3746.86710 -2802.58348 -1615.04773 -1158.41169 -1053.11043 -1005.83865 -960.73370 -840.72315 -733.25651 -586.87866 -489.56980 -467.41192 -391.53737 -364.18838 -313.46708 -275.58973 -205.12620 -180.84389 -150.36500 -131.78209 -111.57129 -89.98243 -83.62222 -59.85756 -40.64139 -34.34009 -29.38536 -3.72275 7.20261 16.39109 36.04528 49.69873 65.74281 76.23574 108.90169 113.42725 137.80927 154.08661 165.45456 190.70483 222.51368 252.01856 278.15482 333.77099 364.15622 402.19144 424.09892 422.31018 426.28513 426.78468 391.74308 372.42614 349.57539 338.48898 336.71122 347.48935 352.63122 366.15057 383.88472 398.67204 418.38214 437.47057 463.70263 487.53862 504.81014 524.72857 545.68005 555.00880 560.33837 563.74843 542.09449 521.87911 515.37827 493.16422 466.52622 441.51355 395.05276 386.28248 361.15514 302.24570 283.24366 257.59336 215.98082 177.16039 146.57626 108.13829 46.93220 -2.80815 -21.84291 -50.38755 -98.86424 -194.67107 -354.82195 -1096.21274 -2453.18626 -3995.33116 -4918.13920 -4771.34928 -4325.47623 -2757.05705 -1284.38885 -289.76456 -155.52377 -280.89237 -770.35428 -1735.61068 -2415.66626 -2964.28956 -3203.95018 -3214.78036 -3215.37820 -3226.93546 -3235.52574 -3243.87954 -3249.07652 -3254.39816 -3262.48558 -3270.64423 -3275.61283 -3283.01700 -3290.42999 -3297.18922 -3303.92729 -3314.21935 -3314.31935
-5037.87316 -5037.77316 -5037.34760 -5039.09444 -5038.16020 -5038.37690 -5037.73639 -5037.03739 -5036.66541 -5035.31155 -5034.79961 -5032.00737 -5030.40915 -5028.35857 -5024.13696 -5001.16738 -4887.68842 -4469.04045 -3517.20266 -2743.73105 -1615.20103 -1248.52591 -1152.25761 -1033.68771 -969.59115 -846.46400 -799.10220 -740.98483 -570.16674 -479.19420 -439.87834 -385.18944 -345.48578 -299.33177 -243.15959 -191.39888 -184.91206 -161.60979 -127.57021 -113.69848 -102.22116 -84.06169 -56.75261 -38.44828 -40.02864 -25.94825 -2.43217 13.68921 28.36738 37.29895 53.77350 63.62772 90.50569 114.30340 133.03562 144.81104 169.36397 191.78046 205.98646 238.50925 273.38635 297.66920 350.89873 376.72401 380.75055 381.66186 387.45071 382.39752 383.66716 350.94750 332.60866 327.17347 332.68746 341.34118 347.20238 354.19316 374.61578 391.37758 410.19067 426.36926 443.06213 483.40732 494.43586 513.02278 528.90465 533.11884 532.06781 530.01250 515.11873 509.21106 491.37082 468.74492 446.52628 424.15621 361.47918 348.48704 332.25709 273.45317 259.27677 224.97181 182.18523 134.79390 136.60054 82.41908 46.80749 -15.91202 -66.78504 -99.87922 -150.98988 -201.26832 -578.68360 -1105.13231 -2588.57415 -4489.39889 -4968.16909 -4844.76019 -4685.90219 -3949.97575 -1704.72944 -1009.06757 -426.40315 -250.10004 -1168.89214 -1762.08899 -2500.81199 -3032.05321 -3202.86172 -3221.30661 -3225.61913 -3232.53785 -3239.26443 -3242.26980 -3251.93706 -3257.56475 -3264.29074 -3269.91559 -3275.78322 -3283.62031 -3291.37603 -3297.85584 -3305.15143 -3315.23942 -3315.33942
-5046.36657 -5046.26657 -5046.26974 -5045.70789 -5046.75328 -5045.56686 -5047.27118 -5045.78111 -5044.99430 -5044.42143 -5040.99623 -5041.64475 -5037.73467 -5036.02412 -5034.09997 -5007.77865 -4859.02141 -4546.52949 -3475.55187 -2936.44798 -1837.67502 -1414.32478 -1206.53176 -1083.20639 -958.73820 -900.05677 -845.88496 -810.31853 -736.11541 -626.50843 -524.72758 -457.83608 -326.83688 -289.91463 -253.06029 -233.03307 -209.44950 -185.19113 -159.90093 -129.45155 -112.80346 -107.25641 -96.47341 -68.81479 -50.12515 -32.98310 -16.57889 6.95918 16.06879 31.13346 48.46087 64.73238 82.66608 106.57097 124.56110 144.16326 161.26771 186.98578 201.78255 221.12909 257.24482 277.60895 311.27618 355.71828 350.77827 340.86985 358.04961 364.41222 348.57160 332.52612 322.13428 321.05952 323.60327 326.35690 336.90739 349.35479 360.96743 378.97701 402.24755 422.23651 438.39721 463.24322 488.86139 502.08774 517.13791 519.82447 516.57339 506.75514 494.34898 486.72923 459.40761 424.01060 405.46576 383.36337 345.67594 331.29645 314.68052 288.34849 237.16118 186.45406 143.29269 123.66751 76.54289 44.52528 2.99093 -29.04909 -69.02717 -136.97331 -180.78305 -379.71598 -735.68827 -2016.87417 -3653.57258 -4895.71775 -4933.20299 -4887.40078 -4813.44614 -4382.44237 -3812.44542 -2032.65282 -1097.89848 -631.91076 -1253.76117 -2408.78577 -2846.56942 -3175.35020 -3206.98985 -3220.32041 -3229.28452 -3235.00853 -3240.58908 -3244.32711 -3252.91641 -3257.74257 -3265.59384 -3271.09437 -3277.82137 -3284.69470 -3291.29736 -3297.04439 -3306.28654 -3316.22665 -3316.32665
-5054.35760 -5054.25760 -5054.81024 -5053.28324 -5056.05034 -5054.38434 -5053.71130 -5052.95860 -5050.40977 -5050.36430 -5049.99950 -5048.68560 -5046.10017 -5044.27844 -5041.57691 -5027.10835 -4934.63618 -4815.87872 -4293.81419 -3385.31281 -2218.38592 -1633.65171 -1351.08612 -1086.36394 -988.66045 -923.77101 -881.40658 -865.54411 -804.89163 -701.00647 -562.04128 -481.96715 -380.15817 -307.45923 -298.77879 -270.86017 -237.97654 -205.54943 -177.17430 -143.58837 -132.62950 -118.30104 -98.07604 -86.80955 -59.73289 -46.19878 -27.96621 -13.52414 6.19314 17.19368 41.85086 54.89699 74.46987 101.36788 122.91667 141.31183 166.33502 184.66476 193.97052 225.24989 256.52750 268.84072 293.16743 321.79956 320.32184 316.81723 323.23857 320.11669 319.97985 311.53427 308.54648 310.58913 314.08753 317.02463 331.56593 341.83332 353.64288 374.00112 393.35908 406.22093 433.80290 456.92998 470.42420 482.90425 498.74703 504.54140 506.72444 484.73737 475.16049 459.83191 435.94904 391.37320 362.47050 355.24932 334.94755 298.91171 258.03436 250.67716 225.76048 177.97398 125.70660 116.16797 89.25203 43.44435 -21.20379 -52.45814 -110.74812 -166.27981 -301.75011 -545.80338 -1180.08093 -1964.73318 -4056.18063 -4706.91950 -4861.78952 -4874.70162 -4883.77354 -4862.93785 -4552.37173 -3743.17209 -2125.75058 -1366.36844 -1720.52661 -2685.16410 -3140.04820 -3187.69916 -3207.51310 -3220.77428 -3230.74006 -3236.88023 -3241.93657 -3248.42510 -3253.54118 -3259.84920 -3266.73756 -3270.31607 -3277.69635 -3283.97892 -3291.50102 -3298.49964 -3307.86518 -3317.01859 -3317.11859
-5062.20663 -5062.10663 -5062.77708 -5062.25379 -5061.83094 -5060.66834 -5060.21351 -5059.29407 -5062.59420 -5056.71605 -5055.39936 -5054.78031 -5053.54661 -5052.19795 -5047.92340 -5045.44191 -5003.65649 -4907.20161 -4602.27208 -4223.20356 -3246.67495 -2679.65616 -2058.63491 -1132.91583 -1055.04694 -968.60537 -894.34752 -888.93334 -886.43796 -827.69164 -687.76557 -545.35911 -431.20796 -354.90810 -332.85020 -324.40380 -275.62089 -230.82187 -197.65702 -165.33641 -149.68403 -134.81394 -115.94720 -97.29751 -71.05127 -58.97403 -42.96885 -18.46480 -3.52989 19.98522 32.05076 45.16500 78.24971 92.47092 114.13373 143.88630 161.44682 182.23804 209.66781 237.00942 260.02302 263.39360 267.11165 280.44797 290.32933 294.07965 293.49945 301.53026 297.00561 298.50002 298.26633 297.20704 302.39282 306.67274 315.98186 329.00682 345.59722 361.60324 386.56756 398.93744 417.86958 439.79745 458.56873 473.46015 483.23394 487.26038 487.95637 479.18204 455.81824 428.74078 411.74835 386.32010 328.42083 320.04952 292.71259 276.71416 234.14711 234.74523 204.80426 172.38153 89.92940 57.58991 45.79328 16.80795 -32.78448 -56.53666 -108.30661 -170.41786 -451.83255 -645.81849 -1175.74158 -1927.61342 -3949.35060 -4614.57257 -4798.49905 -4867.57145 -4927.76832 -4973.98669 -4815.42591 -4018.39275 -2828.79156 -2359.30329 -2156.07323 -2866.58050 -3156.85169 -3196.50850 -3208.73387 -3222.87898 -3232.10717 -3238.19051 -3244.06920 -3251.59743 -3256.10630 -3260.96822 -3266.40832 -3270.80074 -3276.45944 -3284.02838 -3292.67960 -3298.55159 -3308.31612 -3317.97628 -3318.07628
-5069.91576 -5069.81576 -5069.99990 -5070.28969 -5070.75046 -5069.32296 -5068.97173 -5067.29785 -5067.11530 -5065.42317 -5063.23768 -5063.59552 -5058.02209 -5057.72923 -5056.49855 -5052.26197 -5035.26530 -5006.45170 -4951.98774 -4733.48275 -4069.60125 -3191.25404 -2362.32787 -1603.64729 -1226.08605 -1016.60211 -980.73611 -964.34496 -920.84971 -891.29620 -804.23730 -601.11031 -567.30625 -431.79631 -367.86664 -339.97907 -306.12823 -253.53062 -212.63004 -186.49088 -174.89729 -149.36071 -131.39362 -110.04893 -86.39367 -69.98460 -58.84641 -20.60803 -9.58109 2.67086 22.95588 34.51389 74.20405 86.60463 110.10457 151.99044 172.12658 198.55594 235.84832 238.50550 251.80116 250.37522 252.25695 258.33801 261.95695 263.58406 267.09974 279.86130 277.97252 274.84898 281.24271 288.91276 292.16242 300.10900 307.12556 323.72123 341.97171 357.83293 373.55944 391.82571 413.35320 432.10881 440.03692 457.67242 468.85769 475.85682 479.69466 465.97548 430.47869 411.45023 353.97786 347.95286 290.19156 283.75827 264.30592 243.11008 208.93696 183.89058 165.10392 150.21282 105.15443 62.48837 30.61742 -18.94225 -38.03314 -78.88848 -158.80556 -221.82380 -528.88399 -818.13011 -1490.76967 -2707.12673 -4430.74949 -4574.80632 -4782.69993 -4861.72732 -4955.09155 -5001.40457 -4949.51534 -4621.19419 -3656.93116 -2678.01887 -2944.28801 -3152.99213 -3179.63205 -3194.58466 -3211.30419 -3221.22788 -3233.98247 -3240.33326 -3245.66238 -3253.38448 -3257.92461 -3262.39020 -3267.64798 -3271.26284 -3277.29369 -3283.88049 -3291.02746 -3298.93316 -3306.60645 -3318.96884 -3319.06884
-5077.49017 -5077.39017 -5077.51406 -5077.12280 -5076.24960 -5075.27517 -5075.91399 -5075.29201 -5073.42948 -5073.05207 -5072.24833 -5068.86653 -5067.94151 -5066.45667 -5064.38615 -5059.60761 -5051.62151 -5040.20962 -4984.66401 -4768.45333 -4569.98061 -3810.86238 -2775.95867 -1867.68254 -1193.68367 -1094.61461 -1045.46370 -1044.97192 -1041.46588 -962.70133 -837.55931 -689.88857 -665.40558 -532.72318 -418.83130 -368.36757 -325.69542 -268.68682 -259.62002 -204.76606 -184.92325 -174.32262 -160.34531 -134.21185 -102.34547 -80.38794 -73.65071 -33.61617 -21.54726 -1.30644 16.50314 26.78319 73.83241 88.41101 110.95487 158.37553 182.94712 220.07240 256.75707 270.05379 248.99162 232.23968 236.59089 243.24381 245.14428 248.69652 260.53099 265.74058 267.52049 266.22590 265.95891 272.91705 278.65681 291.02127 294.43576 311.80514 333.70578 346.12678 357.60889 374.04867 396.31962 409.04009 432.06449 433.54539 450.39781 452.12084 458.27650 444.07054 428.75120 429.09980 407.22644 344.28175 260.57096 250.24320 240.31511 215.99426 168.24760 144.76756 113.30737 89.54845 61.12991 38.74796 2.19036 -53.99630 -61.18081 -131.91574 -190.33013 -319.73421 -733.40819 -915.37507 -1448.88831 -3098.94831 -4476.16488 -4740.88660 -4815.51399 -4869.53592 -4969.93944 -5014.46360 -4962.85843 -4647.51872 -3753.27609 -3441.81213 -3265.18738 -3230.37123 -3198.97734 -3195.36451 -3212.46075 -3221.31027 -3231.93533 -3242.29410 -3248.76321 -3254.65179 -3257.96840 -3262.49594 -3267.10152 -3273.31609 -3277.97369 -3286.64481 -3289.49319 -3298.99457 -3307.92663 -3319.79119 -3319.89119
-5084.91181 -5084.81181 -5084.35827 -5085.59569 -5085.87809 -5084.19727 -5082.71342 -5082.50870 -5081.32176 -5079.86630 -5077.21197 -5077.47056 -5075.29560 -5071.69952 -5069.73843 -5067.76778 -5066.08572 -5061.29991 -5048.47223 -4970.59659 -4834.74477 -4070.90373 -2948.19599 -2015.37459 -1392.07499 -1227.71486 -1185.19756 -1148.93466 -1128.87739 -1035.64891 -965.37625 -850.72333 -755.77612 -670.45724 -519.72041 -436.56211 -350.76543 -325.34399 -280.03900 -236.61589 -214.71499 -199.55333 -178.88786 -157.83182 -124.36584 -103.93500 -85.76041 -66.44486 -31.19508 -12.97806 14.30198 43.30232 78.13786 97.57839 133.19641 181.67371 200.47877 244.54422 260.09953 250.94987 219.36736 217.97307 217.10719 225.41202 230.68322 225.96189 233.18997 250.55476 261.83123 253.19689 258.09145 262.93790 274.50506 277.05723 292.27874 303.53647 320.09210 331.13712 345.37983 352.93999 376.25641 392.84275 419.38163 427.05730 435.07264 425.32116 421.78970 422.97659 422.94252 492.70027 526.72819 412.80168 275.29838 237.34538 199.81808 173.73834 141.07520 112.91348 95.28979 63.06227 6.05282 7.95677 -33.26257 -79.00884 -114.27987 -183.89619 -267.53155 -403.45844 -649.20206 -1193.07336 -1813.40821 -3247.42021 -4276.65613 -4785.20800 -4825.52609 -4875.90124 -4941.66826 -5014.13255 -4938.93969 -4656.09600 -3839.20510 -3522.98716 -3377.55922 -3240.28555 -3191.89788 -3193.89618 -3207.83518 -3217.66367 -3236.04756 -3241.54465 -3247.21032 -3254.89368 -3261.44229 -3264.64814 -3267.04420 -3274.18955 -3278.67437 -3285.00586 -3291.09690 -3299.49094 -3307.79580 -3320.77502 -3320.87502
-5092.29782 -5092.19782 -5092.43335 -5090.57546 -5092.37973 -5091.37477 -5091.58128 -5089.66510 -5088.39536 -5087.41066 -5085.07993 -5083.55691 -5080.72843 -5080.42979 -5075.90155 -5072.89413 -5068.74006 -5066.40502 -5059.75956 -5024.23084 -4705.64846 -4208.68100 -3064.06206 -2119.01534 -1433.96576 -1328.46622 -1271.75155 -1235.89293 -1243.63135 -1359.96125 -1257.04527 -1040.28250 -908.35961 -775.01472 -629.44707 -506.12772 -390.61906 -380.37016 -301.73980 -274.64917 -249.22375 -230.13379 -198.51817 -188.76865 -137.17441 -114.59560 -104.04814 -78.99379 -58.82811 -22.84754 3.46836 29.44625 62.72481 104.19247 155.56383 190.34147 215.42443 245.78293 231.94807 223.33747 207.26743 199.42199 205.98032 204.81923 211.56393 220.63621 221.04809 219.18706 226.11908 234.33175 244.81997 254.04251 254.35868 264.52341 273.48833 288.06755 298.63036 320.01131 332.57959 340.30147 357.92516 373.02263 387.82728 412.95063 404.86200 390.18406 381.21887 391.26587 385.46776 453.31904 471.27897 298.63885 244.95068 223.98833 179.88499 126.68607 101.23561 92.70098 72.01797 21.15510 -37.03077 -54.13365 -59.07999 -105.16422 -137.54288 -250.98591 -456.02725 -605.87417 -766.75219 -1103.71718 -1772.33396 -2879.91294 -4091.57294 -4528.61408 -4809.31854 -4866.88905 -4932.40221 -4975.24502 -4770.69757 -4308.58159 -3830.95269 -3634.09312 -3330.95486 -3190.58850 -3165.00685 -3180.10504 -3196.45347 -3220.12533 -3240.50164 -3247.06100 -3251.23879 -3256.98384 -3262.20706 -3267.39070 -3269.65016 -3272.33408 -3281.28932 -3285.09439 -3291.06498 -3300.99512 -3309.99061 -3321.51644 -3321.61644
-5099.60000 -5099.50000 -5099.30384 -5098.45626 -5097.52633 -5099.15501 -5096.72323 -5095.78760 -5095.20474 -5092.53692 -5091.07192 -5091.54817 -5088.98024 -5085.08308 -5082.16970 -5081.35281 -5078.42905 -5075.05222 -5063.01006 -5020.65398 -4510.80287 -4122.02727 -2970.32721 -2073.12456 -1650.55757 -1452.96407 -1570.70971 -1478.36543 -1419.19375 -1682.88339 -1444.48613 -1278.04134 -1044.79353 -934.01968 -803.96259 -719.01035 -572.18435 -480.13541 -382.85224 -309.23658 -283.22836 -266.59151 -223.32677 -197.52479 -161.06723 -140.09934 -125.34771 -97.03388 -73.64763 -39.93918 -3.85390 44.35990 69.07637 114.69549 164.46059 208.50051 211.78519 209.94181 197.41109 189.41550 177.20946 173.34356 185.95685 190.83869 183.06591 191.62226 207.39066 209.36006 215.53441 226.62945 227.75258 230.92853 241.78418 246.24241 257.53060 275.09634 289.56845 300.83735 311.69430 322.11608 347.86117 361.24553 365.54729 361.61888 360.84810 336.99878 330.65287 343.70156 358.35994 329.22860 323.15146 214.79118 194.52963 181.73776 168.54105 91.51801 81.24321 65.54974 45.11255 -5.09803 -75.30207 -86.94291 -100.99492 -126.41723 -189.09449 -288.19763 -584.07732 -821.03658 -1049.52568 -1398.83353 -2254.94346 -3103.70319 -4152.20918 -4576.49824 -4762.22322 -4864.08081 -4914.47256 -4939.11303 -4640.93934 -4096.56658 -3638.58364 -3572.04585 -3240.88273 -3143.53870 -3132.85489 -3177.10208 -3200.48360 -3227.84616 -3239.23778 -3249.36161 -3257.58023 -3259.23356 -3264.07613 -3268.06804 -3270.87802 -3273.76659 -3279.19517 -3285.20973 -3289.87274 -3298.47470 -3310.47314 -3322.66318 -3322.76318
-5106.78886 -5106.68886 -5107.09130 -5106.21611 -5106.07133 -5105.33580 -5104.85739 -5102.92342 -5103.28076 -5099.70946 -5098.23011 -5098.71443 -5094.57970 -5091.94514 -5089.67603 -5087.40572 -5084.58087 -5081.04543 -5060.94669 -4937.07708 -4638.69966 -3692.95057 -2786.23086 -2041.31937 -1866.91919 -2045.30720 -1932.90754 -1897.44431 -2180.07745 -2173.55097 -2448.19496 -1773.48034 -1368.03267 -1044.73778 -944.39819 -798.05233 -680.88716 -600.97902 -431.26436 -391.59429 -358.95390 -283.54895 -255.97304 -197.67531 -177.04873 -151.96023 -128.46606 -108.25373 -85.11828 -45.46823 -22.79063 32.70542 58.17772 105.71615 153.01382 167.70628 163.88112 174.04373 177.26855 165.83882 156.65304 164.88061 163.47651 163.86165 170.01485 175.32796 190.56592 201.33350 205.09102 213.44005 209.54209 216.02036 228.43466 231.46980 240.99083 261.15514 261.06620 281.87876 289.84854 298.68217 316.21041 329.55695 355.27491 351.48752 345.67159 329.69826 306.23334 326.53786 328.69275 429.89895 362.77901 191.97377 176.10995 143.74454 120.62967 97.90319 70.06657 31.06401 -5.43518 -36.78153 -71.96900 -109.69340 -138.94549 -179.94063 -352.91794 -416.02804 -811.84353 -941.93991 -1096.96650 -1497.16390 -2634.46394 -3690.83242 -4284.07558 -4722.89102 -4822.52120 -4862.54873 -4905.30679 -4922.19258 -4557.95629 -4018.98987 -3713.56554 -3375.08826 -3207.76181 -3129.71474 -3148.15892 -3172.70600 -3208.39780 -3230.54318 -3239.55488 -3251.71467 -3259.25542 -3260.78562 -3264.25385 -3267.94682 -3272.20505 -3275.01443 -3278.70941 -3284.27147 -3290.37023 -3296.64986 -3309.91187 -3323.98849 -3324.08849
-5113.74362 -5113.64362 -5113.05318 -5112.27538 -5112.30519 -5108.80323 -5109.18741 -5110.25750 -5109.66328 -5106.96201 -5104.83768 -5102.79317 -5101.96774 -5099.96626 -5097.00083 -5093.36642 -5089.53523 -5087.10209 -5072.09083 -5012.61495 -4638.26032 -3999.99372 -3102.75454 -2608.46702 -2541.03877 -2611.72963 -2998.77370 -2869.40831 -2895.10679 -3154.99390 -3481.44603 -2845.61521 -1609.75091 -1293.22537 -1045.83500 -889.10480 -859.49315 -782.93754 -655.13234 -618.10598 -488.57094 -412.72588 -338.52306 -234.68192 -207.20463 -158.32562 -137.58541 -120.69771 -70.51382 -47.38473 -18.17840 11.53030 68.86296 103.56662 149.30385 143.36636 124.98855 121.29285 125.10366 131.28728 126.19232 129.43961 134.22957 137.95296 150.18465 155.78232 168.57122 179.45801 201.76383 199.77953 198.25616 211.12869 215.64922 217.06789 228.90873 240.28986 246.29028 261.26658 270.84840 287.73053 295.61031 324.56017 335.81681 333.55270 329.75391 305.59826 295.43328 300.88620 386.81075 450.18192 290.49207 157.67326 152.50950 118.77051 99.13070 83.64311 40.05966 11.66736 -21.29648 -61.94085 -108.83744 -178.63111 -215.10141 -338.14166 -520.16648 -671.58525 -920.93681 -1155.17084 -1385.92040 -2077.21935 -2889.05696 -3784.53396 -4345.28627 -4670.15223 -4855.09609 -4891.36609 -4930.89901 -4889.91981 -4261.98734 -3806.61703 -3886.38745 -3419.73693 -3172.78394 -3116.97183 -3143.79054 -3175.09756 -3213.36592 -3230.94944 -3241.87970 -3251.79785 -3258.98490 -3262.60139 -3265.63083 -3268.62338 -3271.34195 -3273.78962 -3279.78189 -3282.31854 -3289.70232 -3298.53295 -3309.51187 -3325.43695 -3325.53695
-5120.62947 -5120.52947 -5120.25982 -5121.31589 -5120.59491 -5119.71248 -5117.14906 -5117.51492 -5115.19639 -5115.62622 -5113.29346 -5111.50575 -5108.07565 -5105.79185 -5102.77794 -5100.47412 -5097.28550 -5092.50573 -5084.67566 -5032.45964 -4783.24327 -4418.99616 -3940.03137 -3693.23828 -3651.40346 -3912.82677 -4104.25210 -4287.88356 -4282.71298 -4409.80780 -4175.23329 -4292.19277 -2592.19562 -1705.19374 -1137.07380 -1059.62446 -997.42252 -873.42739 -805.24049 -733.58418 -667.09041 -479.19482 -356.02393 -267.52178 -229.02018 -190.23451 -160.26414 -138.79391 -106.32445 -83.53049 -36.82659 -6.38789 52.84016 93.66180 93.09972 88.21411 90.68435 89.58915 83.90788 88.62200 103.81468 107.89136 115.93453 120.55097 127.50558 135.02878 150.97779 163.37241 164.53712 184.29863 188.75913 188.96632 197.63797 209.47604 219.78363 222.71794 231.04049 247.39395 257.01693 273.30864 293.35369 309.05945 310.33120 312.63750 309.36483 286.80000 286.43305 299.16928 423.81684 407.20107 188.99802 146.87588 127.41979 95.23099 46.97574 30.87391 -0.85813 -30.88606 -56.01534 -102.59214 -168.72685 -243.93375 -365.07079 -704.00073 -805.75788 -874.14660 -1087.11912 -1528.04066 -1975.60412 -3141.81889 -4040.46399 -4106.70483 -4444.35700 -4672.00875 -4857.70512 -4901.67499 -4958.34270 -4824.96529 -4485.68917 -3848.10979 -3845.10155 -3263.42074 -3131.62108 -3106.40715 -3157.50116 -3186.49324 -3212.77343 -3234.74447 -3244.07909 -3255.76793 -3261.76604 -3264.05799 -3265.87196 -3268.99388 -3271.47937 -3273.86043 -3278.33179 -3282.32554 -3288.73110 -3298.18499 -3309.59261 -3327.03567 -3327.13567
-5127.46528 -5127.36528 -5126.93340 -5126.12756 -5126.21158 -5127.03254 -5123.50478 -5121.95039 -5122.49225 -5120.47969 -5120.02707 -5116.60973 -5115.06017 -5111.66322 -5109.84932 -5106.40961 -5103.97699 -5100.65781 -5095.00958 -5082.79441 -5007.27173 -4707.54810 -4678.07048 -4582.32292 -4422.86450 -4622.61446 -4675.85463 -4715.08901 -4739.72606 -4811.84852 -5030.40325 -4833.35224 -3598.15365 -2040.96927 -1596.40618 -1337.13877 -1092.92369 -916.77760 -869.02295 -802.35816 -700.98552 -577.28896 -357.97522 -307.56928 -259.00374 -211.40997 -196.38495 -142.14758 -128.36364 -95.83595 -55.75789 -15.42966 19.06274 47.31745 54.04941 30.26548 57.56280 58.26754 59.51755 66.26716 76.10377 83.61569 100.82942 104.64247 105.25318 117.21444 136.69071 153.09151 160.93557 165.56257 174.48121 182.07362 187.25074 196.31895 197.27276 205.39050 220.37077 229.62190 241.38921 266.13738 279.81613 286.89760 289.00495 298.40922 286.91999 280.34468 248.36349 232.64029 306.56095 291.23104 125.73441 115.06465 80.69163 56.20439 25.77919 -3.70208 -40.48625 -44.50987 -113.49378 -117.93413 -223.60251 -426.27814 -665.32859 -958.22179 -988.37038 -1247.53107 -1595.54009 -2018.83049 -3777.78083 -3900.32868 -4601.86895 -4550.35142 -4418.91045 -4631.59077 -4844.38195 -4891.95080 -4954.83417 -4912.17798 -4549.48074 -4134.99507 -3768.01356 -3208.90667 -3092.00716 -3120.37375 -3163.13789 -3196.52897 -3217.54053 -3238.78612 -3247.26249 -3256.80642 -3261.51251 -3265.31305 -3266.15577 -3268.81630 -3271.58108 -3273.60110 -3278.13755 -3282.43300 -3288.74455 -3300.09425 -3310.33898 -3328.29802 -3328.39802
-5134.33152 -5134.23152 -5134.19963 -5134.62603 -5132.75747 -5133.22640 -5131.66125 -5130.30653 -5130.25176 -5127.07682 -5124.74143 -5123.33513 -5120.93252 -5119.42031 -5115.86917 -5114.33761 -5111.10804 -5106.41676 -5104.57356 -5094.18110 -5091.42453 -5008.13250 -4962.21864 -4909.97300 -4938.57723 -4978.48885 -5013.48748 -5026.74933 -5029.05423 -5082.38617 -5144.61008 -5126.26427 -4158.84747 -3673.62439 -2318.34919 -1544.50034 -1300.21714 -1025.03475 -924.51584 -894.08792 -774.65019 -655.16392 -440.54429 -363.35068 -309.74498 -227.35280 -215.80366 -170.39913 -132.89750 -98.76865 -81.10740 -43.57780 -34.31507 -15.58998 8.95991 17.45667 16.97743 26.67840 35.85397 50.95202 53.57264 64.38212 62.69931 85.41636 85.41936 99.30088 114.54704 137.77753 152.44662 158.15985 167.48226 172.90378 176.99893 181.39365 185.10438 177.51644 197.53872 210.53360 231.26366 239.96974 253.16994 267.20171 276.83994 278.28793 272.55472 264.93402 239.51668 256.02837 185.37192 171.50194 114.47644 80.93645 40.44351 23.37100 -20.05071 -31.52933 -87.86862 -97.81455 -142.77782 -216.82282 -376.91657 -722.01817 -1018.64024 -1365.56946 -1362.86426 -2034.85646 -2561.94799 -3742.09879 -4517.78112 -4633.02384 -4942.37833 -4945.19285 -4751.07199 -4564.15376 -4803.20229 -4926.44638 -4985.28846 -4792.79852 -4862.94611 -4656.40265 -3693.22041 -3169.51069 -3087.63536 -3116.10970 -3151.19170 -3203.42980 -3223.24447 -3240.75544 -3251.02699 -3256.13939 -3263.73014 -3265.58530 -3266.69046 -3268.57280 -3270.45852 -3274.29696 -3276.61389 -3280.20945 -3289.16199 -3299.86329 -3311.03730 -3330.33024 -3330.43024
-5141.27334 -5141.17334 -5140.33013 -5140.03607 -5140.38115 -5138.76195 -5138.30179 -5138.14266 -5135.04853 -5135.63940 -5134.33108 -5132.03140 -5131.73673 -5126.56575 -5128.13316 -5122.96737 -5119.65768 -5114.39343 -5112.40425 -5107.30681 -5100.90816 -5083.05673 -5082.26777 -5071.31538 -5069.49499 -5044.96115 -5059.65069 -5053.83810 -5050.64662 -5080.80069 -5123.01516 -5125.41581 -4708.57241 -4081.85763 -3037.34980 -2133.50381 -1521.45333 -1216.68671 -1062.84618 -943.53941 -838.25017 -723.02507 -555.61958 -397.40792 -351.91376 -258.41448 -231.77203 -196.05181 -150.08055 -137.59679 -96.61550 -76.87418 -53.33173 -44.90784 -21.27188 -12.10321 1.21989 10.50619 13.05110 20.79845 17.48305 25.82562 46.01947 64.31589 72.71109 85.24726 110.97394 124.58053 136.28531 148.45998 150.59342 159.89835 162.61259 162.48351 165.01779 167.50487 173.28637 187.13782 200.80882 229.24270 237.59925 253.17066 264.20737 262.95255 258.43980 247.74180 266.14962 329.59043 202.59086 124.93890 110.36009 69.63986 32.51693 -15.82959 -53.12113 -56.15082 -102.85151 -149.61515 -195.58017 -417.50640 -688.91244 -1533.99006 -1870.25420 -1845.27770 -3103.58342 -3166.21586 -4210.02710 -4816.82653 -4913.10955 -5102.65170 -5163.06725 -5097.69938 -5048.16936 -4685.84756 -4762.88006 -4807.79738 -4933.08965 -5055.03066 -4843.67896 -4282.05312 -3486.01602 -3137.64465 -3094.41313 -3117.88467 -3183.56895 -3211.14800 -3230.62851 -3242.93939 -3253.21861 -3258.48141 -3264.31812 -3265.98672 -3266.81293 -3268.11309 -3270.04467 -3273.19163 -3275.24128 -3279.63269 -3286.25686 -3297.46446 -3310.98227 -3332.17181 -3332.27181
-5148.22526 -5148.12526 -5148.63524 -5147.68499 -5148.06646 -5145.03400 -5145.80289 -5143.67564 -5142.18973 -5142.31917 -5140.20554 -5137.52742 -5136.43405 -5135.57622 -5133.94384 -5129.62247 -5128.19316 -5125.28415 -5123.01017 -5118.42375 -5116.91322 -5107.97515 -5105.29402 -5107.21436 -5096.04444 -5089.04412 -5084.33572 -5068.76494 -5056.12580 -5068.87921 -5093.04424 -5125.47849 -5131.22094 -5145.88148 -4034.72702 -2943.30632 -2171.59438 -1488.40003 -1201.04405 -984.24782 -862.84185 -807.56289 -627.18716 -477.41344 -366.78170 -311.24797 -247.73410 -213.39112 -176.88622 -161.89036 -130.10590 -95.72879 -85.48438 -77.41361 -39.80494 -35.53190 -29.72127 -26.02057 -4.67887 -0.12576 1.62525 8.81419 23.68327 37.19441 54.06915 59.95673 95.74250 107.05935 130.01074 138.06324 144.06535 146.55780 151.18869 147.74391 146.66818 151.34026 160.70527 174.52954 191.96910 202.11278 207.27395 225.57167 236.65342 237.00386 235.93240 218.78874 218.14488 233.99807 178.70925 113.60970 68.17867 61.45679 25.16455 -24.79881 -71.69010 -92.18278 -115.97547 -201.45373 -540.90517 -1491.56282 -1866.15916 -2833.27480 -2781.89194 -3826.33104 -4765.33906 -4712.57249 -4735.06377 -5109.50277 -5240.45538 -5284.84168 -4785.82250 -5036.55507 -5076.26338 -4855.23917 -4284.92423 -4499.99868 -4499.94003 -4835.95218 -4965.28495 -3769.29552 -3251.77880 -3105.05024 -3102.70156 -3150.47111 -3185.56814 -3211.04378 -3233.33728 -3248.31832 -3256.66084 -3262.26703 -3266.03516 -3266.50424 -3267.31424 -3268.37885 -3269.98635 -3271.72969 -3274.25216 -3278.50335 -3285.62540 -3297.35994 -3312.24962 -3333.67739 -3333.77739
-5155.23291 -5155.13291 -5154.68821 -5156.08637 -5153.86795 -5153.50060 -5152.50171 -5153.44999 -5150.53393 -5150.06918 -5149.20690 -5147.56399 -5145.60171 -5143.59532 -5141.61218 -5141.63173 -5136.23506 -5133.09193 -5130.73037 -5129.96398 -5127.90306 -5123.20077 -5117.35521 -5112.90479 -5107.63885 -5100.51684 -5098.10857 -5083.17465 -5070.12932 -5072.94852 -5081.18851 -5096.24759 -5131.15207 -5148.37160 -5046.14198 -4385.97202 -3544.36373 -2234.80074 -1452.08866 -1012.20643 -912.91608 -846.80531 -786.21456 -709.69677 -461.34884 -367.96379 -314.57971 -257.39753 -202.60495 -172.29390 -153.86821 -130.01413 -119.30475 -97.28196 -81.03761 -71.99797 -66.78761 -44.45626 -33.18014 -25.81901 -14.55275 -6.83564 5.02059 23.82068 35.27804 58.23061 74.75581 107.21067 119.03099 130.59848 131.24844 127.11838 127.23103 133.40929 135.80212 136.59239 142.75052 150.22788 160.04252 178.58529 201.68766 211.83324 215.68178 216.98832 211.50979 201.32077 189.20601 159.88238 100.52307 85.33028 48.27335 -2.13183 -20.66818 -45.12959 -103.26319 -119.08709 -230.22038 -608.05128 -1339.31254 -2613.05273 -3574.62169 -4075.75920 -4792.31625 -4989.72875 -5243.79626 -5290.64995 -5467.32985 -5496.77219 -5362.33090 -5403.73483 -4626.96098 -3665.38534 -2659.61019 -3170.69891 -2902.45818 -3059.56828 -3809.14407 -4365.22252 -3981.22182 -3405.63956 -3096.19526 -3073.93523 -3107.56397 -3146.19362 -3190.93078 -3221.30226 -3236.21131 -3251.87113 -3260.69317 -3265.04652 -3267.71654 -3267.66270 -3267.91733 -3268.32062 -3269.91250 -3271.28494 -3273.34561 -3278.87634 -3285.38376 -3294.26695 -3313.62155 -3334.99462 -3335.09462
-5162.40809 -5162.30809 -5162.76638 -5161.45922 -5160.79131 -5161.82673 -5160.86111 -5160.24819 -5159.92245 -5157.48258 -5157.10013 -5157.48882 -5155.09624 -5154.90638 -5150.63622 -5151.93767 -5149.42526 -5149.52439 -5145.60790 -5143.74618 -5137.34497 -5133.69234 -5132.10012 -5125.40038 -5119.96002 -5116.26322 -5112.27164 -5096.66265 -5089.28962 -5077.34503 -5072.96241 -5073.95677 -5104.51889 -5110.02442 -5023.14963 -4736.50441 -4270.51746 -2596.05916 -1609.14361 -1012.80272 -948.56979 -897.33745 -849.51576 -752.06932 -577.79629 -402.73948 -318.61985 -273.66284 -256.48882 -192.72399 -172.11438 -162.68247 -154.12682 -123.94988 -109.03731 -96.86406 -93.88033 -74.74431 -57.65459 -47.17807 -32.58109 -26.11589 -14.73576 0.04048 18.90175 38.74008 60.14230 83.70280 113.43140 126.23250 123.51730 121.57218 107.21591 114.98876 112.72638 123.19485 134.30240 139.32549 142.69117 157.02814 185.43320 197.64218 198.34091 205.54535 186.08462 173.46516 155.29340 158.66580 92.45086 34.95665 39.55106 -33.54345 -47.00489 -132.48217 -221.24947 -231.42071 -1107.70207 -1191.16182 -2067.70868 -3995.00705 -5041.47425 -5298.89699 -5233.87729 -5367.73983 -5408.88643 -5690.31108 -5771.32284 -4890.60969 -3727.91997 -2641.55394 -851.96579 -408.62525 -515.23968 -964.09133 -1135.67768 -1813.60495 -3371.68000 -3407.00725 -3283.43084 -3101.63521 -3053.74758 -3062.71564 -3120.27721 -3167.61197 -3209.84944 -3231.35545 -3246.09606 -3256.65860 -3264.31953 -3268.74570 -3269.10740 -3268.83139 -3268.69549 -3269.27209 -3269.91195 -3270.52437 -3272.73528 -3277.60109 -3286.35994 -3296.51545 -3316.29389 -3336.45011 -3336.55011
-5169.89642 -5169.79642 -5169.28398 -5170.70048 -5171.35093 -5169.84143 -5169.52707 -5169.04511 -5171.84695 -5168.56456 -5168.04054 -5166.04048 -5164.79270 -5165.41830 -5163.83584 -5162.70485 -5161.05953 -5156.01679 -5157.44234 -5155.84449 -5152.80164 -5150.80139 -5139.63593 -5139.23495 -5134.31281 -5130.94852 -5126.67103 -5119.86547 -5106.03804 -5096.62092 -5083.36574 -5074.13023 -5074.63015 -5068.51551 -5045.70599 -4932.91323 -4242.15061 -3013.34391 -1672.29704 -1164.64753 -962.19803 -902.42219 -839.09817 -816.75547 -744.51811 -510.78583 -363.50534 -307.57851 -282.91759 -222.97655 -197.82052 -189.35703 -178.97295 -167.32076 -139.73397 -111.27817 -125.29951 -92.55240 -79.06594 -76.05966 -64.26575 -56.73254 -39.93821 -12.51091 -1.09524 6.16495 30.37158 55.55166 99.05294 127.56675 120.08375 106.85175 97.31383 96.22902 98.67775 105.59231 116.11577 121.58611 127.08239 135.37816 140.85826 163.53395 165.06308 173.33972 167.68037 164.60792 141.88500 106.64581 23.38148 -5.64114 14.63388 -40.58318 -109.02641 -188.53396 -417.04273 -861.10015 -2028.29970 -2974.82393 -3786.12144 -5211.33604 -5449.86788 -5647.61002 -5710.40710 -5764.80960 -5831.61437 -4370.88422 -2345.85738 -1039.53436 -490.41936 -481.12147 -478.48187 -105.60941 -118.26341 -116.22283 -139.16477 -1029.43501 -2519.48515 -3043.75344 -3059.11128 -2987.47550 -3013.51054 -3053.86465 -3131.61089 -3181.94187 -3215.93453 -3241.64880 -3249.80752 -3264.14306 -3270.28301 -3272.66434 -3272.34622 -3270.17442 -3269.96062 -3270.60675 -3269.93077 -3270.70452 -3273.01891 -3275.54715 -3287.32736 -3296.59658 -3317.01010 -3337.60723 -3337.70723
-5177.80917 -5177.70917 -5178.23207 -5176.64889 -5177.16453 -5178.70890 -5179.29953 -5179.00887 -5178.95889 -5182.04199 -5181.45504 -5179.22125 -5173.93924 -5176.28299 -5177.12636 -5173.13540 -5176.44121 -5174.09219 -5166.81500 -5169.28499 -5167.27466 -5165.04613 -5162.66818 -5159.38302 -5152.16595 -5148.61251 -5139.64102 -5137.22818 -5139.23814 -5119.58722 -5104.41226 -5094.76126 -5078.18891 -5065.61463 -5052.45246 -4894.08662 -4560.16069 -3121.15018 -1653.11715 -1193.05696 -1046.81333 -982.87860 -890.95513 -833.54183 -826.23397 -671.92746 -501.49824 -380.25906 -344.71291 -311.82797 -247.39772 -239.38029 -202.08154 -178.28911 -173.01970 -170.91234 -157.30523 -118.61426 -104.27247 -90.42817 -86.25871 -74.99085 -58.02135 -46.78740 -24.67838 -3.99827 2.42543 27.34905 65.79481 91.95678 94.22899 75.95610 85.10092 81.01957 77.94440 81.17800 88.50679 94.73158 109.41564 115.67313 125.04029 143.56001 155.45092 152.63934 153.99674 129.57666 138.61757 132.05623 55.46410 -13.67066 -29.63970 -92.42735 -123.75680 -198.89670 -688.63873 -2090.14233 -2442.24222 -3177.59821 -4043.08680 -4646.02112 -4503.84456 -4841.34946 -4391.29657 -3934.03676 -3226.86878 -1018.19746 -247.77711 -155.61097 -144.03298 -106.29503 -87.67784 -83.10548 -77.78733 -90.90553 -137.25155 -279.67641 -1989.70297 -2860.60220 -3009.20566 -2998.24605 -3024.55333 -3099.60337 -3151.83747 -3194.96873 -3225.27332 -3249.14286 -3260.11015 -3271.77463 -3276.55990 -3277.83696 -3276.82495 -3275.72953 -3274.88132 -3274.24965 -3272.85609 -3274.12669 -3274.52764 -3277.01722 -3284.36364 -3298.23859 -3313.63296 -3338.44013 -3338.54013
-5186.24544 -5186.14544 -5186.55115 -5189.77371 -5188.42270 -5188.50476 -5189.67702 -5192.75264 -5190.90372 -5190.38192 -5188.99369 -5189.41254 -5189.81428 -5188.84119 -5187.77375 -5188.02134 -5191.72619 -5188.11119 -5187.52433 -5190.76869 -5185.45980 -5182.02728 -5179.82028 -5176.50889 -5172.14229 -5169.77066 -5164.72054 -5158.27898 -5148.95804 -5142.22750 -5125.87967 -5122.70499 -5111.10492 -5090.44077 -5066.81480 -4980.43656 -4576.29848 -3933.57665 -2739.11547 -1702.29615 -1171.23441 -1018.79440 -942.93135 -872.21091 -819.84321 -752.79406 -578.12583 -508.52944 -425.63069 -389.61057 -346.47746 -311.94322 -273.19131 -279.18163 -214.27943 -185.27716 -170.56286 -150.42802 -144.65994 -127.60147 -115.13713 -108.31940 -87.26022 -72.39002 -60.84652 -34.00231 -23.68408 9.13374 32.59091 59.60114 75.80082 56.03092 56.46158 56.30582 58.67493 64.77828 69.21641 72.92431 94.44086 103.09254 113.50101 114.81181 128.88867 127.28521 124.07888 111.99707 102.93371 135.32515 99.77094 -29.36930 -80.73111 -147.20981 -333.04279 -685.47776 -1109.12218 -1366.84775 -1607.83695 -2534.26785 -3212.42371 -3822.42396 -3800.56620 -2658.90513 -1895.15111 -701.92317 -406.23297 -137.26842 -134.38762 -129.92685 -113.33958 -75.35195 -53.98957 -58.19311 -63.61500 -85.27039 -126.45562 -253.29997 -1985.96839 -2933.26585 -3029.87125 -3030.85236 -3067.90814 -3115.46962 -3165.07204 -3217.74322 -3236.69906 -3259.05602 -3272.39003 -3276.80850 -3283.04194 -3284.35837 -3283.55793 -3282.87913 -3282.96122 -3281.41733 -3280.23267 -3278.18391 -3278.35674 -3280.77882 -3286.98533 -3302.93902 -3317.78288 -3339.91786 -3340.01786
-5195.28942 -5195.18942 -5196.84509 -5196.66886 -5199.64781 -5197.75962 -5198.61199 -5197.53336 -5200.66326 -5203.18931 -5203.69736 -5208.43991 -5205.88168 -5204.95839 -5205.40976 -5208.07702 -5207.18116 -5207.93328 -5204.82897 -5203.20606 -5202.50480 -5200.65766 -5196.41133 -5197.62368 -5193.40528 -5185.06287 -5182.84053 -5174.05806 -5172.19493 -5164.52694 -5151.70570 -5140.64116 -5124.03079 -5112.88981 -5099.59778 -5035.81609 -4827.30301 -4102.19441 -3095.65626 -2383.19633 -1524.25657 -1157.85572 -1018.40783 -924.62719 -862.15168 -778.13190 -685.03588 -596.58005 -579.12851 -574.48096 -528.31197 -398.75510 -397.11369 -372.15271 -291.64444 -238.65011 -203.77775 -185.78535 -175.88917 -163.34083 -147.40714 -129.86367 -109.82457 -102.68993 -78.36050 -57.68895 -44.12232 -13.78430 8.44145 12.84837 70.33151 41.68257 33.32653 33.86487 38.58753 45.63414 52.00773 59.33985 66.19008 79.68215 95.97377 101.91192 106.34784 113.04512 109.14562 92.37743 71.82500 68.27298 84.44759 -18.66883 -125.68837 -179.37728 -310.66725 -576.96129 -742.96855 -989.34538 -1023.31812 -1438.62300 -1904.65853 -1725.09393 -958.59688 -219.97892 -174.93475 -142.12771 -108.63857 -111.23314 -80.06423 -63.98088 -70.55254 -60.28855 -49.93649 -53.53823 -70.27254 -91.20389 -143.34121 -662.53423 -2080.25989 -3027.11453 -3067.71595 -3057.56883 -3112.73791 -3142.90144 -3188.70860 -3234.08923 -3261.92203 -3269.08326 -3280.13667 -3287.18751 -3289.84940 -3291.86726 -3295.34882 -3291.51416 -3292.89934 -3290.95578 -3291.16077 -3290.36863 -3287.30213 -3287.89400 -3291.66998 -3306.30911 -3320.60936 -3341.13272 -3341.23272
-5204.95808 -5204.85808 -5202.35670 -5207.85798 -5209.00841 -5208.94701 -5212.10761 -5212.13378 -5217.21659 -5217.46431 -5215.25719 -5216.66057 -5217.34311 -5218.08828 -5216.87953 -5220.92881 -5220.22529 -5217.88269 -5222.51719 -5220.36779 -5217.29068 -5215.59941 -5215.01019 -5214.56554 -5208.78855 -5206.83253 -5201.50403 -5196.57672 -5188.16263 -5184.26960 -5174.15585 -5163.48736 -5150.32249 -5136.29174 -5129.02892 -5084.61386 -4949.10086 -4479.10574 -3765.08147 -2718.46421 -2076.36295 -1414.70615 -1155.01707 -1011.12264 -964.74006 -787.11556 -764.05632 -762.56800 -753.38899 -717.47290 -707.39188 -616.47225 -555.28546 -499.90241 -368.07006 -304.07154 -263.11529 -264.33412 -223.91078 -195.93950 -166.24847 -157.28268 -131.81462 -117.85234 -95.25158 -92.79756 -90.88754 -53.74332 -25.99617 -5.90195 -1.59730 12.20140 15.62037 17.01852 26.88677 22.48171 27.33378 38.73802 46.37109 62.68053 70.86817 78.63330 85.05228 87.27902 77.02819 66.72067 33.59452 23.80823 -6.88973 -59.82757 -131.45835 -198.20575 -267.19378 -366.82143 -463.09969 -533.32881 -687.31746 -818.19063 -688.05612 -448.59841 -195.60656 -121.18880 -96.76512 -102.26436 -56.53711 -43.87952 -37.37797 -42.97077 -52.48964 -55.44548 -58.14491 -70.40888 -88.37588 -103.41682 -142.51221 -424.61743 -2257.17064 -3072.71401 -3080.28713 -3081.84996 -3112.71488 -3167.70233 -3210.40035 -3245.26608 -3266.74172 -3280.75337 -3288.85084 -3298.21635 -3306.20053 -3306.70766 -3304.63963 -3306.06085 -3300.11346 -3306.58702 -3306.72314 -3297.92779 -3299.08245 -3298.46471 -3300.56914 -3312.80685 -3323.56363 -3342.70731 -3342.80731
-5215.06422 -5214.96422 -5219.34032 -5220.40442 -5220.69388 -5223.28947 -5223.59447 -5223.20326 -5227.55497 -5228.16900 -5232.98487 -5236.20660 -5238.12325 -5235.77522 -5238.65980 -5242.13697 -5239.39213 -5239.86556 -5239.15975 -5237.85521 -5238.07677 -5233.92342 -5236.05550 -5228.61993 -5229.40809 -5222.22564 -5219.88588 -5215.38859 -5207.79278 -5202.65264 -5195.04224 -5181.83592 -5175.28102 -5164.10581 -5147.69802 -5118.56154 -5063.70761 -4804.61110 -4457.97369 -3152.85017 -2491.19397 -1860.41213 -1585.35159 -1134.78213 -1100.25106 -950.24542 -885.55600 -833.18539 -824.43571 -835.52970 -821.15288 -804.30221 -720.87755 -546.64331 -528.16262 -432.92965 -417.51707 -453.02436 -360.91914 -264.75229 -196.18657 -172.79831 -170.07936 -153.25407 -139.37105 -111.58245 -108.05779 -81.62256 -63.55159 -37.32743 -19.05992 -7.13192 -15.30826 -9.39235 8.44497 5.70351 10.22186 18.27509 32.35547 42.62020 52.71865 58.44283 73.73782 71.14969 69.80681 59.51741 28.71346 -23.67791 -65.05022 -72.76525 -175.53626 -223.93508 -271.55451 -300.27556 -346.27861 -397.47704 -397.65577 -340.19917 -258.16615 -177.81713 -78.35379 12.33957 0.30746 -33.56388 11.71560 -8.96998 -12.06917 -19.61543 -33.64547 -54.68428 -75.64536 -88.06155 -113.70711 -146.57404 -737.94617 -1552.34589 -3130.40315 -3076.98625 -3071.22500 -3082.63318 -3125.42504 -3174.70502 -3220.12584 -3255.90225 -3277.78312 -3286.80501 -3307.99598 -3317.30343 -3317.25751 -3322.22878 -3326.35530 -3333.59444 -3331.97314 -3326.10518 -3321.69951 -3319.73179 -3312.72390 -3313.69911 -3313.96383 -3322.16233 -3328.46644 -3344.47441 -3344.57441
-5225.77119 -5225.67119 -5227.53144 -5229.65866 -5234.28830 -5235.76206 -5238.94335 -5242.40236 -5244.35758 -5245.39966 -5248.62116 -5248.67466 -5249.53794 -5253.06973 -5253.35179 -5253.81463 -5250.00760 -5259.47343 -5254.38438 -5255.95899 -5249.22685 -5254.22514 -5252.14994 -5247.70224 -5243.37599 -5236.18518 -5233.32754 -5231.37201 -5224.03656 -5216.89717 -5210.38001 -5203.38839 -5190.51553 -5179.59406 -5182.45127 -5152.30367 -5128.53454 -5021.93759 -4561.83041 -4268.67701 -3301.93260 -2911.02840 -2113.11227 -1937.57050 -1837.34908 -1273.89320 -1093.17396 -965.14802 -895.33546 -920.15793 -933.49482 -898.18586 -766.01087 -684.78423 -606.16638 -623.36109 -610.05704 -541.45398 -467.01509 -335.23507 -244.73691 -208.45292 -202.37075 -167.84656 -164.59514 -146.70794 -127.01976 -106.25006 -100.31990 -72.18012 -43.87566 -35.38739 -40.56555 -30.89105 -24.26757 -13.76113 -3.09099 2.40181 14.53899 24.93646 34.28951 41.94536 47.47932 46.93412 38.17403 33.23355 13.86683 -22.90854 -64.73033 -122.98506 -158.04910 -226.83303 -228.18168 -245.88190 -292.47326 -274.57963 -242.93174 -211.12168 -137.87288 -64.99298 32.46987 82.94270 115.27592 148.38224 129.00400 85.41612 15.36019 -22.38746 -44.41739 -70.79849 -109.61582 -423.21614 -177.28339 -662.85810 -1321.94826 -3248.33347 -3192.05534 -3078.64011 -3052.79948 -3073.66116 -3126.47359 -3173.34256 -3233.02025 -3277.53357 -3295.00003 -3316.43318 -3322.90029 -3331.32492 -3339.19485 -3342.92106 -3347.95053 -3353.06148 -3355.61154 -3357.96843 -3349.87472 -3352.34510 -3337.07953 -3331.06283 -3325.23149 -3327.41704 -3335.26290 -3346.18047 -3346.28047
-5237.03090 -5236.93090 -5239.01143 -5243.94686 -5247.04289 -5249.02837 -5251.28633 -5254.90539 -5259.32704 -5261.84806 -5266.39816 -5264.38697 -5269.42096 -5274.09825 -5277.03563 -5273.59276 -5278.40336 -5274.96985 -5267.82288 -5271.79178 -5271.53201 -5266.81530 -5265.73496 -5263.83927 -5264.37046 -5257.25547 -5252.24886 -5252.98863 -5242.21725 -5232.06383 -5225.38950 -5222.99361 -5217.38931 -5215.94730 -5185.84247 -5145.40777 -5131.30086 -5064.72332 -4907.02554 -4714.80350 -4431.14421 -4053.31507 -3296.91914 -3153.80840 -2465.83702 -1907.56252 -1362.51552 -1148.92969 -1081.91119 -1074.84741 -1048.67980 -941.37349 -849.97655 -776.46743 -716.03081 -675.92551 -656.33751 -625.88088 -527.44005 -477.28424 -411.64868 -347.99075 -295.37380 -275.14329 -209.01877 -168.85574 -149.92423 -131.57178 -116.46075 -101.37707 -77.81717 -69.83972 -66.94276 -55.38078 -43.54957 -34.56533 -21.27239 -6.93446 2.30853 18.35939 23.38115 24.31490 29.38271 33.80528 34.56369 25.97112 10.49420 -31.07960 -48.25239 -97.05796 -135.85983 -157.10298 -183.79711 -209.07236 -186.82826 -184.75269 -149.86216 -76.77766 20.80928 137.90788 239.43733 358.94771 301.32862 204.51530 162.19279 68.12364 15.79386 -26.43439 -57.67320 -95.99691 -128.05536 -865.35325 -1685.36456 -2567.08122 -2863.40534 -3216.23299 -3092.73465 -3029.91735 -3053.01536 -3086.80518 -3154.83141 -3197.68439 -3248.54922 -3282.27648 -3317.63309 -3331.41502 -3339.65364 -3352.22601 -3356.80819 -3373.19602 -3377.24571 -3378.46951 -3384.92641 -3387.90403 -3386.77994 -3370.68694 -3358.05974 -3340.81964 -3343.34521 -3342.51088 -3342.88558 -3348.73031 -3348.83031
-5249.45568 -5249.35568 -5254.25037 -5259.26292 -5265.77641 -5272.02843 -5268.20236 -5275.33791 -5280.18351 -5281.96569 -5285.24751 -5287.33023 -5289.57491 -5293.81959 -5291.17665 -5285.80180 -5293.53250 -5295.37745 -5295.79773 -5295.14141 -5292.12312 -5289.83183 -5289.18694 -5288.96538 -5283.74836 -5281.62013 -5272.31940 -5264.18748 -5259.18567 -5257.57512 -5252.55373 -5247.97922 -5229.41110 -5198.41588 -5170.38237 -5128.07060 -5122.00018 -5099.69968 -5072.38659 -5078.90958 -4896.57987 -4760.36635 -4418.91789 -4066.28380 -3624.08211 -2892.47872 -1959.20489 -1523.44162 -1361.21676 -1358.91672 -1198.06816 -1063.25439 -939.01791 -831.15089 -764.07240 -754.04066 -694.36522 -663.18299 -637.02438 -645.25478 -502.09665 -442.96209 -369.44569 -330.55425 -293.65491 -215.84428 -186.43175 -169.54526 -139.15242 -121.51537 -105.05153 -85.93321 -78.59762 -70.80950 -52.35741 -40.34184 -20.76784 -9.12252 -4.18540 6.98219 13.98791 17.76381 18.06356 23.31581 21.06064 17.29790 7.73116 -17.76451 -19.88253 -76.89659 -106.05057 -84.20974 -58.76368 -120.72427 -139.37815 -78.05405 -73.36693 -35.02395 184.83615 368.79753 395.67751 593.91671 396.30036 192.19549 87.24624 4.44356 -8.45761 -41.68592 -88.96039 -115.53010 -568.64832 -1835.23180 -2956.32714 -3310.78531 -3134.91248 -3080.03946 -2981.13424 -3006.37893 -3050.58668 -3118.94021 -3174.40391 -3200.02409 -3284.83375 -3317.22376 -3334.11845 -3353.71808 -3371.91653 -3384.62551 -3382.98765 -3398.95280 -3404.71303 -3420.34181 -3427.08751 -3411.07410 -3414.80878 -3393.58566 -3384.00514 -3370.46134 -3361.54117 -3352.58565 -3349.72552 -3350.90577 -3351.00577
-5263.97446 -5263.87446 -5269.69918 -5272.37954 -5281.86366 -5288.85321 -5299.18579 -5298.69171 -5307.28936 -5313.75028 -5312.56869 -5315.51691 -5310.97815 -5321.32997 -5324.50976 -5326.05107 -5322.60924 -5323.06048 -5328.31607 -5323.78579 -5316.59962 -5321.41485 -5320.81710 -5308.18107 -5307.24034 -5301.63548 -5305.01503 -5290.08403 -5287.87018 -5283.36724 -5281.50103 -5280.07538 -5222.53553 -5194.18358 -5185.24438 -5175.87708 -5155.94334 -5147.18983 -5105.21604 -5061.58099 -5020.67272 -4982.68113 -4847.82684 -4759.11705 -4430.95904 -3195.71193 -2932.07289 -2244.43502 -1766.55930 -1555.20081 -1231.93338 -1124.25967 -1022.41424 -967.33901 -882.34608 -831.43285 -754.34504 -719.87438 -726.46264 -730.35017 -616.82294 -514.05122 -462.79773 -460.50330 -383.98907 -280.52296 -222.67875 -195.03065 -154.11794 -133.76709 -119.38132 -106.69087 -93.06238 -79.66747 -57.06919 -44.82405 -28.38799 -13.65199 -1.38792 4.26290 10.20054 14.63995 14.69965 14.43315 14.98537 12.70204 6.88059 3.89724 -8.97968 -25.95603 -40.78718 -46.80694 -37.71863 -52.66403 -69.90461 -49.77708 12.06466 108.71160 399.95013 633.08782 505.63611 458.76033 126.07825 66.09219 14.01173 -33.35073 -44.03198 -58.07094 -105.77739 -143.61618 -644.20521 -2002.20288 -2989.40340 -3048.01373 -2997.21794 -2943.17215 -2968.99623 -2993.34266 -3094.28392 -3136.20959 -3220.65701 -3249.08137 -3300.75121 -3322.42090 -3349.04474 -3378.64332 -3402.58061 -3417.08235 -3428.68582 -3443.97641 -3447.49881 -3458.17428 -3457.64335 -3457.94296 -3433.54667 -3427.05388 -3405.91900 -3395.57463 -3371.66122 -3363.94311 -3355.26837 -3352.38825 -3352.48825
-5281.75048 -5281.65048 -5290.82941 -5298.12058 -5308.41144 -5311.93494 -5325.56671 -5331.27804 -5331.43974 -5343.76264 -5339.47260 -5364.13372 -5353.82784 -5352.99500 -5353.60487 -5354.93252 -5354.48675 -5353.09533 -5356.46453 -5359.64439 -5367.07406 -5356.67193 -5355.03581 -5355.22489 -5347.43500 -5345.03187 -5352.23048 -5330.00590 -5336.46674 -5327.91235 -5320.72112 -5312.87139 -5248.40985 -5238.07924 -5215.59442 -5208.15967 -5185.52022 -5158.18974 -5127.29235 -5065.44921 -5042.16661 -5008.92041 -4991.59379 -4962.19602 -4752.56445 -4288.70835 -3947.15199 -3004.29450 -2493.83223 -1844.90931 -1611.69808 -1172.23491 -1203.68867 -1170.78983 -1010.38136 -986.33761 -859.23054 -836.27976 -816.83960 -836.11301 -749.47954 -637.74293 -628.48697 -553.42911 -460.49063 -344.46926 -261.21262 -229.61515 -194.16654 -159.58352 -133.69949 -120.01414 -96.56340 -84.11432 -62.82684 -42.85249 -24.47897 -12.67549 -1.62273 4.40529 7.85915 10.99050 11.53462 10.92712 10.07546 9.45461 12.81307 20.02166 14.32396 -7.11849 -15.07632 -34.13578 -23.28835 -30.77692 -12.16371 -2.69853 161.93979 348.77157 516.56318 698.67655 503.76686 264.00773 57.91526 -38.60294 -54.32151 -93.35272 -100.19296 -105.17760 -149.74966 -654.89570 -1695.34787 -2660.38689 -2955.07658 -2950.80751 -2922.99073 -2940.92268 -2982.56205 -3036.87368 -3109.77350 -3183.18108 -3226.65909 -3281.43148 -3316.11045 -3344.16942 -3380.66989 -3410.96663 -3427.97679 -3446.53013 -3466.50686 -3472.47815 -3485.11206 -3491.42412 -3484.02725 -3481.49804 -3462.62314 -3443.35300 -3429.31759 -3413.13566 -3387.92409 -3370.26068 -3360.36607 -3352.39754 -3352.49754
-5304.53002 -5304.43002 -5313.23181 -5323.16820 -5335.76600 -5346.74502 -5361.70032 -5380.13142 -5384.74610 -5393.77023 -5416.96954 -5399.09434 -5402.67141 -5407.21887 -5385.25293 -5400.29590 -5396.52427 -5414.41611 -5415.25380 -5406.26841 -5395.64843 -5398.74496 -5403.67477 -5397.48469 -5400.70125 -5404.57830 -5390.94347 -5385.20513 -5373.08261 -5386.77654 -5354.82977 -5312.15016 -5298.13063 -5282.07307 -5278.67832 -5239.65576 -5209.53500 -5165.79344 -5163.11463 -5121.76442 -5099.74224 -5057.92850 -5025.41774 -4951.00614 -4934.45272 -4710.62349 -4555.87049 -4319.08084 -3793.99380 -2884.07451 -2289.38012 -1821.52802 -1629.87028 -1616.07348 -1277.28161 -1143.09592 -1047.26728 -1030.53113 -1448.35125 -1361.03443 -1148.99424 -884.46314 -713.98854 -627.80257 -479.60369 -409.62429 -359.23580 -301.15349 -243.26519 -210.02080 -146.16264 -126.54715 -112.35598 -92.29183 -59.33245 -41.75496 -34.89603 -13.85579 -2.32543 6.81157 8.45907 22.89766 32.12531 17.81443 20.09648 20.18040 41.90388 55.87541 54.95280 55.59678 29.92551 -19.29443 6.50860 19.32392 16.91565 121.00942 243.25969 475.96628 556.65551 447.98751 162.99532 84.93350 24.89434 -48.15715 -80.48793 -109.42021 -115.42503 -140.05347 -251.47047 -999.80587 -2924.69582 -2929.11535 -2962.75673 -2917.21761 -2923.99283 -2956.29570 -3024.20690 -3059.37459 -3148.93604 -3193.01284 -3266.08988 -3315.26762 -3354.76819 -3383.62173 -3415.43194 -3443.92695 -3470.62139 -3483.78950 -3501.70110 -3510.33533 -3516.05305 -3517.59753 -3506.65723 -3502.14803 -3482.70022 -3465.65470 -3449.33619 -3413.95476 -3395.98232 -3372.57429 -3362.09102 -3350.91820 -3351.01820
-5334.54657 -5334.44657 -5351.23456 -5370.14117 -5372.93587 -5385.89550 -5407.76334 -5424.40754 -5432.93233 -5443.42645 -5455.97755 -5451.76962 -5461.74414 -5454.33307 -5455.97746 -5453.38387 -5458.17604 -5465.88070 -5462.34829 -5463.00397 -5456.99626 -5476.15035 -5462.50802 -5463.45518 -5477.55842 -5463.59035 -5456.22429 -5446.62864 -5469.24805 -5427.53568 -5398.45296 -5370.47670 -5363.20241 -5366.60799 -5334.77659 -5282.21541 -5258.87317 -5235.14617 -5187.43306 -5181.30064 -5139.88161 -5119.18785 -5057.31311 -5013.55741 -4960.16346 -4923.33805 -4866.50097 -4782.03315 -4516.28978 -4114.04170 -3749.26797 -3707.49375 -3211.00712 -2880.86580 -2263.30098 -2945.80492 -2659.60672 -3092.70109 -2449.67692 -2110.18564 -1693.21176 -1312.13088 -923.81093 -648.89855 -509.67365 -431.02589 -418.12364 -336.05235 -279.52293 -231.07876 -202.26048 -151.97454 -114.59811 -86.56222 -58.64179 -40.45185 -33.52469 -26.39632 -11.40316 17.78218 27.83051 47.83992 50.91940 49.71703 56.16383 87.55533 106.89082 119.56534 88.66914 95.91172 72.60027 76.93198 54.83532 70.55924 193.56071 306.38094 346.65815 695.78637 647.59857 354.06260 92.26252 17.76519 -47.81317 -104.79752 -125.01230 -302.36993 -362.90943 -440.54067 -1192.67401 -2378.43601 -3119.18770 -2964.14012 -2942.25577 -2929.58147 -2944.54451 -2982.82791 -3051.84393 -3105.38840 -3165.35772 -3217.86375 -3280.96317 -3344.87729 -3372.84236 -3416.97035 -3447.71458 -3477.31628 -3498.93821 -3517.31307 -3527.39800 -3536.05587 -3540.87148 -3540.86468 -3526.90549 -3516.48587 -3497.23018 -3472.55081 -3449.48718 -3422.47492 -3395.61667 -3377.22009 -3358.33650 -3347.22531 -3347.32531
-5372.85064 -5372.75064 -5393.59423 -5402.93173 -5431.19741 -5449.39711 -5453.89199 -5469.72512 -5481.08329 -5508.71418 -5529.77041 -5528.58135 -5534.93112 -5552.40418 -5567.37659 -5548.97072 -5539.80198 -5537.28169 -5534.91654 -5520.34714 -5534.85516 -5532.17900 -5551.60213 -5549.52369 -5544.15327 -5533.10815 -5518.73803 -5538.08372 -5531.18652 -5502.80177 -5473.55662 -5477.80311 -5430.10748 -5415.55955 -5396.60007 -5364.57193 -5324.66734 -5290.82216 -5300.86645 -5241.42750 -5187.25522 -5176.82476 -5112.79804 -5058.92850 -5016.83987 -4967.31631 -4912.47707 -4858.04807 -4794.48657 -4654.84822 -4623.43820 -4480.18153 -4104.35785 -4118.45933 -3540.27360 -3928.74709 -3828.16293 -3700.08576 -3658.97445 -3194.98412 -2230.36696 -1618.13415 -1056.38069 -657.44915 -543.02786 -459.70431 -448.85486 -405.62176 -290.21495 -251.21560 -223.75485 -190.02880 -107.88350 -91.67273 -77.43323 -44.63751 -35.37161 -11.52129 -1.70863 34.68101 49.43259 65.23723 65.06407 75.98014 89.33624 121.44381 134.24978 141.34650 143.91434 145.91496 131.25733 194.63268 186.83363 286.09599 455.53447 585.55726 764.94536 969.90619 631.00295 341.37479 56.94005 -68.32706 -122.73192 -198.40244 -315.06408 -420.58609 -1514.16968 -1044.17067 -2106.44120 -2575.51320 -3090.93267 -2971.96217 -2943.46119 -2947.88839 -2986.72879 -3009.86994 -3080.49535 -3137.44743 -3196.64962 -3280.24223 -3328.81404 -3383.45751 -3421.29128 -3456.17989 -3470.39831 -3505.17785 -3529.17574 -3546.73717 -3553.11427 -3555.15459 -3555.82877 -3548.28332 -3532.43856 -3517.75638 -3497.65504 -3470.72924 -3452.29899 -3412.71135 -3392.14905 -3372.80602 -3354.46996 -3341.92606 -3342.02606
-5420.31348 -5420.21348 -5449.06156 -5454.40407 -5506.01584 -5523.35512 -5541.39958 -5567.45985 -5568.05618 -5589.17171 -5599.36077 -5592.90001 -5588.41696 -5608.79735 -5605.25878 -5617.51760 -5625.29800 -5593.03502 -5629.76847 -5647.46069 -5605.99146 -5601.33309 -5622.30414 -5611.41293 -5625.12837 -5623.31218 -5591.55290 -5604.82949 -5583.55662 -5606.18647 -5556.87094 -5554.30576 -5522.34399 -5498.43786 -5495.36424 -5449.03330 -5454.73808 -5412.17720 -5357.95239 -5320.99790 -5283.62160 -5251.66751 -5227.79221 -5145.51435 -5076.69591 -5030.50800 -4927.85753 -4890.00031 -4799.35687 -4762.68034 -4687.28429 -4635.11590 -4610.62923 -4568.88144 -4536.76275 -4461.67988 -4379.13327 -4191.21784 -3829.00235 -3084.70163 -2459.42449 -1704.69272 -1206.55123 -847.50185 -624.85483 -503.90231 -430.35097 -379.92179 -311.76689 -271.33936 -241.07790 -178.05663 -122.09400 -85.33356 -63.16718 -44.03148 -32.68859 5.53258 36.10249 41.41652 64.29851 75.66048 80.89307 93.65880 123.54620 147.44818 153.69191 156.38931 153.33336 349.79774 280.54739 425.07054 523.24418 762.93689 1026.97586 1376.34491 1208.78559 1008.37309 803.08028 457.67046 104.69596 -90.54453 -195.16208 -346.68580 -852.24148 -1569.17140 -2720.70781 -2760.10166 -3326.72523 -3106.71941 -3011.54295 -2965.25826 -2961.02992 -2970.51019 -3001.92375 -3028.78816 -3110.36603 -3183.80735 -3260.28100 -3309.26447 -3340.23925 -3441.04311 -3458.76357 -3496.01280 -3517.12400 -3543.44229 -3554.57377 -3562.26824 -3569.40209 -3566.92467 -3559.68407 -3547.53065 -3525.09851 -3510.21523 -3486.71925 -3464.73502 -3437.39654 -3408.25438 -3388.71130 -3366.00106 -3346.50074 -3334.92170 -3335.02170
-5478.14897 -5478.04897 -5505.88438 -5534.56498 -5563.21343 -5572.30802 -5606.49356 -5630.13487 -5641.33655 -5674.42305 -5693.04447 -5711.52591 -5693.37145 -5712.10068 -5703.86066 -5702.47755 -5714.50089 -5690.85377 -5707.26139 -5700.70090 -5696.36641 -5702.81224 -5687.67730 -5677.21927 -5664.56308 -5686.79930 -5698.87382 -5682.56839 -5681.20993 -5654.53807 -5642.27545 -5621.54833 -5593.58430 -5584.55045 -5576.89151 -5527.68520 -5502.06919 -5487.76103 -5450.97126 -5432.80196 -5396.19986 -5323.45229 -5284.89042 -5206.07991 -5199.53504 -5082.96473 -5028.54739 -4963.96479 -4877.96170 -4804.94818 -4735.73849 -4680.99965 -4646.19390 -4608.63685 -4572.74540 -4519.47193 -4474.52650 -4270.10090 -4011.82721 -3384.63387 -2385.99808 -1906.66911 -1461.02020 -1036.80784 -690.67348 -583.22327 -436.94956 -379.49309 -331.47267 -265.77861 -230.25182 -163.91972 -116.27280 -85.08507 -40.60222 -28.71568 -6.07664 21.61098 42.68799 57.91451 82.15084 86.66101 90.86807 124.92231 155.14551 162.92323 213.17754 308.90067 372.04975 690.14773 796.01828 1011.32602 1058.43134 1298.06028 1400.85486 1735.62393 1720.19095 1312.57319 1021.63455 578.61973 109.75849 -87.66899 -499.84124 -609.11759 -1175.81736 -2830.56289 -3298.94489 -3396.63584 -3200.18166 -3039.89794 -2985.04532 -2973.24844 -2987.47514 -3002.08001 -3041.16413 -3077.65024 -3144.45075 -3220.02106 -3283.33471 -3367.16400 -3419.36523 -3468.58937 -3494.67590 -3524.17899 -3547.46905 -3556.42949 -3574.78524 -3576.26062 -3573.27978 -3567.57866 -3553.97577 -3541.16305 -3519.38115 -3489.82251 -3477.00622 -3446.97248 -3427.84183 -3406.80265 -3371.42619 -3351.37122 -3338.66274 -3326.95611 -3327.05611
-5542.90294 -5542.80294 -5567.15571 -5603.43029 -5643.41766 -5665.11302 -5694.01677 -5727.24901 -5728.26318 -5763.08244 -5764.86113 -5769.27759 -5787.42242 -5778.58046 -5793.80165 -5780.46322 -5776.67211 -5776.48663 -5771.47783 -5775.90017 -5770.15965 -5766.28177 -5771.43221 -5763.75964 -5759.84011 -5767.18867 -5775.46507 -5753.21567 -5742.91436 -5739.51140 -5715.40124 -5681.85713 -5694.42679 -5670.61779 -5652.76753 -5620.13529 -5597.49915 -5575.50280 -5547.44770 -5503.49534 -5467.90001 -5445.41617 -5386.88729 -5329.49049 -5266.36380 -5233.74095 -5128.76286 -5050.73265 -4980.90740 -4920.18495 -4815.41413 -4739.54901 -4699.88788 -4636.88351 -4608.07193 -4573.78714 -4512.94322 -4376.03244 -4048.61525 -3315.63497 -2615.59017 -2227.24952 -1633.66235 -1052.68249 -794.43695 -607.28617 -506.83637 -393.88766 -342.40354 -280.75982 -182.62159 -128.41928 -92.37996 -52.67576 -14.27120 -8.52133 4.89168 32.93391 58.68013 71.41089 104.78564 108.24677 111.54538 145.17292 174.83126 193.70949 302.03224 540.07168 680.47124 1094.82318 1558.46531 1699.18795 1844.16994 1602.66012 1386.77140 1643.10320 1518.37198 953.48096 753.88986 75.88678 -536.34489 -669.80446 -731.70258 -1797.67505 -1914.65211 -3640.97312 -3626.19196 -3263.61400 -3087.68888 -2993.20547 -2990.45877 -2994.93997 -3018.30798 -3028.59619 -3072.21135 -3126.25863 -3167.26396 -3281.02249 -3351.80268 -3390.12176 -3456.87190 -3507.21538 -3537.39202 -3553.32164 -3567.11095 -3576.31904 -3581.42271 -3577.45076 -3565.74665 -3554.10412 -3536.05613 -3518.66751 -3500.24109 -3467.42648 -3451.51227 -3428.21596 -3409.01880 -3383.54051 -3360.28837 -3343.76421 -3330.50216 -3318.90129 -3319.00129
-5612.70805 -5612.60805 -5637.02256 -5682.63558 -5700.17674 -5724.77375 -5784.30555 -5800.11928 -5811.54958 -5826.26139 -5850.12874 -5850.44080 -5837.67075 -5849.83654 -5841.79325 -5843.36104 -5837.41818 -5829.93706 -5843.41001 -5835.78780 -5828.49737 -5806.82580 -5807.58729 -5804.53443 -5805.63031 -5810.17848 -5803.11674 -5805.70320 -5794.43334 -5781.12036 -5765.03534 -5760.78917 -5733.38652 -5719.71979 -5721.33449 -5677.87391 -5670.48181 -5611.31190 -5607.80234 -5576.99717 -5528.47491 -5488.58001 -5453.19564 -5395.50006 -5343.74557 -5290.29540 -5205.43684 -5131.61452 -5057.71899 -4987.52518 -4897.12089 -4808.51264 -4732.15032 -4669.33855 -4608.37168 -4573.06994 -4486.41358 -4330.41002 -4056.67588 -3163.98500 -2664.29490 -2030.26840 -1608.58328 -1143.02819 -916.77028 -697.30429 -586.95562 -396.37300 -328.76012 -242.66833 -177.21362 -80.07356 -47.80153 -29.40030 -1.49904 19.89867 28.36044 44.93289 86.25719 138.33555 139.73474 136.34782 119.73451 182.42284 308.28539 367.94261 486.98356 898.48511 1307.14423 1581.83916 1766.90697 1796.19977 1408.73467 1292.44012 1032.83312 705.68315 756.25604 432.72578 -109.40664 -321.93810 -1700.54705 -3134.10097 -3901.14204 -3687.78330 -3646.58388 -3604.81786 -3281.24872 -3136.42332 -2987.74282 -3001.45572 -3014.22336 -3033.01027 -3046.99674 -3090.33086 -3120.24664 -3180.92779 -3251.97130 -3322.61819 -3371.02359 -3421.46869 -3484.04187 -3526.90537 -3558.44779 -3570.79100 -3580.39892 -3583.24199 -3580.61282 -3571.23136 -3561.97771 -3535.38787 -3522.99923 -3509.44947 -3476.41628 -3448.08036 -3433.06750 -3410.39620 -3392.58323 -3371.47516 -3343.81307 -3333.75098 -3324.36800 -3310.53829 -3310.63829
-5681.65574 -5681.55574 -5706.11151 -5751.95061 -5784.11178 -5811.73362 -5824.17699 -5854.95455 -5861.11966 -5895.28966 -5889.77935 -5896.86299 -5895.49956 -5898.33067 -5890.38593 -5878.26683 -5891.68274 -5882.53352 -5880.12360 -5871.99960 -5863.71560 -5861.92075 -5856.43211 -5847.53094 -5842.57134 -5840.41638 -5842.58063 -5825.72243 -5815.36202 -5801.76434 -5786.15137 -5788.00788 -5775.08912 -5744.92474 -5739.49077 -5729.42277 -5701.90839 -5688.71863 -5662.29340 -5640.55562 -5606.14906 -5561.59518 -5536.23214 -5469.44410 -5420.50379 -5362.04870 -5292.29567 -5209.43874 -5121.99750 -5038.73232 -4939.36920 -4833.62542 -4792.92627 -4696.48517 -4518.30987 -4451.04688 -4449.06358 -4350.16447 -3964.24211 -3322.63425 -2992.69330 -2168.11611 -1719.63613 -1374.33688 -1099.61079 -823.54449 -580.14555 -469.31840 -339.27669 -258.93441 -141.00004 -54.41353 -26.21250 -3.96224 17.83087 36.58764 60.86099 68.15262 121.10926 171.64379 189.01399 357.29736 710.27327 515.58975 571.49280 773.09634 1027.24077 1195.85722 1426.34355 1548.97401 1497.48018 922.56606 848.15570 887.37869 736.08105 182.05301 233.90983 112.43966 -723.94112 -986.62234 -2847.55679 -3902.52490 -3850.18899 -3632.17752 -3441.48708 -3323.86356 -3100.66607 -3013.87815 -3001.51751 -3021.65934 -3068.41046 -3078.43014 -3101.53923 -3120.31017 -3163.62809 -3214.86484 -3289.02788 -3366.47657 -3419.50696 -3493.48895 -3533.82357 -3550.04018 -3575.72347 -3584.20770 -3586.41709 -3579.91335 -3569.10396 -3557.48148 -3531.52970 -3513.01847 -3488.96710 -3465.61063 -3450.08637 -3426.79674 -3404.47783 -3388.68505 -3365.58619 -3352.39778 -3337.90321 -3325.19572 -3315.38645 -3303.68941 -3303.78941
-5747.00192 -5746.90192 -5779.61346 -5801.37968 -5838.73967 -5863.41009 -5904.75504 -5901.15704 -5922.73872 -5927.70591 -5929.80879 -5928.92713 -5927.82275 -5927.78681 -5917.90778 -5919.39247 -5907.97553 -5902.43260 -5899.23488 -5892.71272 -5885.13549 -5876.70639 -5871.19805 -5866.44237 -5856.15719 -5854.16253 -5846.68877 -5836.35550 -5825.29308 -5814.57222 -5807.69570 -5799.21336 -5788.35807 -5778.58602 -5765.61263 -5744.50742 -5727.29554 -5709.21733 -5701.91952 -5681.20914 -5641.07052 -5623.13450 -5576.47525 -5514.15016 -5475.72050 -5395.30475 -5351.25705 -5268.67455 -5197.84639 -5016.43703 -4771.09316 -4429.41769 -4244.36737 -4305.23059 -4052.92998 -4366.96749 -4427.12178 -4364.15928 -4156.84139 -3915.74973 -3170.46636 -2914.05954 -1634.73644 -1247.75193 -1043.22899 -748.69468 -684.48176 -546.54528 -368.27821 -240.48735 -198.60329 -25.76855 -17.30350 26.99318 149.61517 238.48834 311.55518 279.12328 268.53376 448.13545 435.54150 692.54112 954.03172 1107.56619 1036.24022 819.23942 751.04068 912.01985 1063.34128 922.84942 780.72568 339.73084 647.66185 509.17682 262.56721 -73.00226 -205.01423 -477.45941 -1554.22982 -2088.10146 -2994.45213 -3726.01196 -3604.07461 -3373.56504 -3166.36660 -3134.11629 -3059.69563 -3035.14890 -3040.72022 -3061.93398 -3105.88970 -3134.09404 -3135.86415 -3164.62392 -3231.80942 -3279.66993 -3343.20901 -3390.74821 -3461.35621 -3505.30848 -3547.37392 -3573.11703 -3587.12262 -3587.80048 -3579.12598 -3565.70228 -3559.79275 -3533.53048 -3510.43519 -3493.17254 -3462.45297 -3454.10878 -3418.90967 -3400.47024 -3388.76315 -3365.82196 -3352.87240 -3337.20397 -3327.24435 -3315.37905 -3303.97450 -3297.66742 -3297.76742
-5802.52964 -5802.42964 -5829.16134 -5846.53178 -5870.35253 -5891.29224 -5919.23810 -5926.94803 -5941.46773 -5947.77291 -5946.95379 -5946.75677 -5945.49538 -5937.58119 -5932.82908 -5926.12678 -5918.46722 -5912.86695 -5905.98862 -5892.91601 -5888.65478 -5881.21448 -5873.21855 -5864.15586 -5860.53942 -5849.90171 -5840.30569 -5833.11277 -5818.39516 -5809.75286 -5802.39933 -5797.86429 -5790.18351 -5776.95961 -5761.74943 -5750.11383 -5739.99751 -5729.28916 -5713.35735 -5697.24997 -5677.21628 -5649.12481 -5618.63071 -5578.99832 -5517.80042 -5448.75594 -5387.42383 -5335.19068 -5279.87320 -4753.09028 -4135.51233 -3464.58056 -2788.99773 -2839.80151 -2790.57095 -3658.04689 -4184.80155 -4215.33242 -4175.87336 -3932.94096 -3723.88707 -3210.23754 -1954.05958 -1395.65468 -1005.79822 -915.18333 -701.82059 -480.10680 -296.41010 -170.28305 -117.95078 115.48174 344.47756 412.21987 580.49592 670.36019 741.55716 883.01210 806.22652 921.20844 1113.57209 925.63366 955.21621 1008.06432 792.34425 510.15169 358.04782 419.44529 606.88704 707.43847 544.80657 241.07416 307.18517 348.91901 -24.19792 -1178.79229 -1788.09013 -1174.80319 -2047.67186 -3292.10481 -3596.23044 -3512.05517 -3411.69394 -3206.19621 -3162.47431 -3132.53904 -3081.04290 -3066.17076 -3067.78212 -3097.01136 -3142.36809 -3193.87914 -3204.42910 -3209.84275 -3267.78369 -3326.20691 -3389.28654 -3435.53278 -3493.17871 -3524.29000 -3567.12801 -3584.23778 -3588.69446 -3582.66179 -3569.81001 -3552.68287 -3535.23884 -3505.97095 -3483.19825 -3458.56168 -3445.91782 -3414.23298 -3397.03818 -3380.16452 -3363.09557 -3354.30890 -3339.32597 -3326.84854 -3314.85723 -3304.09365 -3298.61361 -3293.26693 -3293.36693
-5848.80105 -5848.70105 -5871.77298 -5892.71355 -5914.36674 -5930.29434 -5939.88168 -5945.26093 -5950.91127 -5953.06617 -5952.98915 -5946.23751 -5942.24377 -5935.01210 -5924.76129 -5919.29254 -5913.88297 -5904.68339 -5894.74703 -5885.83691 -5875.52136 -5867.98626 -5859.33516 -5849.41651 -5834.27137 -5825.15318 -5816.72964 -5810.42131 -5805.28059 -5789.89491 -5780.44949 -5775.74030 -5776.29123 -5766.15224 -5758.89652 -5747.88974 -5741.58683 -5731.24407 -5721.17479 -5697.49723 -5677.57570 -5656.16110 -5628.98185 -5585.02784 -5549.48537 -5513.61938 -5454.59175 -5315.94222 -5182.66790 -4388.65677 -3340.87923 -2640.18803 -2101.80907 -2005.49642 -2107.58133 -2975.27570 -3276.62996 -4005.47481 -4187.03178 -3872.41887 -3523.28924 -3035.15311 -2137.87378 -1690.53078 -1195.81258 -930.90728 -872.13746 -583.70205 -345.91908 -109.87310 -45.53262 89.02843 462.02625 908.97514 1136.29080 1174.04112 1317.32016 1529.92829 1400.34672 1236.40198 1170.36521 812.44371 679.93373 716.58946 317.75770 323.08148 184.49060 289.05321 410.85785 475.74506 395.23249 237.65744 -8.12687 56.05307 -1295.66780 -2880.50132 -2839.54746 -2699.86491 -3030.74984 -3499.49213 -3601.47420 -3491.00598 -3307.97898 -3222.40782 -3180.16304 -3136.24083 -3116.55642 -3102.32685 -3102.77658 -3120.40746 -3189.98110 -3220.37380 -3251.98496 -3278.85965 -3324.91072 -3358.25747 -3420.06993 -3462.02877 -3520.83766 -3548.14030 -3577.24025 -3584.71664 -3580.50638 -3567.81458 -3560.22265 -3539.57493 -3513.25307 -3482.93930 -3465.95078 -3426.43811 -3413.51277 -3395.11200 -3375.17817 -3360.85601 -3343.67416 -3333.00759 -3322.36972 -3313.26193 -3307.83587 -3297.65283 -3294.66153 -3290.61068 -3290.71068
-5880.59736 -5880.49736 -5894.01402 -5913.54026 -5926.03339 -5938.52799 -5944.93014 -5946.78095 -5948.33036 -5943.41482 -5946.39413 -5937.63331 -5927.94864 -5922.56619 -5908.86798 -5901.89280 -5892.06374 -5880.47028 -5874.96595 -5859.72323 -5856.97329 -5838.54647 -5837.75390 -5824.02181 -5812.66093 -5801.07296 -5792.06663 -5780.60336 -5778.59961 -5768.52306 -5761.48955 -5759.67546 -5752.00647 -5748.90892 -5742.70879 -5738.67126 -5734.44698 -5727.48768 -5717.82290 -5705.79352 -5688.82508 -5660.45951 -5628.56265 -5586.58075 -5557.26231 -5523.22887 -5477.40432 -5315.45673 -4716.82378 -3847.72365 -2733.26824 -2154.89585 -1675.45576 -1586.03854 -1754.73516 -2169.55222 -3082.27758 -3051.47176 -3190.49017 -2637.48417 -2226.52621 -1914.52708 -1841.57141 -1187.11923 -946.83670 -956.65898 -842.36331 -654.13420 -293.12648 -39.76827 58.77089 253.99765 623.63681 851.02965 1029.18188 990.80289 1059.97456 1259.23447 931.36087 904.17091 616.20986 357.00483 261.98658 193.65363 147.27686 244.92298 103.30336 206.86347 179.83973 118.94970 -281.16033 -118.39077 -532.41029 -729.72235 -1276.00353 -2323.64781 -3264.66697 -3370.10133 -3589.15419 -3609.59415 -3567.83486 -3459.00403 -3333.82952 -3234.85739 -3204.39279 -3170.70145 -3137.65474 -3122.31867 -3135.83947 -3182.50394 -3242.04410 -3283.81937 -3283.87841 -3298.56017 -3354.56367 -3406.45352 -3451.84875 -3510.27376 -3546.43528 -3568.65706 -3578.03507 -3576.13112 -3569.63370 -3554.11068 -3536.75490 -3511.83081 -3487.25928 -3450.44161 -3439.21102 -3410.68467 -3389.15047 -3372.00685 -3355.70346 -3346.17574 -3326.82742 -3322.70040 -3309.37513 -3304.30602 -3301.41260 -3294.95796 -3291.92512 -3289.39575 -3289.49575
-5899.71111 -5899.61111 -5912.12766 -5920.29036 -5932.07364 -5937.51984 -5938.53304 -5936.50338 -5932.21625 -5926.83643 -5919.02040 -5911.12742 -5911.53409 -5896.76717 -5886.46953 -5883.58028 -5870.41033 -5858.92368 -5849.26641 -5839.53821 -5832.69339 -5813.16513 -5799.81431 -5789.97630 -5790.73600 -5772.35093 -5761.81087 -5746.77814 -5735.26248 -5732.44874 -5727.76095 -5721.06644 -5724.72623 -5727.74149 -5725.77696 -5727.29314 -5724.96059 -5722.04838 -5710.94870 -5702.12452 -5684.85785 -5664.48233 -5630.27149 -5590.27389 -5543.53101 -5478.57258 -5330.05374 -4979.91062 -4252.16367 -3183.20705 -2497.67126 -1747.94639 -1604.81736 -1521.83469 -1566.70183 -1783.07601 -1962.63709 -2125.43101 -2061.12566 -1871.51797 -1465.32202 -1299.55722 -1064.89157 -869.30179 -816.82744 -762.76040 -726.27886 -519.83458 -273.91464 -69.19220 -41.36506 -2.12030 233.49400 433.80090 441.79286 370.51211 244.59773 424.89681 459.16650 395.47647 77.65662 161.49319 108.43158 125.02057 70.84793 110.40272 71.39434 68.37426 67.43942 -527.81591 -845.72309 -1211.79877 -2199.15437 -2004.23093 -1581.27816 -2999.09647 -3507.03564 -3638.34511 -3627.72910 -3628.79382 -3546.04691 -3426.66026 -3324.15546 -3251.96474 -3225.25399 -3195.63873 -3161.89818 -3150.41342 -3178.23119 -3195.49537 -3263.44004 -3326.15752 -3333.49168 -3364.88780 -3400.33278 -3431.61348 -3483.20841 -3526.61615 -3554.57234 -3573.56553 -3575.62564 -3566.64809 -3554.83474 -3539.50109 -3516.41500 -3484.43800 -3468.88366 -3434.89262 -3406.11954 -3394.62913 -3367.13119 -3350.80277 -3342.61314 -3323.50996 -3316.79837 -3309.46078 -3303.37202 -3297.94336 -3294.11560 -3291.41489 -3290.87343 -3289.96031 -3290.06031
-5908.57279 -5908.47279 -5915.73409 -5921.14075 -5925.38730 -5927.05648 -5924.43348 -5918.93260 -5916.50174 -5910.15214 -5903.93987 -5893.20679 -5879.61258 -5873.56898 -5862.47546 -5851.56847 -5836.50082 -5835.01403 -5815.86670 -5805.92884 -5794.63549 -5789.27062 -5773.21204 -5765.38065 -5751.66118 -5739.43673 -5727.71052 -5715.17561 -5702.75285 -5697.90192 -5702.64536 -5704.26371 -5701.53221 -5704.67368 -5706.13076 -5709.78324 -5714.33100 -5708.52237 -5703.21473 -5699.64825 -5680.74423 -5663.26232 -5641.11811 -5601.70855 -5404.47465 -5085.75359 -4837.14743 -3947.02253 -3460.74268 -2484.65146 -1975.59899 -1677.50586 -1532.64771 -1470.39470 -1443.26571 -1493.23464 -1552.40530 -1489.01055 -1403.49383 -1202.96328 -1007.61276 -937.62263 -901.49408 -703.44855 -553.16367 -443.53517 -395.14289 -369.22005 -231.92977 -165.18917 -150.75189 -92.32752 -37.50919 10.10121 95.28486 42.15596 44.89889 86.52698 58.54220 -2.29563 -28.67752 -39.63768 63.43864 99.59698 22.67285 -80.99755 -106.96834 -309.25091 -1577.16335 -3031.40240 -3953.97276 -3530.43403 -2842.02654 -2857.20150 -2465.24281 -3446.66760 -3640.64849 -3639.73339 -3618.67915 -3584.82621 -3499.07897 -3404.28598 -3327.35655 -3271.89508 -3234.00405 -3204.43238 -3182.92554 -3190.05586 -3210.89530 -3267.95360 -3342.62324 -3366.71943 -3366.39616 -3391.02029 -3424.99692 -3476.25739 -3504.65659 -3533.48945 -3560.55540 -3573.10292 -3569.58414 -3554.11719 -3535.00851 -3520.27343 -3497.02388 -3466.80170 -3439.71512 -3416.88796 -3386.04307 -3375.69384 -3351.70237 -3339.05265 -3327.47632 -3319.58734 -3310.60148 -3302.71529 -3298.00733 -3294.53401 -3292.87130 -3291.75659 -3291.37892 -3291.89963 -3291.99963
-5906.41121 -5906.31121 -5909.67473 -5914.20037 -5912.74641 -5908.47436 -5907.73507 -5902.72355 -5895.36255 -5886.57427 -5870.19346 -5867.90026 -5857.55529 -5854.41675 -5836.99576 -5827.56943 -5815.99288 -5806.91603 -5793.05030 -5784.16157 -5779.07095 -5757.87726 -5745.82877 -5742.69215 -5725.21540 -5713.52192 -5694.04308 -5691.49123 -5678.90352 -5668.31399 -5670.87804 -5658.99266 -5675.69139 -5681.37717 -5690.14249 -5696.04572 -5705.16273 -5704.39526 -5707.15155 -5709.94558 -5696.53688 -5658.80087 -5623.43165 -5534.97241 -4651.05160 -4276.27746 -3635.37086 -2975.05493 -2379.09810 -2007.43072 -1690.20337 -1599.06975 -1483.13848 -1411.64850 -1400.07055 -1399.94047 -1383.37507 -1343.75818 -1214.86419 -1086.92452 -998.90883 -920.91353 -780.87502 -502.64262 -345.54436 -246.07988 -97.17162 -68.46141 -153.39863 -247.20245 -355.32209 -194.60916 -123.79835 -85.99379 -55.77001 -44.13892 -20.00923 -6.54628 -87.63552 -177.54698 -136.49456 -134.70892 -25.08074 -41.16759 -217.89444 -256.12039 -290.16131 -1211.44973 -2813.16221 -3957.05132 -3953.52136 -3843.69964 -3583.85592 -3413.82174 -3358.47481 -3452.08894 -3639.43957 -3629.50670 -3614.21902 -3534.57919 -3466.78445 -3400.40554 -3341.15405 -3285.69431 -3249.73320 -3218.06681 -3207.09794 -3220.72199 -3260.68318 -3317.17401 -3407.65577 -3438.38638 -3417.80740 -3423.33204 -3456.94305 -3483.96559 -3513.76882 -3538.41931 -3555.12772 -3559.54482 -3551.89980 -3530.79369 -3525.70745 -3509.23230 -3468.22270 -3436.00499 -3420.79609 -3391.41772 -3370.20227 -3355.79737 -3338.23561 -3327.37509 -3319.52271 -3307.77550 -3302.56428 -3298.45313 -3294.98831 -3292.82702 -3292.52363 -3292.75274 -3293.98534 -3295.04874 -3295.14874
-5898.97918 -5898.87918 -5898.25066 -5896.70051 -5894.42442 -5894.53725 -5889.74225 -5880.29117 -5871.78860 -5867.66209 -5855.76060 -5848.16807 -5835.09817 -5821.06607 -5810.10877 -5800.41684 -5784.77218 -5782.43868 -5767.35251 -5756.77948 -5748.45283 -5739.53682 -5735.50923 -5708.51851 -5694.89970 -5685.02564 -5669.76707 -5655.82069 -5645.08441 -5648.83554 -5646.07207 -5643.09193 -5644.41269 -5652.57623 -5666.56829 -5676.83364 -5695.62244 -5702.16231 -5708.90922 -5713.04202 -5707.60461 -5694.02774 -5505.92283 -5179.80035 -3879.72941 -3467.85555 -3091.08295 -2335.30192 -1943.33408 -1779.62281 -1575.64348 -1481.78751 -1390.14985 -1428.09523 -1402.41714 -1550.49216 -1498.94719 -1294.67313 -1121.78948 -1081.17563 -1023.04674 -972.30984 -905.89513 -462.69046 -212.63104 -75.09893 288.52719 431.96936 145.86006 -183.52648 -435.79447 -362.67276 -288.17988 -268.62330 -299.83582 -98.19708 -65.31759 -320.74862 -410.12771 -376.37107 -528.42368 -365.66611 -820.09210 -2085.55462 -2061.78387 -1828.13690 -1953.77179 -2692.44740 -3533.82065 -3963.51769 -3941.10184 -3848.72686 -3797.05034 -3761.40085 -3736.86071 -3699.79763 -3640.40269 -3635.07685 -3574.70641 -3506.71822 -3454.13705 -3415.01568 -3340.91809 -3290.64085 -3265.83381 -3231.93566 -3231.71037 -3253.83447 -3300.75888 -3379.65177 -3453.22652 -3465.36326 -3450.25130 -3460.61952 -3473.57120 -3501.28777 -3518.65560 -3534.38907 -3549.48411 -3542.03078 -3530.40164 -3515.72568 -3495.22141 -3477.60991 -3454.04947 -3427.65492 -3398.06975 -3372.89531 -3358.21141 -3346.97221 -3326.39339 -3318.48483 -3310.47482 -3304.83727 -3299.99157 -3296.11299 -3294.37710 -3293.42416 -3293.90904 -3295.65812 -3297.32169 -3299.29447 -3299.39447
-5886.33356 -5886.23356 -5883.88825 -5882.66631 -5879.42035 -5875.36029 -5865.81633 -5863.66884 -5856.19664 -5846.85074 -5834.65886 -5825.03249 -5813.67153 -5806.97463 -5794.95114 -5783.97706 -5775.77773 -5759.12884 -5751.21598 -5742.96943 -5734.04792 -5722.64094 -5702.82582 -5686.85373 -5672.92203 -5659.21996 -5643.34362 -5628.94998 -5625.30752 -5614.25820 -5618.03933 -5620.37863 -5627.65678 -5643.91641 -5651.90572 -5670.84200 -5688.44128 -5697.29685 -5713.35062 -5733.50145 -5737.91372 -5719.12348 -5215.87296 -4595.86391 -3666.44190 -2617.48688 -2100.13605 -1866.33837 -1720.68318 -1623.18525 -1465.13405 -1410.27306 -1472.60394 -1609.46444 -1992.51986 -2011.73600 -1742.95508 -1357.10772 -1139.37679 -1129.57642 -1079.14752 -1121.77933 -1039.54303 -268.12279 -55.24109 262.45764 636.44197 745.36843 463.28624 -238.78163 -819.69418 -884.30954 -958.33379 -1135.29614 -1065.46421 -671.33625 -542.18637 -784.24993 -1054.16108 -1847.74694 -2216.20418 -1781.21680 -2675.44110 -3191.57180 -3417.57167 -3570.80257 -3455.64983 -3535.25705 -4001.49391 -3965.81033 -3925.88500 -3858.42487 -3826.87198 -3785.61559 -3758.96090 -3734.08811 -3667.60496 -3628.07806 -3563.12217 -3505.49984 -3441.52147 -3405.83988 -3345.22672 -3296.83166 -3265.49593 -3250.61179 -3279.74806 -3298.04308 -3373.12229 -3425.14925 -3503.39572 -3499.84857 -3489.15382 -3484.22426 -3486.16961 -3499.69950 -3514.66112 -3527.79978 -3533.62769 -3528.81317 -3522.30096 -3498.29476 -3479.50914 -3468.02492 -3440.06507 -3406.45151 -3379.86220 -3362.70091 -3347.22661 -3331.89955 -3323.66386 -3314.79107 -3306.58066 -3298.75092 -3296.94454 -3295.35282 -3294.71083 -3295.69192 -3296.45933 -3299.81666 -3302.12625 -3304.45459 -3304.55459
-5871.67960 -5871.57960 -5869.60358 -5864.97376 -5860.64563 -5858.49252 -5851.34286 -5847.34882 -5838.96772 -5832.84912 -5819.50672 -5813.21695 -5799.81884 -5792.02218 -5781.51873 -5769.37747 -5757.05596 -5743.37867 -5733.09623 -5725.30392 -5712.98781 -5702.66828 -5685.62176 -5671.54385 -5658.44267 -5647.50656 -5634.07580 -5613.72873 -5602.56175 -5591.79280 -5590.66605 -5593.73046 -5600.87292 -5619.16031 -5637.66083 -5656.15302 -5674.46229 -5709.47868 -5709.80073 -5728.56732 -5733.87663 -5612.55721 -4978.93067 -4246.28706 -3041.57096 -2185.55931 -1967.03942 -1775.29987 -1751.14305 -1650.16076 -1515.28967 -1391.19176 -1721.46414 -2200.95419 -2868.09200 -2925.00177 -2628.47054 -1651.01850 -1371.71193 -1412.07635 -1698.81350 -1527.96589 -1609.71726 -727.76040 58.46493 565.12013 723.95711 611.00542 335.56987 -617.71722 -1468.19486 -1568.62625 -1871.36121 -2034.13815 -2205.24115 -1490.18673 -1469.76555 -2494.11335 -3391.94284 -3935.03415 -3665.00875 -4235.21692 -3978.91644 -4176.22589 -4161.08569 -4109.25558 -4043.06190 -4018.03169 -4028.52887 -3977.44077 -3888.77054 -3834.07888 -3804.68142 -3770.90978 -3750.90011 -3735.89666 -3673.24751 -3611.12928 -3550.40498 -3494.50622 -3445.23552 -3393.89078 -3351.49522 -3302.86852 -3284.93512 -3291.80032 -3309.04681 -3357.73228 -3401.80265 -3488.60503 -3566.49523 -3549.05082 -3531.86748 -3513.40355 -3507.89963 -3503.73918 -3505.77241 -3517.76815 -3519.12333 -3519.19365 -3509.39959 -3480.49751 -3467.27910 -3442.19402 -3420.87680 -3392.67820 -3367.50987 -3354.01656 -3336.13324 -3324.77182 -3316.96116 -3307.03835 -3302.75238 -3299.46511 -3297.25435 -3296.79678 -3297.39596 -3299.03107 -3301.95370 -3304.76440 -3307.45414 -3310.34279 -3310.44279
-5855.95683 -5855.85683 -5852.57795 -5846.91035 -5846.90137 -5845.93677 -5838.59011 -5830.52014 -5827.57698 -5820.71637 -5808.70908 -5799.53871 -5787.72020 -5777.60270 -5766.04643 -5755.45012 -5744.20134 -5736.07396 -5728.99184 -5713.28387 -5703.31909 -5695.70835 -5681.69987 -5663.76511 -5650.98074 -5635.18017 -5616.62837 -5600.07486 -5580.38175 -5575.56941 -5573.03238 -5574.88246 -5584.53101 -5594.89829 -5619.82298 -5647.74546 -5674.55955 -5707.05351 -5718.68121 -5733.35216 -5715.44215 -5503.39483 -4847.98032 -3769.73975 -2483.59970 -2012.24184 -1815.79031 -2066.01827 -2180.14315 -1919.90779 -1633.25320 -1758.51056 -2348.66215 -3167.05650 -3863.97552 -3814.57655 -3177.08090 -2273.65654 -2093.90728 -2353.68348 -2589.84151 -3360.52058 -2791.56534 -2732.68040 -1758.60750 363.70391 382.52036 -62.77104 -1463.98423 -1998.55722 -2180.20620 -2164.94420 -2162.18964 -2452.44700 -2697.35604 -2659.32588 -3427.12719 -3822.21745 -3831.64974 -4242.81608 -4242.88594 -4233.84741 -4209.70844 -4167.57091 -4152.74703 -4112.62984 -4074.39819 -4013.57595 -4008.07424 -3938.00674 -3879.55544 -3827.05818 -3790.93879 -3775.26421 -3753.33357 -3704.06621 -3657.39727 -3600.54046 -3543.86619 -3493.65199 -3450.04226 -3389.80022 -3344.30982 -3320.39997 -3306.53819 -3310.58675 -3338.82433 -3390.95746 -3449.83061 -3560.57867 -3610.20979 -3593.09965 -3550.22799 -3535.75337 -3524.28769 -3507.12338 -3505.88895 -3507.49663 -3498.94040 -3498.29464 -3488.93033 -3479.94407 -3466.08966 -3431.27042 -3400.75144 -3384.92062 -3357.05346 -3343.58866 -3328.73780 -3320.32714 -3311.32802 -3306.33295 -3302.18119 -3300.31359 -3299.94908 -3299.31377 -3302.07131 -3304.25014 -3305.89941 -3309.50324 -3312.89027 -3316.83222 -3316.93222
-5841.16321 -5841.06321 -5836.92346 -5833.65220 -5832.73376 -5826.07886 -5824.81814 -5822.47388 -5815.82223 -5812.26484 -5803.58201 -5789.26364 -5780.03026 -5769.70216 -5758.73784 -5747.88495 -5736.44183 -5726.52535 -5717.26491 -5705.66474 -5694.78831 -5685.36469 -5673.33946 -5657.76315 -5636.95577 -5626.49282 -5608.71509 -5585.95103 -5576.26467 -5563.70319 -5554.53197 -5556.50212 -5564.77946 -5578.27722 -5606.44119 -5611.82451 -5647.91342 -5681.93632 -5707.39371 -5727.41879 -5688.55550 -5191.66477 -4867.25849 -3146.52019 -2343.98350 -2162.46175 -2479.90274 -2809.69965 -3156.79677 -2962.52012 -2224.21054 -1962.80929 -2547.61355 -3346.38294 -4361.14210 -4383.68807 -3991.00040 -3419.43491 -3336.66599 -3727.29663 -3973.67981 -4185.23022 -4296.02097 -4058.06272 -3390.23335 -2402.87704 -2361.70961 -1886.79479 -2853.64467 -2867.85773 -3186.08090 -2809.00696 -2987.65619 -3422.67616 -3508.05017 -3715.30934 -4056.90459 -4215.56365 -4245.39620 -4236.20612 -4232.87510 -4217.72654 -4183.34746 -4153.30806 -4108.09106 -4081.61840 -4034.78917 -3989.48508 -3945.09048 -3905.31762 -3877.72745 -3837.30624 -3817.16980 -3784.44296 -3753.73764 -3697.48619 -3651.90684 -3596.05082 -3544.93669 -3493.70402 -3454.21604 -3398.89393 -3361.90028 -3332.95104 -3337.22627 -3358.78167 -3394.13478 -3445.32732 -3523.29467 -3608.36874 -3638.69601 -3613.17719 -3569.77587 -3534.62806 -3515.41263 -3495.87248 -3491.33944 -3487.87037 -3488.89508 -3484.07702 -3473.37567 -3465.81518 -3456.33395 -3417.89885 -3388.58373 -3368.83951 -3347.78451 -3335.44774 -3326.45525 -3316.98756 -3310.97875 -3305.61064 -3303.26426 -3301.63370 -3302.41638 -3304.70961 -3305.64289 -3308.92558 -3312.28809 -3317.54278 -3319.13441 -3323.79028 -3323.89028
-5827.62898 -5827.52898 -5824.44214 -5824.35622 -5821.57377 -5818.92108 -5819.34206 -5815.45226 -5806.59671 -5800.74818 -5795.24911 -5784.77893 -5778.81862 -5763.94147 -5752.09483 -5740.98861 -5729.09966 -5718.30077 -5709.20391 -5698.23988 -5690.79109 -5677.52709 -5665.32776 -5645.77145 -5634.07613 -5614.61762 -5599.40638 -5578.83935 -5561.41117 -5549.70374 -5542.56070 -5541.86429 -5547.89623 -5552.93063 -5579.70127 -5599.61662 -5617.48504 -5657.40209 -5692.41994 -5698.68488 -5603.72876 -5060.88274 -4466.39533 -3237.07903 -2754.29604 -3007.83110 -3475.68478 -3895.89582 -4044.44951 -4055.27644 -3025.36752 -2327.76788 -2689.32252 -3391.81197 -4520.91075 -4780.18882 -4681.99361 -4493.23280 -4437.41658 -4539.48840 -4674.77757 -4772.57567 -4771.50450 -4611.44758 -4581.28781 -4324.08507 -4254.68028 -4520.75135 -4420.16930 -4112.95214 -3882.80299 -4216.92973 -4076.59053 -3990.63668 -4089.01955 -4203.58679 -4244.90010 -4271.23074 -4249.46144 -4229.43344 -4204.16163 -4182.50722 -4164.74744 -4119.09901 -4080.04566 -4049.04813 -4014.46178 -3968.23664 -3954.33024 -3928.85917 -3894.43011 -3850.52632 -3825.29062 -3794.87774 -3737.88670 -3698.68437 -3646.32742 -3588.98239 -3545.37009 -3500.01823 -3448.18264 -3405.28054 -3371.37790 -3351.86609 -3362.58284 -3386.87961 -3424.58540 -3485.84140 -3573.13816 -3619.35791 -3677.61975 -3614.07260 -3580.63035 -3533.46118 -3501.14352 -3487.12495 -3475.13133 -3474.60889 -3474.06973 -3463.17035 -3452.56175 -3454.24293 -3438.25159 -3402.85741 -3380.27306 -3351.91078 -3340.17370 -3330.99442 -3321.02539 -3316.46777 -3309.81360 -3307.78798 -3305.74747 -3307.31619 -3306.14971 -3308.14306 -3311.10758 -3314.87909 -3320.47376 -3324.18646 -3326.57785 -3330.94078 -3331.04078
-5816.17135 -5816.07135 -5814.41816 -5812.42825 -5811.72635 -5810.56207 -5806.97096 -5805.70425 -5801.95449 -5795.66912 -5791.24824 -5779.86606 -5770.19521 -5755.41349 -5746.03083 -5739.21957 -5723.63959 -5711.39741 -5703.20856 -5689.21731 -5681.74596 -5671.99956 -5656.35941 -5639.00907 -5628.66238 -5605.82476 -5582.12748 -5571.40516 -5549.87399 -5539.81826 -5531.75392 -5528.04641 -5526.72024 -5539.81150 -5552.25401 -5577.13383 -5606.81147 -5626.97225 -5666.77972 -5675.37527 -5557.88774 -5276.17709 -4371.18974 -3638.47873 -3376.51077 -4072.32616 -4468.40436 -4788.89654 -4977.24580 -4607.39837 -4402.35208 -3424.89270 -3126.66764 -3681.89024 -4276.74766 -4730.22520 -4773.31835 -4774.67648 -4775.95886 -4803.11629 -4791.98261 -4796.56180 -4791.86895 -4762.37375 -4680.38078 -4670.40837 -4639.44933 -4599.08927 -4532.28477 -4443.54058 -4338.67874 -4340.61444 -4280.69288 -4343.98760 -4333.81271 -4320.63839 -4300.40253 -4278.65932 -4251.12636 -4226.59312 -4205.71559 -4173.35777 -4143.01884 -4104.38068 -4071.33017 -4046.12195 -4002.60108 -3969.47039 -3950.01294 -3933.52799 -3902.06909 -3871.48662 -3812.46985 -3770.13615 -3717.57340 -3674.28009 -3636.97007 -3593.86150 -3544.13057 -3497.19249 -3455.50730 -3422.26614 -3382.45379 -3378.87156 -3389.05372 -3428.53334 -3452.76811 -3529.99039 -3596.36872 -3679.90395 -3682.36851 -3623.47401 -3575.54657 -3518.69397 -3484.44306 -3461.98710 -3452.40675 -3451.67594 -3451.80702 -3448.07598 -3445.04144 -3438.83206 -3410.08023 -3384.16747 -3361.74878 -3349.07799 -3339.53683 -3327.14801 -3321.64085 -3314.78448 -3311.51588 -3309.05995 -3309.41366 -3312.22497 -3313.39582 -3317.42349 -3317.74034 -3320.13800 -3325.44363 -3328.54279 -3334.67644 -3338.20353 -3338.30353
